109.292854309082 -71.813835144043 -159.287582397461 2.593444585800
10.366931915283 -70.490356445313 -156.991516113281 2.250783443451
3.618088960648 -71.041694641113 -160.849456787109 0.665811479092
19.555322647095 -70.454933166504 -154.806869506836 3.017110109329
25.986581802368 -69.935508728027 -155.217651367188 1.957343459129
109.052581787109 -71.451812744141 -165.284881591797 2.359620571136
109.854980468750 -74.891883850098 -167.395858764648 1.309293866158
24.260866165161 -68.476310729980 -173.932739257813 2.495032310486
25.284383773804 -73.172180175781 -163.392913818359 1.308592557907
112.561370849609 -70.030624389648 -161.639648437500 2.022914648056
-28.799983978271 -69.431488037109 -176.674758911133 1.522947311401
110.523323059082 -72.074234008789 -167.418411254883 2.242578983307
17.840805053711 -71.536056518555 -167.152343750000 1.869393348694
21.940773010254 -70.964401245117 -167.277740478516 1.792602777481
108.849800109863 -71.977653503418 -172.510101318359 1.919884443283
27.062881469727 -70.255943298340 -169.930770874023 1.270938277245
112.602897644043 -71.065658569336 -183.358612060547 2.674576044083
-37.969951629639 -69.819015502930 -177.188995361328 2.607357501984
25.432838439941 -70.680305480957 -170.657470703125 0.686163067818
107.798400878906 -71.543014526367 -183.507141113281 1.146708130836
23.407421112061 -71.963623046875 -178.121353149414 1.372003078461
-151.545486450195 -67.918144226074 -185.831329345703 2.633980512619
-27.890523910522 -67.509025573730 -188.808364868164 1.975293278694
24.917047500610 -68.900260925293 -184.438796997070 1.729976534843
-113.472496032715 -71.021034240723 -191.279251098633 2.476139068604
-110.535408020020 -67.272720336914 -190.712219238281 1.739635109901
24.079893112183 -71.424171447754 -188.084808349609 0.312070548534
11.995624542236 -68.956520080566 -184.553390502930 4.428621292114
-26.567560195923 -67.878555297852 -189.699401855469 1.216333746910
-29.368133544922 -74.145195007324 -188.724288940430 2.283982038498
-27.704769134521 -70.754089355469 -186.682250976563 1.717863559723
15.136842727661 -68.894065856934 -179.511322021484 2.139466285706
-150.552200317383 -69.184341430664 -194.440658569336 1.883916258812
-145.048309326172 -68.939186096191 -192.216171264648 2.283524513245
-144.118118286133 -72.098220825195 -197.713775634766 1.315825700760
-22.607360839844 -69.482208251953 -190.882614135742 1.983881950378
13.961251258850 -68.533592224121 -199.096527099609 1.921555280685
99.166023254395 -70.673500061035 -192.990814208984 1.944411039352
-113.418739318848 -68.402732849121 -197.747344970703 2.338184595108
21.536094665527 -73.959457397461 -197.932037353516 0.713377237320
-15.010338783264 -69.392707824707 -195.060974121094 1.620427846909
-17.416879653931 -69.753509521484 -198.233856201172 1.232392907143
101.270660400391 -70.311897277832 -199.187133789063 2.482644557953
8.212714195251 -72.454345703125 -198.836349487305 2.561842203140
-21.654483795166 -68.663932800293 -195.988311767578 1.008249759674
-121.079185485840 -72.289131164551 -202.508895874023 0.441113829613
-133.889938354492 -69.403686523438 -202.685684204102 2.219105482101
-113.754936218262 -65.090240478516 -204.326751708984 2.042557954788
-141.905273437500 -71.922096252441 -202.784790039063 0.647548556328
17.813053131104 -70.326606750488 -197.312698364258 1.102571129799
94.097358703613 -72.587440490723 -201.523773193359 1.544069409370
-165.595932006836 -64.564613342285 -200.792922973633 2.143137216568
100.296104431152 -71.064682006836 -201.855880737305 1.215794086456
-21.379081726074 -73.835067749023 -205.605499267578 2.978101253510
94.904418945313 -69.285896301270 -210.214508056641 2.216334104538
88.339477539063 -72.629562377930 -211.208602905273 0.765746355057
12.409703254700 -72.235343933105 -205.562118530273 3.074348211288
20.057128906250 -70.027145385742 -211.586273193359 2.062606096268
13.147494316101 -67.780082702637 -207.422439575195 2.146018981934
-10.600797653198 -70.574569702148 -221.968963623047 1.573484420776
-94.168762207031 -71.395782470703 -218.072982788086 2.382942199707
-10.174139022827 -72.336807250977 -211.863464355469 0.571008384228
89.332328796387 -71.432701110840 -216.010681152344 1.505553841591
-93.290122985840 -71.614295959473 -217.153015136719 1.758986711502
-100.853897094727 -67.186256408691 -220.655258178711 1.316314339638
-94.182365417480 -70.112747192383 -218.967376708984 2.012162446976
88.487792968750 -72.745399475098 -221.687774658203 2.014612197876
-135.034042358398 -69.478973388672 -224.579406738281 1.841204404831
-132.219985961914 -72.917907714844 -226.164489746094 1.272709369659
-116.392486572266 -69.135375976563 -224.264801025391 2.329635143280
-112.826103210449 -66.697608947754 -222.623138427734 3.478069543839
-133.075485229492 -67.668212890625 -226.621444702148 0.673518896103
-111.502120971680 -75.804107666016 -226.996749877930 3.593555450439
-111.949340820313 -69.129127502441 -227.509658813477 1.689038395882
-6.629457950592 -73.465034484863 -224.251251220703 3.115455150604
-15.695693016052 -72.437057495117 -222.763977050781 0.422870159149
-0.699209988117 -68.393058776855 -230.043136596680 1.349260449409
-9.874898910522 -67.478706359863 -226.580230712891 2.546589374542
15.640054702759 -71.206497192383 -233.156188964844 0.753278732300
-18.582101821899 -68.523368835449 -228.709777832031 1.684562206268
-166.565673828125 -67.232032775879 -221.656402587891 1.294527888298
-3.851450920105 -70.269912719727 -233.079421997070 2.098960161209
81.094985961914 -68.352348327637 -230.910690307617 3.658587217331
11.208741188049 -72.187019348145 -233.298843383789 2.437840461731
-5.633923053741 -69.563415527344 -234.387069702148 0.600815415382
-156.595672607422 -66.616790771484 -235.891723632813 1.187225461006
-142.016220092773 -67.579917907715 -229.820663452148 2.193053722382
62.859569549561 -69.680198669434 -235.599090576172 1.488672614098
-5.408021926880 -71.203125000000 -233.737533569336 1.237892389297
9.553722381592 -72.457534790039 -230.370681762695 2.190971136093
69.676467895508 -73.180099487305 -230.012039184570 2.072893857956
77.215499877930 -71.479705810547 -234.041366577148 3.000219345093
71.281120300293 -72.100448608398 -241.103775024414 2.134421110153
-1.340515971184 -73.076812744141 -235.331542968750 1.292222619057
58.313770294189 -69.250877380371 -237.656311035156 3.321732521057
-18.786478042603 -72.642028808594 -239.335510253906 2.062718629837
-15.003931999207 -67.891448974609 -239.972412109375 1.921819925308
8.480921745300 -70.294906616211 -238.988311767578 1.187123417854
65.012695312500 -74.080833435059 -237.633636474609 2.178654909134
65.705841064453 -69.489089965820 -240.371154785156 1.663543939590
49.861068725586 -70.973266601563 -245.822402954102 2.802947282791
61.358627319336 -73.950241088867 -242.465103149414 1.237425327301
-15.325672149658 -74.483261108398 -249.279190063477 3.289831638336
-83.347290039063 -66.874061584473 -253.648330688477 2.756172895432
-76.602684020996 -67.513824462891 -252.422744750977 2.596773624420
44.484012603760 -73.448455810547 -247.484512329102 3.226427793503
-148.903137207031 -69.930358886719 -250.053527832031 2.347748279572
36.242050170898 -70.571746826172 -255.902526855469 2.473347902298
-91.836906433105 -72.793350219727 -251.392028808594 1.202117562294
-155.992080688477 -65.074279785156 -254.042221069336 1.339825272560
-140.047317504883 -62.852680206299 -252.672164916992 3.303730249405
45.407299041748 -70.514144897461 -253.201904296875 1.231094717979
-124.730743408203 -65.220191955566 -257.263427734375 0.787406206131
-116.653694152832 -69.337829589844 -254.777862548828 1.091580629349
-92.109321594238 -65.417694091797 -256.524017333984 1.494863271713
-13.434382438660 -66.984504699707 -249.961380004883 2.654326915741
32.109294891357 -70.219978332520 -256.868133544922 1.197447299957
25.196641921997 -67.921798706055 -259.101501464844 1.970790743828
-158.708389282227 -64.315826416016 -259.642547607422 3.793776988983
-114.554832458496 -71.648757934570 -262.115814208984 1.662967085838
-13.701149940491 -69.714675903320 -261.535797119141 1.308714747429
-132.581100463867 -68.627815246582 -264.776885986328 2.679347038269
-13.924257278442 -68.743820190430 -269.887390136719 1.644317507744
-164.695510864258 -67.702033996582 -271.856781005859 3.051674365997
-7.144022941589 -70.896850585938 -279.081665039063 2.701357841492
-160.735534667969 -68.694625854492 -287.148071289063 0.847564816475
-163.714096069336 -70.224800109863 -277.240783691406 1.649593472481
-142.466323852539 -68.788772583008 -284.585662841797 2.225356817245
-170.051147460938 -70.232841491699 -283.999450683594 3.147196054459
14.149847030640 -72.282272338867 -287.626770019531 0.996333122253
-103.043174743652 -69.950462341309 -285.996368408203 2.729929447174
-87.026741027832 -65.087677001953 -285.448699951172 3.879551649094
-167.624160766602 -65.595352172852 -283.896667480469 4.627310752869
-91.932846069336 -72.876792907715 -283.489532470703 4.437352180481
-153.600265502930 -68.892097473145 -287.838897705078 0.717686712742
-75.381233215332 -70.078651428223 -293.119079589844 2.551730155945
-70.521278381348 -68.586013793945 -288.218627929688 2.365194320679
-82.442893981934 -70.125572204590 -290.806610107422 1.187214612961
-3.580348014832 -67.362983703613 -288.539855957031 1.924522995949
-87.924476623535 -69.044326782227 -288.115844726563 2.354943513870
-98.920463562012 -70.343620300293 -290.397216796875 1.164699912071
-116.583595275879 -69.104141235352 -292.096221923828 1.448276281357
-116.479049682617 -66.148017883301 -292.216278076172 1.839912891388
-134.090408325195 -67.999816894531 -291.599914550781 2.183618545532
-142.754684448242 -68.708000183105 -300.187744140625 2.610867977142
-144.213211059570 -69.850654602051 -311.138092041016 2.046923875809
24.601013183594 -69.684906005859 -14.736662864685 3.816997766495
33.029262542725 -70.963539123535 -16.010366439819 2.076185226440
30.036218643188 -73.556198120117 -17.873653411865 1.392062425613
44.872238159180 -69.781150817871 -20.187276840210 2.672547101974
25.589632034302 -71.347869873047 -31.249156951904 1.663274884224
-74.223548889160 -68.516242980957 -46.479133605957 0.633685290813
90.374946594238 -67.587158203125 -65.143341064453 2.110956907272
-16.962991714478 -68.848144531250 -67.045875549316 1.369007229805
103.283172607422 -70.756874084473 -72.551773071289 2.075144052505
95.694686889648 -75.472969055176 -75.282554626465 2.631760120392
69.137077331543 -72.823333740234 -78.114746093750 2.080868721008
70.859191894531 -74.654350280762 -82.249382019043 0.843902885914
-44.076663970947 -73.487388610840 -81.925262451172 1.791574239731
61.762905120850 -74.627845764160 -82.016845703125 5.217431068420
-93.812179565430 -70.096931457520 -87.718719482422 3.245317935944
-48.574436187744 -67.989326477051 -84.697418212891 1.489975690842
-55.337749481201 -76.722953796387 -87.050865173340 3.745288610458
101.552223205566 -76.985107421875 -97.239921569824 4.006320953369
59.796573638916 -74.354492187500 -91.870414733887 0.720816016197
66.501708984375 -70.639900207520 -90.606567382813 2.357890844345
-95.070938110352 -64.368682861328 -96.281509399414 2.208825111389
108.455642700195 -73.159858703613 -92.731613159180 4.473410129547
44.710853576660 -69.794052124023 -98.504341125488 2.012212753296
102.021575927734 -71.386528015137 -97.738517761230 1.223157763481
107.365859985352 -69.603523254395 -105.611122131348 1.971276998520
101.871582031250 -71.933219909668 -104.165138244629 1.433896899223
74.450744628906 -73.553848266602 -100.314857482910 1.684868812561
87.879241943359 -73.493217468262 -106.161437988281 4.365210533142
50.602981567383 -70.840751647949 -110.760643005371 1.652607083321
111.258697509766 -69.573791503906 -103.214469909668 1.339485883713
46.778427124023 -73.595153808594 -104.999008178711 3.450115680695
41.179496765137 -69.181091308594 -101.110671997070 2.032551050186
113.343017578125 -72.069183349609 -109.986541748047 0.692999720573
-77.922302246094 -66.969703674316 -109.029708862305 1.447773218155
46.696636199951 -70.173301696777 -112.417968750000 2.244058847427
35.325046539307 -72.761932373047 -114.605079650879 2.739679574966
106.080787658691 -69.347343444824 -109.700912475586 2.244508981705
40.025745391846 -68.132225036621 -111.030662536621 2.472499132156
-87.470809936523 -69.021438598633 -112.228370666504 1.429187893867
-94.950828552246 -66.451911926270 -114.137741088867 4.044181346893
104.608726501465 -74.640373229980 -118.760978698730 3.011433362961
-94.202560424805 -70.592880249023 -117.981285095215 2.017457008362
39.533702850342 -72.822212219238 -120.813285827637 3.185636520386
37.553455352783 -70.488609313965 -120.291183471680 0.463117510080
-82.832366943359 -68.979583740234 -123.559082031250 2.415728092194
32.987743377686 -68.875267028809 -134.195571899414 2.491320133209
111.427024841309 -72.839073181152 -130.845062255859 1.676050305367
-52.053882598877 -69.307876586914 -135.429458618164 1.718299150467
-87.650871276855 -68.055381774902 -130.965835571289 0.627479672432
38.490493774414 -73.901039123535 -131.187911987305 1.887266159058
-88.473487854004 -64.977096557617 -135.184524536133 1.908969044685
-88.344917297363 -71.170761108398 -138.948028564453 3.477038860321
-49.093219757080 -70.766708374023 -136.185989379883 1.009350895882
-70.252731323242 -67.507415771484 -138.856536865234 2.570482730865
-50.103183746338 -68.650489807129 -132.831710815430 1.797280311584
116.028350830078 -68.917861938477 -137.164779663086 2.859989643097
-72.656509399414 -70.700645446777 -136.148513793945 2.255601644516
37.105201721191 -70.987350463867 -130.810317993164 2.109296798706
-78.096275329590 -68.128128051758 -139.464004516602 0.792036592960
-72.738601684570 -68.973815917969 -135.094009399414 0.659217000008
-90.779052734375 -67.041275024414 -139.439895629883 0.734008431435
-53.269134521484 -67.343513488770 -146.399917602539 2.386835098267
32.059005737305 -66.671501159668 -145.276535034180 2.804442644119
28.120750427246 -68.681694030762 -149.017288208008 1.225452542305
19.775779724121 -65.774322509766 -143.809509277344 1.872651576996
113.408546447754 -70.774803161621 -145.921081542969 2.460488557816
-92.910537719727 -67.391563415527 -151.781524658203 1.057899832726
13.563221931458 -71.642814636230 -151.884994506836 1.503337025642
-71.343650817871 -68.548439025879 -152.654098510742 1.627972245216
24.061872482300 -69.349822998047 -149.263595581055 1.708951115608
-48.571216583252 -68.323936462402 -154.793594360352 2.974015235901
10.162005424500 -68.739555358887 -152.721237182617 1.895905733109
15.657548904419 -72.409439086914 -157.895645141602 0.840245783329
18.322704315186 -74.223754882813 -163.402557373047 1.365118265152
-48.355743408203 -71.183090209961 -161.940963745117 1.415282249451
-38.591670989990 -68.484893798828 -154.235366821289 2.522970438004
-45.803211212158 -69.645408630371 -160.421096801758 0.801609575748
-103.124519348145 -69.040779113770 -171.228363037109 1.301379442215
22.288410186768 -71.041183471680 -173.552536010742 2.779448986053
-34.207008361816 -69.076568603516 -175.368637084961 0.559315264225
15.958192825317 -73.502868652344 -177.815078735352 1.953928351402
-143.078826904297 -68.052162170410 -174.962539672852 1.175027728081
-31.650987625122 -66.467071533203 -172.217819213867 0.996561050415
-154.511230468750 -72.323013305664 -177.040908813477 2.063127517700
24.012163162231 -65.845130920410 -181.306167602539 3.755463838577
-32.378753662109 -70.336944580078 -170.896652221680 2.526481389999
-107.111015319824 -66.820274353027 -176.965820312500 2.298760890961
-106.622482299805 -72.414360046387 -182.834381103516 3.190368413925
-29.422706604004 -65.031654357910 -184.621871948242 3.103724956512
-23.119512557983 -73.233322143555 -181.220352172852 1.937913060188
14.512663841248 -68.826843261719 -188.778076171875 2.652984142303
17.509140014648 -67.393058776855 -196.719024658203 2.123839855194
14.391316413879 -69.661445617676 -186.462966918945 2.296289443970
-142.324249267578 -66.967849731445 -186.695175170898 0.711999416351
22.128105163574 -66.502548217773 -189.446777343750 3.137574672699
8.064834594727 -69.470634460449 -196.240570068359 2.133355855942
-136.564468383789 -66.537673950195 -193.667297363281 2.148138284683
-113.820121765137 -67.895721435547 -194.696411132813 2.565205335617
15.415214538574 -68.088066101074 -200.695343017578 1.789853811264
-115.836044311523 -67.133392333984 -196.066772460938 0.777946710587
-107.206047058105 -63.730503082275 -191.446029663086 3.664682626724
-164.832031250000 -68.907073974609 -199.306335449219 1.624873161316
-23.792932510376 -68.209663391113 -199.461486816406 2.380455493927
13.425867080688 -68.173591613770 -199.754501342773 2.082228422165
-142.485702514648 -68.099716186523 -203.202117919922 1.200713992119
-135.307861328125 -69.738037109375 -205.628204345703 2.685404300690
-19.595891952515 -67.571647644043 -206.748687744141 1.207747101784
-11.418360710144 -70.364097595215 -204.028503417969 1.088289618492
-14.288227081299 -69.863235473633 -205.422607421875 0.878926098347
-140.346145629883 -71.047096252441 -203.712051391602 2.246561288834
-16.049310684204 -69.516517639160 -212.382888793945 1.404330015182
-10.022644996643 -72.827171325684 -213.791168212891 1.627184510231
18.068889617920 -67.132781982422 -210.525772094727 0.980407416821
-14.401119232178 -72.493423461914 -210.990463256836 1.773783802986
10.983159065247 -69.775291442871 -209.578643798828 2.017500638962
-9.905654907227 -70.133102416992 -215.096481323242 1.792624235153
-20.477476119995 -66.667839050293 -211.442672729492 4.011888504028
13.117835998535 -73.784446716309 -220.556304931641 2.454418182373
-1.131101965904 -74.065849304199 -219.321212768555 2.584442615509
11.729186058044 -66.158081054688 -220.712127685547 1.953644037247
-5.574173927307 -71.204147338867 -226.410842895508 0.957371711731
-158.306365966797 -68.195037841797 -224.593292236328 1.373214244843
81.304763793945 -72.458923339844 -219.779525756836 2.193226099014
-134.742431640625 -66.030334472656 -223.680816650391 2.330634355545
-134.545059204102 -69.489212036133 -222.487030029297 1.785190224648
-7.921290874481 -69.969352722168 -224.758773803711 1.910466194153
9.042265892029 -69.224143981934 -233.382446289063 1.700228571892
-156.402877807617 -67.263290405273 -228.854019165039 2.141327381134
88.553993225098 -69.036537170410 -219.679656982422 1.758454918861
-1.646533012390 -68.175079345703 -225.276763916016 1.368537425995
1.122380971909 -70.042457580566 -222.525604248047 1.259483814240
74.485153198242 -72.687881469727 -229.034698486328 0.612680077553
1.135274052620 -67.164321899414 -234.400756835938 0.823529124260
-14.240462303162 -71.030998229980 -226.681427001953 2.264331579208
-125.994323730469 -66.374565124512 -233.675338745117 0.587451994419
-3.773916006088 -68.978309631348 -236.433212280273 1.680400967598
2.981523990631 -67.223342895508 -231.515548706055 1.852068424225
66.538978576660 -68.174720764160 -237.928009033203 1.898384213448
-157.759994506836 -68.738586425781 -237.594116210938 1.537960886955
-12.006649971008 -68.579063415527 -244.237182617188 1.823808312416
-168.618911743164 -69.625785827637 -238.163925170898 2.133112192154
10.370347023010 -66.729537963867 -241.637237548828 1.861797451973
-164.090957641602 -68.185211181641 -238.336212158203 1.537821292877
-160.295425415039 -68.787857055664 -245.462615966797 1.096979975700
57.508945465088 -69.781295776367 -244.902328491211 0.924412190914
62.738391876221 -71.233787536621 -242.340988159180 2.035178661346
56.626365661621 -70.369201660156 -244.153091430664 1.377487182617
52.213516235352 -69.696998596191 -248.596221923828 0.837963998318
-154.967178344727 -68.262878417969 -243.414489746094 2.670743942261
-156.015609741211 -65.202423095703 -247.827255249023 4.557499885559
-12.909371376038 -71.839866638184 -248.992141723633 1.029445528984
-150.909194946289 -67.157325744629 -246.126312255859 1.855785012245
20.097560882568 -70.808738708496 -250.831176757813 1.384529829025
-169.313293457031 -71.826522827148 -250.481185913086 3.001802682877
-167.132522583008 -65.757621765137 -247.712005615234 2.467672824860
-81.688865661621 -69.703987121582 -248.400772094727 0.789538025856
-169.002395629883 -66.904739379883 -259.211578369141 3.037725448608
-84.948074340820 -67.835601806641 -256.221496582031 2.670189857483
42.985874176025 -68.824768066406 -252.885299682617 2.046689987183
22.666845321655 -72.662742614746 -255.933685302734 1.264276385307
-158.258346557617 -68.167037963867 -261.291931152344 2.334427118301
-100.347549438477 -62.694046020508 -259.086517333984 2.346236944199
39.686157226563 -69.823043823242 -255.429199218750 1.572387099266
-104.476348876953 -74.107955932617 -258.585418701172 1.690723061562
-153.645187377930 -63.277648925781 -264.345825195313 1.885125279427
-104.765098571777 -66.975677490234 -257.991088867188 3.013166427612
-167.445648193359 -69.198165893555 -259.080413818359 1.091200113297
-112.709114074707 -68.922691345215 -262.835601806641 3.582280397415
-152.900390625000 -69.497009277344 -265.214447021484 1.866597294807
-158.145126342773 -65.876014709473 -262.996490478516 2.885730028152
-165.637207031250 -66.703666687012 -263.197845458984 0.915976107121
-163.645172119141 -65.703071594238 -261.743530273438 2.130958795547
-165.311737060547 -67.339744567871 -265.162719726563 2.414932966232
-165.311721801758 -67.949966430664 -262.147277832031 1.074390769005
26.179643630981 -70.649665832520 -264.943115234375 0.826442122459
-149.463104248047 -70.721389770508 -263.152313232422 2.975728511810
-149.417098999023 -66.989334106445 -283.671295166016 2.275184392929
25.103458404541 -70.209060668945 -276.105194091797 2.766111373901
-11.297354698181 -70.615440368652 -274.104309082031 2.121115207672
-125.434226989746 -66.445487976074 -283.897613525391 3.485972881317
-136.004196166992 -68.524002075195 -285.582214355469 2.615635156631
-134.102081298828 -66.603858947754 -288.006958007813 2.033903598785
-126.505874633789 -68.248817443848 -285.415771484375 1.478054761887
-114.005218505859 -66.656356811523 -289.416870117188 2.248556375504
-104.942398071289 -64.607032775879 -285.074645996094 3.628983259201
9.608732223511 -71.888778686523 -292.128692626953 3.440952539444
-84.669609069824 -68.813362121582 -289.509094238281 2.301579236984
-148.780975341797 -68.068870544434 -287.825897216797 1.621252417564
-101.383705139160 -68.113700866699 -290.274108886719 0.633475780487
-128.905059814453 -65.216644287109 -291.383453369141 2.505356073380
9.915144920349 -71.616157531738 -287.847747802734 2.056520223618
-111.655082702637 -62.859352111816 -288.595153808594 5.090878963470
3.226843118668 -69.310958862305 -292.828765869141 1.790450811386
-142.865814208984 -67.056442260742 -288.285095214844 2.042794942856
-152.660110473633 -67.884147644043 -295.432617187500 1.212689280510
-157.735733032227 -66.811431884766 -313.609283447266 3.620445251465
-154.937042236328 -66.457237243652 -311.298889160156 3.991800546646
48.658679962158 -73.175674438477 -24.260898590088 2.433480024338
24.111642837524 -70.925178527832 -35.051242828369 1.788729786873
31.606361389160 -71.889656066895 -36.192329406738 1.918222784996
-44.140563964844 -71.847251892090 -46.949771881104 3.875131368637
-11.951157569885 -68.261650085449 -61.720729827881 2.404879093170
95.008186340332 -72.285079956055 -68.081756591797 2.841355085373
69.408973693848 -66.849700927734 -69.208686828613 0.417617678642
-23.511312484741 -69.753623962402 -73.892601013184 1.219043135643
-97.405189514160 -72.715782165527 -85.768768310547 1.434796571732
-41.839603424072 -69.599258422852 -82.012413024902 2.299802064896
62.209335327148 -69.943916320801 -81.060798645020 2.112659215927
62.843208312988 -72.971740722656 -85.592781066895 1.469973921776
54.138904571533 -68.315093994141 -87.166091918945 1.988670110703
-58.258987426758 -68.158645629883 -89.717086791992 1.423059344292
67.480979919434 -66.942436218262 -88.899772644043 0.503625750542
44.259689331055 -73.433868408203 -97.490234375000 0.488897949457
69.081314086914 -72.164482116699 -94.313583374023 3.351298332214
-61.628562927246 -67.359115600586 -95.416221618652 3.410988092422
50.750919342041 -72.208290100098 -92.787033081055 1.273648858070
46.283576965332 -71.893142700195 -97.983840942383 0.383556097746
103.964591979980 -68.192832946777 -100.196166992188 1.247591614723
-65.882110595703 -68.954101562500 -98.261764526367 1.138450264931
111.204559326172 -70.368072509766 -100.032173156738 2.443032741547
-78.434768676758 -70.873939514160 -100.484115600586 1.486974835396
55.074661254883 -72.841224670410 -104.581855773926 2.465455055237
48.624061584473 -68.544143676758 -100.270309448242 1.349051952362
92.447257995605 -68.958488464355 -103.439704895020 1.900317072868
85.103370666504 -69.109207153320 -106.252479553223 0.215043559670
55.403652191162 -70.183441162109 -104.126029968262 0.412542223930
-75.714019775391 -69.382667541504 -110.426948547363 1.223852396011
-76.225341796875 -67.978050231934 -114.272384643555 2.075371980667
-79.811958312988 -69.860984802246 -117.683685302734 1.965119004250
-92.645988464355 -73.135169982910 -117.802017211914 1.945374488831
105.518768310547 -65.773551940918 -116.111389160156 1.412307262421
-87.829933166504 -70.851203918457 -118.338485717773 2.382483959198
-76.070213317871 -65.166709899902 -120.561927795410 2.286012411118
110.137756347656 -69.514587402344 -115.668563842773 1.987445712090
-60.941486358643 -61.635864257813 -117.356613159180 1.749236464500
114.249603271484 -73.891487121582 -131.089523315430 1.515679359436
110.604446411133 -71.946151733398 -129.054992675781 1.850448131561
107.848587036133 -71.587287902832 -125.429595947266 1.845750689507
-92.889289855957 -68.804222106934 -137.064498901367 2.451464414597
-46.475322723389 -68.744903564453 -141.156814575195 2.409480810165
-78.572227478027 -66.470886230469 -143.779220581055 3.770045995712
-68.777076721191 -68.511680603027 -148.299575805664 1.565679430962
-69.698463439941 -67.149032592773 -147.247955322266 1.459842681885
-54.600185394287 -68.041435241699 -142.962493896484 1.587968349457
-46.423255920410 -72.377006530762 -145.372451782227 1.856410503387
16.942380905151 -69.493209838867 -145.848571777344 2.256969928741
-93.557785034180 -65.350494384766 -142.140563964844 1.883167982101
-45.144344329834 -67.381675720215 -146.616622924805 2.497881174088
-51.547317504883 -62.939853668213 -146.969116210938 5.279881000519
-41.537555694580 -66.988159179688 -154.194366455078 1.485136628151
28.042381286621 -71.499343872070 -161.362518310547 1.256315708160
-49.489864349365 -68.991188049316 -150.321426391602 1.782650232315
-99.840332031250 -64.235458374023 -148.702865600586 0.472125917673
-44.763809204102 -65.904991149902 -156.142272949219 2.889617443085
26.249866485596 -71.372550964355 -147.639770507813 0.793758392334
-98.047637939453 -72.784667968750 -162.321258544922 4.232865333557
23.240539550781 -71.358703613281 -157.128768920898 2.549597740173
-107.105911254883 -65.327087402344 -169.086166381836 0.704945862293
-100.540153503418 -68.308677673340 -162.939651489258 2.206341266632
22.733106613159 -69.154251098633 -164.393051147461 1.588409781456
26.735750198364 -67.690689086914 -167.302719116211 2.412622213364
-107.809829711914 -69.953674316406 -172.920745849609 1.107736468315
-141.547348022461 -65.549453735352 -173.810684204102 1.773279190063
-19.314496994019 -69.092903137207 -188.791961669922 3.387162923813
-26.886739730835 -67.891304016113 -181.070144653320 1.674436330795
-114.819198608398 -68.888069152832 -186.262496948242 1.042373299599
-143.221084594727 -63.158878326416 -186.240798950195 2.128483772278
-102.848663330078 -65.282745361328 -180.900573730469 2.697726249695
-157.492919921875 -67.393188476563 -189.759048461914 3.998426914215
-130.754013061523 -71.496253967285 -194.541946411133 1.238857269287
-132.711257934570 -69.313446044922 -195.479019165039 1.813296675682
-19.291225433350 -67.032905578613 -188.826202392578 3.810389995575
-119.808288574219 -68.125251770020 -197.300430297852 2.437580823898
-116.448959350586 -64.405960083008 -198.269515991211 0.602901160717
-26.416307449341 -70.470687866211 -193.993133544922 1.457041740417
-153.779647827148 -64.911437988281 -197.134780883789 1.437553524971
-131.724838256836 -69.171829223633 -204.154037475586 1.126409888268
-124.390823364258 -65.410797119141 -203.813430786133 1.685773134232
18.620643615723 -70.942222595215 -201.324478149414 2.077730655670
-161.465637207031 -66.527557373047 -202.446884155273 2.093413352966
11.732859611511 -67.912399291992 -214.750717163086 1.288276910782
14.423814773560 -69.904060363770 -214.177886962891 0.729433059692
-16.466611862183 -65.204437255859 -208.447097778320 2.943120479584
-4.538585186005 -68.820846557617 -215.845733642578 1.780873537064
-169.487991333008 -64.404495239258 -209.580978393555 4.494787693024
-158.546630859375 -63.748081207275 -212.214630126953 3.045692920685
-94.205772399902 -67.474884033203 -217.843719482422 2.178229093552
-98.143058776855 -69.100837707520 -222.167495727539 0.499362379313
-160.468444824219 -67.358741760254 -224.475082397461 0.325640976429
-105.976119995117 -65.778053283691 -218.671600341797 3.871781110764
-11.555717468262 -67.065025329590 -213.658020019531 1.536280035973
-126.966964721680 -68.865776062012 -221.693420410156 2.951624870300
-141.636611938477 -67.765174865723 -223.416259765625 2.199670791626
-2.647104024887 -70.071487426758 -220.808410644531 0.932640016079
-133.802719116211 -65.656341552734 -224.134643554688 2.595037460327
-123.299102783203 -71.131607055664 -222.610260009766 3.080844879150
-113.878662109375 -69.392814636230 -224.159072875977 2.439472913742
0.859543979168 -64.083396911621 -227.609146118164 4.595947742462
-106.772201538086 -66.007232666016 -230.082931518555 1.174031496048
-159.909301757813 -61.901157379150 -222.251724243164 3.293064594269
-146.177001953125 -66.154685974121 -226.138809204102 2.216485738754
-164.924942016602 -66.278182983398 -224.493026733398 3.282711267471
-7.458450794220 -68.064857482910 -226.187759399414 2.729678869247
-7.944433212280 -68.678176879883 -232.075119018555 1.718374133110
78.903610229492 -71.654754638672 -225.106369018555 1.338585853577
0.333034008741 -70.500679016113 -229.022583007813 1.204167842865
-142.514282226563 -66.824394226074 -235.570861816406 2.733341455460
-13.752959251404 -66.957458496094 -228.667373657227 2.363479852676
74.544937133789 -69.766883850098 -227.654037475586 2.022205829620
75.136177062988 -69.848175048828 -232.706878662109 2.599805116653
-134.096893310547 -65.753677368164 -231.849578857422 0.977425158024
-156.940048217773 -69.305915832520 -227.808349609375 1.837717652321
-113.715476989746 -66.042404174805 -232.350021362305 1.155823707581
-124.213958740234 -63.151168823242 -235.036682128906 1.375769853592
-163.219467163086 -65.516273498535 -234.234176635742 2.181749105453
-159.637786865234 -67.159172058105 -235.083938598633 3.561558485031
-146.229354858398 -63.446933746338 -233.537490844727 1.811991095543
-12.284256935120 -67.485908508301 -234.835449218750 2.210638046265
-4.741478919983 -67.877830505371 -239.978683471680 2.330178976059
-160.254791259766 -65.289833068848 -240.052017211914 1.816307663918
5.915497779846 -69.484008789063 -237.713943481445 2.633454322815
3.296387910843 -69.329956054688 -236.170944213867 1.007674932480
-159.631835937500 -66.467338562012 -238.214233398438 1.979357719421
17.194627761841 -72.437889099121 -241.801284790039 2.208978652954
51.196735382080 -71.389251708984 -244.944335937500 2.141790866852
50.998733520508 -71.341186523438 -243.978561401367 1.952029705048
-15.563849449158 -69.392990112305 -246.447875976563 2.768878936768
48.635200500488 -67.945838928223 -248.727371215820 0.818556725979
-161.073059082031 -63.639972686768 -249.483245849609 3.906432867050
-158.739349365234 -66.927780151367 -246.859313964844 2.131275653839
-160.162704467773 -70.052955627441 -248.952819824219 2.421490430832
55.112926483154 -68.941131591797 -248.295715332031 2.448880910873
-91.859931945801 -66.331047058105 -252.224411010742 3.368198156357
-124.543251037598 -66.265777587891 -253.786331176758 1.415083289146
-105.579566955566 -71.186172485352 -253.105560302734 3.080111980438
26.847408294678 -72.399337768555 -257.009063720703 3.172419548035
41.646350860596 -67.094375610352 -250.720275878906 1.275626420975
-100.473999023438 -64.861595153809 -254.330734252930 3.919738292694
-93.310989379883 -63.503768920898 -251.033905029297 4.004769325256
45.691238403320 -72.683799743652 -254.083602905273 1.766517877579
42.518619537354 -67.442276000977 -256.260742187500 2.006278753281
-154.688812255859 -71.236404418945 -257.340026855469 1.397148609161
30.709737777710 -68.812599182129 -258.792083740234 1.991734981537
-142.697402954102 -69.612617492676 -263.693450927734 1.128456354141
-113.248970031738 -66.681663513184 -261.801513671875 1.458306908607
-136.806427001953 -65.807731628418 -261.895538330078 2.165171146393
31.468135833740 -68.508277893066 -262.304443359375 2.884902715683
-125.983245849609 -65.791023254395 -262.877380371094 1.498683691025
-11.039003372192 -67.165138244629 -257.602081298828 1.038553118706
21.691741943359 -71.700508117676 -270.572570800781 2.771630048752
-5.572698116302 -72.399864196777 -264.835937500000 5.563138008118
19.858930587769 -70.558013916016 -279.413848876953 2.562281370163
-153.192596435547 -68.376556396484 -281.783935546875 2.601129293442
-10.834023475647 -67.030075073242 -280.098388671875 0.725992560387
-153.062744140625 -69.974822998047 -281.856842041016 1.468893408775
-123.732467651367 -68.578025817871 -284.350982666016 2.140319585800
-160.471801757813 -72.159545898438 -285.603942871094 2.884399652481
-114.677398681641 -66.929832458496 -286.405303955078 3.250281572342
-104.397613525391 -67.410392761230 -288.892028808594 2.039656639099
-6.882665157318 -66.827407836914 -284.722991943359 2.877953052521
-108.276023864746 -68.362083435059 -288.543731689453 1.370282173157
-116.409782409668 -64.860946655273 -284.497558593750 5.143675327301
-120.198570251465 -64.036979675293 -290.900848388672 2.882242679596
-138.006515502930 -66.508071899414 -289.103485107422 1.969108104706
-126.168334960938 -64.606124877930 -290.788391113281 1.025570750237
-157.698913574219 -70.863281250000 -289.198730468750 2.874078273773
-146.793685913086 -64.835815429688 -292.047637939453 1.524830937386
-156.465103149414 -64.218879699707 -301.012207031250 4.146544456482
-154.156524658203 -64.854072570801 -310.287231445313 4.181548118591
-158.294281005859 -65.025863647461 -300.309997558594 5.047424793243
-141.771774291992 -67.553924560547 -309.869232177734 3.848897695541
-149.585205078125 -67.725593566895 -313.082336425781 1.422092676163
36.383407592773 -71.287162780762 -8.256463050842 2.313553810120
47.718448638916 -74.416000366211 -15.752741813660 4.163264751434
25.087745666504 -67.289680480957 -22.764732360840 2.227004766464
51.360610961914 -71.263816833496 -26.684387207031 0.934758484364
29.062524795532 -72.650779724121 -33.612106323242 0.450146555901
33.772132873535 -71.577331542969 -33.856559753418 3.480948686600
-56.758331298828 -65.254188537598 -46.528678894043 3.666395425797
80.796424865723 -66.975067138672 -60.491844177246 1.831828594208
82.021049499512 -71.511718750000 -66.191596984863 2.009087562561
-89.465965270996 -69.441955566406 -61.439643859863 1.628054499626
-11.695611953735 -66.990806579590 -60.637615203857 2.654431581497
-91.588623046875 -70.264533996582 -69.175842285156 1.969171524048
97.323158264160 -72.563896179199 -68.053062438965 4.228544712067
-12.797154426575 -66.467842102051 -67.141189575195 1.520579814911
68.496177673340 -72.745018005371 -78.100318908691 2.018282175064
-41.098682403564 -73.003433227539 -78.428970336914 1.780419588089
-26.346158981323 -72.640449523926 -74.964836120605 2.931634187698
57.123710632324 -66.840614318848 -85.454666137695 1.770219564438
-43.291343688965 -78.767601013184 -83.599441528320 1.518558621407
65.801284790039 -63.041095733643 -86.207252502441 2.204912185669
53.714450836182 -73.914443969727 -88.994148254395 1.902888059616
54.518161773682 -70.037673950195 -92.920417785645 3.014657020569
60.386402130127 -74.382476806641 -90.081169128418 2.339866399765
57.713226318359 -67.124504089355 -94.967468261719 1.301515102386
100.603248596191 -67.612030029297 -97.000396728516 2.093862295151
106.849678039551 -66.536399841309 -97.893608093262 1.628975272179
60.594341278076 -72.374977111816 -99.181922912598 2.695193052292
107.780364990234 -66.568794250488 -98.794448852539 2.693034172058
-76.088790893555 -67.905174255371 -98.272552490234 1.173833131790
-71.844512939453 -67.845481872559 -101.041137695313 1.127257704735
101.171035766602 -67.336059570313 -97.751327514648 1.610465764999
54.054382324219 -70.369300842285 -100.052749633789 1.808576822281
71.239128112793 -71.350975036621 -97.921745300293 1.500482201576
-71.675292968750 -68.349250793457 -106.387100219727 2.115247011185
-84.320533752441 -66.824577331543 -106.199340820313 2.170875549316
89.957138061523 -72.858177185059 -103.608627319336 2.163067102432
41.003421783447 -70.707817077637 -103.455490112305 0.528716444969
105.687515258789 -66.999687194824 -105.085227966309 1.769542813301
47.317668914795 -71.673927307129 -112.696846008301 1.185712456703
110.910293579102 -70.466567993164 -102.818527221680 1.961029291153
-77.899978637695 -67.618759155273 -110.059097290039 2.213103055954
105.362281799316 -66.189857482910 -107.808532714844 1.956715226173
-83.501533508301 -65.623458862305 -120.176162719727 1.906472802162
-57.845966339111 -70.385299682617 -127.549812316895 1.561675429344
-55.149047851563 -67.243614196777 -123.878417968750 1.880329847336
-71.764411926270 -69.301536560059 -128.944808959961 3.726233005524
-50.257637023926 -69.514144897461 -129.971923828125 1.630765438080
-83.346000671387 -69.371246337891 -131.897201538086 2.919324874878
-76.771591186523 -64.966323852539 -132.007629394531 1.932273149490
-79.885612487793 -67.952690124512 -129.941375732422 1.081891536713
-59.584312438965 -72.359214782715 -140.564849853516 2.640612840652
-70.937515258789 -67.660995483398 -139.658050537109 2.027134180069
-59.368637084961 -71.187820434570 -134.133392333984 2.959250211716
-57.934295654297 -68.323875427246 -140.866989135742 2.578323841095
17.423728942871 -65.512741088867 -142.924468994141 2.072468996048
-90.347999572754 -68.088073730469 -141.193313598633 1.992000222206
-47.077735900879 -71.708015441895 -145.733764648438 1.029283165932
-95.852523803711 -65.791328430176 -148.706176757813 2.382412672043
-100.261322021484 -65.297782897949 -148.206268310547 1.091939687729
19.709737777710 -70.616615295410 -152.914993286133 2.611401319504
14.606439590454 -69.971229553223 -157.273101806641 1.243520617485
-95.296340942383 -69.121215820313 -158.734603881836 1.997599124908
-102.925872802734 -67.586929321289 -153.192169189453 2.748489856720
-99.840888977051 -66.263504028320 -167.378524780273 2.236778497696
22.570192337036 -68.031776428223 -169.014465332031 0.859479963779
-110.014083862305 -66.997177124023 -171.744903564453 3.115834951401
23.197080612183 -68.842521667480 -165.596740722656 1.047888159752
-147.134262084961 -66.946929931641 -175.532348632813 1.061535716057
18.303781509399 -68.365875244141 -175.562408447266 0.670877277851
24.590654373169 -69.300743103027 -185.045349121094 1.951271891594
-151.876693725586 -65.432563781738 -185.612091064453 1.401022195816
21.872556686401 -69.378623962402 -175.547073364258 1.791257381439
19.622823715210 -63.237052917480 -179.536193847656 3.604312181473
-143.264404296875 -70.217033386230 -183.835968017578 2.189428091049
-151.423660278320 -64.413909912109 -188.260086059570 1.920314311981
20.344682693481 -68.583015441895 -187.487075805664 2.747984886169
18.878440856934 -70.148712158203 -188.982727050781 1.616065144539
-141.773498535156 -68.647369384766 -192.847549438477 1.666276812553
-108.640556335449 -67.504844665527 -196.797348022461 1.644792437553
24.269451141357 -69.031394958496 -197.669158935547 2.691394567490
-124.450256347656 -66.791893005371 -193.902481079102 1.701057672501
11.032981872559 -70.387702941895 -199.081390380859 2.051578044891
-129.743560791016 -62.189739227295 -193.450317382813 3.748698472977
-159.001007080078 -64.440734863281 -189.732513427734 6.007558822632
-161.105789184570 -65.938186645508 -195.835937500000 3.213727712631
-158.415771484375 -67.528007507324 -194.196655273438 0.979857504368
-19.833448410034 -67.965461730957 -203.748519897461 2.256439685822
-167.262908935547 -68.563758850098 -198.701477050781 3.564606428146
-26.059274673462 -65.012435913086 -191.827865600586 3.533234119415
-15.111577033997 -69.328247070313 -195.076431274414 1.579532384872
10.204352378845 -64.021224975586 -194.813201904297 5.062953472137
-157.458679199219 -66.508026123047 -203.008682250977 2.664936780930
-107.764427185059 -65.889045715332 -201.369064331055 2.673016786575
-17.121356964111 -65.137573242188 -200.811523437500 4.046753406525
-159.778274536133 -62.505355834961 -200.810516357422 3.356126070023
17.083787918091 -68.549339294434 -200.711761474609 2.054203033447
-168.466430664063 -64.415641784668 -204.157196044922 2.620295763016
-120.421455383301 -69.128715515137 -201.959976196289 2.779396057129
-115.056968688965 -64.377105712891 -206.436904907227 3.073455810547
-122.648864746094 -65.969139099121 -203.423019409180 0.552992999554
-14.477141380310 -67.186225891113 -202.789993286133 2.260292768478
-17.039064407349 -68.212669372559 -203.679107666016 2.806308746338
-163.993515014648 -65.681388854980 -209.910934448242 1.394522070885
-159.762527465820 -64.494613647461 -211.598983764648 3.691847324371
-164.556884765625 -66.655097961426 -218.728195190430 1.716935634613
-141.074203491211 -68.470893859863 -213.341171264648 3.920230388641
-144.501968383789 -66.586486816406 -223.080657958984 0.974860608578
-2.661890029907 -66.406867980957 -219.170028686523 2.522650718689
-9.293978691101 -71.299812316895 -216.160812377930 2.952016115189
-99.691291809082 -65.413650512695 -220.049819946289 3.467332601547
-6.514330863953 -66.481208801270 -231.366668701172 1.770807385445
-166.796203613281 -63.850234985352 -228.205917358398 1.243291616440
-106.501289367676 -64.769287109375 -231.526306152344 2.723182916641
1.693850994110 -67.998069763184 -225.860183715820 2.092046260834
3.115910053253 -66.933654785156 -229.087997436523 1.104740858078
-111.541351318359 -67.285331726074 -232.275863647461 1.055474519730
-1.198809981346 -68.603874206543 -228.004089355469 0.539689242840
-117.441299438477 -63.998973846436 -233.490432739258 1.700251579285
-7.438859939575 -65.082710266113 -232.343139648438 2.006791591644
-1.920096039772 -66.792831420898 -234.097427368164 2.401969909668
-1.307224035263 -67.451675415039 -236.885299682617 0.275081455708
71.962417602539 -65.881072998047 -235.637222290039 2.251101732254
-10.506543159485 -70.519546508789 -236.829055786133 2.291981935501
7.637316226959 -68.493324279785 -236.435714721680 1.572357892990
11.441204071045 -67.044570922852 -238.320053100586 2.719750642776
5.715777873993 -68.511894226074 -238.051620483398 2.583745241165
2.837754964828 -69.225379943848 -240.331466674805 1.079695940018
64.499580383301 -64.621650695801 -237.740936279297 2.454738378525
69.278770446777 -65.726684570313 -239.417678833008 2.689452886581
8.623843193054 -67.603744506836 -246.112655639648 2.207971811295
54.327404022217 -69.272003173828 -241.411483764648 1.488749027252
55.832202911377 -71.886566162109 -239.888442993164 2.740649223328
47.286785125732 -65.184242248535 -248.538681030273 1.697337985039
41.605716705322 -66.088676452637 -250.464553833008 1.277597904205
40.983257293701 -67.024284362793 -255.593231201172 1.376091837883
-131.606872558594 -62.594478607178 -257.037231445313 2.295547008514
-10.118059158325 -67.119819641113 -249.212677001953 1.835179209709
28.632186889648 -66.770645141602 -257.223419189453 2.336630821228
45.318965911865 -67.313117980957 -247.267517089844 1.957016706467
27.609975814819 -70.227241516113 -253.074859619141 2.355281114578
-102.689987182617 -68.077796936035 -257.955841064453 2.043618440628
31.484693527222 -68.738418579102 -255.437881469727 1.924843549728
-146.955902099609 -67.946792602539 -260.134918212891 2.657434940338
-116.182716369629 -67.787612915039 -256.038726806641 0.963275432587
-108.635177612305 -66.302970886230 -257.086944580078 2.116129636765
-3.354809999466 -69.488525390625 -258.219512939453 4.367163181305
-150.261566162109 -67.318153381348 -256.539581298828 1.858124375343
35.495788574219 -67.694274902344 -261.013671875000 2.127961158752
-109.550346374512 -65.226074218750 -255.837356567383 2.948594093323
26.353128433228 -71.057083129883 -258.400085449219 1.579293251038
-134.788848876953 -67.751823425293 -261.974884033203 2.060668706894
-116.326431274414 -65.423660278320 -263.219177246094 1.336079120636
-109.371864318848 -65.758537292480 -260.498535156250 2.087463617325
-114.863731384277 -70.368293762207 -260.690917968750 2.327735900879
-139.846084594727 -67.555824279785 -257.054748535156 2.888731002808
29.196660995483 -68.287467956543 -259.363922119141 1.989475727081
-117.200820922852 -65.044929504395 -262.194793701172 0.671251356602
-144.193588256836 -67.545524597168 -262.706939697266 2.182589054108
-4.901900768280 -65.504806518555 -269.915679931641 2.398706674576
-150.673828125000 -68.173011779785 -280.354675292969 0.474131822586
-8.237942695618 -67.931274414063 -285.427032470703 1.879206895828
-5.237497806549 -65.191230773926 -282.070312500000 1.465146541595
-134.234436035156 -65.737068176270 -286.916961669922 2.362583875656
-127.470664978027 -66.389587402344 -289.656982421875 1.714907288551
-135.606857299805 -65.876380920410 -293.184051513672 2.849725008011
-126.498855590820 -64.903091430664 -290.987762451172 1.092544078827
-154.789733886719 -66.258613586426 -293.680450439453 1.970965623856
-156.095504760742 -66.058013916016 -299.400177001953 3.139125585556
-147.833709716797 -68.872207641602 -300.206787109375 2.331437110901
-149.732543945313 -66.484161376953 -302.547180175781 2.402632713318
-145.036590576172 -65.761871337891 -298.313842773438 4.116636276245
-149.429885864258 -64.990829467773 -303.431701660156 1.967473268509
-146.198394775391 -63.627540588379 -314.023345947266 4.457991123199
20.214670181274 -72.361640930176 -26.664285659790 1.332318305969
50.107357025146 -72.512573242188 -35.069084167480 1.830319285393
26.187879562378 -74.926033020020 -36.948833465576 4.421451091766
33.228092193604 -70.559967041016 -41.740493774414 1.715933680534
-41.778598785400 -63.264678955078 -47.026290893555 4.125341415405
-75.780937194824 -65.917259216309 -49.658679962158 1.025300741196
81.131210327148 -68.538787841797 -60.728565216064 1.839600682259
75.295783996582 -69.910346984863 -61.542095184326 2.273076057434
72.286636352539 -70.897247314453 -65.503273010254 3.376302480698
-98.612831115723 -67.215827941895 -71.851165771484 4.189355850220
99.972251892090 -72.721633911133 -75.070274353027 2.511196374893
-29.834972381592 -69.070953369141 -81.783912658691 4.524730682373
63.777580261230 -67.667404174805 -75.744598388672 2.932579994202
-42.522693634033 -64.947250366211 -81.804824829102 2.805166959763
-53.291786193848 -65.588996887207 -81.773208618164 2.134044408798
51.435745239258 -69.872673034668 -89.703880310059 2.161446571350
102.965507507324 -68.883102416992 -89.710556030273 1.741567730904
64.724700927734 -66.861450195313 -92.992279052734 1.827394723892
57.409580230713 -67.446319580078 -92.138824462891 2.295781135559
49.301536560059 -66.325721740723 -100.651512145996 2.099088907242
57.253990173340 -65.450637817383 -99.607620239258 1.235688805580
103.741172790527 -67.442886352539 -97.121871948242 1.436113119125
70.380615234375 -68.220329284668 -105.545959472656 1.574921607971
50.761611938477 -68.403152465820 -104.983657836914 2.925425529480
77.164878845215 -73.340522766113 -106.253540039063 3.585812807083
96.250122070313 -65.828353881836 -107.125968933105 1.352634429932
-74.637634277344 -65.449188232422 -100.721656799316 1.370738744736
