16.135938644409 -77.330223083496 -234.131759643555 1.111432313919
-2.498372077942 -79.035224914551 -230.841751098633 3.242314577103
-1.726904034615 -73.721076965332 -233.666870117188 1.698559641838
6.964492797852 -77.243240356445 -231.511795043945 1.274236917496
-152.760833740234 -76.907455444336 -236.056976318359 1.559966206551
-20.737504959106 -75.763427734375 -234.877761840820 3.968253374100
-35.936317443848 -78.945953369141 -238.304397583008 1.760634183884
2.283106088638 -76.113922119141 -233.270507812500 2.229917049408
0.472166001797 -80.741645812988 -240.208282470703 2.665290117264
1.491001009941 -76.763961791992 -233.646331787109 2.596616983414
-57.772037506104 -76.211410522461 -241.610549926758 2.853613853455
-150.189178466797 -74.021507263184 -246.057250976563 1.019877076149
-153.639114379883 -76.826728820801 -245.924789428711 1.309649825096
9.551739692688 -78.949890136719 -246.606475830078 0.552748084068
22.497072219849 -78.803092956543 -246.919052124023 1.619525313377
-61.951766967773 -74.948432922363 -246.849456787109 1.148339033127
-144.794387817383 -79.627990722656 -250.837097167969 1.639563202858
-154.584976196289 -78.868171691895 -252.730499267578 1.431731104851
-153.685714721680 -80.844490051270 -255.556838989258 1.369574785233
-143.914413452148 -74.099647521973 -259.896667480469 2.270964622498
-141.166519165039 -76.550979614258 -254.939636230469 2.250454425812
-10.304278373718 -78.278160095215 -256.007080078125 2.458684206009
-146.194824218750 -77.523468017578 -261.023010253906 1.827463984489
-14.612991333008 -77.982658386230 -265.714477539063 3.638158321381
-148.910964965820 -75.184913635254 -271.929748535156 2.287532091141
-149.180679321289 -75.726303100586 -280.616729736328 2.117975473404
-150.705291748047 -74.814315795898 -281.583679199219 1.533955693245
-5.085258007050 -73.111473083496 -284.483947753906 2.268275260925
-147.599533081055 -72.029533386230 -282.639801025391 2.518964529037
-29.581951141357 -77.235305786133 -285.891052246094 2.419183254242
-30.147638320923 -74.776901245117 -285.661834716797 1.622218966484
-16.764970779419 -74.826972961426 -291.139862060547 2.074886322021
-14.020188331604 -74.538360595703 -290.411987304688 1.741391420364
11.441177368164 -78.659248352051 -291.106170654297 2.059517860413
-126.801231384277 -76.745567321777 -288.205139160156 1.164281249046
-61.154273986816 -76.275276184082 -286.876586914063 2.647312879562
-42.097225189209 -74.423538208008 -289.025329589844 1.649409890175
-34.197055816650 -77.034194946289 -287.758453369141 1.264931797981
-10.626225471497 -75.187576293945 -291.841033935547 1.302869558334
3.664921045303 -77.266227722168 -287.973907470703 1.851538896561
-144.179504394531 -76.961929321289 -294.206817626953 2.337670326233
8.310614585876 -77.036720275879 -293.539672851563 2.489845275879
-154.432525634766 -73.779685974121 -300.103149414063 2.402300596237
-153.871353149414 -78.408493041992 -299.480377197266 1.486421465874
-154.794616699219 -72.829467773438 -309.868011474609 1.559712052345
-146.100021362305 -74.771186828613 -308.434753417969 2.818209886551
-49.917919158936 -78.301574707031 -51.700176239014 4.553079128265
-54.542835235596 -80.968643188477 -55.455608367920 4.193545341492
-65.392761230469 -77.194709777832 -54.308094024658 2.870727062225
-40.989814758301 -77.456619262695 -60.168449401855 1.863988995552
-35.870349884033 -78.685699462891 -58.613269805908 2.825912952423
-20.032987594604 -77.894317626953 -68.636291503906 1.510614871979
-81.573524475098 -76.515449523926 -67.660079956055 2.005233049393
84.226142883301 -79.939048767090 -78.744186401367 2.457247495651
-89.826721191406 -76.975540161133 -75.975341796875 3.423340797424
81.999832153320 -78.525108337402 -79.460784912109 1.669276237488
87.377975463867 -76.709663391113 -84.309440612793 2.261255025864
96.160957336426 -77.415306091309 -88.658767700195 3.636314153671
-59.950950622559 -81.479766845703 -94.856590270996 1.518073439598
82.928367614746 -79.733161926270 -95.977287292480 2.388289690018
77.952621459961 -82.032562255859 -92.072616577148 3.396219968796
87.020210266113 -79.733345031738 -90.716720581055 1.723979353905
-60.559696197510 -79.612396240234 -96.499732971191 2.101344823837
50.768344879150 -77.652709960938 -97.703933715820 2.278378009796
45.986785888672 -78.648071289063 -106.590835571289 2.242073059082
40.673011779785 -79.550964355469 -104.145088195801 2.191637039185
37.210998535156 -79.098937988281 -104.455657958984 2.987017393112
-91.369079589844 -75.174720764160 -105.999572753906 2.182033061981
35.949226379395 -77.679801940918 -117.256263732910 1.688551425934
-84.639572143555 -78.394531250000 -107.461250305176 3.898603916168
41.466323852539 -80.047981262207 -125.440475463867 0.712837934494
33.514343261719 -79.449890136719 -121.373718261719 2.192378282547
34.017574310303 -73.413322448730 -121.513267517090 1.402344703674
43.859626770020 -77.619178771973 -118.462486267090 0.934166669846
40.595531463623 -80.553031921387 -127.630760192871 3.033487558365
-52.208671569824 -73.014266967773 -134.402893066406 0.797341048717
36.922183990479 -81.179374694824 -134.751373291016 2.311220407486
35.869052886963 -77.868804931641 -143.116165161133 0.831777215004
-54.204734802246 -75.228187561035 -141.105209350586 2.502123594284
-46.263687133789 -77.656867980957 -139.589065551758 1.728321313858
34.813053131104 -77.789253234863 -142.913574218750 1.247525691986
110.836662292480 -75.628273010254 -141.876007080078 1.775978922844
112.872512817383 -76.319442749023 -145.066375732422 2.824175834656
26.481655120850 -79.228263854980 -142.541656494141 1.349054098129
-41.100894927979 -79.324218750000 -148.481079101563 1.461934089661
114.562103271484 -82.874473571777 -154.097976684570 5.630372047424
-38.900329589844 -76.036323547363 -152.231353759766 2.718548536301
-68.171798706055 -76.883155822754 -159.463699340820 1.747405171394
110.415489196777 -81.390617370605 -158.967636108398 3.657497406006
22.465496063232 -78.278282165527 -164.577636718750 1.913766741753
0.327210009098 -78.620170593262 -162.475799560547 2.235945940018
111.702087402344 -78.721549987793 -155.060791015625 2.297292232513
-64.450485229492 -76.657196044922 -164.286743164063 1.976118922234
-38.212100982666 -77.581550598145 -162.536346435547 1.841687679291
111.942512512207 -78.681625366211 -165.338150024414 2.696740627289
28.274793624878 -74.640373229980 -158.344955444336 2.803905963898
-62.786979675293 -72.512817382813 -164.278457641602 2.634543180466
111.789093017578 -78.826705932617 -166.991241455078 1.515626311302
-65.446411132813 -78.586318969727 -167.643463134766 2.406723976135
-50.520889282227 -79.031150817871 -179.640914916992 0.361137032509
105.970291137695 -77.418968200684 -172.080062866211 2.726996660233
-60.043338775635 -75.510597229004 -169.977890014648 0.488591939211
111.573684692383 -77.657905578613 -176.982147216797 0.840592741966
-60.998744964600 -76.541694641113 -174.247451782227 1.783800721169
-15.304244995117 -75.525123596191 -176.854339599609 2.643830299377
-11.563478469849 -80.918174743652 -180.464950561523 2.986936807632
107.549209594727 -79.628509521484 -169.579040527344 3.028562545776
20.855903625488 -78.339950561523 -171.525894165039 1.435085535049
29.440954208374 -74.818206787109 -169.767486572266 1.892196416855
-57.458938598633 -76.079223632813 -176.146835327148 0.652686119080
17.913587570190 -76.208099365234 -181.718704223633 1.813756227493
-57.979934692383 -76.996429443359 -174.663330078125 1.610302448273
-52.221561431885 -75.576362609863 -189.794876098633 0.501536428928
12.162451744080 -75.703269958496 -183.675262451172 1.564156174660
-57.378135681152 -73.910636901855 -179.190017700195 1.704605698586
106.447929382324 -76.511245727539 -187.529647827148 2.374621391296
24.355085372925 -79.128639221191 -181.268386840820 2.545904636383
-34.118915557861 -75.152061462402 -187.634719848633 2.286944866180
-43.137088775635 -78.097000122070 -190.115264892578 1.174849629402
10.735606193542 -78.224540710449 -192.469131469727 3.259091615677
-19.435323715210 -78.045402526855 -188.887878417969 2.056105375290
-49.227935791016 -77.829765319824 -193.754364013672 1.011712431908
102.276992797852 -80.683395385742 -184.211395263672 3.906908512115
11.903681755066 -79.357322692871 -190.295578002930 3.377666950226
-134.130874633789 -79.657272338867 -197.342132568359 1.181538462639
-46.280933380127 -78.554069519043 -193.641510009766 1.371952533722
95.208000183105 -77.349372863770 -199.365524291992 2.477952718735
-149.325897216797 -81.265388488770 -200.316741943359 1.122906208038
17.823499679565 -77.453475952148 -197.415771484375 0.877433896065
-43.235973358154 -74.450218200684 -204.646652221680 3.919433593750
-31.643360137939 -78.832962036133 -205.037200927734 1.012419462204
-37.709312438965 -77.218284606934 -202.327743530273 2.190040111542
-45.172088623047 -80.419357299805 -196.624252319336 1.341064572334
99.662879943848 -77.850463867188 -203.883392333984 2.078435182571
-21.028566360474 -79.246368408203 -200.743743896484 0.902467370033
-150.780502319336 -75.978103637695 -200.886474609375 2.364967584610
15.440494537354 -78.582374572754 -203.163635253906 0.795558035374
-77.329765319824 -80.092536926270 -205.813385009766 1.778413295746
-147.139434814453 -74.460380554199 -210.347351074219 2.153630733490
94.353858947754 -78.636116027832 -212.459274291992 2.961479902267
-33.401344299316 -75.606880187988 -206.379821777344 1.585403800011
-29.522008895874 -76.923103332520 -211.794830322266 1.253231883049
8.305309295654 -77.763137817383 -210.192535400391 0.581009030342
-72.084686279297 -79.226905822754 -208.648742675781 1.234205484390
-28.751752853394 -81.697540283203 -207.059600830078 3.058978319168
-7.418798923492 -77.585723876953 -215.434112548828 2.761251688004
-72.800559997559 -77.810310363770 -213.090347290039 0.996577858925
-14.978391647339 -77.034248352051 -216.827743530273 2.271486520767
7.337471961975 -71.575073242188 -211.961608886719 1.601497173309
13.756722450256 -78.989776611328 -220.182144165039 2.082422971725
-150.665313720703 -76.879364013672 -215.213745117188 2.435018062592
-8.981654167175 -76.677818298340 -213.961654663086 1.455410242081
-99.479866027832 -72.754104614258 -218.872833251953 1.290718674660
-22.511817932129 -76.091224670410 -219.101852416992 1.492600917816
89.350776672363 -81.267318725586 -212.408096313477 3.947593212128
7.129016876221 -75.744804382324 -225.315338134766 1.289429545403
18.513832092285 -76.367019653320 -216.272644042969 1.452621459961
80.117057800293 -78.204948425293 -217.349197387695 3.409559726715
0.392500013113 -79.028877258301 -228.149414062500 0.402578353882
85.073539733887 -77.814773559570 -217.473861694336 1.649737954140
-19.971736907959 -74.132759094238 -222.769943237305 2.210581302643
15.149197578430 -75.286743164063 -218.797195434570 2.534278869629
-147.997802734375 -77.144485473633 -218.910598754883 1.937990903854
-23.890594482422 -77.878311157227 -224.765197753906 2.644934892654
1.001188993454 -75.766830444336 -228.823959350586 2.928588628769
-156.512710571289 -79.626167297363 -224.659713745117 1.956497788429
-137.721572875977 -77.152626037598 -226.402420043945 0.918461024761
4.367234230042 -76.635444641113 -224.140609741211 1.946492552757
-4.665904045105 -74.696228027344 -227.554443359375 2.228118419647
-137.405349731445 -73.293136596680 -228.344406127930 2.694388389587
-147.379348754883 -76.194007873535 -237.443664550781 2.316263198853
-148.779937744141 -75.793556213379 -234.130249023438 0.960552215576
-33.115497589111 -77.203842163086 -236.782302856445 2.286958217621
-144.834762573242 -77.281410217285 -240.966735839844 2.669538736343
16.692956924438 -77.420471191406 -241.286788940430 1.624608874321
4.399198055267 -76.427719116211 -243.527252197266 1.282437324524
-151.257537841797 -71.905036926270 -235.312484741211 1.141259431839
-150.185424804688 -75.412178039551 -242.158248901367 2.279754161835
-47.288173675537 -77.537628173828 -243.237976074219 0.619733393192
-32.377552032471 -77.124191284180 -244.986770629883 2.040965795517
3.741373062134 -77.402183532715 -243.735580444336 1.470964670181
-38.265899658203 -77.555946350098 -244.573257446289 2.373919963837
21.447347640991 -77.117279052734 -246.612319946289 1.619614005089
-6.508299827576 -78.721191406250 -250.643096923828 2.398582458496
-147.702850341797 -75.996803283691 -251.003158569336 2.528973102570
-9.854777336121 -80.297454833984 -251.710662841797 3.718540906906
-148.735473632813 -74.128372192383 -247.181076049805 1.411759614944
-67.303611755371 -77.363296508789 -248.766601562500 1.499038338661
-149.170104980469 -82.096458435059 -257.728790283203 1.497902989388
-127.839904785156 -75.136962890625 -256.925262451172 1.667114138603
-152.386672973633 -73.824974060059 -256.828155517578 2.420944690704
-12.654305458069 -74.085853576660 -265.975189208984 3.293930768967
-147.122848510742 -79.555633544922 -267.821502685547 2.323077440262
-150.775924682617 -75.604751586914 -266.031951904297 1.397179961205
-12.178459167480 -77.193763732910 -269.876007080078 1.613150477409
-146.544525146484 -75.621582031250 -268.771362304688 2.040529489517
-6.461372852325 -75.622550964355 -277.175811767578 1.078245759010
-47.190814971924 -75.292594909668 -284.234710693359 1.237762331963
-135.695083618164 -73.430953979492 -286.731445312500 0.705964624882
-135.749114990234 -74.244270324707 -284.251922607422 2.405952453613
-125.668601989746 -72.858016967773 -282.129699707031 2.532164812088
-53.690937042236 -74.895675659180 -285.495269775391 1.496871232986
-114.546516418457 -73.343078613281 -284.117767333984 1.620759129524
14.826936721802 -75.706817626953 -290.944396972656 0.779540598392
-59.445098876953 -74.140281677246 -287.671630859375 3.262755632401
-142.518920898438 -74.330062866211 -290.376647949219 2.497417688370
-64.039978027344 -74.378906250000 -289.254241943359 1.814773321152
-145.203796386719 -78.638748168945 -290.868103027344 2.252509593964
-118.167831420898 -73.296813964844 -289.057098388672 2.353075742722
-47.754707336426 -76.980743408203 -289.513641357422 2.124266147614
-35.459728240967 -75.799377441406 -290.459625244141 2.782742023468
-137.457458496094 -72.135322570801 -292.421966552734 0.673222959042
-13.968038558960 -72.639404296875 -285.080383300781 1.425907492638
2.014710903168 -75.767143249512 -288.368072509766 1.251646995544
5.343268871307 -74.970413208008 -290.534820556641 2.574612140656
13.920272827148 -76.727127075195 -294.359619140625 1.512701630592
-151.006256103516 -77.363227844238 -295.433746337891 1.921911239624
-147.453292846680 -73.138877868652 -293.938140869141 1.356567740440
-67.040382385254 -77.148040771484 -60.214332580566 0.588017046452
88.843673706055 -79.528518676758 -73.688911437988 4.041560649872
79.300415039063 -79.403579711914 -77.004806518555 4.461567401886
-26.724088668823 -79.732948303223 -75.938186645508 1.949977517128
84.663513183594 -77.405509948730 -75.625038146973 3.192574501038
-36.399848937988 -79.483863830566 -79.215469360352 2.285399913788
85.321525573730 -76.643920898438 -80.809837341309 2.130556821823
95.403907775879 -76.459922790527 -80.997451782227 1.647867083549
-64.337875366211 -71.590621948242 -93.659561157227 0.915015220642
74.320487976074 -78.706062316895 -94.033378601074 3.269912004471
80.704795837402 -77.089103698730 -97.485229492188 2.880196571350
95.174819946289 -80.347267150879 -95.012474060059 4.034807682037
55.667266845703 -79.316070556641 -97.466903686523 3.606989145279
-70.171592712402 -76.924766540527 -100.304565429688 3.805760622025
-74.003227233887 -73.239257812500 -100.165962219238 1.726891756058
50.283206939697 -79.648353576660 -104.245018005371 1.838656306267
-88.729972839355 -78.568336486816 -102.272270202637 2.631702899933
46.522472381592 -76.201210021973 -117.420166015625 2.316082239151
110.864631652832 -77.617088317871 -119.509941101074 1.101157426834
112.759788513184 -79.583862304688 -131.407058715820 3.106827974319
23.304538726807 -76.031051635742 -137.317062377930 2.631706953049
110.478515625000 -79.178863525391 -127.082450866699 2.270610094070
28.045494079590 -76.127067565918 -133.565750122070 1.063472151756
113.434669494629 -74.378791809082 -131.297744750977 1.867405056953
37.871307373047 -76.359733581543 -134.355697631836 1.666196584702
-54.179645538330 -77.118499755859 -140.891204833984 2.237223863602
35.691886901855 -79.179374694824 -143.633560180664 1.731843352318
109.307655334473 -76.406097412109 -136.480300903320 2.393008470535
-47.781440734863 -75.771705627441 -143.271362304688 0.748164355755
32.121631622314 -76.730018615723 -149.009765625000 1.928329467773
-56.313362121582 -73.031433105469 -139.413925170898 0.975448727608
-56.647808074951 -76.989852905273 -144.881500244141 3.048620223999
-51.691322326660 -78.790710449219 -148.951309204102 2.312644243240
-64.665374755859 -78.579811096191 -154.979507446289 1.981420874596
113.184143066406 -80.541038513184 -148.237655639648 3.118588924408
-50.171600341797 -80.757629394531 -154.452148437500 3.066454410553
22.425405502319 -80.376762390137 -155.411575317383 2.604369878769
108.577667236328 -78.321304321289 -160.454147338867 2.690904617310
-66.024383544922 -76.092910766602 -154.442245483398 1.415882587433
-45.242912292480 -77.595390319824 -155.829803466797 2.132743835449
8.668625831604 -74.956779479980 -154.205703735352 1.181226968765
-67.886863708496 -76.355880737305 -155.862945556641 1.839519500732
-62.944046020508 -78.065872192383 -158.758575439453 2.253174066544
-0.393927991390 -77.040802001953 -161.718673706055 1.881564259529
-42.993301391602 -74.395126342773 -166.663726806641 1.853526353836
29.676591873169 -75.290405273438 -165.806472778320 1.557423949242
-62.805088043213 -73.972915649414 -166.104675292969 1.527089357376
-56.693416595459 -77.700302124023 -166.383087158203 2.061420917511
16.772449493408 -79.039459228516 -160.066864013672 4.300172328949
-30.807643890381 -76.073112487793 -168.094207763672 0.349865972996
-29.496799468994 -78.676338195801 -166.147079467773 1.724289178848
15.667309761047 -77.812759399414 -174.230728149414 3.379608631134
-42.407485961914 -78.488212585449 -172.070114135742 0.904722988605
-11.332074165344 -77.461509704590 -172.017410278320 1.819158911705
-63.517814636230 -73.977539062500 -170.920196533203 1.397308945656
-6.676871776581 -74.601013183594 -172.271530151367 1.974577188492
-22.547410964966 -76.872169494629 -179.016006469727 1.731136322021
22.741882324219 -74.923568725586 -182.401977539063 2.368948698044
-39.094768524170 -77.252189636230 -171.382202148438 1.127711176872
19.679441452026 -74.143394470215 -176.379089355469 1.603960752487
-23.102600097656 -73.275581359863 -183.823287963867 0.800395369530
-32.457092285156 -78.194541931152 -178.744583129883 2.179131746292
-148.076385498047 -73.828689575195 -188.015014648438 0.656152367592
-19.873741149902 -79.363807678223 -184.175506591797 2.336052656174
-142.472015380859 -74.452987670898 -187.225936889648 1.579671025276
-152.435653686523 -75.181251525879 -185.459518432617 3.600362062454
-48.983547210693 -74.788513183594 -186.882843017578 1.594717264175
97.993553161621 -76.710128784180 -194.960281372070 3.353579759598
-145.107452392578 -76.235404968262 -189.896820068359 2.282607555389
-149.361236572266 -74.542358398438 -194.354324340820 1.970125436783
21.604103088379 -75.528045654297 -196.624328613281 2.552580595016
-137.683212280273 -75.106468200684 -195.228668212891 2.022168397903
15.404329299927 -73.968063354492 -198.284255981445 2.730220794678
-139.609222412109 -76.546005249023 -197.190582275391 2.093292474747
12.761045455933 -73.983825683594 -196.679840087891 1.459184169769
-134.319931030273 -72.902618408203 -196.396057128906 1.845239281654
5.768582820892 -74.419883728027 -203.717849731445 2.415498018265
-151.242599487305 -74.962097167969 -202.240539550781 2.304787158966
94.042961120605 -76.894157409668 -205.577239990234 1.365764260292
-16.456077575684 -78.079780578613 -205.178802490234 1.744979143143
-30.837326049805 -75.164695739746 -207.157516479492 1.739277124405
-11.564503669739 -73.399406433105 -204.831741333008 2.002049684525
-147.534118652344 -77.797187805176 -209.471389770508 1.121584892273
-35.867527008057 -75.999061584473 -203.571365356445 1.944004178047
-83.439735412598 -77.437370300293 -205.165405273438 6.133710861206
-27.271226882935 -77.168251037598 -208.277496337891 1.871908426285
15.751942634583 -76.532546997070 -211.477905273438 1.128350973129
-147.504318237305 -73.947204589844 -212.405670166016 1.685100317001
-90.490722656250 -76.507560729980 -215.791900634766 1.733282327652
-30.060607910156 -74.782272338867 -215.976943969727 2.210222005844
-27.133777618408 -75.256271362305 -218.870529174805 2.333829879761
-11.334021568298 -77.236335754395 -210.431610107422 1.586250662804
-27.864761352539 -75.270950317383 -209.156066894531 2.336135149002
-83.348678588867 -75.447776794434 -218.269058227539 0.909449279308
-88.913902282715 -78.841186523438 -217.609893798828 1.943983554840
-23.914184570313 -75.479194641113 -219.867675781250 1.312237739563
-2.640182018280 -80.890830993652 -222.957931518555 1.543796062469
-153.933502197266 -76.028617858887 -215.369384765625 4.566614627838
-2.954200983047 -77.469322204590 -219.652023315430 1.270233035088
85.724517822266 -79.382438659668 -226.019546508789 3.785051584244
-141.296615600586 -77.089385986328 -222.179916381836 1.371088743210
-6.898865222931 -76.781379699707 -221.721710205078 2.051767110825
-140.865402221680 -76.194702148438 -224.412567138672 1.949911713600
-147.747024536133 -82.240592956543 -224.278640747070 1.178875446320
-6.831205844879 -74.732666015625 -228.333816528320 2.200480222702
18.751770019531 -76.689445495605 -217.093978881836 2.186894416809
-140.430450439453 -73.649238586426 -227.656677246094 1.944468259811
-17.464248657227 -76.742630004883 -227.744247436523 2.533427238464
74.020790100098 -77.213615417480 -226.337661743164 4.492121696472
75.082984924316 -76.433258056641 -232.841827392578 2.041594743729
8.903659820557 -77.267700195313 -230.078933715820 2.645644187927
-31.689231872559 -76.938034057617 -235.914291381836 2.042028427124
-22.299230575562 -80.871078491211 -240.771392822266 2.199653148651
3.295475006104 -74.330482482910 -242.619033813477 1.611986637115
-47.929855346680 -72.418266296387 -241.868835449219 1.054785966873
-22.619258880615 -74.406188964844 -242.131072998047 2.527701139450
8.640860557556 -73.975364685059 -240.308929443359 2.171726703644
-64.058631896973 -75.561882019043 -244.360473632813 2.309786319733
-34.768608093262 -78.347808837891 -242.960433959961 1.580035924911
-41.098930358887 -73.925682067871 -244.338485717773 1.569714665413
-149.572463989258 -73.289939880371 -244.229904174805 1.018935441971
-46.510013580322 -77.532089233398 -246.888427734375 1.100521445274
-53.733551025391 -70.937339782715 -246.642425537109 2.358319997787
-66.963478088379 -75.190681457520 -248.490432739258 1.580167770386
-11.437198638916 -78.206527709961 -247.396621704102 3.784089088440
-80.652656555176 -75.671302795410 -252.821685791016 2.215453386307
-156.723037719727 -79.324501037598 -252.945709228516 2.961147546768
-141.914443969727 -74.325630187988 -253.117584228516 1.957859516144
-123.921516418457 -75.598594665527 -258.101837158203 1.691176772118
-157.316421508789 -71.264747619629 -258.782318115234 1.601920485497
19.029317855835 -79.991950988770 -264.781402587891 1.531467676163
-14.621548652649 -77.083709716797 -267.859436035156 2.698044776917
-154.065170288086 -76.573616027832 -271.204467773438 3.305400848389
-152.884796142578 -79.104324340820 -276.330017089844 1.868840932846
-146.186782836914 -77.165290832520 -283.445770263672 1.500824809074
-59.210193634033 -71.433792114258 -281.120819091797 3.888333559036
-39.569599151611 -71.728744506836 -284.918182373047 1.005033969879
-22.366537094116 -72.872680664063 -287.455108642578 2.550385236740
-11.576612472534 -72.799514770508 -281.349151611328 2.573564767838
-66.839317321777 -76.677978515625 -284.862091064453 2.149197816849
-81.225433349609 -76.805656433105 -285.236968994141 2.001784563065
-3.754945039749 -76.019760131836 -283.987365722656 2.303929090500
4.165743827820 -76.084030151367 -289.990844726563 0.866720557213
-139.147338867188 -73.092651367188 -286.053161621094 0.841913282871
-80.429237365723 -72.487831115723 -285.956298828125 3.107728242874
-148.231948852539 -73.430526733398 -286.174530029297 2.217259168625
-95.363967895508 -79.422195434570 -285.463714599609 5.077846050262
-79.538619995117 -74.048263549805 -285.947235107422 3.558306217194
-86.034126281738 -72.291671752930 -292.415924072266 1.724287152290
-62.743930816650 -74.173812866211 -290.188568115234 2.048827409744
-29.817106246948 -70.541664123535 -292.951721191406 2.166018247604
-7.507181167603 -74.574874877930 -290.530975341797 1.363446712494
-153.103836059570 -69.150802612305 -295.378845214844 1.433294415474
-151.068176269531 -72.409729003906 -298.561370849609 2.287817955017
-145.839462280273 -73.470939636230 -301.751800537109 1.426589846611
-157.713836669922 -73.451454162598 -303.919006347656 1.481240630150
-56.075668334961 -74.946914672852 -54.539871215820 0.958615481853
-46.266811370850 -76.218627929688 -52.019294738770 2.250157356262
-38.436199188232 -77.813255310059 -53.548019409180 3.552090883255
-75.910079956055 -78.499214172363 -59.735111236572 3.994408607483
-28.262435913086 -76.183311462402 -62.851814270020 1.885641694069
-32.360084533691 -76.612197875977 -78.635841369629 2.834259510040
75.501937866211 -80.360549926758 -81.764801025391 5.603561401367
75.894355773926 -78.591636657715 -80.405403137207 3.715568542480
74.169044494629 -76.601585388184 -83.695625305176 2.474739789963
99.095489501953 -75.526435852051 -90.145652770996 2.105080366135
70.904853820801 -79.388885498047 -89.278678894043 5.003109455109
50.764057159424 -79.124320983887 -90.304855346680 5.217696189880
50.550537109375 -81.494834899902 -100.331588745117 3.599789619446
-66.457916259766 -75.614616394043 -99.960067749023 3.021189451218
-72.740394592285 -71.135063171387 -100.781524658203 1.294542312622
45.378177642822 -78.335014343262 -102.946212768555 1.292865872383
-81.893608093262 -80.587326049805 -108.207298278809 3.170893430710
-92.844558715820 -74.478469848633 -109.905639648438 2.531119823456
51.441314697266 -77.016647338867 -107.044792175293 1.872287392616
107.811004638672 -76.632087707520 -113.548500061035 2.769661664963
33.033767700195 -78.688011169434 -122.838874816895 2.009079933167
44.248226165771 -78.105812072754 -118.434837341309 1.462068438530
41.360084533691 -76.622711181641 -123.815017700195 1.518603444099
30.127658843994 -78.147438049316 -123.094329833984 1.697101950645
109.351341247559 -77.481018066406 -120.360740661621 1.388680100441
39.529972076416 -78.714202880859 -129.899932861328 1.993122458458
32.972217559814 -73.877944946289 -131.215713500977 2.425839900970
-45.376808166504 -75.426338195801 -142.046112060547 0.980186462402
-70.998359680176 -77.666320800781 -143.181884765625 1.936779499054
-53.641345977783 -74.704620361328 -145.837799072266 1.801113486290
-72.976562500000 -78.408744812012 -144.842529296875 3.094727039337
-39.766468048096 -75.137168884277 -146.478729248047 3.631720781326
107.256210327148 -76.617965698242 -154.113143920898 3.531985998154
-71.801033020020 -77.150077819824 -154.619049072266 2.457963228226
23.781455993652 -79.467964172363 -147.249679565430 2.353675603867
30.493515014648 -78.504547119141 -150.692047119141 1.514878988266
112.608978271484 -79.205619812012 -161.322357177734 2.205574750900
9.318117141724 -78.038917541504 -158.716384887695 0.644658982754
32.447341918945 -74.805030822754 -154.979080200195 1.686339378357
-63.933052062988 -76.886734008789 -158.040557861328 2.590473175049
-41.899074554443 -77.145057678223 -170.541610717773 2.066867351532
20.309991836548 -75.575912475586 -162.751510620117 0.929753422737
-64.680816650391 -74.646972656250 -158.464553833008 1.053694725037
-69.383796691895 -75.806030273438 -164.210556030273 2.841315984726
111.329193115234 -78.332435607910 -166.271713256836 2.035369634628
-7.956632137299 -76.765693664551 -165.859893798828 1.624018549919
-64.124229431152 -74.765716552734 -172.663543701172 1.780449628830
-32.231754302979 -77.049552917480 -167.576995849609 1.279207110405
-54.995517730713 -74.465492248535 -171.523681640625 3.015772819519
29.252639770508 -75.872253417969 -172.117141723633 1.905266642570
110.646270751953 -75.126747131348 -172.944259643555 1.308352112770
102.241500854492 -75.872390747070 -183.560943603516 2.536397933960
105.522590637207 -76.571342468262 -189.381698608398 1.162925362587
106.751907348633 -75.011283874512 -177.056503295898 1.597739458084
-52.557891845703 -74.556938171387 -189.164657592773 1.355747222900
-49.558685302734 -72.913375854492 -181.785202026367 3.025582551956
26.395412445068 -76.406936645508 -182.865875244141 0.962139070034
-49.096389770508 -74.054824829102 -185.899337768555 1.889580488205
-20.729396820068 -76.227058410645 -183.386596679688 1.359791755676
-51.255733489990 -77.238121032715 -190.451934814453 1.856896996498
-151.511489868164 -74.106773376465 -191.053634643555 1.891768693924
100.967506408691 -77.791923522949 -192.943374633789 2.028077602386
-45.041130065918 -73.124191284180 -192.844329833984 1.381729125977
-14.804959297180 -77.012001037598 -197.592498779297 1.562044501305
-140.432525634766 -75.015579223633 -192.749038696289 2.985006093979
-43.574573516846 -73.291145324707 -196.615600585938 3.795195341110
101.693458557129 -75.820594787598 -197.106933593750 1.876593470573
106.680953979492 -75.194313049316 -185.719146728516 2.701712369919
-44.825233459473 -75.221572875977 -195.332962036133 1.905477285385
-23.588689804077 -80.546340942383 -197.141967773438 1.684104323387
-148.397796630859 -78.617584228516 -198.072235107422 1.524362683296
-25.433532714844 -75.960906982422 -195.947601318359 0.957102298737
-157.845474243164 -75.484222412109 -196.033508300781 3.350166082382
-153.252777099609 -80.018974304199 -202.237274169922 1.886409044266
-143.670944213867 -76.593116760254 -200.070297241211 1.697395205498
-38.857456207275 -75.910797119141 -198.810516357422 2.109773635864
100.756332397461 -76.947547912598 -201.710998535156 2.809563636780
-41.409980773926 -73.571525573730 -198.640167236328 2.348192930222
-143.766632080078 -77.980049133301 -203.184082031250 0.887702167034
-38.292362213135 -72.243919372559 -204.689300537109 1.178922533989
-21.278438568115 -79.281433105469 -209.070571899414 4.165787696838
96.550468444824 -77.918510437012 -205.224441528320 2.786797285080
90.764045715332 -77.023895263672 -213.223678588867 0.654289126396
-34.982658386230 -73.783462524414 -216.120666503906 3.646297931671
-88.002769470215 -75.888236999512 -209.602890014648 2.308485031128
-76.220611572266 -75.549430847168 -210.411788940430 1.594761967659
-19.213848114014 -75.485221862793 -212.872497558594 2.105539798737
-150.335723876953 -75.512207031250 -204.027099609375 1.174375891685
89.659881591797 -76.098083496094 -213.400085449219 1.543451070786
88.361785888672 -74.292465209961 -218.118652343750 1.939398527145
89.598297119141 -76.017623901367 -220.020950317383 1.414840102196
-102.883735656738 -74.676063537598 -218.733749389648 2.509346485138
-153.683990478516 -76.754844665527 -220.164169311523 2.687168359756
-20.625759124756 -74.064315795898 -221.729873657227 2.202961444855
79.281082153320 -73.611877441406 -225.859985351563 2.039551734924
-150.290237426758 -77.672958374023 -222.178924560547 2.321460723877
-28.640045166016 -76.307556152344 -218.043746948242 1.574966669083
-134.181228637695 -72.959556579590 -229.556076049805 2.249081850052
-12.539731979370 -77.462532043457 -229.194961547852 2.711426019669
16.816108703613 -74.806350708008 -225.425842285156 1.554012656212
18.949748992920 -76.230819702148 -232.135910034180 1.595970749855
-155.568923950195 -77.270622253418 -232.407363891602 1.226499080658
-126.590568542480 -71.344230651855 -231.060729980469 3.233812093735
-8.954071998596 -74.461669921875 -234.411697387695 1.475142121315
-0.694482028484 -74.488388061523 -236.478546142578 0.709046661854
68.468147277832 -75.401573181152 -232.686080932617 1.673586487770
69.895606994629 -73.043052673340 -237.725296020508 1.702340602875
-1.167150974274 -73.771438598633 -239.509902954102 1.104819417000
15.623938560486 -71.937072753906 -239.052047729492 1.697807431221
-30.954475402832 -69.299613952637 -239.569320678711 6.176714420319
-34.543151855469 -80.332046508789 -240.564193725586 1.879716157913
-47.660850524902 -74.232368469238 -237.617187500000 1.321316003799
-40.064434051514 -72.930961608887 -239.899627685547 3.250401735306
-18.292343139648 -76.137916564941 -241.885009765625 1.586581349373
-53.262893676758 -73.075195312500 -242.703155517578 1.924736499786
1.014325976372 -75.284004211426 -244.376174926758 1.670140504837
-69.034446716309 -75.189437866211 -242.939041137695 3.537526607513
19.829679489136 -75.867027282715 -246.533569335938 0.288728177547
-144.994400024414 -76.208465576172 -243.317077636719 3.052451848984
-73.587615966797 -76.659141540527 -250.430175781250 2.217873334885
14.427478790283 -76.544624328613 -248.567642211914 2.868382692337
-162.232482910156 -72.830352783203 -247.517593383789 1.220068216324
14.135675430298 -78.151023864746 -252.196060180664 2.634882926941
-80.858322143555 -70.654808044434 -249.396316528320 1.473981976509
-76.100608825684 -74.990570068359 -249.567687988281 1.627487301826
18.682321548462 -76.373527526855 -254.463394165039 1.701885819435
-90.112396240234 -73.605026245117 -250.831008911133 1.746770381927
-126.638397216797 -71.519660949707 -253.453628540039 2.164901971817
-134.557617187500 -76.090286254883 -257.850402832031 0.648851513863
-136.038330078125 -76.182495117188 -253.078536987305 2.366588592529
-148.119079589844 -74.387542724609 -259.114593505859 1.335088610649
-145.295822143555 -71.599296569824 -253.295181274414 1.737140417099
-135.857192993164 -72.289390563965 -260.020019531250 2.572869300842
-162.680419921875 -71.173141479492 -258.839599609375 0.508354544640
-128.090118408203 -72.944877624512 -264.522583007813 2.548214197159
-136.357299804688 -70.415115356445 -260.841949462891 1.897763609886
-164.771942138672 -71.091354370117 -265.437408447266 1.607830286026
-157.766510009766 -71.339675903320 -262.246704101563 2.251241922379
-150.392013549805 -72.102584838867 -263.693878173828 2.050000667572
-149.106582641602 -74.000747680664 -263.838806152344 2.439605474472
15.517810821533 -77.040130615234 -277.950012207031 1.704687356949
-167.201034545898 -73.301834106445 -265.139739990234 3.331417322159
-153.039749145508 -74.223937988281 -271.629943847656 2.630891323090
-6.915668010712 -81.299003601074 -272.345001220703 1.432196736336
-158.388229370117 -71.508018493652 -270.664550781250 1.944672346115
10.973378181458 -78.071067810059 -281.322692871094 1.563186764717
-153.480758666992 -72.951103210449 -280.002807617188 2.296023368835
-165.770645141602 -73.955574035645 -285.826232910156 1.943447709084
-156.086791992188 -75.043945312500 -278.437316894531 4.890004634857
-166.358093261719 -71.609786987305 -285.788574218750 1.598338246346
0.092073000968 -76.764801025391 -286.722412109375 1.733675599098
6.092424869537 -78.611793518066 -282.367706298828 1.461742758751
-103.286590576172 -72.070556640625 -289.335693359375 1.798767328262
-155.230361938477 -77.184051513672 -285.878631591797 1.915885925293
-149.531585693359 -71.515670776367 -284.085998535156 2.047053575516
-108.602714538574 -72.507598876953 -289.139587402344 0.414032250643
-153.531677246094 -75.129646301270 -290.042968750000 1.505126118660
-149.763137817383 -75.880599975586 -287.573059082031 2.152279615402
-73.454635620117 -75.942787170410 -291.268737792969 3.862766027451
-167.077468872070 -74.700828552246 -287.545532226563 2.584642648697
-124.406303405762 -70.715377807617 -289.748413085938 2.206753969193
-44.464687347412 -77.232498168945 -286.872283935547 1.800716280937
-154.657669067383 -72.919296264648 -286.630340576172 3.668316364288
-134.448150634766 -69.244812011719 -291.711853027344 0.978921651840
-19.925851821899 -72.175186157227 -292.906158447266 2.956071853638
-129.317993164063 -70.756736755371 -291.712219238281 2.854964971542
4.506693840027 -75.118721008301 -293.651306152344 1.589010000229
14.067397117615 -72.484024047852 -291.886749267578 1.558484554291
-134.868576049805 -70.710189819336 -290.024810791016 2.140404701233
-147.025985717773 -74.328666687012 -295.381744384766 2.072854518890
-157.667175292969 -74.689491271973 -312.002899169922 3.040632486343
-71.308929443359 -72.211837768555 -51.161899566650 1.694133162498
-21.550737380981 -71.777015686035 -62.998786926270 3.644392013550
-19.607393264771 -78.254837036133 -64.312492370605 3.640657663345
73.170768737793 -75.090881347656 -76.874359130859 1.660068154335
91.572799682617 -76.813110351563 -75.744522094727 2.183653116226
-36.471794128418 -75.714096069336 -78.076019287109 0.502889811993
75.813659667969 -76.385765075684 -79.383483886719 1.456729173660
89.980171203613 -80.213623046875 -82.264297485352 3.121022939682
68.438919067383 -76.752754211426 -83.338653564453 2.966824769974
73.131538391113 -76.052665710449 -88.637496948242 2.238278627396
-49.321022033691 -77.232711791992 -85.345672607422 0.538742542267
-91.388771057129 -77.601722717285 -87.142807006836 5.309186935425
59.107624053955 -78.468826293945 -93.641723632813 4.352823734283
50.448360443115 -77.905784606934 -98.741073608398 1.782358884811
94.129257202148 -74.468757629395 -99.206108093262 1.398751974106
-91.845718383789 -71.560722351074 -100.442352294922 4.964546203613
82.294273376465 -73.720794677734 -99.125244140625 2.245233058929
73.428840637207 -77.002250671387 -99.941329956055 3.990451097488
92.031799316406 -78.383415222168 -98.358947753906 4.369950294495
83.567008972168 -76.368209838867 -97.978317260742 1.081684231758
83.342086791992 -79.278282165527 -98.562088012695 3.402499437332
-85.040054321289 -77.065521240234 -101.244247436523 4.296020984650
42.774799346924 -75.014068603516 -106.470077514648 2.636482000351
105.713554382324 -77.566429138184 -110.949607849121 3.206571578979
108.337173461914 -77.205352783203 -110.978363037109 2.105128765106
48.307632446289 -78.485321044922 -118.547874450684 1.891924977303
111.314018249512 -78.759948730469 -121.340721130371 3.018131494522
116.686058044434 -79.062065124512 -135.244735717773 3.498627901077
-51.336158752441 -73.365043640137 -130.322357177734 2.372716665268
27.412767410278 -75.429061889648 -134.128097534180 1.950848698616
40.659774780273 -78.331871032715 -133.328887939453 2.282584905624
25.105964660645 -73.257133483887 -142.340133666992 1.800380468369
112.980453491211 -78.910560607910 -138.701416015625 1.272877573967
111.848213195801 -77.246559143066 -132.099411010742 1.986469864845
-73.671485900879 -74.841133117676 -147.194320678711 2.104292154312
-43.967510223389 -74.541526794434 -142.014785766602 1.478897929192
-71.306419372559 -73.098915100098 -150.271545410156 1.388283967972
19.637218475342 -74.269905090332 -149.272109985352 3.484067678452
112.473884582520 -74.365875244141 -149.744369506836 1.481798410416
-53.731945037842 -76.086441040039 -150.047317504883 1.737481117249
-71.337196350098 -73.555404663086 -149.982559204102 1.794685006142
-39.040916442871 -78.038406372070 -151.702133178711 2.572164535522
32.286411285400 -71.126205444336 -152.884643554688 2.139067411423
109.950859069824 -73.565177917480 -151.502838134766 1.308603763580
115.216400146484 -75.201354980469 -160.949691772461 1.007946848869
-68.348876953125 -71.875923156738 -154.046981811523 1.655932664871
-72.841644287109 -76.155883789063 -160.141693115234 2.489078760147
21.528343200684 -78.519386291504 -162.991210937500 1.170788288116
-60.302562713623 -72.660224914551 -165.902008056641 2.258546590805
-32.974632263184 -73.621368408203 -161.733474731445 1.606352925301
7.672644138336 -76.335060119629 -163.007461547852 2.215672254562
108.592437744141 -74.236419677734 -162.024169921875 1.772065520287
7.610201835632 -77.839843750000 -166.541412353516 3.429520606995
-33.044944763184 -75.174507141113 -164.937896728516 2.201168060303
-2.112454891205 -71.390541076660 -165.217361450195 1.902130723000
107.399963378906 -73.218551635742 -168.411193847656 1.724390864372
-41.585990905762 -72.390571594238 -164.772308349609 2.649921894073
28.960624694824 -72.693321228027 -171.905563354492 1.967476129532
112.726799011230 -78.678390502930 -172.858062744141 2.988157987595
-57.510826110840 -71.747428894043 -175.273834228516 2.085028171539
-28.490045547485 -77.074760437012 -173.979904174805 1.792537450790
102.712944030762 -75.875473022461 -174.460311889648 3.716702699661
28.897430419922 -73.540977478027 -169.413269042969 2.079066276550
107.321723937988 -77.506713867188 -175.562728881836 3.215769052505
-37.186508178711 -71.687309265137 -177.386245727539 1.417794823647
108.042831420898 -78.105445861816 -181.094146728516 2.521095991135
-62.165908813477 -72.171348571777 -176.659286499023 2.793900251389
-25.847784042358 -78.268127441406 -178.225494384766 1.902009248734
-146.719039916992 -69.234558105469 -181.992172241211 1.632845878601
-54.465663909912 -73.574806213379 -179.843887329102 1.417987704277
-147.472625732422 -73.914245605469 -184.718948364258 1.318593263626
-34.404170989990 -72.587615966797 -184.289154052734 1.571720838547
26.541090011597 -78.519050598145 -181.528930664063 1.408300757408
106.147987365723 -76.226737976074 -183.670898437500 1.547928690910
-34.363571166992 -74.712677001953 -183.169052124023 1.653363585472
10.609693527222 -75.385841369629 -190.418502807617 1.289927005768
16.844684600830 -74.298538208008 -203.219314575195 2.312336683273
-148.537445068359 -74.082061767578 -188.186828613281 1.029685378075
104.641807556152 -77.439048767090 -195.935028076172 1.873462319374
-21.703653335571 -72.274116516113 -192.539123535156 2.643651008606
100.985954284668 -76.388702392578 -188.599594116211 2.438353061676
12.540741920471 -72.576103210449 -189.067825317383 0.947356522083
-137.355331420898 -73.079513549805 -202.228698730469 1.921404838562
-139.232635498047 -73.127281188965 -198.396331787109 3.032410621643
99.817741394043 -77.764907836914 -201.690292358398 2.275518655777
-12.358165740967 -77.994377136230 -199.908660888672 2.480449438095
-16.804632186890 -75.269752502441 -202.393508911133 2.210922241211
10.069385528564 -76.445297241211 -207.005279541016 1.429278492928
-150.470413208008 -71.675735473633 -204.312911987305 1.457929849625
-146.730850219727 -74.536621093750 -206.539230346680 2.533365488052
99.661308288574 -71.343246459961 -204.900390625000 1.842543482780
-82.657920837402 -73.342773437500 -207.092559814453 3.870890378952
-36.476112365723 -74.813865661621 -200.929122924805 3.584833860397
18.288997650146 -77.023811340332 -213.053436279297 2.525717020035
-25.691625595093 -74.667541503906 -210.476196289063 0.529263257980
-76.990135192871 -72.248733520508 -206.816635131836 2.452945232391
90.523979187012 -75.205810546875 -209.946823120117 2.276386260986
-80.899208068848 -71.444473266602 -211.283920288086 0.739507794380
-147.894775390625 -73.443305969238 -217.073959350586 0.912672638893
-80.458152770996 -72.495040893555 -212.174011230469 1.761988162994
-13.688331604004 -69.882629394531 -209.270004272461 1.707058668137
-21.183736801147 -71.775077819824 -218.262680053711 1.454723000526
17.999872207642 -74.421730041504 -212.971969604492 0.791447937489
-6.041357040405 -75.591575622559 -219.030776977539 2.096400737762
-88.828941345215 -76.634529113770 -217.755050659180 1.229444384575
92.123451232910 -74.362815856934 -213.868026733398 1.009341001511
-98.897972106934 -72.599090576172 -214.448348999023 2.391438245773
-152.804214477539 -72.234657287598 -222.475646972656 1.998368501663
-25.749908447266 -73.046379089355 -222.997482299805 2.185051679611
17.241477966309 -74.942153930664 -215.713363647461 1.198624134064
-102.575080871582 -73.531555175781 -218.774185180664 1.747402310371
6.882229804993 -71.405540466309 -218.416366577148 2.692465066910
-26.183616638184 -74.175697326660 -214.953018188477 1.736678481102
82.299934387207 -73.318283081055 -224.360733032227 2.320878982544
-145.847229003906 -72.354782104492 -217.605239868164 1.685701370239
9.750248908997 -72.981254577637 -225.383666992188 2.419367551804
-10.093591690063 -76.986648559570 -225.202178955078 1.058486700058
16.977027893066 -68.735252380371 -222.106262207031 1.391742706299
83.053848266602 -75.708648681641 -222.478500366211 0.571369349957
-14.224201202393 -76.189552307129 -227.984100341797 2.008733749390
-131.155838012695 -74.169128417969 -225.120315551758 1.593954443932
-14.424539566040 -74.245765686035 -223.894271850586 0.421558648348
16.116291046143 -74.633651733398 -230.793350219727 1.319934964180
-127.330413818359 -75.072410583496 -225.841644287109 1.142436265945
-152.199142456055 -69.804389953613 -227.926879882813 1.846030116081
-143.002029418945 -71.923370361328 -227.358245849609 2.603023052216
-131.487457275391 -71.228736877441 -226.433212280273 0.753356277943
-13.719050407410 -72.084342956543 -224.636444091797 1.962096810341
71.237251281738 -74.362159729004 -228.266036987305 2.111724615097
-143.938629150391 -69.438621520996 -234.705749511719 1.786414265633
70.160545349121 -75.731033325195 -228.847824096680 2.898457765579
-21.101713180542 -77.018554687500 -229.049392700195 2.205233335495
-142.911193847656 -76.051864624023 -227.832962036133 2.610813379288
76.666419982910 -79.347023010254 -229.031585693359 3.952562808990
9.019647598267 -77.801727294922 -233.114654541016 1.860966086388
-142.311309814453 -76.834411621094 -233.788162231445 1.623414635658
-150.714752197266 -71.807235717773 -232.283096313477 2.418900966644
16.227682113647 -71.058288574219 -231.093643188477 1.737993359566
-3.410087108612 -76.225898742676 -237.217193603516 2.070024251938
-28.377424240112 -73.180335998535 -236.512191772461 2.260919094086
-2.307153940201 -70.104537963867 -237.080108642578 0.893469929695
-161.496551513672 -74.567558288574 -236.064819335938 1.926090598106
7.213527202606 -72.856346130371 -243.114822387695 1.067151188850
-165.429031372070 -73.016510009766 -237.061798095703 1.318105340004
-13.507229804993 -74.942161560059 -237.123962402344 2.569626092911
60.812938690186 -75.187362670898 -239.198303222656 2.057851314545
-13.781991958618 -72.913177490234 -237.533599853516 1.452825188637
-25.637973785400 -72.858406066895 -243.700531005859 2.519528388977
-25.740655899048 -73.146842956543 -241.103271484375 0.722135305405
-13.592858314514 -75.903396606445 -240.320053100586 2.221377611160
-146.972976684570 -73.053092956543 -229.451156616211 0.819421947002
7.351518154144 -73.242469787598 -241.906738281250 1.640892148018
63.500320434570 -73.898185729980 -243.683197021484 2.070540189743
13.959364891052 -71.863639831543 -244.744537353516 1.895347476006
-166.697509765625 -70.833854675293 -239.859649658203 1.672543168068
-51.210834503174 -72.383712768555 -239.935531616211 3.013122797012
3.120342016220 -80.383277893066 -247.752349853516 0.639765202999
16.245941162109 -73.988021850586 -243.893859863281 3.152525186539
-54.977420806885 -72.557601928711 -246.317855834961 1.031475543976
-3.585266113281 -69.911628723145 -247.748855590820 3.495892524719
20.117467880249 -78.606742858887 -247.671081542969 2.036005735397
-169.906051635742 -70.477638244629 -247.033065795898 3.603269577026
-68.375465393066 -76.235504150391 -247.216323852539 0.995836079121
-52.338554382324 -72.140029907227 -246.542358398438 2.869919776917
-81.904693603516 -72.000099182129 -250.255584716797 2.599906682968
-161.789230346680 -73.147529602051 -245.321456909180 2.505990743637
-151.501663208008 -66.644821166992 -247.924850463867 1.099376559258
-60.910263061523 -74.843025207520 -248.773162841797 1.230544567108
-69.555175781250 -72.862136840820 -248.985092163086 1.870931386948
-154.421630859375 -70.375503540039 -251.104522705078 1.671925187111
-152.842102050781 -72.962905883789 -250.743453979492 1.895387649536
-76.664398193359 -69.855125427246 -253.369430541992 1.829819440842
-94.254051208496 -70.321342468262 -254.086227416992 2.010443449020
-165.169403076172 -67.660034179688 -250.553009033203 1.078604698181
