45.358486175537 -73.150421142578 -252.644317626953 1.661443710327
-133.345275878906 -71.321922302246 -253.265014648438 1.727033615112
-109.926101684570 -67.418495178223 -255.226730346680 1.862398743629
-116.808845520020 -66.820487976074 -257.558868408203 2.145857572556
-84.510269165039 -69.969764709473 -254.935150146484 1.508876204491
-111.746070861816 -67.405319213867 -259.269348144531 1.380981802940
-124.914459228516 -72.052192687988 -262.541900634766 1.670136094093
-147.283782958984 -65.973678588867 -267.586456298828 2.268208742142
-16.096296310425 -69.160789489746 -266.141113281250 2.830341815948
-172.163757324219 -70.061981201172 -264.380401611328 4.545615673065
-15.433064460754 -69.842697143555 -274.309204101563 1.351242423058
-159.769958496094 -65.065452575684 -267.198394775391 3.502264738083
-153.549743652344 -68.493026733398 -273.403411865234 4.312652587891
-170.800247192383 -67.895591735840 -277.425109863281 4.149619102478
-15.124823570251 -70.383911132813 -279.875396728516 4.030750274658
-131.134307861328 -70.784866333008 -283.239257812500 2.871509552002
-158.960754394531 -67.750839233398 -286.164093017578 2.110118150711
-144.851821899414 -67.353309631348 -280.955657958984 1.104743242264
-135.827590942383 -71.211349487305 -280.567382812500 3.373298883438
-9.046933174133 -64.710021972656 -284.970367431641 4.915748596191
-126.840820312500 -71.956085205078 -283.529205322266 1.089951157570
-141.938552856445 -66.275428771973 -285.598693847656 2.064581155777
-116.713508605957 -71.507659912109 -285.867736816406 1.631627917290
-79.922363281250 -67.327247619629 -288.289886474609 2.882945537567
-61.670459747314 -70.120857238770 -287.404205322266 2.439340114594
-7.983736038208 -71.246543884277 -288.407287597656 2.047009706497
-54.859523773193 -68.423706054688 -286.069122314453 2.641820669174
-58.145908355713 -67.227241516113 -288.955474853516 2.730276584625
-71.356986999512 -67.562065124512 -290.600158691406 3.380726337433
-89.037513732910 -68.050247192383 -293.995544433594 2.164817571640
-95.979736328125 -66.686622619629 -289.158996582031 3.573366880417
-161.305328369141 -67.001930236816 -291.383239746094 2.354192256927
-162.101226806641 -68.760375976563 -293.644531250000 2.750449895859
-125.667892456055 -71.140182495117 -293.983459472656 1.529994964600
-145.668319702148 -68.267204284668 -294.974884033203 2.296731710434
-154.147659301758 -70.095458984375 -303.705017089844 2.878136873245
-151.613800048828 -70.116447448730 -312.125823974609 1.509151935577
48.268096923828 -72.318542480469 -15.404614448547 2.505994796753
16.977134704590 -74.773780822754 -30.443696975708 4.439648628235
42.222679138184 -70.117324829102 -35.381641387939 3.514065265656
-15.451050758362 -75.331413269043 -66.902908325195 3.167367935181
81.904846191406 -71.859077453613 -66.027053833008 2.025489807129
88.804153442383 -69.820060729980 -66.876205444336 1.462025046349
77.940559387207 -76.604660034180 -66.402412414551 5.868490219116
72.779045104980 -74.648559570313 -70.117256164551 2.519909143448
91.202850341797 -75.958137512207 -75.916458129883 1.504911899567
-96.022537231445 -67.950050354004 -70.387092590332 2.759079456329
67.842041015625 -73.893928527832 -76.260589599609 4.084874153137
-36.537864685059 -72.817070007324 -77.791435241699 2.404693126678
98.899726867676 -73.469871520996 -86.855903625488 1.418954253197
61.465126037598 -70.387893676758 -91.192962646484 2.045795679092
106.990165710449 -77.900375366211 -94.709053039551 6.787161827087
101.407714843750 -76.811172485352 -99.438331604004 3.749105215073
72.207496643066 -72.783782958984 -101.510505676270 2.124234676361
-80.279586791992 -69.675994873047 -101.725753784180 1.193643569946
54.219856262207 -72.549896240234 -105.023635864258 2.372276782990
106.999107360840 -70.731964111328 -107.019348144531 0.700481534004
46.875320434570 -73.043258666992 -113.161323547363 0.364403158426
79.768409729004 -71.831573486328 -106.302062988281 2.986992835999
41.473960876465 -71.994277954102 -108.176856994629 1.529041409492
104.108406066895 -72.885520935059 -104.231727600098 1.205572128296
47.391723632813 -71.861915588379 -108.538940429688 2.425757646561
106.998832702637 -77.871231079102 -110.966514587402 2.834613323212
109.907203674316 -76.029273986816 -112.381515502930 2.569960117340
-79.616912841797 -68.670646667480 -114.357162475586 1.315105319023
-83.183204650879 -68.749908447266 -119.537200927734 1.332618355751
43.635822296143 -75.102302551270 -120.813880920410 1.540731668472
113.521415710449 -74.610137939453 -122.351295471191 1.563776850700
113.414108276367 -72.721450805664 -124.618522644043 0.629200458527
-87.537117004395 -69.407447814941 -127.135429382324 1.389009237289
105.664611816406 -74.660331726074 -126.791587829590 4.231836795807
-59.732414245605 -74.736640930176 -132.126312255859 3.548348665237
-86.484786987305 -70.601707458496 -127.467826843262 1.703508496284
-72.855438232422 -70.635971069336 -127.376899719238 2.473800659180
-59.456909179688 -66.931442260742 -127.013656616211 1.525574088097
31.312641143799 -71.473609924316 -130.841491699219 1.800612568855
42.059017181396 -70.347465515137 -135.406967163086 3.251129388809
-73.485298156738 -69.984848022461 -136.826477050781 1.665588617325
28.437330245972 -69.863212585449 -131.581878662109 2.087595701218
111.312057495117 -72.667510986328 -143.924118041992 1.340863108635
-40.569393157959 -70.643035888672 -148.636718750000 1.814111351967
29.980813980103 -72.334655761719 -149.511413574219 2.123743772507
113.526870727539 -71.038261413574 -148.700683593750 2.585148334503
35.180435180664 -72.210899353027 -143.426116943359 2.621831655502
110.033645629883 -71.472442626953 -141.801452636719 1.162219762802
-52.730506896973 -70.646888732910 -149.693099975586 2.196119070053
-71.639358520508 -67.639869689941 -151.169662475586 1.944393038750
-55.526817321777 -70.801651000977 -152.842315673828 3.114160537720
-42.581325531006 -73.695823669434 -165.333953857422 2.476925373077
4.268758773804 -72.336662292480 -156.411209106445 2.270342826843
109.425247192383 -72.679092407227 -154.498153686523 2.792189121246
108.542282104492 -72.256698608398 -160.598541259766 2.228266477585
9.630705833435 -70.505706787109 -157.991088867188 2.363989353180
2.867695093155 -71.008293151855 -161.830841064453 1.764049410820
18.825809478760 -70.521697998047 -155.834640502930 2.951341152191
25.258029937744 -70.028800964355 -156.262710571289 1.846405863762
108.285270690918 -71.864364624023 -166.593246459961 2.586997509003
109.065879821777 -75.297622680664 -168.723403930664 1.296296834946
23.481536865234 -68.470703125000 -174.965072631836 2.930281877518
24.516412734985 -73.222412109375 -164.451416015625 2.414001464844
111.811492919922 -70.476554870605 -162.951980590820 1.896220564842
-29.591192245483 -69.177154541016 -177.548110961914 1.004421591759
109.746688842773 -72.482894897461 -168.734313964844 2.040093898773
17.068712234497 -71.534973144531 -168.179885864258 0.901125311852
21.170780181885 -70.980903625488 -168.315139770508 2.836601257324
108.058029174805 -72.354049682617 -173.820281982422 2.553342342377
26.287843704224 -70.282241821289 -170.980453491211 1.572304487228
111.781921386719 -71.405815124512 -184.675735473633 2.094780921936
-38.764328002930 -69.521492004395 -178.035949707031 3.664506196976
24.653713226318 -70.695816040039 -171.704193115234 0.815134644508
106.974914550781 -71.861129760742 -184.811798095703 1.005907416344
22.599763870239 -71.933715820313 -179.167953491211 0.960018157959
-152.356231689453 -67.074806213379 -186.318740844727 2.142023086548
-28.710338592529 -67.199584960938 -189.674957275391 1.106239676476
24.103660583496 -68.846298217773 -185.475051879883 1.757970809937
-114.314277648926 -70.319915771484 -191.899047851563 2.126350879669
-111.358810424805 -66.587471008301 -191.322830200195 2.196152687073
23.244125366211 -71.348663330078 -189.130691528320 0.851572275162
11.181821823120 -68.844696044922 -185.550064086914 5.016709327698
-27.391765594482 -67.570625305176 -190.571868896484 1.236581325531
-30.217199325562 -73.829467773438 -189.618606567383 1.804116368294
-28.532516479492 -70.455772399902 -187.565231323242 2.131950855255
14.338707923889 -68.820762634277 -180.517471313477 2.402850151062
-151.394943237305 -68.303390502930 -194.937149047852 1.788327574730
-145.883239746094 -68.093498229980 -192.728469848633 2.319050788879
-144.983947753906 -71.229774475098 -198.244232177734 1.167921900749
-23.442380905151 -69.186042785645 -191.775070190430 2.069731950760
13.104780197144 -68.359558105469 -200.096969604492 1.649164199829
98.317489624023 -70.907089233398 -194.264465332031 1.244611263275
-114.268669128418 -67.670349121094 -198.354461669922 2.051341772079
20.658933639526 -73.824577331543 -198.982254028320 1.358094811440
-15.857862472534 -69.109855651855 -195.976333618164 1.393990993500
-18.275688171387 -69.444496154785 -199.143508911133 1.784373044968
100.404747009277 -70.524597167969 -200.465408325195 2.421499729156
7.339674949646 -72.256004333496 -199.838134765625 3.080232858658
-22.501508712769 -68.347099304199 -196.879638671875 0.789470732212
-121.960868835449 -71.499465942383 -203.111221313477 1.514111280441
-134.759140014648 -68.556404113770 -203.234481811523 2.006828308105
-114.610260009766 -64.324356079102 -204.916610717773 2.380009889603
-142.785873413086 -71.038734436035 -203.321121215820 1.310356378555
16.954008102417 -70.178314208984 -198.333770751953 1.229736447334
93.214263916016 -72.756881713867 -202.790954589844 2.280116796494
-166.437347412109 -63.586059570313 -201.220458984375 2.008572340012
99.418678283691 -71.260032653809 -203.134765625000 1.278192162514
-22.278562545776 -73.472442626953 -206.522659301758 3.485346794128
94.009399414063 -69.416603088379 -211.467987060547 1.429655313492
87.426628112793 -72.726234436035 -212.458084106445 1.145441174507
11.516987800598 -72.022819519043 -206.575683593750 2.295628309250
19.155687332153 -69.819198608398 -212.612564086914 1.566304683685
12.268898963928 -67.561851501465 -208.416564941406 1.140562295914
-11.536020278931 -70.180000305176 -222.903228759766 2.463907480240
-95.094512939453 -70.649574279785 -218.753677368164 2.686568498611
-11.086272239685 -71.993377685547 -212.807800292969 1.467809438705
88.410087585449 -71.510383605957 -217.257324218750 0.807696044445
-94.214042663574 -70.876464843750 -217.837478637695 1.876254796982
-101.768722534180 -66.397895812988 -221.294815063477 1.693346858025
-95.105140686035 -69.362144470215 -219.641769409180 2.557623147964
87.542350769043 -72.791618347168 -222.938110351563 1.008197307587
-135.970596313477 -68.519828796387 -225.124679565430 1.431014895439
-133.176727294922 -71.963439941406 -226.735137939453 1.475564718246
-117.326812744141 -68.260452270508 -224.865875244141 2.120123624802
-113.744606018066 -65.846565246582 -223.223373413086 2.608510971069
-134.010253906250 -66.707832336426 -227.163909912109 1.639439105988
-112.474555969238 -74.937400817871 -227.645278930664 2.755476474762
-112.893630981445 -68.258079528809 -228.124359130859 1.930532693863
-7.584588050842 -73.076881408691 -225.211791992188 2.030179738998
-16.641563415527 -72.015975952148 -223.691589355469 1.171946644783
-1.649585962296 -68.003067016602 -230.997192382813 1.060687661171
-10.810471534729 -67.064933776855 -227.501602172852 2.056482076645
14.667393684387 -70.873725891113 -234.174240112305 0.747988045216
-19.528718948364 -68.060569763184 -229.609359741211 3.006887674332
-167.482818603516 -66.147354125977 -222.093582153320 2.110214471817
-4.819427967072 -69.851089477539 -234.032836914063 1.113745093346
80.140960693359 -68.320884704590 -232.116714477539 3.852485656738
10.231344223022 -71.833877563477 -234.307998657227 2.210349082947
-6.602734088898 -69.130325317383 -235.331527709961 1.452730894089
-157.553817749023 -65.506912231445 -236.356414794922 1.197319746017
-142.960266113281 -66.564285278320 -230.335083007813 1.206051111221
61.885543823242 -69.544967651367 -236.755264282227 1.066470742226
-6.382144927979 -70.774169921875 -234.690673828125 1.008778214455
8.584109306335 -72.111328125000 -231.376098632813 2.096786737442
68.703872680664 -73.102272033691 -231.206344604492 1.162922382355
76.238029479980 -71.415702819824 -235.250579833984 1.821114182472
70.279350280762 -71.975662231445 -242.297592163086 1.955209612846
-2.327913999557 -72.658081054688 -236.306320190430 1.417691469193
57.335422515869 -69.085456848145 -238.796356201172 1.949746131897
-19.783948898315 -72.126403808594 -240.254318237305 1.703019142151
-15.982267379761 -67.389602661133 -240.879760742188 2.588294506073
7.494565963745 -69.901954650879 -239.979766845703 1.264510273933
64.012825012207 -73.945129394531 -238.817825317383 1.672174692154
64.718017578125 -69.343208312988 -241.535110473633 1.849786996841
48.850177764893 -70.730484008789 -246.944625854492 2.451901674271
60.344600677490 -73.774765014648 -243.637298583984 2.564515590668
-16.361827850342 -73.934448242188 -250.217468261719 3.128797292709
-84.361984252930 -66.002426147461 -254.339797973633 3.058475494385
-77.616569519043 -66.678062438965 -253.138137817383 3.932373285294
43.457096099854 -73.173667907715 -248.602172851563 2.347690105438
-149.919494628906 -68.785446166992 -250.557815551758 1.348412513733
35.202281951904 -70.219413757324 -256.980651855469 2.650733470917
-92.870910644531 -71.894943237305 -252.086166381836 1.668803691864
-156.998931884766 -63.878582000732 -254.500976562500 2.384543895721
-141.040313720703 -61.734424591064 -253.169281005859 3.920431375504
44.375923156738 -70.215629577637 -254.308044433594 1.989337086678
-125.748550415039 -64.147422790527 -257.819213867188 1.688120961189
-117.682327270508 -68.312911987305 -255.378616333008 1.287713646889
-93.126213073730 -64.493202209473 -257.181335449219 2.829671144485
-14.439284324646 -66.440917968750 -250.869003295898 2.486395835876
31.068195343018 -69.844612121582 -257.931793212891 2.054689884186
24.159032821655 -67.504936218262 -260.132629394531 2.426719427109
-159.728973388672 -63.080776214600 -260.089141845703 4.220181465149
-115.616241455078 -70.597312927246 -262.734161376953 1.330124497414
-14.753632545471 -69.113388061523 -262.455657958984 1.636433839798
-133.636962890625 -67.483505249023 -265.324920654297 2.336600780487
-14.997983932495 -68.100830078125 -270.801727294922 2.706044435501
-165.768463134766 -66.380783081055 -272.301208496094 4.199484348297
-8.255575180054 -70.239036560059 -280.027221679688 1.903064608574
-161.859771728516 -67.316337585449 -287.609252929688 1.370130777359
-164.814773559570 -68.881584167480 -277.700378417969 2.246976375580
-143.583404541016 -67.503997802734 -285.103698730469 1.767393350601
-171.172454833984 -68.828559875488 -284.439453125000 4.087710380554
13.005663871765 -71.677185058594 -288.644592285156 1.689164757729
-104.170303344727 -68.833633422852 -286.641540527344 1.405980229378
-88.130783081055 -64.044647216797 -286.119628906250 5.239323139191
-168.724563598633 -64.202438354492 -284.321594238281 5.774410247803
-93.065483093262 -71.821395874023 -284.183258056641 4.833538532257
-154.727600097656 -67.542076110840 -288.323028564453 2.161803245544
-76.531135559082 -69.049758911133 -293.850036621094 3.038834333420
-71.649604797363 -67.602607727051 -288.957427978516 3.471466541290
-83.585823059082 -69.076629638672 -291.516082763672 2.129559040070
-4.705182075500 -66.674919128418 -289.479064941406 2.173286199570
-89.054283142090 -67.984230041504 -288.803222656250 3.058473825455
-100.062873840332 -69.223594665527 -291.056945800781 0.557121396065
-117.725433349609 -67.897521972656 -292.695434570313 1.146533608437
-117.608108520508 -64.941345214844 -292.801422119141 2.794145584106
-135.225555419922 -66.717994689941 -292.139801025391 1.836023569107
-143.919158935547 -67.345848083496 -300.704223632813 2.552443027496
-145.416275024414 -68.428596496582 -311.655456542969 1.419843316078
24.303667068481 -70.457260131836 -15.778543472290 2.792351722717
32.722206115723 -71.767028808594 -17.084428787231 1.300117611885
29.711963653564 -74.337272644043 -18.951068878174 2.622898817062
44.557483673096 -70.616813659668 -21.292032241821 1.594340801239
25.234319686890 -72.044029235840 -32.301902770996 2.084090471268
-74.611450195313 -68.695510864258 -47.210128784180 1.294224262238
89.931671142578 -68.405410766602 -66.376968383789 1.945384025574
-17.416156768799 -69.181045532227 -67.954681396484 1.689442992210
102.802932739258 -71.596168518066 -73.840499877930 2.881439685822
95.185211181641 -76.265182495117 -76.570777893066 2.886787652969
68.631095886230 -73.484008789063 -79.308151245117 2.620483636856
70.332382202148 -75.302452087402 -83.456939697266 1.102089643478
-44.595634460449 -73.627357482910 -82.772796630859 1.073827862740
61.237056732178 -75.236740112305 -83.196228027344 4.710038661957
-94.333084106445 -69.988143920898 -88.396331787109 2.463729858398
-49.077365875244 -68.095947265625 -85.504295349121 1.474653959274
-55.886650085449 -76.787910461426 -87.879341125488 2.981864213943
100.968711853027 -77.696174621582 -98.553199768066 3.857272624969
59.241806030273 -74.906616210938 -93.042251586914 0.943915843964
65.967239379883 -71.228004455566 -91.781021118164 2.533517360687
-95.592552185059 -64.212669372559 -96.927238464355 2.298194885254
107.902854919434 -73.923614501953 -94.047645568848 4.013387203217
44.156284332275 -70.247009277344 -99.607376098633 1.177936553955
101.461441040039 -72.097366333008 -99.026000976563 1.004884243011
106.789474487305 -70.299697875977 -106.906280517578 0.496321618557
101.289344787598 -72.612030029297 -105.454711914063 2.557194948196
73.873474121094 -74.129791259766 -101.527839660645 3.092810869217
87.284149169922 -74.100196838379 -107.415428161621 5.295397758484
50.006149291992 -71.260032653809 -111.886734008789 2.665201187134
110.689727783203 -70.298919677734 -104.521522521973 1.506519436836
46.187030792236 -74.025520324707 -106.126800537109 2.652200460434
40.619724273682 -69.605690002441 -102.199790954590 1.958104014397
112.742187500000 -72.770469665527 -111.312049865723 0.930332899094
-78.494766235352 -66.827507019043 -109.740753173828 1.949230909348
46.097755432129 -70.567192077637 -113.528739929199 1.813290119171
34.708114624023 -73.094673156738 -115.693351745605 1.690079808235
105.493049621582 -70.017875671387 -110.990791320801 2.450427055359
39.440292358398 -68.503349304199 -112.110961914063 2.695222616196
-88.062049865723 -68.821243286133 -112.919898986816 2.267822265625
-95.536376953125 -66.209289550781 -114.793678283691 3.243534564972
103.969711303711 -75.260070800781 -120.071914672852 3.428684949875
-94.818313598633 -70.334739685059 -118.659606933594 1.286389112473
38.897438049316 -73.143333435059 -121.914718627930 2.478530168533
36.929203033447 -70.803543090820 -121.375175476074 1.670384883881
-83.458183288574 -68.744697570801 -124.264526367188 2.591642618179
32.328166961670 -69.102172851563 -135.257415771484 2.076597452164
110.758941650391 -73.430114746094 -132.168075561523 1.411817073822
-52.717937469482 -69.151596069336 -136.231185913086 2.286388158798
-88.295181274414 -67.763023376465 -131.651809692383 0.945382595062
37.817680358887 -74.166900634766 -132.291213989258 2.420170783997
-89.116996765137 -64.660575866699 -135.852905273438 2.099832534790
-89.027511596680 -70.836318969727 -139.646881103516 3.366688728333
-49.766124725342 -70.619827270508 -137.003936767578 1.995027065277
-70.919006347656 -67.253738403320 -139.593353271484 2.140109777451
-50.756389617920 -68.515533447266 -133.636291503906 2.056778430939
115.358299255371 -69.498565673828 -138.482788085938 2.906182289124
-73.328666687012 -70.449455261230 -136.893478393555 1.929559826851
36.446533203125 -71.248977661133 -131.895187377930 2.052778482437
-78.767059326172 -67.836692810059 -140.179641723633 1.028026103973
-73.399848937988 -68.727439880371 -135.830352783203 0.876698553562
-91.444740295410 -66.693733215332 -140.111145019531 0.351139664650
-53.958015441895 -67.128372192383 -147.188171386719 2.013164520264
31.375326156616 -66.840286254883 -146.324600219727 2.242615938187
27.416728973389 -68.814720153809 -150.062927246094 0.896068871021
19.100757598877 -65.895805358887 -144.815368652344 1.296512246132
112.703460693359 -71.301139831543 -147.239898681641 2.563046693802
-93.615539550781 -66.974365234375 -152.447708129883 1.273693323135
12.837454795837 -71.697227478027 -152.900115966797 0.801054358482
-72.056785583496 -68.222602844238 -153.392379760742 1.157000899315
23.354183197021 -69.463638305664 -150.299972534180 1.989685297012
-49.290225982666 -68.088668823242 -155.600967407227 2.540067911148
9.446645736694 -68.774871826172 -153.711730957031 1.444011569023
14.909938812256 -72.443809509277 -158.920852661133 1.661184072495
17.550123214722 -74.243041992188 -164.444717407227 1.544994592667
-49.109359741211 -70.913848876953 -162.762771606445 1.636716723442
-39.309833526611 -68.296607971191 -155.074295043945 1.785752654076
-46.545372009277 -69.394935607910 -161.243331909180 0.894375026226
-103.896247863770 -68.483383178711 -171.870758056641 1.669335365295
21.498861312866 -71.028617858887 -174.591278076172 2.160566806793
-34.992561340332 -68.804634094238 -176.223617553711 0.837436258793
15.144730567932 -73.441390991211 -178.846206665039 1.540777802467
-143.857025146484 -67.299385070801 -175.476882934570 1.648370862007
-32.415321350098 -66.221893310547 -173.068023681641 0.867911040783
-155.314620971680 -71.509300231934 -177.540756225586 2.776421546936
23.221973419189 -65.802513122559 -182.324813842773 3.841036558151
-33.156250000000 -70.094902038574 -171.763473510742 2.866005897522
-107.890365600586 -66.217269897461 -177.585021972656 1.745011329651
-107.444702148438 -71.784774780273 -183.482208251953 3.317552089691
-30.218658447266 -64.735893249512 -185.471755981445 4.058572292328
-23.941638946533 -72.981933593750 -182.129623413086 1.562925100327
13.686468124390 -68.705581665039 -189.781814575195 2.514678001404
16.664970397949 -67.246383666992 -197.724899291992 2.225632667542
13.568496704102 -69.550918579102 -187.470428466797 2.811449050903
-143.133544921875 -66.161216735840 -187.206375122070 1.132447838783
21.310096740723 -66.411842346191 -190.462677001953 2.295968055725
7.213020801544 -69.284362792969 -197.227432250977 1.087705612183
-137.393280029297 -65.722579956055 -194.194046020508 3.028118848801
-114.658447265625 -67.176452636719 -195.299865722656 1.524753689766
14.555809020996 -67.912689208984 -201.698089599609 1.940408229828
-116.675140380859 -66.398521423340 -196.660293579102 1.583952903748
-108.015983581543 -63.056514739990 -192.049682617188 3.827187776566
-165.688232421875 -67.939056396484 -199.757369995117 1.826420664787
-24.648536682129 -67.866424560547 -200.343948364258 1.204994678497
12.568990707397 -67.993980407715 -200.751525878906 1.394119620323
-143.350570678711 -67.211830139160 -203.718048095703 1.931126713753
-136.187545776367 -68.870109558105 -206.174209594727 3.958385467529
-20.471027374268 -67.211486816406 -207.640869140625 2.058803558350
-12.297712326050 -70.053413391113 -204.959518432617 0.705146610737
-15.169576644897 -69.533035278320 -206.342330932617 1.796284317970
-141.225723266602 -70.166145324707 -204.248901367188 2.305059194565
-16.950399398804 -69.144561767578 -213.295379638672 1.805144667625
-10.942864418030 -72.475006103516 -214.738311767578 2.744820833206
17.183603286743 -66.921249389648 -211.531875610352 1.800143957138
-15.311216354370 -72.135505676270 -211.922531127930 0.778181314468
10.089115142822 -69.536903381348 -210.575775146484 1.280020356178
-10.817882537842 -69.775146484375 -216.030853271484 2.078763723373
-21.362945556641 -66.280891418457 -212.327667236328 5.088438987732
12.172313690186 -73.501892089844 -221.579345703125 2.087768793106
-2.073890924454 -73.726112365723 -220.301712036133 2.574864387512
10.817141532898 -65.868766784668 -221.693786621094 0.735888838768
-6.525868892670 -70.810195922852 -227.363601684570 0.868883669376
-159.236923217773 -67.132644653320 -225.060577392578 1.200320959091
80.366531372070 -72.482597351074 -221.006347656250 2.752478361130
-135.660888671875 -65.076942443848 -224.210220336914 2.423865795135
-135.475250244141 -68.542449951172 -223.033889770508 1.834553241730
-8.862400054932 -69.573074340820 -225.698318481445 1.973700046539
8.077828407288 -68.861045837402 -234.370513916016 1.489795446396
-157.342346191406 -66.188575744629 -229.322555541992 1.492850542068
87.631202697754 -69.092918395996 -220.912185668945 2.599658489227
-2.581334114075 -67.804138183594 -226.226913452148 1.933094263077
0.187653005123 -69.697181701660 -223.493423461914 1.392529845238
73.517669677734 -72.636154174805 -230.241455078125 1.267510890961
0.176999002695 -66.761238098145 -235.354415893555 1.544517755508
-15.192090034485 -70.597290039063 -227.606628417969 2.527550220490
-126.945037841797 -65.411216735840 -234.233230590820 1.239222407341
-4.746415138245 -68.543502807617 -237.380523681641 1.391624331474
2.031793117523 -66.842521667480 -232.475234985352 0.515232741833
65.564468383789 -68.044479370117 -239.088165283203 0.549113810062
-158.732772827148 -67.615196228027 -238.065505981445 2.849615812302
-13.001144409180 -68.069686889648 -245.157043457031 2.278687715530
-169.597229003906 -68.451438903809 -238.606140136719 2.632881641388
9.391720771790 -66.332130432129 -242.617141723633 2.342834472656
-165.063461303711 -67.030128479004 -238.785385131836 1.651388406754
-161.292465209961 -67.614837646484 -245.926284790039 1.584655642509
56.506065368652 -69.576957702637 -246.042343139648 1.210429787636
61.736812591553 -71.065101623535 -243.504241943359 2.653772354126
55.623176574707 -70.164581298828 -245.293258666992 1.365488767624
51.199779510498 -69.451148986816 -249.719451904297 1.198086857796
-155.955703735352 -67.123489379883 -243.892074584961 3.335136890411
-157.003997802734 -64.036933898926 -248.286651611328 4.427991390228
-13.932920455933 -71.303222656250 -249.925018310547 0.616978287697
-151.901138305664 -66.022735595703 -246.610992431641 2.096077680588
19.072494506836 -70.409538269043 -251.860763549805 1.214265823364
-170.339096069336 -70.588966369629 -250.931762695313 3.777518033981
-168.122879028320 -64.543373107910 -248.139831542969 3.813961267471
-82.700103759766 -68.865234375000 -249.111206054688 1.114406466484
-170.033020019531 -65.626083374023 -259.639038085938 3.892901420593
-85.974899291992 -66.944297790527 -256.912658691406 3.280245542526
41.963020324707 -68.517097473145 -253.975753784180 1.278868079185
21.617872238159 -72.250007629395 -256.980133056641 2.007527351379
-159.301116943359 -66.925857543945 -261.758605957031 3.168807983398
-101.360046386719 -61.720577239990 -259.705139160156 1.498405694962
38.651119232178 -69.488304138184 -256.514312744141 0.356793880463
-105.538047790527 -73.118377685547 -259.246856689453 0.302432239056
-154.675613403320 -62.042140960693 -264.802886962891 1.279224514961
-105.793228149414 -65.987869262695 -258.616973876953 1.772112369537
-168.486114501953 -67.927001953125 -259.523803710938 2.273752450943
-113.760627746582 -67.875976562500 -263.446350097656 3.198083877563
-153.961166381836 -68.260429382324 -265.704071044922 2.587899684906
-159.182922363281 -64.627075195313 -263.452362060547 3.754723787308
-166.679199218750 -65.420501708984 -263.634613037109 2.556693315506
-164.678283691406 -64.435852050781 -262.181610107422 2.702651977539
-166.362579345703 -66.048423767090 -265.603576660156 3.211650609970
-166.356033325195 -66.673332214355 -262.591156005859 1.434350013733
25.111995697021 -70.208610534668 -265.990417480469 1.256770610809
-150.523056030273 -69.510093688965 -263.658508300781 2.471470117569
-150.523269653320 -65.678237915039 -284.159118652344 1.547999382019
24.003614425659 -69.708801269531 -277.146881103516 1.872078061104
-12.392356872559 -69.963493347168 -275.035766601563 2.140141725540
-126.539009094238 -65.239662170410 -284.456756591797 3.209951162338
-137.123245239258 -67.263038635254 -286.118865966797 2.949447870255
-135.220016479492 -65.339546203613 -288.540069580078 2.175602912903
-127.623313903809 -67.030792236328 -285.980346679688 2.602567434311
-115.128005981445 -65.474296569824 -290.012176513672 1.083515167236
-106.042900085449 -63.486385345459 -285.687988281250 4.765616893768
8.452583312988 -71.241600036621 -293.130493164063 3.201824188232
-85.802696228027 -67.760902404785 -290.205322265625 1.694998383522
-149.904663085938 -66.740310668945 -288.320861816406 2.075493574142
-102.515785217285 -66.983398437500 -290.915405273438 2.018234729767
-130.027252197266 -63.958942413330 -291.925781250000 3.587532758713
8.773309707642 -70.991226196289 -288.849243164063 2.905299663544
-112.758491516113 -61.691802978516 -289.179229736328 4.797190666199
2.080112934113 -68.632118225098 -293.798370361328 2.133022308350
-143.986511230469 -65.751892089844 -288.793395996094 2.290373325348
-153.806213378906 -66.501281738281 -295.914611816406 2.485694885254
-158.932632446289 -65.317420959473 -314.070098876953 5.298410415649
-156.125350952148 -64.986915588379 -311.766662597656 4.797518253326
48.316295623779 -74.008193969727 -25.393774032593 1.947269678116
23.746593475342 -71.596244812012 -36.097312927246 1.068312168121
31.233419418335 -72.588378906250 -37.266178131104 1.839907050133
-44.545162200928 -72.157569885254 -47.789710998535 3.877045154572
-12.385481834412 -68.642761230469 -62.642223358154 2.164003610611
94.534942626953 -73.109436035156 -69.352478027344 1.830255389214
68.956840515137 -67.555152893066 -70.374023437500 1.735426664352
-23.989374160767 -70.024063110352 -74.785514831543 0.893014132977
-97.931732177734 -72.600509643555 -86.448074340820 2.006183624268
-42.341571807861 -69.748809814453 -82.847930908203 2.151639699936
61.707248687744 -70.559562683105 -82.218795776367 1.452549934387
62.313766479492 -73.568023681641 -86.767387390137 2.215991735458
53.625492095947 -68.865203857422 -88.291183471680 1.882117390633
-58.777896881104 -68.197822570801 -90.494850158691 0.638492286205
66.968177795410 -67.543289184570 -90.059295654297 1.868877887726
43.692035675049 -73.889694213867 -98.609596252441 1.711375236511
68.528678894043 -72.745910644531 -95.503349304199 3.355493783951
-62.161312103271 -67.355575561523 -96.179618835449 3.388408184052
50.203025817871 -72.715866088867 -93.920524597168 2.124581575394
45.721240997314 -72.355567932129 -99.101943969727 1.460187077522
103.411117553711 -68.900367736816 -101.474060058594 2.289073944092
-66.430603027344 -68.917785644531 -99.019752502441 0.926258921623
110.641799926758 -71.108467102051 -101.342971801758 1.609296202660
-78.998428344727 -70.771064758301 -101.212699890137 1.219528436661
54.487777709961 -73.310432434082 -105.731559753418 2.016867160797
48.069591522217 -69.005874633789 -101.379302978516 0.668211996555
91.880615234375 -69.599105834961 -104.685760498047 2.707854509354
84.527549743652 -69.703529357910 -107.476585388184 1.664268136024
54.829990386963 -70.656394958496 -105.263832092285 1.241351962090
-76.301528930664 -69.243392944336 -111.156509399414 1.365061521530
-76.818359375000 -67.817787170410 -114.993476867676 1.289986491203
-80.423751831055 -69.668136596680 -118.402816772461 2.442797422409
-93.272529602051 -72.884750366211 -118.497512817383 1.456426858902
104.927314758301 -66.410408020020 -117.382049560547 2.701233386993
-88.448020935059 -70.619575500488 -119.037704467773 2.498322248459
-76.669982910156 -64.976516723633 -121.269721984863 2.146892786026
109.530944824219 -70.174003601074 -116.971664428711 2.655921697617
-61.515945434570 -61.528480529785 -118.093925476074 1.168581366539
113.576049804688 -74.493827819824 -132.426345825195 1.600360631943
109.945823669434 -72.542289733887 -130.371139526367 1.330335497856
107.202697753906 -72.188896179199 -126.735557556152 2.614255666733
-93.555526733398 -68.458862304688 -137.737869262695 1.763372182846
-47.154487609863 -68.585433959961 -141.972900390625 1.651668548584
-79.248840332031 -66.156326293945 -144.485260009766 4.482049465179
-69.476753234863 -68.218467712402 -149.045654296875 1.875435590744
-70.388847351074 -66.856895446777 -147.984588623047 1.626653909683
-55.281631469727 -67.837135314941 -143.750091552734 1.014123439789
-47.131488800049 -72.197128295898 -146.206314086914 1.563150405884
16.244609832764 -69.592102050781 -146.863739013672 2.222975015640
-94.224174499512 -64.977493286133 -142.794967651367 1.309114456177
-45.834175109863 -67.201507568359 -147.430099487305 1.600283503532
-52.218372344971 -62.729667663574 -147.741241455078 5.386815547943
-42.248886108398 -66.787040710449 -155.016921997070 1.043135643005
27.288030624390 -71.571746826172 -162.421417236328 2.188261747360
-50.198139190674 -68.773643493652 -151.129272460938 1.717970371246
-100.521766662598 -63.802604675293 -149.332382202148 0.822702944279
-45.476238250732 -65.680084228516 -156.949600219727 3.934142351151
25.538116455078 -71.503944396973 -148.692764282227 1.805412173271
-98.808830261230 -72.293159484863 -162.997665405273 4.020447254181
22.499843597412 -71.430458068848 -158.172256469727 2.836000680923
-107.854499816895 -64.762573242188 -169.698257446289 1.170288205147
-101.283287048340 -67.803192138672 -163.586593627930 2.303194761276
21.979988098145 -69.188377380371 -165.424133300781 1.789552807808
25.980178833008 -67.728401184082 -168.338973999023 1.854085326195
-108.590736389160 -69.367233276367 -173.553115844727 0.894257545471
-142.310882568359 -64.809135437012 -174.317596435547 1.742825984955
-20.141431808472 -68.821540832520 -189.692703247070 3.160491704941
-27.684577941895 -67.624046325684 -181.941818237305 1.038673400879
-115.636108398438 -68.205482482910 -186.867843627930 1.722235202789
-144.012023925781 -62.350566864014 -186.730728149414 1.726688861847
-103.633285522461 -64.679489135742 -181.525390625000 2.090422391891
-158.313278198242 -66.504325866699 -190.225509643555 4.436561107635
-131.607650756836 -70.702560424805 -195.110717773438 0.891605913639
-133.558013916016 -68.506546020508 -196.031112670898 1.330483198166
-20.109100341797 -66.761528015137 -189.716995239258 2.817657470703
-120.655517578125 -67.366722106934 -197.886505126953 2.173127889633
-117.282653808594 -63.657684326172 -198.847839355469 1.619407415390
-27.265193939209 -70.142433166504 -194.878601074219 1.070440888405
-154.611587524414 -64.003120422363 -197.600494384766 0.935922265053
-132.597534179688 -68.326995849609 -204.708358764648 1.002117156982
-125.245849609375 -64.600234985352 -204.372070312500 1.745314955711
17.746566772461 -70.777931213379 -202.350967407227 1.070604443550
-162.320907592773 -65.559211730957 -202.896667480469 1.223857045174
10.831259727478 -67.652145385742 -215.741012573242 1.570961594582
13.515068054199 -69.658493041992 -215.186172485352 1.322133779526
-17.336458206177 -64.849922180176 -209.337387084961 4.024089813232
-5.447344779968 -68.483062744141 -216.790267944336 1.504353165627
-170.355545043945 -63.365814208984 -209.995590209961 5.817328929901
-159.419494628906 -62.745098114014 -212.659729003906 4.038915634155
-95.113372802734 -66.729713439941 -218.505233764648 1.784322381020
-99.071067810059 -68.317077636719 -222.824707031250 0.586358785629
-161.394866943359 -66.287353515625 -224.931625366211 1.784052133560
-106.878532409668 -64.976676940918 -219.288543701172 2.757118701935
-12.449865341187 -66.706832885742 -214.572418212891 0.570328533649
-127.892066955566 -67.956504821777 -222.260620117188 2.669702053070
-142.561874389648 -66.782463073730 -223.932846069336 2.082815408707
-3.576648950577 -69.717864990234 -221.764770507813 2.305781602859
-134.720916748047 -64.704910278320 -224.665130615234 2.818066596985
-124.237144470215 -70.234085083008 -223.199783325195 2.913509845734
-114.813850402832 -68.529556274414 -224.769149780273 1.843793034554
-0.064225003123 -63.712287902832 -228.547088623047 4.961182117462
-107.710556030273 -65.146659851074 -230.698364257813 1.677600026131
-160.804641723633 -60.843215942383 -222.683486938477 3.971436023712
-147.103378295898 -65.138595581055 -226.633529663086 2.536717414856
-165.846542358398 -65.186965942383 -224.930572509766 3.194318771362
-8.395465850830 -67.663696289063 -227.119445800781 3.714498758316
-8.902194023132 -68.246139526367 -233.008193969727 1.799843430519
77.952690124512 -71.641815185547 -226.321792602539 0.622497558594
-0.623611986637 -70.120201110840 -229.990097045898 1.005592584610
-143.472564697266 -65.778526306152 -236.079971313477 2.991102695465
-14.692546844482 -66.516319274902 -229.574218750000 2.665732145309
73.594673156738 -69.722229003906 -228.846786499023 1.981960654259
74.170082092285 -69.781494140625 -233.901763916016 1.124518871307
-135.039138793945 -64.763313293457 -232.379486083984 1.335272789001
-157.885391235352 -68.233871459961 -228.285186767578 1.796342253685
-114.660827636719 -65.139984130859 -232.944168090820 1.670192360878
-125.154525756836 -62.189147949219 -235.584350585938 2.555995702744
-164.167541503906 -64.385124206543 -234.673110961914 2.723405599594
-160.595825195313 -66.039733886719 -235.541900634766 2.714371681213
-147.166320800781 -62.394580841064 -234.018753051758 2.065978527069
-13.245100975037 -67.021186828613 -235.749298095703 2.843038797379
-5.719921112061 -67.421463012695 -240.917602539063 1.663466334343
-161.219711303711 -64.143463134766 -240.498901367188 2.562708616257
4.936688899994 -69.085914611816 -238.693557739258 2.130307197571
2.323025941849 -68.927780151367 -237.141769409180 1.039721965790
-160.596359252930 -65.332664489746 -238.668792724609 1.271157145500
16.189998626709 -72.069816589355 -242.829986572266 3.046640872955
50.186660766602 -71.156669616699 -246.072708129883 2.982446670532
49.991832733154 -71.112442016602 -245.106124877930 2.288071393967
-16.568683624268 -68.857032775879 -247.360702514648 3.019247055054
47.628906250000 -67.683525085449 -249.831054687500 1.014725804329
-162.059494018555 -62.444007873535 -249.919418334961 5.429995536804
-159.732421875000 -65.754890441895 -247.318725585938 2.053512096405
-161.176071166992 -68.863479614258 -249.423004150391 2.117247581482
54.103431701660 -68.709625244141 -249.424194335938 2.533812046051
-92.867729187012 -65.428611755371 -252.887023925781 2.776029586792
-125.555068969727 -65.210777282715 -254.347824096680 0.379975676537
-106.611465454102 -70.218490600586 -253.749465942383 2.650830507278
25.796255111694 -71.999900817871 -258.067077636719 2.678761959076
40.637844085693 -66.791358947754 -251.798233032227 1.182354927063
-101.481582641602 -63.910717010498 -254.959594726563 4.399442672729
-94.302536010742 -62.600769042969 -251.678298950195 3.516002416611
44.647502899170 -72.382194519043 -255.201156616211 2.383988142014
41.491592407227 -67.116096496582 -257.342987060547 1.994060158730
-155.733184814453 -70.030265808105 -257.832702636719 0.683563292027
29.669031143188 -68.421676635742 -259.844543457031 2.108484029770
-143.754180908203 -68.428703308105 -264.215087890625 1.251324176788
-114.287338256836 -65.637649536133 -262.399719238281 1.138200998306
-137.840850830078 -64.658805847168 -262.416870117188 2.769682884216
30.418018341064 -68.103591918945 -263.357696533203 2.852207183838
-127.020759582520 -64.685302734375 -263.431976318359 2.100459337234
-12.068135261536 -66.594902038574 -258.517852783203 1.263005852699
20.602249145508 -71.212066650391 -271.611083984375 3.860807657242
-6.647347927094 -71.818466186523 -265.793884277344 4.516418457031
18.747480392456 -70.018341064453 -280.441009521484 1.625183463097
-154.299102783203 -67.057891845703 -282.266937255859 1.709251523018
-11.931428909302 -66.351020812988 -281.013732910156 2.275806665421
-154.176589965820 -68.656341552734 -282.347991943359 2.784435749054
-124.848152160645 -67.377487182617 -284.925720214844 2.118345022202
-161.606735229492 -70.789878845215 -286.082824707031 1.829211354256
-115.792175292969 -65.759468078613 -286.999938964844 2.689199447632
-105.522285461426 -66.273483276367 -289.520629882813 2.539349794388
-7.993381977081 -66.143325805664 -285.649475097656 3.185327529907
-109.403808593750 -67.209648132324 -289.165008544922 1.560621857643
-117.509483337402 -63.692256927490 -285.076782226563 5.078210830688
-121.314155578613 -62.820266723633 -291.464294433594 3.982653856277
-139.127334594727 -65.221099853516 -289.624084472656 1.865771293640
-127.286026000977 -63.363475799561 -291.336181640625 2.318244457245
-158.839126586914 -69.488410949707 -289.679809570313 1.626979231834
-147.915954589844 -63.495540618896 -292.532958984375 1.714661121368
-157.611938476563 -62.792003631592 -301.464569091797 5.975659847260
-155.334609985352 -63.392177581787 -310.749633789063 5.065567016602
-159.442535400391 -63.594284057617 -300.760650634766 6.730731964111
-142.960769653320 -66.148941040039 -310.382965087891 2.605880022049
-150.784683227539 -66.270278930664 -313.572753906250 1.930514812469
36.098602294922 -72.143341064453 -9.342569351196 1.691121459007
47.396606445313 -75.285820007324 -16.888889312744 3.495898723602
24.776473999023 -68.025085449219 -23.796331405640 3.376116991043
51.019275665283 -72.096534729004 -27.816251754761 1.736678838730
28.694131851196 -73.350791931152 -34.681858062744 1.047540664673
33.407699584961 -72.297058105469 -34.935604095459 3.349845170975
-57.132122039795 -65.510742187500 -47.297653198242 3.729785919189
80.370254516602 -67.773529052734 -61.693042755127 1.586182117462
81.557228088379 -72.287719726563 -67.418548583984 2.340611457825
-89.903572082520 -69.480636596680 -62.127902984619 0.852172791958
-12.120969772339 -67.378356933594 -61.553733825684 2.376232862473
-92.053535461426 -70.256042480469 -69.861427307129 2.595167636871
96.848731994629 -73.398658752441 -69.332275390625 2.973686695099
-13.240078926086 -66.818801879883 -68.051261901855 0.877557396889
67.990600585938 -73.402923583984 -79.291366577148 2.665431976318
-41.604839324951 -73.173675537109 -79.283393859863 1.341582775116
-26.840307235718 -72.893020629883 -75.863029479980 1.922677040100
56.622055053711 -67.412338256836 -86.581817626953 1.278801321983
-43.838947296143 -78.902770996094 -84.475059509277 1.831531286240
65.314109802246 -63.647716522217 -87.342666625977 0.901732683182
53.170532226563 -74.453628540039 -90.145141601563 1.041122078896
53.979461669922 -70.561363220215 -94.054962158203 2.576518535614
59.836978912354 -74.945945739746 -91.254981994629 1.481027483940
57.181175231934 -67.652435302734 -96.097656250000 1.850571036339
100.062187194824 -68.320251464844 -98.265159606934 2.038387537003
106.310585021973 -67.267990112305 -99.172378540039 1.678297519684
60.025985717773 -72.895019531250 -100.346466064453 3.130676746368
107.238357543945 -67.300125122070 -100.076240539551 2.074395418167
-76.632507324219 -67.823554992676 -98.993972778320 1.324591159821
-72.396507263184 -67.769187927246 -101.775306701660 0.573692560196
100.628898620605 -68.043144226074 -99.016487121582 1.780409455299
53.492378234863 -70.856132507324 -101.187362670898 0.987331449986
70.679031372070 -71.924400329590 -99.114151000977 1.606930136681
-72.245887756348 -68.247619628906 -107.124153137207 2.249398946762
-84.883590698242 -66.667816162109 -106.889999389648 2.736928462982
89.372657775879 -73.486839294434 -104.865974426270 3.453463554382
40.429679870605 -71.120162963867 -104.551452636719 0.799398541451
105.124359130859 -67.691040039063 -106.362548828125 1.413748145103
46.711250305176 -72.069175720215 -113.816825866699 1.171988606453
110.338569641113 -71.192062377930 -104.128860473633 2.231570005417
-78.478477478027 -67.471626281738 -110.773345947266 1.751763939857
104.794395446777 -66.866500854492 -109.080871582031 2.683910846710
-84.102043151855 -65.402183532715 -120.863273620605 1.898455381393
-58.490612030029 -70.241737365723 -128.339050292969 1.869319438934
-55.768512725830 -67.129981994629 -124.660758972168 1.535374522209
-72.408302307129 -69.089462280273 -129.685852050781 2.927790880203
-50.905929565430 -69.392440795898 -130.780288696289 0.936029374599
-83.999076843262 -69.093406677246 -132.602828979492 2.340924501419
-77.405502319336 -64.717201232910 -132.712097167969 1.228736639023
-80.526435852051 -67.699768066406 -130.650802612305 0.676691114902
-60.277561187744 -72.144416809082 -141.358123779297 2.382227182388
-71.606918334961 -67.400367736816 -140.393478393555 1.188972711563
-60.036987304688 -71.005371093750 -134.921737670898 3.214844465256
-58.610534667969 -68.115005493164 -141.645721435547 2.287376165390
16.752616882324 -65.628112792969 -143.921813964844 1.679577350616
-91.023719787598 -67.733863830566 -141.870956420898 2.147836685181
-47.784091949463 -71.523483276367 -146.562347412109 1.344784736633
-96.540946960449 -65.376106262207 -149.355560302734 1.777523875237
-100.945960998535 -64.865463256836 -148.839660644531 0.824700355530
18.985294342041 -70.693290710449 -153.944061279297 2.456218242645
13.871600151062 -70.004028320313 -158.283218383789 1.631042480469
-96.030288696289 -68.659484863281 -159.401718139648 0.909361839294
-103.635925292969 -67.118431091309 -153.828399658203 2.696702957153
-100.588523864746 -65.739517211914 -168.017593383789 1.617894172668
21.807924270630 -68.042663574219 -170.039505004883 1.778222203255
-110.778198242188 -66.406753540039 -172.356109619141 3.305108308792
22.441658020020 -68.872840881348 -166.627716064453 1.255848288536
-147.909210205078 -66.173408508301 -176.028793334961 1.145327687263
17.520040512085 -68.325897216797 -176.575805664063 1.374819397926
23.773633956909 -69.242378234863 -186.082534790039 1.504586577415
-152.675704956055 -64.588874816895 -186.086380004883 0.820266544819
21.084304809570 -69.354530334473 -176.576400756836 0.666797161102
18.849723815918 -63.183654785156 -180.528656005859 3.382207870483
-144.079391479492 -69.420104980469 -184.360122680664 2.730868577957
-152.226257324219 -63.559341430664 -188.730773925781 2.432945728302
19.523441314697 -68.493919372559 -188.507629394531 2.019787788391
18.045675277710 -70.045783996582 -190.006362915039 1.450083374977
-142.609100341797 -67.813133239746 -193.368515014648 1.059185147285
-109.483650207520 -66.798309326172 -197.414840698242 0.608350157738
23.414985656738 -68.910034179688 -198.703826904297 2.600180149078
-125.281089782715 -66.029373168945 -194.467819213867 1.521395683289
10.168348312378 -70.200714111328 -200.081832885742 1.944224953651
-130.552459716797 -61.406055450439 -193.976959228516 3.497589588165
-159.808105468750 -63.545375823975 -190.179962158203 6.472932815552
-161.938217163086 -65.003692626953 -196.284088134766 4.436407089233
-159.250274658203 -66.613403320313 -194.660842895508 2.039257287979
-20.701147079468 -67.618873596191 -204.641937255859 2.119588375092
-168.115692138672 -67.587921142578 -199.143356323242 3.772650957108
-26.877248764038 -64.696441650391 -192.687911987305 3.476365566254
-15.958859443665 -69.044868469238 -195.991180419922 1.431630134583
9.381127357483 -63.851520538330 -195.780181884766 4.712073802948
-158.315658569336 -65.554710388184 -203.470718383789 2.844634294510
-108.614334106445 -65.164131164551 -201.981323242188 2.664088010788
-17.967519760132 -64.817398071289 -201.699584960938 4.313859939575
-160.610671997070 -61.552558898926 -201.245971679688 3.437047958374
16.222255706787 -68.381271362305 -201.721878051758 1.884618759155
-169.317443847656 -63.407947540283 -204.575088500977 3.795262575150
-121.287406921387 -68.344718933105 -202.548965454102 2.665204048157
-115.915565490723 -63.595169067383 -207.019256591797 4.076157093048
-123.505203247070 -65.168190002441 -203.989761352539 1.281880617142
-15.338516235352 -66.868087768555 -203.696151733398 2.166842222214
-17.907691955566 -67.878807067871 -204.582336425781 1.743025660515
-164.867843627930 -64.665443420410 -210.348693847656 2.496358633041
-160.636795043945 -63.489223480225 -212.043975830078 4.011883735657
-165.462524414063 -65.593620300293 -219.168807983398 1.657864093781
-141.971771240234 -67.539802551270 -213.863098144531 3.601902723312
-145.420928955078 -65.592735290527 -223.582687377930 1.265558481216
-3.570111989975 -66.061248779297 -220.108551025391 2.975746154785
-10.214666366577 -70.939353942871 -217.102737426758 1.651998162270
