-80.231422424316 -72.448867797852 -211.631439208984 1.335030674934
-13.452146530151 -69.753639221191 -209.036972045898 1.542323470116
-20.986722946167 -71.657913208008 -217.994338989258 1.572188854218
18.224153518677 -74.254920959473 -212.884140014648 0.837920308113
-5.843378067017 -75.456039428711 -218.831375122070 1.909363150597
-88.622833251953 -76.600257873535 -217.172531127930 0.770359933376
92.342666625977 -74.105262756348 -214.122970581055 1.428957462311
-98.681411743164 -72.576217651367 -213.820449829102 2.975204229355
-152.624603271484 -72.280303955078 -221.598495483398 2.563874721527
-25.573171615601 -72.936203002930 -222.707626342773 2.277196168900
17.453729629517 -74.777069091797 -215.621841430664 1.282730340958
-102.377334594727 -73.514457702637 -218.128967285156 2.094105720520
7.077756881714 -71.253967285156 -218.277938842773 2.686776876450
-25.968290328979 -74.063705444336 -214.660903930664 1.997606396675
82.469459533691 -73.075851440430 -224.570434570313 2.066847324371
-145.645019531250 -72.390472412109 -216.760269165039 2.256944894791
9.915461540222 -72.828193664551 -225.257965087891 2.329885482788
-9.922388076782 -76.857887268066 -224.983566284180 0.985575914383
17.152095794678 -68.572364807129 -222.015228271484 1.262629032135
83.235008239746 -75.464736938477 -222.691024780273 0.810069084167
-14.066793441772 -76.066673278809 -227.746582031250 1.960183382034
-130.986328125000 -74.188972473145 -224.342681884766 1.749890446663
-14.250606536865 -74.121940612793 -223.656433105469 0.691934585571
16.258449554443 -74.474349975586 -230.696563720703 1.191256403923
-127.163169860840 -75.087760925293 -225.081436157227 0.869285464287
-152.047729492188 -69.850883483887 -227.053146362305 2.724476814270
-142.845489501953 -71.958412170410 -226.526443481445 1.943841814995
-131.327621459961 -71.249374389648 -225.654861450195 0.820554852486
-13.551213264465 -71.959869384766 -224.402465820313 1.979457139969
71.390129089355 -74.134452819824 -228.424255371094 1.869510054588
-143.819107055664 -69.476959228516 -233.870254516602 1.944941282272
70.312431335449 -75.504814147949 -229.000656127930 2.586390733719
-20.948133468628 -76.904434204102 -228.779830932617 2.411777019501
-142.751785278320 -76.086921691895 -227.000411987305 3.299692869186
76.821823120117 -79.112861633301 -229.213470458984 3.850571393967
9.155046463013 -77.651809692383 -232.984115600586 1.698585748672
-142.178482055664 -76.870468139648 -232.958084106445 2.221015691757
-150.581039428711 -71.853179931641 -231.415618896484 3.094104528427
16.364055633545 -70.898933410645 -230.998382568359 1.595399975777
-3.295452117920 -76.092430114746 -237.029586791992 2.132177352905
-28.262985229492 -73.077316284180 -236.210006713867 2.467699289322
-2.199420928955 -69.969688415527 -236.899337768555 0.778103351593
-161.376815795898 -74.627838134766 -235.146652221680 1.021352887154
7.296627998352 -72.711563110352 -242.977233886719 0.975766777992
-165.315750122070 -73.081909179688 -236.125869750977 1.472447514534
-13.393625259399 -74.821067810059 -236.890029907227 2.684585094452
60.916400909424 -74.975631713867 -239.307952880859 1.837855935097
-13.672772407532 -72.792549133301 -237.298965454102 1.683946013451
-25.557201385498 -72.754127502441 -243.411026000977 2.237045049667
-25.647518157959 -73.041931152344 -240.813232421875 0.433796256781
-13.492850303650 -75.783332824707 -240.085418701172 2.039196968079
-146.824676513672 -73.093620300293 -228.600646972656 1.005659580231
7.440678119659 -73.097167968750 -241.769683837891 1.538526892662
63.581428527832 -73.684471130371 -243.805587768555 2.161077499390
14.033633232117 -71.711051940918 -244.638412475586 2.083622694016
-166.599853515625 -70.901626586914 -238.918457031250 1.968277215958
-51.112941741943 -72.309730529785 -239.527938842773 3.236407279968
3.191297054291 -80.244865417480 -247.593643188477 0.849556148052
16.326726913452 -73.832382202148 -243.797714233398 3.176377296448
-54.908782958984 -72.490104675293 -245.892730712891 0.624540030956
-3.527086973190 -69.781463623047 -247.562118530273 3.491321563721
20.186420440674 -78.447441101074 -247.591476440430 2.050655841827
-169.841964721680 -70.551445007324 -246.077056884766 3.484621763229
-68.306304931641 -76.184707641602 -246.728179931641 0.609227180481
-52.271495819092 -72.069351196289 -246.129547119141 2.855006694794
-81.854637145996 -71.966812133789 -249.706054687500 2.387868165970
-161.714035034180 -73.210868835449 -244.402236938477 3.301613092422
-151.446609497070 -66.696296691895 -247.055038452148 1.322765231133
-60.850101470947 -74.783523559570 -248.319931030273 1.128606438637
-69.498329162598 -72.813308715820 -248.492446899414 1.496818542480
-154.376663208008 -70.431488037109 -250.220108032227 2.133334636688
-152.792312622070 -73.016845703125 -249.865600585938 2.709711074829
-76.631439208984 -69.816307067871 -252.844711303711 1.416740059853
-94.223632812500 -70.304328918457 -253.480041503906 1.547597765923
-165.125106811523 -67.729057312012 -249.619674682617 1.501931309700
-157.681350708008 -72.331420898438 -257.245330810547 2.462107658386
-135.653640747070 -73.730316162109 -256.061553955078 1.658038973808
-83.894073486328 -72.764724731445 -249.755126953125 1.873319387436
-162.923141479492 -69.454460144043 -250.376739501953 0.779977619648
-142.659942626953 -70.543037414551 -254.575424194336 2.876727342606
-86.073760986328 -71.904045104980 -249.635299682617 2.119086980820
-97.553344726563 -70.404945373535 -258.581604003906 1.420475482941
-145.883010864258 -73.067779541016 -253.668640136719 1.106901645660
-94.305915832520 -72.297485351563 -254.404357910156 1.733276724815
-153.397735595703 -70.619544982910 -253.598373413086 0.954065442085
-103.130142211914 -72.066520690918 -253.777908325195 1.614160418510
-169.521789550781 -71.315963745117 -256.250183105469 1.839614510536
-162.397521972656 -73.348930358887 -260.919189453125 0.686213970184
-127.257591247559 -75.069084167480 -254.523681640625 1.152876019478
-152.541732788086 -72.233009338379 -257.052581787109 2.249280214310
-112.720329284668 -69.734893798828 -260.013336181641 1.291274189949
-15.228850364685 -71.990554809570 -261.145965576172 1.946393847466
-142.458755493164 -71.875984191895 -258.760253906250 3.285410881042
-126.709869384766 -71.642555236816 -258.049346923828 3.383618593216
-155.066528320313 -70.501853942871 -260.254577636719 1.593053460121
22.560665130615 -74.208747863770 -270.527313232422 2.574280500412
-149.754745483398 -74.081253051758 -276.337890625000 1.880851626396
-169.506759643555 -72.026626586914 -277.557708740234 2.246401786804
-9.282812118530 -73.186248779297 -278.786071777344 1.877958059311
-146.956939697266 -71.833518981934 -278.217651367188 2.273723602295
-10.661873817444 -71.622863769531 -282.500701904297 1.384067893028
11.657232284546 -73.558357238770 -285.693359375000 1.959051012993
-137.791442871094 -70.493019104004 -283.791870117188 1.907430291176
-69.472351074219 -74.186431884766 -285.599334716797 2.261822938919
-34.522075653076 -74.977645874023 -287.129455566406 1.552836537361
-114.023910522461 -71.996276855469 -282.525115966797 2.871353626251
-96.536163330078 -75.743591308594 -288.587677001953 3.456860780716
-90.837280273438 -72.514114379883 -289.806488037109 2.382277727127
-51.044456481934 -73.895828247070 -290.767517089844 2.710127353668
-117.160362243652 -75.979927062988 -286.703247070313 1.212944149971
-114.917747497559 -73.217178344727 -288.392547607422 1.408712744713
-34.252326965332 -70.464744567871 -288.249145507813 2.088531255722
-116.560890197754 -72.457809448242 -291.117523193359 2.804371833801
-128.247451782227 -67.988693237305 -288.146911621094 2.579828500748
-145.649581909180 -73.672439575195 -291.346466064453 1.241838574409
5.929966926575 -72.905502319336 -291.063781738281 2.048251867294
15.376412391663 -74.885665893555 -292.984863281250 0.715528249741
-161.129287719727 -71.597572326660 -290.404449462891 2.055617809296
-159.653076171875 -75.063941955566 -298.286010742188 3.610945463181
-148.419647216797 -72.901733398438 -308.222198486328 3.333337068558
-153.399581909180 -70.398231506348 -308.497924804688 1.747812271118
-154.040298461914 -73.026939392090 -311.223937988281 0.785672783852
31.179613113403 -78.493156433105 -14.762842178345 3.940291881561
33.107456207275 -73.802726745605 -18.107900619507 0.852911353111
23.662982940674 -75.686538696289 -24.015691757202 2.756751060486
31.005538940430 -73.368392944336 -39.077537536621 1.625636816025
-56.185466766357 -73.583564758301 -48.512386322021 1.980572938919
-63.290477752686 -74.023887634277 -48.865524291992 2.683138370514
-36.959606170654 -77.469184875488 -49.333732604980 5.186104297638
-82.647781372070 -70.488929748535 -61.370780944824 3.638578653336
82.789855957031 -78.538787841797 -74.700019836426 3.248042821884
-13.787055015564 -73.025978088379 -70.342704772949 1.685137152672
90.799423217773 -76.750503540039 -66.969627380371 4.086535930634
100.911254882813 -75.619758605957 -77.682876586914 2.571038246155
-90.985855102539 -72.215103149414 -74.691925048828 1.070074319839
69.159690856934 -75.480415344238 -80.749084472656 3.110165357590
-39.619739532471 -78.186996459961 -84.647209167480 1.434056282043
102.412483215332 -74.916397094727 -82.811843872070 3.920017957687
-54.189464569092 -73.047996520996 -87.446243286133 3.154975414276
52.419975280762 -75.731086730957 -90.694381713867 1.450881600380
72.287551879883 -80.618591308594 -91.167701721191 6.196107864380
56.814025878906 -74.559234619141 -96.481025695801 1.572872042656
54.093616485596 -77.020996093750 -98.734855651855 1.591544389725
75.710517883301 -78.602172851563 -96.112449645996 3.336050987244
47.690147399902 -75.007720947266 -105.296195983887 2.401585578918
101.666160583496 -76.411384582520 -101.525512695313 3.200257062912
107.052070617676 -79.630180358887 -107.272216796875 4.221645355225
81.230606079102 -72.911911010742 -103.903533935547 1.055756330490
93.024093627930 -76.889160156250 -104.106399536133 4.526401042938
102.188674926758 -76.059890747070 -95.889938354492 2.977481126785
110.720726013184 -76.401428222656 -104.568077087402 3.231915712357
40.767093658447 -75.176879882813 -106.120704650879 1.711441040039
113.579895019531 -73.201057434082 -119.496337890625 1.287043333054
114.798751831055 -77.055198669434 -119.777717590332 4.277527809143
32.312469482422 -73.554702758789 -123.404144287109 1.173451781273
45.769104003906 -76.345817565918 -118.930305480957 1.788322210312
116.159423828125 -76.131469726563 -131.101593017578 1.396810889244
37.184478759766 -74.558685302734 -126.588378906250 2.697138309479
115.962364196777 -79.221809387207 -128.658401489258 4.234482765198
109.745475769043 -76.682312011719 -123.268898010254 2.884505033493
27.266283035278 -75.623992919922 -135.383575439453 1.731238842010
-47.076644897461 -74.535369873047 -133.016296386719 2.550152063370
-51.238136291504 -72.512397766113 -133.963867187500 1.068794369698
112.212448120117 -75.026908874512 -135.822616577148 1.021991610527
-68.428428649902 -77.498954772949 -139.167144775391 4.586992740631
-72.006301879883 -74.544601440430 -138.970245361328 0.679952323437
-58.135559082031 -74.540420532227 -139.979843139648 1.649906516075
32.705379486084 -74.845077514648 -143.493026733398 2.801502227783
116.922103881836 -77.337951660156 -146.815399169922 4.785769939423
-68.626815795898 -70.791656494141 -145.740539550781 2.745931148529
-47.171466827393 -73.818199157715 -141.500701904297 2.910762310028
34.101627349854 -75.394668579102 -151.120300292969 1.682302117348
-67.370246887207 -74.992683410645 -146.508575439453 1.767499566078
114.828727722168 -74.668861389160 -142.169601440430 1.294329643250
112.513458251953 -73.691986083984 -158.370452880859 2.268457174301
117.004638671875 -76.668708801270 -153.854034423828 2.529477596283
-37.698822021484 -76.542022705078 -152.107376098633 1.807594895363
-64.147384643555 -73.814781188965 -163.029373168945 1.092570185661
-68.489707946777 -70.737106323242 -155.796127319336 1.608078360558
30.937320709229 -75.844848632813 -146.229370117188 2.174191713333
-1.490699052811 -76.274185180664 -161.546417236328 2.083602428436
109.770980834961 -74.995445251465 -162.402435302734 1.379850149155
112.543853759766 -73.837341308594 -153.829513549805 2.041635036469
112.895835876465 -77.655899047852 -159.227294921875 2.182265758514
-63.062705993652 -71.152038574219 -158.758422851563 1.030462265015
-44.760837554932 -75.826057434082 -164.168411254883 0.963404834270
-1.717844009399 -73.553268432617 -164.483139038086 2.242398500443
-28.760036468506 -74.179084777832 -174.015762329102 1.339964866638
106.549530029297 -74.460525512695 -167.966247558594 1.172245144844
-33.722324371338 -76.994430541992 -159.127243041992 1.363188266754
109.984046936035 -73.827316284180 -169.131576538086 1.451848626137
-41.267333984375 -74.390617370605 -172.585418701172 1.570867776871
109.221359252930 -73.192489624023 -169.385910034180 2.315985202789
-151.038848876953 -73.726699829102 -177.662734985352 1.744607686996
-26.421775817871 -70.284927368164 -175.871612548828 0.854172587395
-19.902856826782 -74.025497436523 -182.550811767578 1.785317182541
25.331434249878 -77.409896850586 -176.894897460938 0.435881942511
15.462788581848 -73.926925659180 -182.782409667969 1.032062768936
28.038049697876 -74.768150329590 -182.826492309570 1.853909015656
104.625640869141 -78.840522766113 -184.456939697266 2.736025094986
-151.400680541992 -69.884819030762 -182.462722778320 2.770220756531
-19.358423233032 -76.133880615234 -184.071166992188 1.437939882278
102.635894775391 -75.979682922363 -179.274642944336 2.676695585251
103.520889282227 -71.936088562012 -190.342651367188 0.864187836647
108.641990661621 -76.287048339844 -178.557815551758 1.078418612480
99.312034606934 -76.595039367676 -194.382812500000 2.951580286026
-151.084686279297 -73.041198730469 -194.132949829102 2.441933870316
100.129341125488 -75.598953247070 -206.141662597656 1.188711166382
-27.994865417480 -71.581909179688 -196.232482910156 1.935239076614
97.765930175781 -74.627525329590 -196.387786865234 1.740969181061
-121.227882385254 -75.846977233887 -198.102172851563 2.838249444962
-29.501600265503 -78.139297485352 -189.233139038086 1.360798358917
-141.692123413086 -68.627677917480 -195.980331420898 1.207409977913
95.520843505859 -74.932846069336 -199.192169189453 1.860620141029
8.816911697388 -74.739532470703 -198.607131958008 2.150880575180
24.139411926270 -72.950225830078 -192.274246215820 1.503074765205
-147.963272094727 -72.840232849121 -200.558975219727 1.251334309578
-138.791534423828 -71.777702331543 -199.802368164063 2.197787284851
-9.967049598694 -73.347251892090 -206.007156372070 1.984438657761
-124.264312744141 -72.453536987305 -201.689208984375 0.698335170746
-143.743774414063 -74.853096008301 -197.427902221680 2.222488164902
4.111123085022 -74.206390380859 -199.055999755859 5.416282176971
-24.113901138306 -75.787132263184 -200.235076904297 2.133672952652
20.779077529907 -76.832000732422 -201.998977661133 1.265946269035
6.625811100006 -75.116889953613 -211.328506469727 2.129295587540
85.498046875000 -72.207550048828 -208.983276367188 3.374412298203
-18.375185012817 -71.084846496582 -211.094360351563 2.176364898682
91.377784729004 -72.512924194336 -209.457275390625 1.652381181717
97.102951049805 -76.546417236328 -207.610931396484 0.456817954779
-148.987564086914 -73.266571044922 -212.183578491211 2.179334878922
95.482276916504 -76.334892272949 -212.155654907227 1.823337554932
5.063117027283 -72.962020874023 -206.765441894531 2.427514076233
3.533978939056 -75.863395690918 -213.882446289063 3.634709358215
-32.905292510986 -73.105072021484 -205.988861083984 2.001461744308
-89.432991027832 -72.273300170898 -211.458953857422 2.840705633163
-26.231296539307 -74.897697448730 -209.950683593750 0.768971920013
85.063514709473 -73.759040832520 -217.322814941406 2.291546106339
89.222412109375 -73.627326965332 -217.482055664063 1.576114296913
-31.844427108765 -72.657066345215 -211.247879028320 2.815751552582
-84.453758239746 -69.910636901855 -216.770996093750 3.830825805664
-1.157853007317 -75.641975402832 -218.112930297852 1.927718758583
82.039787292480 -71.066299438477 -213.514953613281 3.805093526840
-152.080398559570 -75.798179626465 -219.531860351563 3.272209167480
-165.827758789063 -70.489410400391 -211.771682739258 2.191880464554
-162.130493164063 -74.415275573730 -219.810134887695 2.935371637344
-21.604578018188 -74.241188049316 -226.014923095703 1.266047716141
-154.057693481445 -74.914710998535 -220.404174804688 0.961815655231
-5.908194065094 -74.673278808594 -223.805786132813 2.669115066528
6.463294982910 -74.742630004883 -217.869934082031 1.399227380753
-167.326736450195 -71.753776550293 -223.026885986328 1.756246447563
-159.002838134766 -72.299903869629 -224.971969604492 2.085438966751
78.991165161133 -77.345626831055 -231.773132324219 1.340314269066
0.083572000265 -72.430465698242 -226.029022216797 0.832442820072
-157.681076049805 -67.397613525391 -223.725006103516 0.660427153111
-142.664916992188 -73.704544067383 -222.170944213867 1.724215865135
-19.342412948608 -72.454589843750 -223.079742431641 2.230293750763
-0.566974997520 -77.739143371582 -221.877380371094 1.846765518188
79.902938842773 -71.929481506348 -225.917358398438 1.485298991203
-161.448272705078 -70.279205322266 -225.437774658203 2.708196163177
-144.209991455078 -69.783592224121 -228.623687744141 2.955766439438
-125.333045959473 -70.648826599121 -228.887435913086 2.419192790985
78.595214843750 -75.673179626465 -226.984619140625 0.409034520388
-115.841644287109 -72.239967346191 -227.273635864258 2.185293197632
-146.616027832031 -71.961647033691 -227.046340942383 2.134728431702
-150.735168457031 -70.646820068359 -229.125656127930 2.081798791885
-149.259796142578 -72.707794189453 -229.076797485352 1.587819218636
-156.037933349609 -72.449661254883 -226.763885498047 2.153057813644
-165.287902832031 -72.288337707520 -226.581893920898 0.647051572800
-133.984756469727 -72.235572814941 -233.255676269531 1.049781203270
-133.536834716797 -73.241409301758 -231.067230224609 1.966888070107
-153.462249755859 -75.528167724609 -230.621353149414 2.442106008530
-145.648391723633 -68.506690979004 -234.591857910156 1.055286765099
-151.891921997070 -72.377571105957 -233.040054321289 1.211939454079
74.683349609375 -76.137863159180 -232.694046020508 1.896197795868
67.126800537109 -69.313201904297 -236.099945068359 1.308609008789
-157.260925292969 -70.448699951172 -233.029174804688 2.737923622131
71.552459716797 -69.795982360840 -233.445388793945 1.562047719955
-20.024364471436 -71.815315246582 -235.820236206055 2.596519231796
11.147326469421 -74.700973510742 -236.629089355469 1.207468032837
6.679461956024 -74.245544433594 -235.507308959961 2.432386398315
-154.836669921875 -71.911575317383 -240.355163574219 2.921595573425
14.293755531311 -72.914627075195 -240.664581298828 1.972103118896
60.704555511475 -72.754211425781 -238.062942504883 1.962734937668
13.173054695129 -71.087036132813 -237.481643676758 1.550736665726
5.054843902588 -73.834465026855 -241.043029785156 1.346719980240
-6.777234077454 -71.233413696289 -239.673477172852 0.818922340870
-21.447969436646 -71.701263427734 -242.009582519531 2.405339241028
-2.025218009949 -73.220947265625 -241.362686157227 0.658369481564
3.466820955276 -75.948745727539 -244.474655151367 1.351827859879
57.116039276123 -74.846412658691 -241.644378662109 1.036254644394
-55.807399749756 -76.066444396973 -243.594161987305 0.939696311951
19.239238739014 -72.395355224609 -246.976242065430 0.897125065327
-59.869888305664 -73.688446044922 -240.581832885742 4.320024013519
-10.253153800964 -73.314529418945 -247.208831787109 1.254456162453
-66.473655700684 -69.277427673340 -248.956314086914 3.082574605942
-86.490058898926 -70.808944702148 -251.608581542969 2.443841218948
-83.066879272461 -73.343811035156 -250.662841796875 2.125730991364
-10.314591407776 -72.426414489746 -254.108764648438 2.052873134613
-124.411537170410 -71.775993347168 -257.121643066406 2.634786605835
-14.572828292847 -73.920631408691 -252.270782470703 2.363141059875
-117.488197326660 -72.083976745605 -253.860244750977 2.938896656036
-117.022232055664 -70.735908508301 -256.786682128906 2.290453672409
-104.066436767578 -71.997970581055 -254.842224121094 1.349312901497
-144.455093383789 -70.805801391602 -259.691131591797 2.851768732071
-145.669006347656 -71.150421142578 -265.083892822266 1.362683415413
-169.270172119141 -71.544998168945 -261.198272705078 1.954120874405
18.536560058594 -76.442451477051 -279.960632324219 1.716724514961
-58.907554626465 -70.393043518066 -284.181365966797 1.059761643410
-68.085151672363 -71.190223693848 -282.401763916016 3.522275447845
-43.023490905762 -74.109565734863 -282.878448486328 4.012641906738
-28.956548690796 -73.446907043457 -285.624786376953 1.137738347054
-97.277984619141 -73.725929260254 -287.635253906250 1.509658694267
-31.719062805176 -70.591056823730 -284.812133789063 3.869182586670
-5.014170169830 -72.758338928223 -285.584381103516 1.440003395081
-168.328430175781 -71.254158020020 -286.921447753906 0.937152743340
-16.793247222900 -74.686035156250 -285.181030273438 3.430296421051
5.415495872498 -73.969932556152 -287.474609375000 1.756229400635
13.211859703064 -77.232391357422 -283.254821777344 2.482702016830
-57.916580200195 -74.518882751465 -286.465026855469 2.864829063416
-34.215305328369 -72.834007263184 -290.567535400391 2.652751207352
13.207488059998 -70.951675415039 -292.664886474609 0.630714595318
-71.916435241699 -70.685478210449 -291.581756591797 1.778021335602
-41.202323913574 -69.872108459473 -288.134765625000 1.391173839569
-18.824365615845 -70.579528808594 -289.227935791016 2.454265594482
14.040401458740 -75.043960571289 -290.656097412109 1.254399776459
-12.611916542053 -74.206832885742 -293.553924560547 2.056640148163
2.924757957458 -71.549850463867 -293.286651611328 1.178620815277
13.251511573792 -74.780082702637 -290.217041015625 1.109892487526
-135.924514770508 -70.476341247559 -292.291290283203 1.030297517776
-146.078887939453 -73.624206542969 -297.009246826172 1.603747367859
-152.283813476563 -71.517059326172 -310.984161376953 2.115030050278
45.630298614502 -74.984062194824 -13.673297882080 3.889382362366
32.751754760742 -75.319152832031 -11.634313583374 4.527608394623
41.857040405273 -75.632240295410 -15.336753845215 3.171263456345
24.538621902466 -72.199081420898 -18.418024063110 2.017552137375
47.453166961670 -73.474716186523 -22.344449996948 2.270453929901
28.023614883423 -73.508560180664 -23.720550537109 2.548335790634
26.173591613770 -75.520996093750 -27.242095947266 3.236844539642
27.072647094727 -75.967742919922 -38.038715362549 5.344855308533
41.902420043945 -77.390007019043 -30.736944198608 5.204985618591
28.566852569580 -78.619850158691 -36.124156951904 6.244265079498
45.361064910889 -74.037330627441 -37.616432189941 2.876166343689
34.115852355957 -75.715629577637 -39.252437591553 3.274103403091
41.069198608398 -76.627815246582 -35.854511260986 5.544189929962
33.207733154297 -74.329177856445 -39.762905120850 3.160869121552
45.834308624268 -75.244850158691 -41.138671875000 4.926953315735
35.983959197998 -74.718246459961 -38.839168548584 1.791974663734
-38.816448211670 -72.723808288574 -47.222625732422 1.436351180077
-27.951587677002 -69.626892089844 -49.720745086670 2.736690759659
-87.334190368652 -72.396682739258 -53.163192749023 4.954442501068
-87.167922973633 -74.633995056152 -63.951789855957 3.414832830429
79.772102355957 -77.654106140137 -66.957160949707 5.452186107635
86.124382019043 -74.972587585449 -72.822097778320 1.711200118065
-17.848030090332 -72.349739074707 -72.725456237793 1.237215638161
-86.427009582520 -73.800857543945 -70.112731933594 2.658879756927
-23.427835464478 -73.513916015625 -75.848495483398 1.397283315659
-48.038963317871 -74.911224365234 -83.778144836426 3.243578433990
67.572547912598 -71.186958312988 -86.283752441406 3.209509849548
54.254886627197 -73.683021545410 -93.141944885254 2.160623311996
101.074638366699 -73.306045532227 -91.840522766113 4.056338787079
70.932685852051 -76.259963989258 -96.687774658203 1.230583190918
-66.673095703125 -75.004318237305 -89.637413024902 3.687363147736
-60.705062866211 -71.752609252930 -96.518623352051 4.662322521210
46.302890777588 -74.985298156738 -97.217880249023 2.178249597549
78.882675170898 -73.363578796387 -100.009910583496 0.402265369892
55.824550628662 -81.472831726074 -104.966941833496 4.019765853882
102.775756835938 -74.613967895508 -97.019546508789 1.576643109322
-93.863906860352 -74.770195007324 -105.525825500488 2.445759296417
41.172740936279 -74.586616516113 -110.395263671875 1.976745367050
108.381919860840 -75.710014343262 -109.168861389160 2.109906911850
49.809780120850 -74.260818481445 -111.060401916504 1.860219120979
102.810546875000 -75.759757995605 -110.104980468750 2.879967451096
-84.198822021484 -73.201782226563 -113.662239074707 2.708249092102
37.105098724365 -77.412185668945 -111.559486389160 2.517617464066
107.872810363770 -73.662452697754 -117.192932128906 1.843302130699
105.987174987793 -72.193855285645 -116.152801513672 1.270207643509
106.781311035156 -75.121124267578 -115.499076843262 1.833823204041
111.794723510742 -73.829559326172 -115.001670837402 1.867085099220
41.223114013672 -75.993408203125 -109.885864257813 1.718302726746
33.298892974854 -71.797439575195 -116.886253356934 1.749404191971
42.199470520020 -73.904312133789 -113.829017639160 2.220936298370
107.957214355469 -75.976699829102 -122.177528381348 2.439914703369
41.283012390137 -72.570724487305 -122.903793334961 1.183334469795
110.118064880371 -73.749816894531 -132.555572509766 1.671752452850
112.008125305176 -73.358337402344 -131.461517333984 2.258700132370
34.774158477783 -71.982620239258 -120.204956054688 2.610708475113
-76.880142211914 -72.982292175293 -123.766059875488 4.827342033386
114.894248962402 -72.141380310059 -134.671188354492 3.396081209183
-53.520721435547 -73.307594299316 -136.065765380859 2.308686733246
36.469959259033 -74.753250122070 -134.357025146484 3.048372268677
-72.374244689941 -73.410514831543 -133.802612304688 2.875130891800
27.902738571167 -76.063949584961 -131.204345703125 1.525289297104
-78.794715881348 -73.460090637207 -141.105026245117 3.294003248215
-44.528278350830 -76.141578674316 -140.627090454102 1.907428145409
-73.126914978027 -73.736732482910 -136.537170410156 2.440517425537
111.098083496094 -73.674514770508 -137.445541381836 0.749106526375
118.031120300293 -72.728118896484 -142.061599731445 2.721385002136
118.833747863770 -77.487190246582 -146.909957885742 5.406579017639
-76.544563293457 -72.032188415527 -141.942932128906 1.586390733719
8.699336051941 -69.814605712891 -150.040435791016 1.624763846397
-51.346317291260 -73.717155456543 -147.951980590820 2.433155059814
-50.208442687988 -73.958198547363 -153.877365112305 2.410444974899
107.434249877930 -74.544235229492 -162.029144287109 2.230238914490
-40.770679473877 -74.960845947266 -147.949432373047 2.757120609283
14.579512596130 -71.497200012207 -157.007232666016 0.896385669708
22.892570495605 -75.228675842285 -157.042755126953 2.714790821075
115.215148925781 -73.589775085449 -165.072387695313 2.191385984421
30.269428253174 -73.068649291992 -165.238281250000 3.141991376877
-0.404783010483 -74.689102172852 -162.658874511719 0.516820192337
32.363506317139 -74.455680847168 -160.340255737305 1.266776919365
-67.205642700195 -71.281303405762 -156.036865234375 0.735735893250
-65.232376098633 -72.542373657227 -157.512344360352 1.533252596855
-68.401741027832 -71.461257934570 -163.980819702148 2.070415019989
115.273025512695 -70.956588745117 -161.847229003906 2.545126438141
-44.074199676514 -73.179206848145 -161.618667602539 1.184854149818
18.216251373291 -73.673583984375 -164.873626708984 1.079116106033
-63.530635833740 -71.761474609375 -168.019546508789 1.186314344406
-62.667083740234 -71.042022705078 -169.778533935547 1.887883305550
-40.780548095703 -73.911849975586 -158.924545288086 0.535560786724
-33.146759033203 -75.128273010254 -167.382400512695 2.122745513916
115.371055603027 -76.219093322754 -171.749496459961 2.850863933563
-36.718421936035 -68.376808166504 -178.436279296875 3.613886833191
14.098516464233 -74.379928588867 -172.448486328125 3.750195503235
110.929466247559 -76.604736328125 -184.706970214844 3.316868305206
-147.293624877930 -73.667175292969 -173.414093017578 1.682798981667
-145.541122436523 -71.788864135742 -170.916198730469 3.966009378433
-148.348831176758 -70.171623229980 -177.243347167969 3.394929647446
-142.184478759766 -73.263694763184 -180.166564941406 1.225174546242
-31.625059127808 -71.556365966797 -184.229522705078 2.472073793411
-22.883964538574 -73.016571044922 -184.566925048828 1.460098385811
23.449613571167 -69.741294860840 -190.437484741211 1.514560818672
-141.215362548828 -71.061203002930 -184.109222412109 2.327366352081
-147.086898803711 -72.096221923828 -185.881134033203 2.311264753342
-21.069364547729 -70.413230895996 -185.298202514648 2.666213512421
11.369743347168 -73.548454284668 -181.797409057617 3.189445257187
-149.223510742188 -71.637893676758 -191.550781250000 1.374281048775
-31.380800247192 -73.491905212402 -186.711181640625 1.712001919746
100.317588806152 -73.933654785156 -188.618408203125 1.625962615013
106.455474853516 -72.966590881348 -190.148635864258 1.844283580780
24.338533401489 -68.936737060547 -192.798202514648 1.086355447769
-13.306916236877 -73.165725708008 -187.449218750000 4.665593624115
-27.614610671997 -74.658882141113 -192.161575317383 1.821834921837
-155.268737792969 -72.575279235840 -196.372467041016 1.787368178368
-132.525253295898 -72.679832458496 -194.366989135742 1.182105898857
-125.035591125488 -69.252708435059 -192.610275268555 2.028644561768
-124.585350036621 -70.212287902832 -195.210083007813 1.074448347092
-22.341497421265 -68.731246948242 -194.967010498047 1.717362403870
12.814253807068 -75.060508728027 -191.736755371094 1.753777503967
92.669609069824 -77.158485412598 -201.431488037109 2.887157678604
-149.905868530273 -68.038108825684 -192.693603515625 1.903540015221
-144.960998535156 -69.201225280762 -196.072280883789 1.188100099564
-150.822265625000 -70.942199707031 -197.427978515625 2.131062507629
-154.812759399414 -69.292350769043 -194.680221557617 2.117833375931
-24.692037582397 -72.210060119629 -198.456100463867 1.440355062485
-10.586675643921 -71.416244506836 -194.387435913086 3.813304185867
-146.294082641602 -67.731216430664 -199.446578979492 2.764314889908
-18.401176452637 -71.952011108398 -200.091995239258 2.309317827225
-161.343612670898 -70.673225402832 -197.805725097656 2.459128141403
-134.269027709961 -71.421943664551 -196.892974853516 1.054182767868
15.687938690186 -74.715362548828 -206.393081665039 2.140668869019
-161.247756958008 -68.174751281738 -201.237686157227 3.090369939804
-146.134567260742 -72.814956665039 -203.852905273438 2.752939701080
8.284474372864 -71.072242736816 -202.076782226563 2.181014060974
-154.058517456055 -68.900733947754 -199.891372680664 2.033658504486
-24.533424377441 -72.060501098633 -200.694946289063 2.591930150986
97.445175170898 -74.377273559570 -199.676666259766 1.593068242073
-158.546005249023 -72.122276306152 -209.699035644531 2.891735315323
-164.537826538086 -74.188362121582 -204.842178344727 3.917512893677
-76.885505676270 -70.055984497070 -206.528671264648 3.259975671768
89.242301940918 -72.890884399414 -209.302169799805 2.293598175049
-3.979130983353 -71.424224853516 -217.543777465820 2.132156610489
-154.608551025391 -70.086349487305 -210.144912719727 2.880871772766
-87.706985473633 -71.923988342285 -211.581466674805 3.155752897263
-9.412752151489 -75.171310424805 -210.417343139648 1.924158930779
15.388304710388 -72.545967102051 -219.309234619141 0.839377224445
-145.111587524414 -71.884483337402 -217.467102050781 1.637916445732
-3.827459096909 -76.373435974121 -220.102630615234 1.185874819756
-19.559663772583 -73.417694091797 -217.222534179688 1.664276242256
-14.804879188538 -69.404022216797 -219.461563110352 2.524796009064
90.063980102539 -73.455497741699 -219.443542480469 1.605263113976
-20.888208389282 -71.197036743164 -215.776199340820 2.370960712433
-31.893743515015 -71.786888122559 -215.963577270508 1.973442792892
-107.801155090332 -67.330551147461 -222.619644165039 2.628496646881
-16.359777450562 -70.835067749023 -222.249694824219 1.524719715118
92.253372192383 -71.515045166016 -219.352844238281 1.439638137817
77.288040161133 -74.098205566406 -220.691787719727 3.546152830124
7.001235961914 -73.859329223633 -218.679428100586 2.016921281815
-11.432547569275 -70.347373962402 -224.500686645508 1.782798886299
78.401885986328 -73.872627258301 -222.277618408203 2.214363574982
-122.665977478027 -74.470726013184 -222.931427001953 2.607622861862
-20.258150100708 -70.512130737305 -222.199462890625 2.677411556244
-97.385063171387 -70.954818725586 -221.665527343750 2.227481603622
-102.761039733887 -71.613510131836 -222.155212402344 0.822639226913
-131.898559570313 -73.124153137207 -226.320571899414 1.464787006378
81.070472717285 -73.409339904785 -223.937484741211 2.726603507996
-123.487068176270 -71.861656188965 -225.021362304688 1.849344372749
4.421401977539 -71.953437805176 -228.113067626953 2.120686531067
80.985252380371 -71.946418762207 -224.734405517578 2.327184200287
-16.067731857300 -73.343597412109 -229.651412963867 1.129446029663
-13.845805168152 -73.106880187988 -226.562545776367 1.100617885590
-2.230933904648 -77.353736877441 -229.236389160156 2.133335828781
9.978105545044 -74.421669006348 -226.868576049805 2.696130752563
88.594955444336 -74.579620361328 -226.913879394531 3.862501144409
9.628807067871 -71.124443054199 -230.836761474609 2.919236898422
5.236625194550 -72.258247375488 -228.826126098633 2.554820537567
-9.359908103943 -72.935432434082 -230.458145141602 2.526710033417
-7.083481788635 -73.254608154297 -229.375198364258 1.881236910820
18.393966674805 -71.449111938477 -232.293151855469 2.060289144516
-12.804726600647 -69.943351745605 -232.378646850586 1.593617796898
70.576393127441 -73.594947814941 -240.001022338867 2.256153106689
-9.551962852478 -70.850349426270 -238.027557373047 2.423758745193
18.606826782227 -73.617324829102 -235.329772949219 1.752985715866
-163.317428588867 -69.487731933594 -237.634994506836 2.528803110123
-5.972894191742 -70.291984558105 -236.330398559570 1.458784461021
-8.557600021362 -73.078613281250 -239.447860717773 1.374562382698
-168.268997192383 -71.165733337402 -247.933105468750 2.952726364136
-11.345490455627 -70.689056396484 -243.604934692383 1.593596458435
15.058151245117 -69.957702636719 -245.028076171875 2.480041742325
-148.276824951172 -72.671150207520 -249.229965209961 3.265867710114
-73.882019042969 -70.937225341797 -248.786849975586 0.974063158035
-62.201431274414 -72.523101806641 -245.567840576172 1.121874213219
51.787834167480 -70.689796447754 -246.812911987305 1.499596357346
-75.239807128906 -71.153854370117 -245.178848266602 2.488143444061
16.269706726074 -73.084442138672 -249.094528198242 2.186737298965
-73.721138000488 -71.892532348633 -249.692077636719 2.105489253998
-15.904856681824 -70.558227539063 -245.074859619141 3.311495065689
-146.175460815430 -73.440292358398 -250.185501098633 2.176752328873
46.016822814941 -69.518493652344 -249.916427612305 1.271038293839
-80.764076232910 -73.526939392090 -254.027725219727 1.211065649986
-103.431114196777 -68.358436584473 -252.974304199219 3.745721340179
-100.056251525879 -72.783973693848 -252.628936767578 2.441715240479
-120.552185058594 -69.175407409668 -250.749328613281 5.437556266785
-106.554809570313 -68.767356872559 -255.055068969727 1.591779112816
-106.589782714844 -70.826995849609 -256.057312011719 2.385977983475
20.837100982666 -69.964019775391 -258.151306152344 3.027728319168
-130.205963134766 -68.535377502441 -262.679504394531 3.554479360580
-14.893594741821 -72.697280883789 -274.743896484375 3.343863725662
-148.829772949219 -68.065307617188 -280.665191650391 1.722896695137
-169.952133178711 -71.816696166992 -282.644775390625 3.924369573593
-126.187942504883 -71.602371215820 -281.809600830078 2.753175497055
-115.442047119141 -67.746803283691 -284.649261474609 3.505597591400
-76.806961059570 -67.034561157227 -282.815185546875 5.072911262512
-58.835132598877 -71.848457336426 -285.283782958984 0.995270073414
-43.216480255127 -70.336166381836 -284.856170654297 3.617375373840
-16.765323638916 -74.522033691406 -288.987792968750 2.511004686356
-15.227805137634 -69.244018554688 -290.889129638672 2.464583635330
-39.832206726074 -73.168586730957 -289.051788330078 1.166111469269
-35.799537658691 -71.193649291992 -287.679107666016 2.013938903809
-20.395915985107 -68.579978942871 -287.841247558594 3.560971736908
-73.303115844727 -70.015663146973 -291.399597167969 2.858563661575
-57.017719268799 -70.489440917969 -289.685028076172 2.599071979523
-19.108558654785 -68.140335083008 -290.595184326172 3.604577779770
-15.222860336304 -73.084526062012 -288.915191650391 1.326956033707
-5.225008010864 -70.823631286621 -291.694641113281 2.960526704788
0.979116976261 -68.465698242188 -291.577636718750 2.016353845596
-93.690155029297 -70.891822814941 -291.087097167969 2.030143260956
-141.355606079102 -71.965377807617 -292.504821777344 0.854875147343
-117.858238220215 -71.517906188965 -290.451568603516 2.766005516052
-155.132827758789 -69.081947326660 -292.213287353516 1.804463148117
-153.633499145508 -70.862770080566 -296.843017578125 1.359046936035
-148.388961791992 -68.678573608398 -297.413574218750 1.055162310600
46.946052551270 -72.165809631348 -20.975376129150 1.703621864319
22.297536849976 -76.788398742676 -22.950302124023 3.555038928986
51.932060241699 -71.652473449707 -24.857353210449 1.540455579758
49.339527130127 -75.047645568848 -34.875877380371 3.515626192093
89.350692749023 -73.955093383789 -70.481246948242 0.634832561016
97.247451782227 -75.769073486328 -74.333854675293 2.939439058304
102.847366333008 -73.742462158203 -78.592033386230 3.505446434021
99.850204467773 -74.583381652832 -83.915939331055 2.567495822906
58.159652709961 -74.592208862305 -89.330001831055 1.076849102974
46.959690093994 -78.573898315430 -91.010864257813 5.256111145020
64.770004272461 -72.621894836426 -90.770820617676 3.706019163132
-63.779369354248 -70.136451721191 -91.570487976074 1.848899841309
72.300300598145 -73.237785339355 -87.921371459961 1.454317688942
102.221443176270 -67.861206054688 -99.338653564453 0.815847516060
75.828529357910 -74.396980285645 -101.276847839355 2.864584684372
95.584800720215 -72.784545898438 -102.962242126465 2.499477863312
-83.300155639648 -73.157363891602 -101.694587707520 2.587424993515
46.487907409668 -72.460716247559 -97.924194335938 0.822372019291
-85.217643737793 -73.574935913086 -100.492927551270 4.224753856659
52.317752838135 -74.714515686035 -110.258346557617 3.432031869888
38.985778808594 -78.322929382324 -103.399185180664 2.397689104080
103.416160583496 -72.958305358887 -103.791625976563 0.936718702316
38.412372589111 -73.045166015625 -105.683929443359 2.388477802277
43.625747680664 -74.213447570801 -118.365554809570 0.758785009384
43.860481262207 -73.027969360352 -112.855026245117 2.423522949219
111.215782165527 -72.558815002441 -113.007362365723 1.795337080956
-80.357437133789 -75.947990417480 -119.860481262207 4.287836074829
113.150222778320 -76.811317443848 -124.702323913574 2.911286354065
40.983688354492 -69.688308715820 -124.500770568848 2.728847503662
41.541156768799 -72.418159484863 -120.017646789551 2.450508356094
35.974990844727 -73.466545104980 -120.611366271973 2.036549568176
-54.922458648682 -76.230026245117 -128.219482421875 4.479667186737
31.123386383057 -72.132858276367 -123.127639770508 1.862571597099
-76.666511535645 -70.291694641113 -136.148452758789 0.744403004646
-54.584148406982 -75.354743957520 -131.265747070313 1.893899321556
-78.739814758301 -69.928810119629 -133.186599731445 2.285871505737
36.395622253418 -71.153419494629 -130.475570678711 2.518583297729
-58.869205474854 -73.183410644531 -132.199111938477 2.142288208008
35.909523010254 -72.219436645508 -133.118209838867 1.614335894585
-71.300048828125 -70.171775817871 -138.035446166992 0.668690741062
-58.587627410889 -69.735565185547 -139.321121215820 0.650521099567
26.295108795166 -73.458145141602 -142.285934448242 1.057369947433
111.477638244629 -75.984313964844 -143.861663818359 2.272169351578
115.981552124023 -69.754417419434 -137.879623413086 2.852460384369
31.339958190918 -72.815467834473 -141.220321655273 2.153396844864
-47.570766448975 -73.435668945313 -138.965759277344 1.615133643150
107.272476196289 -71.278228759766 -152.884704589844 3.545569896698
-74.978561401367 -71.722290039063 -141.468917846680 1.330103158951
-58.036441802979 -72.055305480957 -140.922195434570 1.993716597557
32.142307281494 -68.933746337891 -147.136032104492 1.075526356697
-77.029289245605 -73.075828552246 -144.558212280273 1.088922858238
-70.172660827637 -71.747413635254 -148.723907470703 0.803438723087
115.350372314453 -76.912261962891 -150.406524658203 2.162716150284
-64.262107849121 -71.184318542480 -153.649185180664 2.345453500748
-38.902462005615 -69.474861145020 -151.072708129883 3.418440818787
26.226747512817 -71.173316955566 -145.637649536133 1.870426058769
-72.690521240234 -72.249191284180 -144.487197875977 2.083404779434
12.849333763123 -72.077362060547 -149.276275634766 2.885656833649
32.198207855225 -72.023292541504 -156.691284179688 1.320353984833
31.446399688721 -70.448257446289 -149.959289550781 1.728446245193
15.573150634766 -76.656364440918 -153.746154785156 4.828863620758
-49.527751922607 -73.360336303711 -152.002578735352 2.784320354462
25.142517089844 -73.846839904785 -152.853378295898 1.207871317863
-45.764839172363 -71.148063659668 -148.955627441406 1.259067296982
5.090922832489 -72.586021423340 -153.489303588867 2.587582588196
20.889284133911 -71.783645629883 -149.586761474609 3.050787687302
-68.584060668945 -71.088790893555 -155.907073974609 1.649033069611
-46.280548095703 -69.197845458984 -152.865615844727 1.827621817589
-67.828414916992 -71.274345397949 -152.272781372070 1.297482728958
18.422830581665 -71.289855957031 -158.069717407227 1.686812162399
24.628654479980 -71.760955810547 -149.769088745117 1.404937267303
2.707652091980 -72.234588623047 -163.930374145508 1.113131403923
21.672754287720 -72.315872192383 -153.223937988281 0.483076035976
30.884613037109 -72.112266540527 -166.932113647461 3.551239728928
-47.144596099854 -73.093856811523 -162.013839721680 1.315154552460
-36.670303344727 -77.857749938965 -162.202835083008 1.288260459900
-40.646533966064 -72.637969970703 -159.701568603516 1.401023149490
28.067607879639 -72.775825500488 -158.425399780273 2.866518259048
-44.157360076904 -70.174781799316 -165.587814331055 2.575118303299
-39.658966064453 -70.402664184570 -165.241378784180 2.128447055817
21.484291076660 -71.049041748047 -165.399017333984 0.860693693161
-39.892391204834 -72.234375000000 -174.075134277344 2.602290868759
27.991359710693 -68.952430725098 -169.798110961914 2.289930105209
111.822967529297 -70.024734497070 -165.690917968750 0.648612797260
-33.517993927002 -71.708267211914 -170.959869384766 3.010257720947
102.760192871094 -70.601188659668 -173.922454833984 2.939939022064
-34.651050567627 -71.338676452637 -176.338623046875 1.519989013672
-37.574741363525 -74.478332519531 -180.333831787109 2.538292407990
21.058483123779 -74.870285034180 -176.686630249023 2.703036069870
105.666534423828 -73.105216979980 -182.748123168945 0.539561629295
-31.647651672363 -70.152282714844 -181.850418090820 1.402229070663
-35.268398284912 -71.168495178223 -176.414627075195 0.958777964115
-23.451398849487 -75.034408569336 -185.933746337891 1.563810706139
-149.293395996094 -71.292282104492 -186.356842041016 1.363434553146
12.764174461365 -71.745918273926 -182.896774291992 2.547796964645
104.704421997070 -71.266387939453 -191.821655273438 1.476710319519
-159.266754150391 -70.209175109863 -190.368637084961 3.537180423737
-23.224334716797 -68.715049743652 -188.564422607422 1.909499883652
-116.016769409180 -72.462814331055 -195.236541748047 1.804184198380
-131.155532836914 -72.145767211914 -193.271759033203 2.647243261337
-108.291168212891 -71.393905639648 -197.778900146484 2.186341285706
-114.055778503418 -70.054389953613 -198.118408203125 1.346910595894
-12.691832542419 -72.419967651367 -195.578781127930 2.428447008133
19.758642196655 -70.723083496094 -195.729278564453 0.500351786613
-16.215282440186 -67.962730407715 -201.007095336914 2.331791162491
-127.199348449707 -70.697784423828 -203.292022705078 2.794695854187
-21.265090942383 -67.909278869629 -202.067504882813 3.304699420929
-129.791198730469 -69.577827453613 -200.614151000977 3.350692987442
-15.820832252502 -71.666610717773 -199.430999755859 2.389973402023
-146.507278442383 -69.419456481934 -200.287979125977 2.178583860397
91.359062194824 -68.589614868164 -206.981826782227 3.023936033249
-164.908798217773 -65.773681640625 -198.681411743164 1.991722702980
-3.389856100082 -73.021179199219 -217.206481933594 1.635928988457
10.941482543945 -72.738540649414 -209.419204711914 1.892312645912
9.705165863037 -73.586738586426 -216.544204711914 2.642404317856
82.054519653320 -71.987342834473 -217.141128540039 1.827979207039
7.961925983429 -72.508201599121 -212.555297851563 1.604477763176
12.061906814575 -70.664215087891 -214.284896850586 0.715888500214
-16.436622619629 -74.502227783203 -215.107040405273 0.706792652607
-91.025009155273 -71.153610229492 -212.672119140625 2.452644348145
-98.579048156738 -70.802803039551 -214.707580566406 2.395892381668
-0.600435018539 -70.356185913086 -218.500411987305 1.337747454643
-167.121658325195 -71.944274902344 -219.227600097656 1.203115701675
14.538200378418 -69.493911743164 -219.172683715820 0.887408018112
-145.257415771484 -69.644790649414 -218.767929077148 2.266897439957
12.281818389893 -71.712730407715 -224.498809814453 2.396962404251
-135.327239990234 -71.651504516602 -222.528671264648 2.501678228378
-116.632072448730 -71.378509521484 -225.090820312500 1.040049791336
16.146171569824 -70.721565246582 -220.471206665039 2.309964656830
77.766921997070 -71.941345214844 -221.747299194336 2.176386833191
6.089138031006 -71.357971191406 -222.939056396484 1.901876807213
-110.619544982910 -69.724891662598 -228.869750976563 2.762395143509
71.647499084473 -72.697402954102 -228.118942260742 2.310945272446
83.275436401367 -72.922119140625 -229.952880859375 1.686961293221
-126.001594543457 -70.044502258301 -232.857833862305 2.283229112625
-117.773498535156 -70.388786315918 -228.330261230469 0.710315525532
-10.720232009888 -68.073425292969 -227.038558959961 1.432416915894
71.231895446777 -72.454170227051 -231.706146240234 1.979556202888
63.874008178711 -72.269348144531 -233.419418334961 3.243093013763
72.563804626465 -71.294364929199 -229.813110351563 0.891124248505
-136.020568847656 -66.934837341309 -231.704956054688 1.982774972916
69.403892517090 -72.817558288574 -232.656478881836 2.013793230057
65.388389587402 -69.521682739258 -235.542556762695 2.121580600739
-166.863037109375 -68.619209289551 -227.775894165039 1.350503325462
0.520604014397 -77.420623779297 -240.435363769531 1.731370806694
18.501447677612 -72.502403259277 -239.153778076172 1.387689709663
-6.873724937439 -68.535194396973 -239.981704711914 1.771951913834
14.944563865662 -66.419822692871 -238.846450805664 3.440590381622
65.385429382324 -72.585891723633 -238.399017333984 1.489856362343
8.027084350586 -69.372024536133 -242.890548706055 0.371003240347
-11.764391899109 -65.159431457520 -240.003875732422 1.301572442055
-1.345401048660 -68.046844482422 -236.835586547852 0.555021047592
64.052024841309 -72.214973449707 -242.684921264648 1.980900287628
2.159924983978 -71.630630493164 -242.026443481445 2.262289524078
-7.900622844696 -71.773971557617 -242.474487304688 2.487177610397
13.361583709717 -73.543945312500 -242.521774291992 2.032616853714
-168.365219116211 -71.448013305664 -238.391601562500 0.768649756908
55.064476013184 -71.771278381348 -247.391830444336 0.953177511692
