14.400040626526 -82.548759460449 -264.636993408203 1.798178195953
-149.744949340820 -84.921745300293 -272.749359130859 3.383365869522
-147.406738281250 -83.042358398438 -275.404174804688 1.194630742073
3.098905086517 -82.121047973633 -275.014892578125 1.274424552917
-145.961364746094 -80.885566711426 -276.689971923828 2.272336244583
-141.597656250000 -84.752822875977 -288.123901367188 1.635857939720
-148.483093261719 -83.899826049805 -287.677673339844 1.222110271454
-151.706924438477 -84.842376708984 -288.538848876953 1.421657681465
-155.825103759766 -80.038909912109 -293.664581298828 2.585479974747
-135.065444946289 -81.850181579590 -294.202331542969 3.884230375290
-153.295120239258 -80.164436340332 -294.712585449219 1.188324928284
-57.037593841553 -78.743827819824 -68.570480346680 3.325934171677
-57.493694305420 -83.662124633789 -73.419258117676 2.135114908218
-43.311901092529 -83.043312072754 -74.693626403809 1.487467169762
-81.315849304199 -82.214492797852 -83.002410888672 1.765114426613
-39.166908264160 -84.222045898438 -80.984397888184 3.071053266525
-46.149154663086 -80.543663024902 -86.018302917480 2.308622360229
-84.540428161621 -86.177276611328 -105.177749633789 1.573214292526
-75.187255859375 -78.334465026855 -101.958534240723 0.815944612026
30.555492401123 -82.928573608398 -126.301322937012 5.579019546509
31.079301834106 -81.161895751953 -143.640350341797 2.068347930908
-13.686112403870 -82.485099792480 -182.526962280273 3.606319665909
-19.756681442261 -81.526435852051 -183.841903686523 2.079150676727
-26.524543762207 -83.969329833984 -182.345901489258 2.083454608917
-39.021926879883 -83.703704833984 -190.958084106445 1.635027647018
-53.827926635742 -81.954307556152 -190.356216430664 3.877833366394
-33.477561950684 -82.407371520996 -195.425415039063 1.832619190216
-142.406219482422 -77.831245422363 -188.369125366211 1.605925202370
-152.678512573242 -79.552413940430 -197.158599853516 0.763803064823
-153.812377929688 -80.099418640137 -201.159881591797 1.946250438690
-150.407348632813 -79.283607482910 -203.318176269531 2.437840461731
-71.379531860352 -84.962608337402 -210.672683715820 2.512186765671
-61.790729522705 -79.418350219727 -207.472564697266 1.075645089149
-149.872863769531 -80.916595458984 -214.282470703125 2.912925481796
-74.321144104004 -82.666809082031 -212.378250122070 1.600946307182
-72.645324707031 -83.350044250488 -213.898666381836 3.176280021667
-78.296844482422 -79.243820190430 -212.729919433594 1.080006718636
-143.679092407227 -81.385437011719 -227.015121459961 0.440326392651
-145.449356079102 -81.890769958496 -232.737564086914 1.081089377403
-151.646606445313 -82.723510742188 -251.934509277344 2.796956777573
13.832144737244 -80.405731201172 -247.090927124023 2.158342599869
8.287435531616 -80.515274047852 -248.904266357422 1.952470421791
-136.729278564453 -82.608757019043 -259.934875488281 1.456305742264
13.040176391602 -85.625701904297 -255.624084472656 1.722440481186
9.400967597961 -84.003059387207 -258.241485595703 1.835406303406
-151.584442138672 -83.459983825684 -265.439331054688 2.496154785156
-154.465240478516 -79.779670715332 -277.259460449219 2.987539529800
-5.394667148590 -82.054061889648 -274.376037597656 2.821240425110
9.688860893250 -83.428115844727 -279.689025878906 2.075550794601
-154.953094482422 -84.937500000000 -286.249908447266 2.193790435791
-143.773574829102 -84.090057373047 -280.114654541016 2.829885244370
-146.592330932617 -82.220611572266 -304.797637939453 3.361537933350
-45.849170684814 -83.537338256836 -72.444084167480 2.822348594666
-70.457038879395 -79.230110168457 -71.038230895996 3.027697563171
-43.301044464111 -83.065513610840 -71.057640075684 1.598821520805
-32.798217773438 -83.301536560059 -77.400894165039 1.950544595718
-74.395500183105 -79.249015808105 -70.570297241211 1.590371966362
-33.952861785889 -83.196830749512 -76.906654357910 2.427683115005
-47.594730377197 -76.688392639160 -85.691383361816 1.946796894073
-56.374134063721 -77.557357788086 -92.552314758301 2.275946378708
-65.007934570313 -85.639015197754 -93.273147583008 0.948663175106
-64.186096191406 -81.383857727051 -101.194465637207 3.459418058395
-91.629486083984 -80.945320129395 -110.709304809570 2.810647010803
40.944614410400 -81.075805664063 -120.047348022461 1.123812556267
36.937118530273 -85.278289794922 -123.206092834473 4.673750877380
-43.308555603027 -83.203796386719 -166.393951416016 4.149633407593
-42.257480621338 -80.905723571777 -161.683639526367 0.658748567104
-6.681672096252 -81.927757263184 -172.411727905273 1.964005112648
-62.976821899414 -84.555351257324 -169.700729370117 3.800181865692
-60.478649139404 -81.319702148438 -180.529342651367 4.346547603607
-58.635265350342 -81.095932006836 -175.156860351563 1.239905953407
-33.562377929688 -81.393013000488 -173.193405151367 1.795609235764
-56.715633392334 -80.668212890625 -181.888397216797 3.367160081863
-30.307762145996 -79.961875915527 -182.042633056641 1.687435984612
-147.608169555664 -79.301223754883 -186.140762329102 2.159959554672
-52.246509552002 -81.161422729492 -183.340347290039 0.767619311810
-45.868541717529 -80.222671508789 -195.462692260742 1.486534833908
-31.808420181274 -81.925834655762 -184.855834960938 2.560605525970
-34.499668121338 -82.988876342773 -189.560256958008 2.038491964340
-33.882942199707 -79.161666870117 -193.044311523438 1.813494563103
-24.216690063477 -82.814132690430 -189.305999755859 1.381900310516
-48.081981658936 -81.348945617676 -199.599548339844 1.476085424423
-145.483749389648 -75.943267822266 -194.686721801758 1.416139006615
-40.849414825439 -77.194305419922 -195.647994995117 0.714354097843
-40.393947601318 -79.572128295898 -202.089111328125 1.273931264877
-41.863018035889 -83.002716064453 -202.600662231445 2.763021945953
-45.907093048096 -78.722511291504 -201.084899902344 3.057647466660
-134.126968383789 -79.285484313965 -197.798278808594 1.608386278152
-136.989059448242 -78.809524536133 -201.753158569336 3.105971574783
-49.616821289063 -80.850753784180 -204.500869750977 2.110032081604
-61.073474884033 -83.920722961426 -205.492446899414 1.172944784164
-41.096446990967 -81.282958984375 -204.871566772461 2.861232042313
-143.971328735352 -80.865745544434 -206.451553344727 1.056012868881
-70.170753479004 -76.571868896484 -208.557601928711 1.394617319107
-37.198619842529 -83.375160217285 -209.384185791016 5.063618659973
14.170674324036 -82.629798889160 -206.635086059570 2.353059768677
-74.394035339355 -81.567672729492 -214.500503540039 1.599142074585
-30.585710525513 -79.076461791992 -214.799346923828 1.471205949783
11.224282264709 -81.094215393066 -219.729553222656 1.422330021858
-153.237518310547 -79.802017211914 -218.751785278320 4.062044143677
7.505084991455 -81.171043395996 -228.305908203125 3.592005729675
12.048441886902 -82.515365600586 -224.640441894531 2.738696098328
16.003561019897 -79.971656799316 -227.226455688477 2.086993932724
-138.266921997070 -82.994628906250 -227.724884033203 1.654984712601
-146.257553100586 -78.451759338379 -230.333282470703 2.959930419922
10.043507575989 -82.764572143555 -237.749343872070 2.630238294601
15.876735687256 -79.918678283691 -237.885131835938 1.074777841568
13.164462089539 -81.140243530273 -237.639434814453 1.918734788895
-150.469589233398 -81.819770812988 -242.281738281250 2.419382810593
-146.665466308594 -86.570251464844 -240.307785034180 2.223359823227
11.649313926697 -82.324089050293 -237.165023803711 1.664855241776
-40.487777709961 -80.815353393555 -245.253753662109 2.270444393158
17.054939270020 -81.427032470703 -248.724090576172 1.114562034607
-43.726158142090 -82.037445068359 -244.307266235352 1.884124875069
-146.166549682617 -82.897712707520 -257.521636962891 0.598538339138
16.096084594727 -82.641288757324 -253.661026000977 1.745468854904
-145.034362792969 -81.690940856934 -257.270233154297 2.022013425827
-154.112350463867 -80.855506896973 -258.075775146484 1.410502076149
14.064972877502 -80.560028076172 -256.985931396484 2.868679523468
-9.888171195984 -77.979698181152 -253.249176025391 2.325331687927
-9.598202705383 -81.085433959961 -263.754089355469 1.443309664726
-146.258819580078 -84.022209167480 -260.583435058594 1.385001897812
-156.696746826172 -75.102951049805 -262.649169921875 0.579489052296
-145.813888549805 -82.184486389160 -264.980316162109 1.379788875580
-151.783248901367 -76.667716979980 -270.011016845703 1.236399769783
-149.906021118164 -81.467216491699 -270.310607910156 1.679299235344
-9.295029640198 -82.710029602051 -269.745391845703 3.574615716934
-6.001410007477 -81.498199462891 -273.340393066406 2.214628934860
12.417945861816 -82.202011108398 -268.550170898438 1.874228358269
4.127328872681 -82.576103210449 -279.724822998047 1.234676122665
2.791285991669 -79.774299621582 -285.589508056641 2.267524719238
-139.415405273438 -76.755561828613 -291.588226318359 2.061942338943
-146.359848022461 -79.453895568848 -293.795288085938 1.568814396858
-61.464443206787 -79.243927001953 -65.053329467773 2.669354200363
-44.881698608398 -78.832534790039 -65.658889770508 0.691179811954
-48.624423980713 -76.735412597656 -67.316452026367 2.136273145676
-46.599525451660 -77.607872009277 -66.353149414063 2.733713150024
-68.350112915039 -82.752883911133 -67.240386962891 3.113099575043
-78.312873840332 -78.136543273926 -72.777969360352 3.383425474167
-37.710407257080 -79.548988342285 -79.049026489258 2.225294351578
-42.236713409424 -82.235435485840 -86.827713012695 3.515358448029
-49.601505279541 -83.980621337891 -88.955238342285 3.294209003448
-86.643692016602 -77.909271240234 -88.711341857910 3.958341598511
-75.699958801270 -82.222160339355 -107.702041625977 4.557786941528
42.584316253662 -80.367233276367 -109.256851196289 1.202661633492
-86.154243469238 -79.058525085449 -110.629127502441 2.353010892868
41.527576446533 -81.979393005371 -120.948478698730 1.697318792343
39.872283935547 -80.019905090332 -125.859115600586 1.823755383492
33.312583923340 -80.040519714355 -122.277824401855 2.479757070541
29.150047302246 -83.458953857422 -127.596229553223 4.365098953247
31.298124313354 -80.147216796875 -135.758056640625 2.549003362656
23.378759384155 -78.138191223145 -146.524856567383 1.495292544365
-48.751579284668 -82.098670959473 -155.752410888672 2.753186941147
30.165348052979 -80.788230895996 -145.251296997070 1.148019909859
23.610485076904 -82.857070922852 -158.319335937500 5.115428447723
-44.466217041016 -81.616195678711 -153.764892578125 1.782341361046
26.063722610474 -81.165977478027 -156.505477905273 2.616191387177
-48.136203765869 -77.315597534180 -162.363021850586 3.169813632965
24.545972824097 -80.954391479492 -167.390563964844 2.205332279205
-61.579643249512 -80.683044433594 -171.035583496094 1.025957345963
-6.661250114441 -83.253723144531 -174.612167358398 3.930954456329
-34.883346557617 -79.748344421387 -174.494598388672 1.629613280296
-12.569786071777 -82.161544799805 -174.318649291992 2.041834115982
-57.598327636719 -79.793792724609 -176.486602783203 2.114836692810
22.078125000000 -82.623771667480 -173.711929321289 4.011163234711
-14.998479843140 -79.311485290527 -184.347351074219 2.085007905960
-24.518705368042 -76.826522827148 -187.747268676758 2.930376768112
-54.129680633545 -77.416213989258 -185.217910766602 2.590831041336
-30.456863403320 -80.984504699707 -187.234954833984 2.383261680603
16.803413391113 -82.426414489746 -191.581741333008 2.498645782471
-150.090072631836 -80.904685974121 -189.226837158203 0.668431520462
-29.947479248047 -80.629707336426 -190.263229370117 1.817528724670
-49.711483001709 -77.593666076660 -190.955337524414 1.605670332909
-151.629806518555 -82.132339477539 -192.994918823242 2.547765970230
-143.471359252930 -80.235321044922 -197.843048095703 2.741133689880
-24.648975372314 -80.296516418457 -198.341873168945 2.634094238281
-22.725105285645 -80.714248657227 -196.686569213867 1.997518301010
-46.857860565186 -79.095664978027 -197.009399414063 0.589449822903
-21.337524414063 -81.430564880371 -197.583847045898 2.601985216141
-49.550460815430 -79.909004211426 -200.776504516602 1.441746473312
-47.182590484619 -80.148437500000 -199.497680664063 1.795100688934
-55.926799774170 -81.317726135254 -202.152557373047 1.472153544426
-20.530447006226 -77.303451538086 -207.196609497070 2.369937419891
-147.834533691406 -79.728096008301 -215.283020019531 1.292405605316
-60.189979553223 -77.959999084473 -209.551712036133 1.817653059959
-59.149261474609 -77.461334228516 -209.765151977539 1.174490451813
-33.763320922852 -75.401664733887 -208.159072875977 2.454868793488
-14.540632247925 -78.093688964844 -207.270584106445 1.340672492981
-36.976371765137 -78.655464172363 -209.630874633789 1.020425915718
-80.893913269043 -79.249343872070 -211.329879760742 2.005738496780
-145.383987426758 -83.464950561523 -211.248306274414 1.084292054176
-34.026306152344 -81.135330200195 -209.455398559570 2.896837711334
6.242465019226 -82.729469299316 -210.401306152344 5.136721134186
-66.801879882813 -81.485260009766 -212.604522705078 2.231162309647
-67.332176208496 -79.549316406250 -215.134902954102 2.056909799576
-26.710216522217 -76.895263671875 -215.915939331055 1.338036656380
-11.482209205627 -85.087631225586 -213.354965209961 4.726526737213
-27.337688446045 -81.282012939453 -219.101837158203 3.405928850174
16.712697982788 -80.312332153320 -217.339111328125 2.412778377533
-151.828033447266 -76.286338806152 -222.008209228516 2.790899276733
-11.997959136963 -84.472808837891 -220.227813720703 3.441602706909
-156.995651245117 -80.844688415527 -228.193664550781 4.147781372070
6.874792098999 -81.706092834473 -231.381301879883 3.217819452286
11.811529159546 -77.773773193359 -228.221939086914 1.382922887802
-3.638875961304 -80.413993835449 -224.177886962891 1.921876907349
15.342551231384 -80.956550598145 -229.254470825195 1.139414787292
-139.027267456055 -83.080162048340 -234.429840087891 3.185715436935
9.955099105835 -80.949470520020 -227.779693603516 1.894884943962
-154.707260131836 -77.767066955566 -230.649398803711 1.390927553177
-146.420547485352 -80.291366577148 -235.071838378906 2.231953382492
-2.530715942383 -81.535285949707 -223.154006958008 2.222733020782
17.691259384155 -82.824462890625 -235.331527709961 1.980362653732
-32.434776306152 -77.933021545410 -240.203994750977 2.346090793610
-146.619583129883 -78.280021667480 -241.001968383789 1.737373590469
-38.811229705811 -79.206375122070 -244.537506103516 1.445746183395
-47.194477081299 -78.631805419922 -242.631530761719 0.857915043831
-34.764221191406 -78.434288024902 -241.920501708984 1.274434447289
18.711725234985 -81.336532592773 -244.383270263672 0.429774701595
-50.685165405273 -75.924331665039 -246.955886840820 1.862057566643
14.478732109070 -81.192993164063 -247.044433593750 1.203388214111
10.420376777649 -78.776893615723 -241.908386230469 1.787018537521
8.761976242065 -82.287155151367 -249.740264892578 1.150993466377
-42.524452209473 -82.153663635254 -247.711120605469 2.925817966461
22.304241180420 -82.688545227051 -248.287109375000 2.769873619080
-144.974334716797 -78.646331787109 -248.954147338867 0.643096923828
19.431087493896 -78.842086791992 -250.928192138672 2.421277761459
-0.374480009079 -84.301025390625 -251.197433471680 2.403300762177
9.626869201660 -80.414527893066 -245.498443603516 1.132589817047
-151.615631103516 -74.909805297852 -255.149597167969 2.425196647644
-148.301635742188 -82.532272338867 -260.290496826172 1.268522262573
-143.262039184570 -79.299194335938 -260.069335937500 1.881276011467
-153.656219482422 -78.235733032227 -262.348144531250 3.162421941757
15.554070472717 -77.141975402832 -266.238800048828 4.329945087433
-154.484115600586 -75.286651611328 -272.792602539063 2.716506481171
-7.233129024506 -80.744316101074 -275.950164794922 2.135124683380
-152.030075073242 -79.400924682617 -271.792785644531 1.140666007996
-145.939544677734 -77.134017944336 -281.020446777344 2.430298805237
-154.085922241211 -75.778747558594 -277.435363769531 3.469224452972
-155.425765991211 -80.194534301758 -286.292053222656 2.066696166992
-133.641799926758 -80.651336669922 -290.025939941406 2.681901693344
-153.538192749023 -79.338127136230 -290.011596679688 2.191268682480
-147.835906982422 -82.228240966797 -291.849884033203 1.718787431717
-147.960296630859 -79.302490234375 -292.887939453125 3.081608057022
-153.960723876953 -79.975448608398 -297.086029052734 1.343286037445
-147.140502929688 -76.260124206543 -294.559631347656 1.295484066010
-153.587875366211 -78.520004272461 -302.015014648438 2.128676652908
-148.261276245117 -79.622833251953 -303.656646728516 1.795636653900
-149.372680664063 -75.742515563965 -305.636871337891 4.457388877869
-57.174911499023 -73.641456604004 -61.978927612305 4.129411220551
-64.409126281738 -78.345817565918 -64.505920410156 3.190525293350
-48.405788421631 -78.807945251465 -62.806346893311 1.379928469658
-26.966865539551 -80.446495056152 -75.840309143066 1.463217735291
-53.053634643555 -81.890419006348 -90.904998779297 0.777976095676
-88.763870239258 -84.923507690430 -100.449974060059 5.717078685760
43.285758972168 -81.045417785645 -107.907768249512 2.492048501968
-77.559539794922 -81.653724670410 -103.809753417969 1.315029263496
41.599662780762 -82.747138977051 -115.034782409668 1.921932935715
39.537628173828 -80.433631896973 -122.729194641113 1.921540141106
39.045509338379 -80.914581298828 -126.087875366211 2.236412286758
35.735317230225 -80.612770080566 -136.261291503906 1.055217623711
30.822004318237 -79.319412231445 -136.324539184570 1.701457023621
32.849826812744 -85.071960449219 -136.983505249023 4.136805534363
30.146467208862 -78.392944335938 -151.502182006836 1.466475367546
-45.943717956543 -76.657768249512 -150.897750854492 1.663881659508
27.782604217529 -82.177047729492 -141.942825317383 2.959081411362
-67.476158142090 -75.722488403320 -154.854019165039 1.679675817490
-38.473819732666 -81.444320678711 -155.241683959961 2.210011959076
-62.901889801025 -80.506210327148 -165.225921630859 1.970376849174
-41.041198730469 -80.267799377441 -159.962646484375 2.222152709961
29.780439376831 -80.585494995117 -158.133117675781 2.257279396057
-36.673107147217 -83.794677734375 -161.434600830078 0.397540479898
-3.341489076614 -80.936920166016 -173.521118164063 3.396664619446
31.887830734253 -76.683601379395 -164.626846313477 2.070596218109
-10.596104621887 -80.309806823730 -171.608520507813 0.667343318462
-60.401657104492 -79.060966491699 -164.925857543945 1.591257214546
-37.328754425049 -76.965667724609 -171.057891845703 0.864121556282
-31.935604095459 -77.318725585938 -174.598419189453 2.464775085449
23.551143646240 -81.454116821289 -177.418716430664 3.191333055496
-55.032794952393 -79.829811096191 -178.273300170898 2.041403293610
-30.153324127197 -76.402648925781 -176.726745605469 2.485438585281
21.591033935547 -79.998908996582 -184.437103271484 3.207722187042
-51.894573211670 -79.801498413086 -186.671142578125 1.286581873894
-26.282709121704 -75.650497436523 -184.035675048828 2.927471160889
-54.949031829834 -76.982757568359 -185.381759643555 2.923797845840
-41.959800720215 -78.999000549316 -196.151000976563 1.608285069466
-30.437789916992 -78.243316650391 -190.388610839844 1.924267768860
-43.216831207275 -80.329467773438 -197.432113647461 1.437084436417
-24.233755111694 -79.026107788086 -193.058242797852 1.532752990723
-137.858261108398 -79.719970703125 -198.359069824219 2.408223152161
18.526954650879 -79.940444946289 -201.386901855469 2.791431427002
-134.498733520508 -76.132369995117 -200.346099853516 1.715621590614
-22.417366027832 -77.186782836914 -197.513870239258 1.706583142281
-20.954145431519 -77.285049438477 -198.274658203125 1.327893257141
-42.565570831299 -79.591461181641 -196.830230712891 1.563834428787
12.899040222168 -78.169151306152 -197.141159057617 1.247051477432
-16.984979629517 -81.421501159668 -199.665145874023 2.588884592056
-58.813079833984 -80.183990478516 -206.236282348633 1.623010993004
-35.914978027344 -79.239089965820 -205.628250122070 1.812464952469
-64.057785034180 -76.578369140625 -208.494094848633 0.935118138790
-69.787948608398 -76.990295410156 -211.884521484375 2.196017503738
15.990712165833 -78.588836669922 -210.601852416992 1.381980180740
-86.494338989258 -77.850067138672 -214.106170654297 1.399780750275
-29.940986633301 -79.399131774902 -216.885604858398 0.641756594181
-80.999603271484 -79.518188476563 -213.210449218750 2.001545190811
-148.589675903320 -79.997344970703 -216.505661010742 0.717029273510
-8.409760475159 -79.362396240234 -216.719131469727 2.058325052261
-9.548791885376 -78.478439331055 -219.272994995117 1.998762726784
11.640910148621 -80.215339660645 -217.901428222656 1.795260667801
11.932209968567 -75.876991271973 -225.450332641602 3.564973592758
-2.832509994507 -80.762847900391 -230.768905639648 3.332140445709
-140.147994995117 -76.676498413086 -224.207336425781 2.154495477676
-150.135360717773 -82.081542968750 -234.461669921875 2.750253438950
-152.265533447266 -76.051719665527 -233.545822143555 2.673507690430
3.466931104660 -81.209747314453 -236.832626342773 1.393508076668
0.943081974983 -78.662200927734 -237.906295776367 1.212704658508
-24.800800323486 -82.439796447754 -242.804718017578 4.276792526245
-151.456893920898 -76.052864074707 -240.639312744141 1.727260828018
9.527656555176 -80.536933898926 -245.458862304688 1.272504448891
-24.314678192139 -75.608985900879 -243.165679931641 3.176910161972
17.902980804443 -79.159950256348 -238.660339355469 1.928586125374
-54.674549102783 -78.015014648438 -245.201919555664 1.960847973824
-51.622135162354 -78.961593627930 -249.961654663086 2.768324851990
-147.519821166992 -82.994796752930 -247.207031250000 2.927914142609
-63.744606018066 -79.006416320801 -249.156127929688 1.688172101974
-4.239925861359 -78.446586608887 -247.903472900391 2.169207096100
-11.208488464355 -77.950210571289 -257.235076904297 1.880688428879
-148.481445312500 -82.240852355957 -259.407470703125 1.888813734055
-134.007431030273 -76.934844970703 -258.215209960938 1.164632916451
-136.772003173828 -76.190269470215 -260.334075927734 1.155563712120
17.118526458740 -79.156433105469 -260.979919433594 1.528737664223
-146.773452758789 -79.204521179199 -272.953857421875 1.617034792900
16.765850067139 -80.787170410156 -269.122650146484 0.779476284981
-147.357299804688 -76.454887390137 -275.008544921875 2.012857675552
1.491418004036 -81.964073181152 -278.917572021484 2.992821216583
-144.610794067383 -78.829589843750 -283.525329589844 0.699383020401
0.115488000214 -81.093765258789 -284.823547363281 3.833636283875
-153.444808959961 -76.634696960449 -284.736663818359 1.631067037582
-144.323669433594 -75.849792480469 -285.650543212891 1.971131682396
-138.111328125000 -80.339912414551 -287.671813964844 1.422132492065
-150.211807250977 -81.932731628418 -294.083160400391 3.179736852646
-21.189865112305 -77.521156311035 -291.349853515625 1.655523657799
-153.534469604492 -77.845359802246 -293.317993164063 1.105950474739
-149.391860961914 -79.897308349609 -296.435668945313 2.094903707504
-151.679046630859 -76.934211730957 -310.334930419922 2.959012031555
-57.357116699219 -76.542228698730 -58.528419494629 1.910413265228
-40.102817535400 -81.485107421875 -63.715824127197 2.740098237991
-76.817169189453 -79.803596496582 -67.613304138184 2.728263854980
-30.207147598267 -77.269897460938 -68.853622436523 2.246793508530
-27.044412612915 -79.479064941406 -73.108383178711 2.482739925385
-86.633384704590 -79.174896240234 -81.554862976074 1.335602283478
85.693908691406 -81.308296203613 -86.146759033203 2.559225320816
-36.706626892090 -77.064865112305 -85.680236816406 3.019581794739
81.156784057617 -82.664115905762 -87.207801818848 4.599654197693
77.017211914063 -80.042861938477 -89.672264099121 4.571183204651
84.367477416992 -79.864089965820 -89.177642822266 2.147493362427
83.072875976563 -78.632202148438 -92.781593322754 2.471871614456
90.026405334473 -79.300399780273 -94.729896545410 2.790619134903
-92.141960144043 -75.067649841309 -95.687988281250 2.777842760086
53.311954498291 -79.783187866211 -106.756874084473 1.575520515442
-94.694572448730 -70.600502014160 -114.414649963379 3.828362703323
43.881042480469 -81.230758666992 -110.647720336914 2.792766571045
48.787448883057 -79.768295288086 -114.638214111328 3.944830656052
39.689678192139 -79.120010375977 -116.355697631836 1.711909890175
31.928949356079 -79.550628662109 -137.101043701172 2.723209142685
25.879613876343 -78.926292419434 -141.765991210938 1.845248341560
21.785715103149 -73.532905578613 -145.437286376953 1.579257130623
31.863922119141 -76.760238647461 -145.015319824219 1.717645645142
-48.286540985107 -80.057647705078 -154.969833374023 1.154877185822
-48.540882110596 -78.953598022461 -152.297515869141 2.103797435760
-41.973674774170 -77.652404785156 -157.856399536133 3.041624069214
23.944869995117 -77.780166625977 -153.988739013672 0.853199183941
26.822280883789 -78.273216247559 -169.066131591797 0.904101848602
-34.441429138184 -76.035484313965 -169.025543212891 1.913224458694
-35.921478271484 -75.240638732910 -160.709152221680 1.053286790848
-46.363471984863 -79.609695434570 -159.525283813477 2.817789077759
1.584401011467 -76.878196716309 -164.966491699219 2.039358615875
23.461553573608 -79.771011352539 -154.179977416992 1.330179095268
31.596273422241 -76.620010375977 -161.634780883789 1.728568434715
27.576574325562 -77.447021484375 -170.871795654297 1.181163072586
-8.651609420776 -78.129959106445 -172.926223754883 2.729527711868
-3.758858919144 -78.759712219238 -171.272537231445 0.553024411201
-58.452442169189 -76.962478637695 -169.052749633789 2.134448289871
-61.464748382568 -77.415092468262 -171.422409057617 0.577263355255
-42.978305816650 -79.224349975586 -171.316207885742 0.430193066597
-39.240631103516 -76.958641052246 -168.632629394531 1.786081314087
21.618234634399 -75.743446350098 -173.617156982422 2.197902917862
-22.628908157349 -81.724525451660 -179.082824707031 2.853409767151
-32.588397979736 -76.600013732910 -181.973678588867 1.879639983177
-62.291976928711 -80.137771606445 -180.151733398438 3.974182844162
100.120460510254 -80.466552734375 -183.211547851563 4.463969230652
20.100099563599 -81.329811096191 -174.952758789063 2.038136243820
-26.990770339966 -78.099136352539 -181.183456420898 0.928457975388
-51.480514526367 -77.479202270508 -180.791458129883 1.939777612686
-20.806903839111 -75.941421508789 -181.444000244141 1.066010117531
110.453865051270 -79.809379577637 -181.650619506836 4.829188346863
-54.011337280273 -79.677963256836 -184.819076538086 1.668219804764
13.503168106079 -80.002204895020 -189.335067749023 2.413386583328
19.998691558838 -78.664627075195 -180.512802124023 2.036193609238
-56.736598968506 -81.155464172363 -179.307510375977 3.666357517242
-24.486284255981 -77.229850769043 -183.378372192383 1.805259823799
-56.664325714111 -79.848983764648 -177.728286743164 2.697934627533
-36.686042785645 -78.371482849121 -180.294967651367 2.785488605499
-29.579092025757 -78.008476257324 -188.292694091797 1.082675457001
20.132711410522 -79.026641845703 -189.159347534180 2.512340068817
-50.106266021729 -78.740806579590 -189.057083129883 2.720943450928
103.227287292480 -79.001121520996 -191.424224853516 2.733144044876
-52.132713317871 -75.230064392090 -190.846557617188 1.220248579979
7.749793052673 -78.211463928223 -203.123367309570 1.082713246346
19.503160476685 -77.956657409668 -200.339782714844 1.472877979279
-49.396030426025 -77.505783081055 -192.217636108398 1.562136650085
-19.210821151733 -78.849418640137 -190.746490478516 2.166050910950
100.364601135254 -79.229225158691 -196.683609008789 3.217345714569
97.443466186523 -82.004501342773 -197.215530395508 5.241924762726
-49.291702270508 -76.964752197266 -189.169479370117 1.668722987175
-149.486404418945 -81.926979064941 -199.691680908203 1.573739409447
-46.488273620605 -77.772926330566 -198.342483520508 1.597127556801
-145.931854248047 -78.162567138672 -198.759094238281 2.235204219818
-136.587677001953 -74.059051513672 -200.210479736328 1.530185937881
-46.020618438721 -79.507041931152 -198.179702758789 0.367103666067
9.673193931580 -79.623840332031 -209.039276123047 2.387347459793
-17.148607254028 -76.509048461914 -205.758560180664 0.761078894138
15.014537811279 -76.820953369141 -202.910202026367 0.717856824398
91.070655822754 -81.665443420410 -212.605697631836 4.278819084167
-36.878749847412 -76.769500732422 -202.882675170898 1.711871147156
-13.412727355957 -77.338859558105 -206.697113037109 0.780976057053
-15.123895645142 -76.736480712891 -213.849960327148 1.531193733215
-37.064350128174 -77.534469604492 -206.997817993164 0.936540842056
7.287936210632 -78.207916259766 -207.168579101563 2.127049922943
-78.621070861816 -77.297027587891 -211.382537841797 0.633057177067
14.949886322021 -79.060501098633 -215.023010253906 1.329457283020
-36.120334625244 -77.287544250488 -207.385971069336 0.947697043419
-145.818817138672 -79.167060852051 -209.293273925781 2.095709800720
-144.063629150391 -73.364173889160 -211.819351196289 1.903835892677
-88.377433776855 -77.697418212891 -214.019195556641 0.792693376541
-36.076053619385 -76.162582397461 -211.216522216797 3.222303390503
-19.430109024048 -81.552894592285 -213.809997558594 4.702168464661
-32.625797271729 -78.564178466797 -209.713836669922 0.412746191025
-92.236450195313 -78.375701904297 -218.042449951172 2.345389842987
-88.463943481445 -78.368209838867 -215.696701049805 1.619556903839
6.570906162262 -81.875762939453 -221.896865844727 1.606956720352
-150.727890014648 -73.113044738770 -215.217102050781 1.594023823738
-14.633737564087 -80.589996337891 -214.140365600586 2.342600822449
7.790358066559 -83.140457153320 -219.672592163086 2.454786300659
-145.535736083984 -75.692909240723 -220.092315673828 1.783697724342
-22.806449890137 -79.379524230957 -218.587905883789 1.337981820107
-1.649147987366 -75.921897888184 -221.947555541992 2.064909219742
-7.293472766876 -79.333106994629 -220.500244140625 1.960915446281
-153.455261230469 -74.164733886719 -224.725982666016 2.106244325638
-139.857177734375 -70.424278259277 -227.367919921875 3.031277656555
-6.211760997772 -78.536354064941 -225.483322143555 1.810513734818
-149.713745117188 -81.529472351074 -228.339813232422 1.085823297501
0.346617013216 -75.134208679199 -231.096313476563 3.233482122421
16.250869750977 -78.096687316895 -235.542816162109 1.976045846939
-2.414836883545 -79.686370849609 -232.375350952148 2.664044141769
-1.598132967949 -74.402503967285 -235.244186401367 1.776673436165
7.060849189758 -77.943618774414 -232.991897583008 1.094193577766
-152.623367309570 -76.927276611328 -238.724670410156 1.981552243233
-20.608472824097 -76.370018005371 -236.576934814453 3.088878154755
-35.796066284180 -79.515686035156 -240.086318969727 2.012889385223
2.397802114487 -76.809654235840 -234.795761108398 1.545672655106
0.616822004318 -81.493988037109 -241.703231811523 4.133406639099
1.605509996414 -77.459594726563 -235.171371459961 1.168384313583
-57.594005584717 -76.713424682617 -243.579757690430 0.955654442310
-149.964797973633 -74.146903991699 -248.732131958008 2.837245225906
-153.428466796875 -76.935104370117 -248.599044799805 2.693964719772
9.751474380493 -79.803428649902 -248.050369262695 1.694548606873
22.699296951294 -79.718185424805 -248.268264770508 1.298189520836
-61.729137420654 -75.480720520020 -248.861099243164 1.206266880035
-144.560729980469 -79.822326660156 -253.419235229492 1.376624345779
-154.333480834961 -79.035972595215 -255.392227172852 2.438128471375
-153.422500610352 -81.042762756348 -258.193237304688 1.350995540619
-143.588546752930 -74.383224487305 -262.523284912109 1.806075572968
-140.888580322266 -76.800384521484 -257.523315429688 1.600720882416
-10.031374931335 -79.129989624023 -257.603851318359 2.099740743637
-145.876312255859 -77.807090759277 -263.634490966797 2.662236213684
-14.266975402832 -78.906021118164 -267.345306396484 3.792326450348
-148.501159667969 -75.558647155762 -274.582427978516 1.935889244080
-148.709289550781 -76.180244445801 -283.265716552734 1.482650756836
-150.222518920898 -75.270469665527 -284.252441406250 1.799991965294
-4.578785896301 -74.254249572754 -286.088256835938 1.459503412247
-147.096298217773 -72.509803771973 -285.311462402344 1.992031574249
-29.083131790161 -78.280136108398 -287.638458251953 2.249737024307
-29.639186859131 -75.817153930664 -287.436431884766 1.882450461388
-16.216856002808 -75.979187011719 -292.814300537109 1.446407079697
-13.476218223572 -75.696189880371 -292.068817138672 0.452221900225
11.970358848572 -79.938644409180 -292.535614013672 3.499389410019
-126.279411315918 -77.371940612793 -290.678100585938 0.353253722191
-60.642578125000 -77.186447143555 -288.867065429688 2.009577035904
-41.561889648438 -75.441246032715 -290.891601562500 1.037110924721
-33.683364868164 -78.075653076172 -289.541809082031 1.788360357285
-10.074830055237 -76.374137878418 -293.466552734375 2.926889657974
4.177700042725 -78.481124877930 -289.474243164063 1.825936913490
-143.613754272461 -77.565879821777 -296.806213378906 3.688990592957
8.865320205688 -78.324851989746 -295.007324218750 3.985081434250
-153.808273315430 -74.392684936523 -302.807891845703 1.742080569267
-153.272994995117 -79.017936706543 -302.137786865234 2.712970495224
-154.093963623047 -73.532440185547 -312.583648681641 1.343055009842
-145.419204711914 -75.499984741211 -311.067871093750 0.957694470882
-51.150371551514 -77.058197021484 -53.605102539063 3.518236875534
-55.759677886963 -79.739395141602 -57.369655609131 2.745416641235
-66.600303649902 -75.905784606934 -56.337963104248 2.092830419540
-42.156265258789 -76.333122253418 -62.014446258545 1.600182056427
-37.054115295410 -77.570732116699 -60.409919738770 1.495359778404
-21.139795303345 -76.945083618164 -70.322143554688 2.130862712860
-82.678863525391 -75.278503417969 -69.815368652344 4.175073623657
83.180526733398 -79.556556701660 -79.636863708496 1.503708124161
-90.872535705566 -75.779174804688 -78.186965942383 3.460573911667
80.966087341309 -78.139335632324 -80.383140563965 2.066954851151
86.388137817383 -76.393798828125 -85.208518981934 2.701273441315
95.199615478516 -77.179962158203 -89.485794067383 2.414472341537
-60.879356384277 -80.595474243164 -96.803169250488 1.106168270111
82.010848999023 -79.506401062012 -96.880287170410 3.110836029053
76.995918273926 -81.746536254883 -92.991317749023 3.899536132813
86.063735961914 -79.475776672363 -91.589736938477 1.018447160721
-61.467376708984 -78.740859985352 -98.468162536621 2.678060054779
49.874336242676 -77.296646118164 -98.864799499512 1.133540630341
45.153923034668 -78.353630065918 -107.777236938477 2.667545080185
39.818161010742 -79.209487915039 -105.362640380859 1.033129692078
36.360649108887 -78.744720458984 -105.703094482422 3.482523202896
-92.185134887695 -74.253013610840 -108.237327575684 2.313365697861
35.199851989746 -77.439979553223 -118.525413513184 1.408335804939
-85.459907531738 -77.516822814941 -109.618896484375 1.647663354874
40.766212463379 -79.909759521484 -126.645988464355 1.968788146973
32.787292480469 -79.237564086914 -122.644096374512 2.054779767990
33.319282531738 -73.204910278320 -122.836303710938 0.630805075169
43.119125366211 -77.426490783691 -119.673439025879 1.024393677711
39.909282684326 -80.431381225586 -128.837860107422 3.807858467102
-52.806804656982 -72.536331176758 -136.368331909180 1.977890491486
36.285713195801 -81.107833862305 -135.979354858398 1.842312335968
35.309524536133 -77.871109008789 -144.382293701172 1.322561860085
-54.763538360596 -74.803947448730 -143.064285278320 2.363831043243
-46.845138549805 -77.254226684570 -141.466659545898 2.011453866959
34.252437591553 -77.784881591797 -144.188293457031 0.652081608772
110.275451660156 -75.958503723145 -142.607086181641 2.277406692505
112.331581115723 -76.688774108887 -145.775665283203 1.989724636078
25.911998748779 -79.182601928711 -143.864761352539 1.500658988953
-41.624629974365 -79.028251647949 -150.304168701172 0.691610813141
114.057579040527 -83.335792541504 -154.732849121094 6.322780132294
-39.381374359131 -75.785659790039 -154.068572998047 1.814436197281
-68.602287292480 -76.567741394043 -161.509628295898 1.684485673904
109.953849792480 -81.878898620605 -159.646789550781 4.280292034149
22.062873840332 -78.421127319336 -165.937850952148 2.375311851501
-0.091646999121 -78.643043518066 -163.997177124023 0.809023618698
111.223854064941 -79.179168701172 -155.755615234375 2.477816104889
-64.844512939453 -76.403861999512 -166.306823730469 1.381228685379
-38.624279022217 -77.430557250977 -164.353302001953 2.763778924942
111.540260314941 -79.236709594727 -166.030822753906 2.508083820343
27.842708587646 -74.751274108887 -159.696502685547 1.668040275574
-63.162078857422 -72.267158508301 -166.324920654297 2.144975185394
111.398368835449 -79.396583557129 -167.683593750000 1.362363576889
-65.824508666992 -78.359855651855 -169.652679443359 2.361565589905
-50.813117980957 -78.984741210938 -181.534408569336 1.279975175858
105.623779296875 -78.010299682617 -172.828353881836 3.383125782013
-60.390289306641 -75.330650329590 -171.975585937500 1.878991246223
111.262016296387 -78.320564270020 -177.686309814453 0.749328076839
-61.318912506104 -76.397407531738 -176.242294311523 1.773068785667
-15.602242469788 -75.612220764160 -178.519561767578 2.895632743835
-11.859780311584 -81.055778503418 -182.051773071289 3.727162361145
107.174041748047 -80.203414916992 -170.295166015625 3.895483016968
20.504301071167 -78.540657043457 -172.896972656250 2.262748479843
29.092247009277 -75.041488647461 -171.107910156250 1.799448847771
-57.763103485107 -75.968795776367 -178.119613647461 1.859791994095
17.647068023682 -76.491180419922 -183.130798339844 1.467786550522
-58.299236297607 -76.869682312012 -176.631515502930 1.820846199989
-52.422958374023 -75.617660522461 -191.732543945313 1.879837393761
11.912899017334 -75.978691101074 -185.134582519531 1.688235640526
-57.649890899658 -73.829223632813 -181.182250976563 0.915246129036
106.219512939453 -77.249664306641 -188.281799316406 1.555106282234
24.071573257446 -79.436508178711 -182.605453491211 2.716567039490
-34.334980010986 -75.255081176758 -189.442214965820 1.788871288300
-43.348056793213 -78.182289123535 -191.961959838867 0.990677714348
10.539370536804 -78.575828552246 -193.914871215820 3.500653743744
-19.656003952026 -78.226509094238 -190.559341430664 1.451129198074
-49.410606384277 -77.921623229980 -195.648483276367 1.789178729057
102.005081176758 -81.371589660645 -184.955718994141 4.953478813171
11.686165809631 -79.693443298340 -191.722213745117 3.849652051926
-134.292266845703 -79.398254394531 -199.848693847656 2.462041616440
-46.467876434326 -78.658172607422 -195.507019042969 0.580817937851
95.063453674316 -78.147842407227 -200.192367553711 2.887196779251
-149.472167968750 -80.965370178223 -202.920776367188 2.541031122208
17.667022705078 -77.883277893066 -198.815780639648 0.921721398830
-43.323005676270 -74.671524047852 -206.527130126953 4.716728687286
-31.748096466064 -79.110183715820 -206.790710449219 1.537567496300
-37.826381683350 -77.442718505859 -204.141525268555 1.507735967636
-45.345649719238 -80.556343078613 -198.463882446289 1.605122923851
99.549179077148 -78.711441040039 -204.672195434570 2.441525220871
-21.167270660400 -79.531372070313 -202.414962768555 1.071381330490
-150.898223876953 -75.677131652832 -203.550659179688 1.419598698616
15.321308135986 -79.055221557617 -204.570358276367 2.116914510727
-77.432838439941 -80.170112609863 -207.893951416016 2.864520311356
-147.180526733398 -74.264694213867 -212.998046875000 1.812517046928
94.299995422363 -79.553436279297 -213.279495239258 3.895232439041
-33.481281280518 -75.888908386230 -208.176422119141 2.408505916595
-29.568210601807 -77.273399353027 -213.549957275391 1.246317386627
8.241996765137 -78.269638061523 -211.659347534180 1.895282268524
-72.163063049316 -79.354866027832 -210.698287963867 2.238670349121
-28.854852676392 -82.006660461426 -208.764755249023 2.408220291138
-7.442043781281 -78.070190429688 -217.018844604492 1.986369848251
-72.839645385742 -77.976753234863 -215.158126831055 1.654850006104
-14.988537788391 -77.497581481934 -218.473602294922 1.305926084518
7.315690040588 -72.094116210938 -213.493301391602 2.106023311615
13.761237144470 -79.614570617676 -221.596343994141 2.717196226120
-150.681518554688 -76.713218688965 -217.867645263672 1.836693406105
-9.011525154114 -77.141448974609 -215.566574096680 2.608474016190
-99.452056884766 -72.854248046875 -221.185348510742 1.555240988731
-22.500572204590 -76.541824340820 -220.812240600586 2.224043369293
89.284622192383 -82.161361694336 -213.240844726563 4.736602306366
7.186556816101 -76.387901306152 -226.808654785156 0.859292984009
18.501390457153 -76.976837158203 -217.676345825195 2.275843143463
80.101776123047 -79.103683471680 -218.278701782227 4.310487270355
0.456099003553 -79.667869567871 -229.661819458008 1.344745278358
85.060775756836 -78.737136840820 -218.370239257813 2.404592514038
-19.924533843994 -74.629364013672 -224.479522705078 2.389435529709
15.160469055176 -75.905059814453 -220.235763549805 1.752237319946
-147.988067626953 -77.025070190430 -221.541976928711 1.563702225685
-23.845745086670 -78.375679016113 -226.468719482422 3.132927656174
1.084735989571 -76.415084838867 -230.362274169922 2.400850534439
-156.471649169922 -79.521972656250 -227.330657958984 3.105452299118
-137.656997680664 -77.149993896484 -228.956954956055 1.969664931297
4.412120819092 -77.254966735840 -225.646179199219 2.253659486771
-4.586584091187 -75.306976318359 -229.144882202148 1.377438306808
-137.308731079102 -73.310356140137 -230.932510375977 0.852977275848
-147.228576660156 -76.251235961914 -240.078002929688 1.170751571655
-148.651702880859 -75.813392639160 -236.778961181641 2.054773807526
-32.978572845459 -77.772163391113 -238.559692382813 1.592094421387
-144.663101196289 -77.383132934570 -243.571792602539 3.149629592896
16.860219955444 -78.256546020508 -242.692382812500 2.469342708588
4.588014125824 -77.229194641113 -245.033142089844 0.575673758984
-151.102630615234 -71.924949645996 -238.015823364258 2.113131284714
-149.996170043945 -75.500946044922 -244.820373535156 1.020901560783
-47.104637145996 -78.102310180664 -245.116912841797 1.582979083061
-32.179782867432 -77.772796630859 -246.758850097656 3.829913139343
3.927269935608 -78.202575683594 -245.237228393555 1.669693231583
-38.072940826416 -78.173988342285 -246.385009765625 2.721989393234
21.655099868774 -78.024841308594 -247.985107421875 1.840940952301
-6.277135848999 -79.539878845215 -252.207962036133 2.239500522614
-147.451156616211 -76.179725646973 -253.640792846680 3.039829492569
-9.622859001160 -81.110923767090 -253.285552978516 3.272454261780
-148.503341674805 -74.270881652832 -249.844085693359 2.822171688080
-67.077743530273 -77.889198303223 -250.795242309570 2.195840358734
-148.896804809570 -82.335479736328 -260.319824218750 1.171789050102
-127.541336059570 -75.465400695801 -259.423156738281 1.638209819794
-152.081863403320 -74.041427612305 -259.520416259766 2.419872283936
-12.288526535034 -75.020744323730 -267.627868652344 3.439862728119
-146.763504028320 -79.898696899414 -270.420379638672 2.110205888748
-150.411483764648 -75.914710998535 -268.694946289063 1.634784698486
-11.798216819763 -78.167221069336 -271.495849609375 0.540092766285
-146.160110473633 -75.976379394531 -271.402618408203 2.104625225067
-6.020288944244 -76.690422058105 -278.767395019531 1.955480456352
-46.694610595703 -76.242271423340 -286.130981445313 2.364309310913
-135.168563842773 -74.003410339355 -289.301422119141 1.217935562134
-135.244613647461 -74.793197631836 -286.814880371094 0.826405823231
-125.173759460449 -73.432754516602 -284.630981445313 1.706132411957
-53.183364868164 -75.827758789063 -287.443389892578 1.223638415337
-114.039665222168 -73.986793518066 -286.531890869141 1.815945029259
15.368369102478 -77.000190734863 -292.376312255859 0.284299552441
-58.917789459229 -75.066764831543 -289.669342041016 1.923323035240
-141.969390869141 -74.905761718750 -292.988586425781 2.468726873398
-63.501922607422 -75.299415588379 -291.283691406250 1.184914350510
-144.670349121094 -79.206665039063 -293.459655761719 2.277400255203
-117.624206542969 -73.970451354980 -291.498168945313 2.610217332840
-47.227313995361 -77.977279663086 -291.397949218750 3.250992059708
-34.920391082764 -76.860511779785 -292.263732910156 2.467785596848
-136.882934570313 -72.753242492676 -295.016723632813 2.287229299545
-13.454661369324 -73.747581481934 -286.754974365234 1.725330591202
2.537350893021 -76.978340148926 -289.894622802734 1.119487047195
5.885425090790 -76.217048645020 -292.043975830078 1.236074686050
14.482235908508 -78.048370361328 -295.788482666016 1.573823332787
-150.433059692383 -77.947753906250 -298.079925537109 1.813125133514
-146.871826171875 -73.725700378418 -296.597564697266 1.594720721245
-68.204093933105 -75.907043457031 -62.256439208984 2.278104066849
87.762489318848 -79.119544982910 -74.551528930664 4.245734214783
78.244621276855 -78.982505798340 -77.939147949219 4.040921211243
-27.785245895386 -78.821800231934 -77.655975341797 2.865091562271
83.606529235840 -76.995880126953 -76.538368225098 3.091663837433
-37.435325622559 -78.559646606445 -81.007118225098 0.871050059795
84.306251525879 -76.285934448242 -81.725028991699 1.809586882591
94.390480041504 -76.149353027344 -81.839561462402 2.011074542999
-65.229484558105 -70.675788879395 -95.731170654297 1.596789240837
73.393676757813 -78.422157287598 -95.009963989258 2.974471807480
79.810630798340 -76.866554260254 -98.429321289063 3.182353734970
94.246894836426 -80.166870117188 -95.818962097168 4.418954849243
54.763679504395 -78.979873657227 -98.575912475586 2.535335302353
-71.038497924805 -76.045539855957 -102.369132995605 3.072689056396
-74.854064941406 -72.341583251953 -102.293403625488 2.541488170624
49.428283691406 -79.351318359375 -105.390373229980 2.243045568466
-89.589210510254 -77.623435974121 -104.458999633789 3.880116701126
45.780704498291 -76.010879516602 -118.624694824219 2.123389959335
110.129325866699 -77.737602233887 -120.223823547363 1.237580180168
112.103111267090 -79.824417114258 -132.087661743164 2.571279525757
22.711170196533 -75.922180175781 -138.693984985352 2.265591621399
109.791893005371 -79.368560791016 -127.784065246582 2.820226907730
27.423839569092 -76.004486083984 -134.906875610352 2.354333639145
112.801086425781 -74.621658325195 -132.021972656250 1.574381828308
37.254035949707 -76.289031982422 -135.621704101563 1.929339528084
-54.748722076416 -76.692260742188 -142.832458496094 2.238854646683
35.130157470703 -79.185653686523 -144.888732910156 1.637367248535
108.703132629395 -76.678764343262 -137.215835571289 3.147047281265
-48.327011108398 -75.396827697754 -145.177566528320 1.553274989128
31.610946655273 -76.770683288574 -150.313919067383 2.294365406036
-56.874462127686 -72.581901550293 -141.409301757813 1.849968671799
-57.186767578125 -76.589866638184 -146.841979980469 1.379363179207
-52.208732604980 -78.451232910156 -150.857894897461 2.713359832764
-65.136871337891 -78.238121032715 -156.983886718750 1.729152679443
112.647178649902 -80.941291809082 -148.904968261719 3.544242620468
-50.657543182373 -80.476501464844 -156.328704833984 3.401036024094
21.945537567139 -80.433357238770 -156.753128051758 3.440800666809
108.141174316406 -78.815368652344 -161.175506591797 3.332736253738
-66.488357543945 -75.740165710449 -156.479980468750 0.637452781200
-45.704349517822 -77.349670410156 -157.699249267578 1.031354904175
8.205301284790 -74.940071105957 -155.700012207031 1.766998767853
-68.341499328613 -76.008010864258 -157.911941528320 1.141817450523
-63.385375976563 -77.767448425293 -160.754714965820 1.027421116829
-0.811080992222 -77.053398132324 -163.260208129883 2.096035480499
-43.360210418701 -74.261360168457 -168.545623779297 1.046863317490
29.296493530273 -75.477584838867 -167.141021728516 1.940494418144
-63.173427581787 -73.744224548340 -168.137496948242 1.069014549255
-57.077068328857 -77.501693725586 -168.335723876953 1.089156270027
16.333274841309 -79.114189147949 -161.462509155273 5.310270309448
