40.638668060303 -66.101135253906 -255.771972656250 1.971991896629
-131.976394653320 -62.940666198730 -257.544921875000 1.617741942406
-10.473452568054 -66.621574401855 -249.499145507813 2.446148395538
28.289394378662 -65.927314758301 -257.426086425781 1.782741546631
44.959430694580 -66.417915344238 -247.439498901367 2.140959262848
27.284437179565 -69.421241760254 -253.304702758789 2.357397317886
-103.017753601074 -68.202674865723 -258.442535400391 2.621730804443
31.152797698975 -67.886718750000 -255.648834228516 1.959919095039
-147.278915405273 -68.384124755859 -260.713165283203 2.212548255920
-116.516151428223 -68.026382446289 -256.551605224609 1.231450438499
-108.977722167969 -66.478294372559 -257.573333740234 2.371407032013
-3.674453020096 -68.874984741211 -258.508636474609 3.693640708923
-150.596481323242 -67.805976867676 -257.120330810547 1.830658197403
35.167377471924 -66.772636413574 -261.208557128906 2.149091720581
-109.903411865234 -65.417266845703 -256.317901611328 2.754192829132
26.044641494751 -70.221916198730 -258.638366699219 1.057017087936
-135.109909057617 -68.085678100586 -262.526214599609 1.427918076515
-116.662796020508 -65.611785888672 -263.715118408203 1.458358764648
-109.711479187012 -65.914726257324 -260.982421875000 1.868567585945
-115.168556213379 -70.563560485840 -261.219482421875 2.552985906601
-140.178482055664 -67.962699890137 -257.615417480469 2.879963397980
28.869482040405 -67.424415588379 -259.576324462891 1.503164649010
-117.542060852051 -65.246955871582 -262.689849853516 0.460571497679
-144.514419555664 -67.943832397461 -263.276458740234 1.812837481499
-5.227260112762 -64.818527221680 -270.179016113281 2.593567132950
-150.953857421875 -68.491928100586 -280.941772460938 1.194287180901
-8.513573646545 -67.157608032227 -285.714416503906 2.452054500580
-5.540410041809 -64.419708251953 -282.331756591797 2.292767524719
-134.519653320313 -65.886856079102 -287.451934814453 2.383320331573
-127.745658874512 -66.469421386719 -290.182464599609 1.950143694878
-135.878250122070 -65.991104125977 -293.722747802734 3.441569566727
-126.782211303711 -64.966194152832 -291.500457763672 1.627000689507
-155.056701660156 -66.511947631836 -294.261993408203 2.109915018082
-156.352279663086 -66.279747009277 -299.982849121094 2.929371118546
-148.068176269531 -69.026718139648 -300.792419433594 2.938203096390
-149.979919433594 -66.635971069336 -303.119506835938 2.519475936890
-145.298095703125 -65.909469604492 -298.871276855469 3.994286775589
-149.686569213867 -65.134101867676 -303.992614746094 2.186843633652
-146.443710327148 -63.670459747314 -314.567382812500 4.491194248199
19.443874359131 -73.244819641113 -26.931299209595 1.815164327621
49.353939056396 -73.113464355469 -35.274440765381 2.625949144363
25.456914901733 -75.690551757813 -37.221542358398 4.563791275024
32.474250793457 -71.237937927246 -41.966896057129 1.882333755493
-42.573677062988 -64.460952758789 -47.356834411621 2.774254322052
-76.549957275391 -67.346466064453 -50.079364776611 2.344991922379
80.399650573730 -68.724647521973 -60.839706420898 2.320064067841
74.576240539551 -70.133529663086 -61.675296783447 2.723107576370
71.582580566406 -71.114089965820 -65.649765014648 3.322936534882
-99.326316833496 -68.654029846191 -72.328330993652 4.917250633240
99.300437927246 -72.664062500000 -75.171745300293 2.286682367325
-30.516445159912 -69.927459716797 -82.130340576172 4.836060047150
63.070648193359 -67.873565673828 -75.885330200195 3.360263586044
-43.234390258789 -65.897880554199 -82.148078918457 2.206701517105
-53.998466491699 -66.619659423828 -82.143608093262 1.963197469711
50.773998260498 -70.069442749023 -89.885910034180 2.490186214447
102.294929504395 -68.697860717773 -89.777709960938 1.938333630562
64.046897888184 -66.936119079590 -93.124740600586 1.788678646088
56.734596252441 -67.581352233887 -92.290817260742 2.199516773224
48.635810852051 -66.459472656250 -100.812156677246 2.167502641678
56.579406738281 -65.533012390137 -99.745353698730 0.859187126160
103.074966430664 -67.198463439941 -97.176826477051 0.753179192543
69.738319396973 -68.162376403809 -105.676033020020 2.230860233307
50.120101928711 -68.494697570801 -105.156089782715 2.692566871643
76.561866760254 -73.226890563965 -106.406295776367 3.693386554718
95.592529296875 -65.567337036133 -107.184677124023 1.164003372192
-75.306121826172 -66.501327514648 -101.135147094727 1.490770220757
-86.878715515137 -68.776222229004 -109.801574707031 1.312083363533
-82.283020019531 -68.939613342285 -112.371467590332 2.132639169693
-60.233463287354 -67.220146179199 -118.184883117676 2.380074262619
-57.253192901611 -71.362167358398 -125.585708618164 1.363808751106
-94.702934265137 -67.567138671875 -121.342178344727 1.323908805847
-75.182563781738 -69.374610900879 -119.035224914551 2.375052452087
-76.797233581543 -71.181724548340 -131.948654174805 2.048377037048
-60.948112487793 -65.743774414063 -127.834075927734 1.500046730042
-88.651702880859 -64.504837036133 -129.943756103516 2.182532548904
-89.859786987305 -67.220405578613 -129.666229248047 1.012909531593
-48.248584747314 -71.379348754883 -134.895126342773 0.672829389572
-51.549907684326 -68.507843017578 -136.184722900391 2.632811784744
-77.360298156738 -69.351844787598 -138.071441650391 1.573783636093
-54.042308807373 -69.462181091309 -141.088699340820 2.113166332245
-74.474266052246 -70.540481567383 -143.424804687500 1.692820072174
21.069356918335 -65.928596496582 -138.157669067383 2.206175565720
-57.533157348633 -71.491188049316 -144.391342163086 1.581603050232
-55.087722778320 -64.985626220703 -145.080978393555 2.881560087204
9.118066787720 -70.780166625977 -154.613449096680 1.736722350121
16.665685653687 -66.300682067871 -150.491271972656 1.846140384674
-142.379394531250 -67.518524169922 -173.818679809570 0.724958240986
-110.393783569336 -66.385276794434 -177.721420288086 1.713046073914
-109.708732604980 -63.993339538574 -189.290771484375 1.604627847672
-152.594650268555 -68.542984008789 -191.143707275391 2.317034244537
-113.079124450684 -66.389160156250 -185.333358764648 2.644052982330
-152.096939086914 -63.229526519775 -195.856277465820 2.295763969421
-114.159072875977 -65.602462768555 -198.145660400391 2.102403879166
-150.315460205078 -64.480453491211 -200.002975463867 1.787953019142
-150.573043823242 -66.798049926758 -205.947601318359 1.471073150635
-152.948486328125 -70.246719360352 -207.667007446289 1.915914773941
-147.835403442383 -66.270683288574 -223.571563720703 2.679337263107
-150.311157226563 -69.138427734375 -224.991928100586 2.419732570648
-105.054779052734 -64.535049438477 -225.622070312500 2.040182113647
-101.898139953613 -66.427276611328 -222.056259155273 1.796518564224
-123.292739868164 -62.391948699951 -230.087173461914 2.134088754654
-108.066581726074 -65.968948364258 -225.740280151367 1.985644459724
-156.468536376953 -67.439277648926 -230.325393676758 1.697112441063
-2.919687032700 -66.374084472656 -225.477447509766 0.860766172409
-133.850662231445 -68.119438171387 -230.450576782227 1.833220362663
-153.403549194336 -67.530433654785 -234.851577758789 0.414283245802
-136.943893432617 -68.662391662598 -232.936340332031 2.755109548569
-11.232725143433 -65.865646362305 -235.520156860352 2.681299448013
8.872176170349 -66.836715698242 -242.488189697266 1.619687438011
62.901176452637 -62.867580413818 -240.039535522461 3.746836423874
18.271089553833 -69.437339782715 -248.052276611328 0.749043881893
56.018859863281 -66.211044311523 -243.005081176758 3.319903135300
41.258281707764 -68.122169494629 -249.032836914063 1.920892596245
58.868515014648 -64.280654907227 -250.902053833008 4.111167907715
-152.456130981445 -66.098731994629 -249.956161499023 2.996416091919
-149.449279785156 -69.549880981445 -254.111343383789 2.414420127869
42.813419342041 -65.254913330078 -256.141815185547 1.676750302315
29.419933319092 -66.077377319336 -255.093978881836 3.159114122391
47.747524261475 -64.309295654297 -252.039154052734 1.957738518715
-144.780197143555 -68.725021362305 -259.240783691406 2.324776172638
-136.381927490234 -64.557189941406 -254.944625854492 3.403925180435
-124.915023803711 -63.876850128174 -257.528167724609 1.984086751938
-134.008255004883 -66.300277709961 -255.702667236328 1.931713938713
-140.841018676758 -66.688270568848 -257.594177246094 3.097146987915
-123.677238464355 -65.314758300781 -259.092163085938 1.899500489235
-142.765426635742 -64.409980773926 -259.927825927734 1.692227721214
-126.279487609863 -67.674598693848 -259.149383544922 1.618713974953
-122.424514770508 -66.085998535156 -264.025573730469 2.071013450623
-127.588523864746 -66.472801208496 -264.459808349609 1.483709931374
-120.442535400391 -63.011970520020 -263.639923095703 3.263550519943
-5.260684013367 -66.596679687500 -265.456451416016 1.116931557655
27.971343994141 -63.884300231934 -261.465667724609 1.702587962151
-146.254226684570 -62.379627227783 -266.525970458984 1.406028509140
26.197353363037 -66.521835327148 -268.499755859375 3.534091949463
-4.895246028900 -61.936443328857 -273.773071289063 5.881666183472
17.032884597778 -71.222122192383 -283.027343750000 1.736485838890
-141.666305541992 -66.088409423828 -288.836395263672 0.979074001312
-125.501754760742 -66.756462097168 -286.937042236328 1.173020601273
-132.294433593750 -61.987869262695 -289.919677734375 2.970196962357
-158.565093994141 -61.621288299561 -291.574096679688 4.360769271851
-126.108520507813 -61.290203094482 -288.891601562500 3.864837408066
-118.159324645996 -63.591693878174 -288.822265625000 2.972525835037
-125.666343688965 -67.205131530762 -295.335571289063 3.360441923141
-150.950332641602 -68.026504516602 -293.316497802734 1.891681194305
28.105039596558 -73.506530761719 -11.868313789368 1.389171123505
31.320205688477 -74.049987792969 -16.834037780762 1.213106751442
37.826721191406 -70.650550842285 -19.261783599854 1.380349516869
47.933532714844 -64.859313964844 -22.866012573242 1.958867549896
27.232498168945 -74.930061340332 -27.375406265259 2.807152748108
20.254833221436 -73.119552612305 -33.915321350098 0.691317796707
-34.481941223145 -69.433143615723 -45.816478729248 4.720770359039
-82.519989013672 -70.124916076660 -52.671512603760 1.513988375664
-16.574272155762 -68.566169738770 -58.044303894043 2.482799530029
72.599922180176 -67.140510559082 -64.087745666504 2.627643108368
101.583404541016 -68.009284973145 -67.920913696289 2.546567678452
64.561973571777 -66.974136352539 -82.258979797363 2.372772455215
61.180694580078 -63.918968200684 -82.389610290527 1.666100502014
100.109947204590 -68.425445556641 -83.669502258301 1.679241657257
-64.250823974609 -65.571968078613 -90.025611877441 2.026323318481
-65.600631713867 -67.839805603027 -90.728706359863 2.697542667389
49.471168518066 -66.139663696289 -92.670135498047 1.309456110001
-67.376625061035 -69.220306396484 -95.493377685547 2.685556411743
-71.719047546387 -67.453964233398 -100.338279724121 1.739186286926
-96.865585327148 -66.564834594727 -99.372207641602 2.124942302704
-75.937492370605 -64.556198120117 -99.609138488770 1.745137333870
46.712287902832 -64.942680358887 -100.944412231445 2.483693838120
-67.680809020996 -69.586112976074 -102.956809997559 2.686862468719
49.321224212646 -65.872962951660 -102.368194580078 1.480411291122
96.026359558105 -67.601028442383 -103.967773437500 1.655735135078
90.636543273926 -67.536499023438 -110.504493713379 3.808948040009
-73.075561523438 -67.046066284180 -113.984054565430 1.348205566406
-84.711280822754 -68.255310058594 -112.014968872070 2.263735055923
-62.076553344727 -67.174758911133 -118.661094665527 1.467732667923
-96.398605346680 -63.920486450195 -118.674247741699 2.821121692657
-76.881958007813 -68.882110595703 -126.820343017578 2.018751144409
-93.629524230957 -61.106410980225 -124.833267211914 0.814017713070
-63.537086486816 -65.586616516113 -117.435058593750 0.990854859352
-60.420631408691 -61.793415069580 -119.893142700195 1.647668123245
-88.879249572754 -67.494743347168 -129.133926391602 1.503143310547
-63.470726013184 -70.173439025879 -126.986122131348 3.029836177826
-84.326744079590 -66.023880004883 -132.042770385742 1.183150768280
-79.732055664063 -67.693840026855 -133.442214965820 2.129279613495
-62.295940399170 -70.362335205078 -134.079421997070 1.625722050667
-61.057453155518 -63.395290374756 -134.087127685547 1.850708603859
-54.878654479980 -62.394805908203 -134.934921264648 1.939099550247
-96.503372192383 -64.533409118652 -131.897552490234 4.092067718506
-97.177467346191 -64.244789123535 -143.685470581055 3.102224111557
-88.692924499512 -67.185157775879 -134.535064697266 2.667712926865
20.449892044067 -69.085121154785 -147.908233642578 2.110705375671
-50.108585357666 -67.462272644043 -141.353790283203 1.400963425636
17.841951370239 -66.604545593262 -149.629898071289 1.115333199501
-98.299568176270 -67.020576477051 -164.119750976563 3.209221839905
-103.026214599609 -70.305778503418 -171.054977416992 1.520202517509
-102.581474304199 -63.270404815674 -170.876739501953 2.401322603226
-107.972854614258 -61.774875640869 -170.897018432617 3.657217979431
-107.607414245605 -66.835502624512 -179.193405151367 2.234333038330
-110.679702758789 -65.850799560547 -177.953994750977 1.638557195663
-142.218032836914 -64.511184692383 -186.719039916992 1.810945391655
-112.007293701172 -64.846252441406 -186.099395751953 2.773242235184
-133.768692016602 -63.056629180908 -199.308990478516 1.767885088921
-149.350662231445 -67.741897583008 -198.118438720703 0.931388616562
-126.514656066895 -66.087150573730 -197.713394165039 3.231086492538
-156.904922485352 -67.523818969727 -196.246459960938 2.844365119934
-147.284271240234 -68.834388732910 -201.762237548828 2.083163738251
-125.239883422852 -61.455177307129 -198.442337036133 1.795298814774
-134.596923828125 -64.759490966797 -201.132644653320 1.480711698532
-141.551986694336 -70.347526550293 -206.231430053711 2.405911684036
-132.109497070313 -67.746276855469 -223.240173339844 1.633860230446
-110.579292297363 -67.012924194336 -229.262390136719 2.970235824585
-144.072540283203 -66.391899108887 -228.090362548828 0.828499436378
-118.728134155273 -63.939262390137 -230.775054931641 2.096040248871
-115.760887145996 -61.612304687500 -230.552017211914 2.616135597229
-122.773307800293 -66.250175476074 -232.863769531250 2.691211462021
-130.714279174805 -65.345237731934 -234.148040771484 1.990898370743
-115.702705383301 -62.634445190430 -236.177062988281 4.091213703156
4.434129238129 -64.755226135254 -235.228591918945 1.430676817894
-152.023376464844 -66.980484008789 -237.502990722656 2.358843803406
6.482623100281 -66.596916198730 -234.508773803711 2.084718942642
5.495569229126 -62.328186035156 -241.571411132813 1.370055675507
1.879758954048 -67.272529602051 -240.793380737305 1.130445241928
14.012780189514 -62.323268890381 -240.143432617188 2.791446447372
-144.491912841797 -63.867008209229 -234.963317871094 1.786936163902
-5.031354904175 -66.542709350586 -246.625030517578 3.315585613251
19.440412521362 -65.124519348145 -240.696090698242 1.548141360283
49.645702362061 -63.724491119385 -249.038162231445 1.624078154564
50.695716857910 -63.869331359863 -249.663116455078 0.760582327843
-146.832656860352 -66.802993774414 -252.248474121094 1.667678833008
-5.859447956085 -66.108535766602 -251.026779174805 1.495258808136
22.821146011353 -65.894454956055 -255.282348632813 0.929922401905
-132.437103271484 -60.267124176025 -258.155731201172 3.947699069977
-124.190612792969 -63.482597351074 -258.367950439453 2.377600431442
-124.868186950684 -65.776237487793 -257.861816406250 1.175658702850
26.445466995239 -64.923538208008 -258.296447753906 1.403814792633
-134.066726684570 -62.832561492920 -265.351623535156 3.650731801987
30.593280792236 -63.196376800537 -260.031951904297 1.878551602364
32.518001556396 -65.268646240234 -262.903411865234 2.094081401825
-153.131042480469 -66.945259094238 -266.928375244141 0.915956676006
-146.829483032227 -69.783874511719 -286.882263183594 2.441919565201
-149.721008300781 -61.585857391357 -287.819641113281 2.787549734116
-144.112365722656 -62.367115020752 -294.082763671875 2.267748355865
11.924103736877 -67.754341125488 -291.779357910156 1.867052674294
-154.647979736328 -62.401969909668 -299.812225341797 4.787302970886
45.497913360596 -73.328392028809 -25.731929779053 1.900918722153
35.118148803711 -74.466575622559 -39.850971221924 2.463426828384
-61.675235748291 -65.751647949219 -45.729713439941 4.042044639587
-72.566711425781 -65.772926330566 -46.296783447266 2.390885353088
-27.401416778564 -65.801712036133 -50.288383483887 1.203169941902
-22.483839035034 -70.834701538086 -54.243083953857 2.297519207001
-11.785318374634 -64.257980346680 -66.372573852539 1.647181987762
-26.776117324829 -64.237724304199 -69.489974975586 1.980382442474
64.513267517090 -67.369087219238 -73.398376464844 2.104176282883
-97.269577026367 -62.288707733154 -78.495956420898 3.540392875671
-46.829158782959 -67.491119384766 -86.001876831055 2.217841386795
54.239185333252 -68.476356506348 -85.532600402832 1.677583932877
58.258911132813 -67.380569458008 -86.120269775391 2.530571699142
61.859344482422 -67.856208801270 -88.430595397949 1.892260909081
105.870979309082 -66.470687866211 -90.347694396973 1.421227812767
51.829185485840 -64.670578002930 -90.456817626953 1.873646140099
98.539703369141 -62.892848968506 -99.818778991699 2.013339042664
-82.394004821777 -68.618049621582 -103.106109619141 2.240434885025
-94.533508300781 -66.864677429199 -101.679565429688 3.395239830017
74.871620178223 -63.682353973389 -111.576072692871 2.266226053238
-77.945007324219 -66.176071166992 -103.592613220215 2.482868671417
-78.138923645020 -70.470985412598 -114.637199401855 1.791327476501
-84.398399353027 -70.777526855469 -118.887512207031 1.878477334976
-55.726718902588 -67.555908203125 -126.437347412109 1.974714636803
-77.873367309570 -66.681869506836 -128.681976318359 1.543427348137
-62.939311981201 -63.507957458496 -129.379852294922 1.961226105690
-84.291557312012 -67.834465026855 -134.878723144531 2.199590444565
-76.308372497559 -65.125816345215 -132.892135620117 0.956807613373
-80.166915893555 -63.486770629883 -125.231834411621 1.451848506927
-89.100990295410 -64.688186645508 -130.200988769531 2.229750156403
-66.013496398926 -63.632095336914 -134.207534790039 3.041172981262
-90.941146850586 -65.965759277344 -132.702072143555 2.076685190201
-50.409042358398 -68.046096801758 -133.341186523438 1.924977779388
-56.056453704834 -70.276657104492 -139.005584716797 1.460803270340
27.441951751709 -66.256225585938 -139.311508178711 1.833748936653
-57.278266906738 -61.033672332764 -136.790512084961 1.143518447876
14.944570541382 -69.859954833984 -143.893753051758 2.924021244049
16.121534347534 -65.160751342773 -147.885406494141 1.735886693001
17.456367492676 -62.757602691650 -153.153991699219 1.321088552475
-98.304306030273 -64.618461608887 -145.118270874023 3.135584115982
-91.660377502441 -66.164054870605 -149.996109008789 2.597882509232
-96.548255920410 -62.650882720947 -151.134826660156 1.520103812218
-105.134979248047 -65.998031616211 -161.225082397461 2.061490058899
-97.904975891113 -64.624626159668 -159.129333496094 1.851890921593
-152.251571655273 -65.545875549316 -175.527420043945 2.699631214142
-154.087890625000 -65.639488220215 -175.903808593750 3.369448423386
-110.689643859863 -63.476428985596 -181.624542236328 3.217427968979
-142.180358886719 -63.395828247070 -177.585388183594 1.620097398758
-110.273918151855 -62.374446868896 -181.212493896484 2.184347629547
-150.022857666016 -59.518558502197 -187.071762084961 3.268027305603
-111.803123474121 -62.299682617188 -192.176300048828 2.218253612518
-110.591667175293 -65.562423706055 -183.829437255859 2.858921766281
-144.281097412109 -64.715507507324 -198.925735473633 0.770052373409
-130.535583496094 -66.314071655273 -196.737396240234 2.590116977692
-107.469482421875 -65.231590270996 -197.692657470703 0.992570936680
-116.253593444824 -60.409137725830 -198.834457397461 3.139742136002
-113.174095153809 -65.631744384766 -200.355667114258 0.778597772121
-116.314018249512 -61.220420837402 -202.572708129883 1.582818627357
-134.510116577148 -62.649639129639 -197.502548217773 1.619754195213
-138.637542724609 -64.682167053223 -202.818130493164 2.373292446136
-131.249526977539 -63.462776184082 -207.010437011719 2.942793369293
-127.765777587891 -60.412807464600 -201.198577880859 3.673184871674
-124.697502136230 -63.631305694580 -204.842208862305 1.484859108925
-114.019660949707 -63.890426635742 -204.635986328125 2.872890233994
-148.301452636719 -63.969356536865 -213.962387084961 2.371165990829
-152.279998779297 -64.393501281738 -220.082687377930 3.201632738113
-153.290084838867 -63.313106536865 -222.564178466797 2.082762002945
-140.609039306641 -68.910041809082 -225.330169677734 1.203048348427
-132.293350219727 -60.898162841797 -227.110275268555 3.162733793259
-122.611114501953 -66.316398620605 -220.458663940430 4.781009197235
-141.071456909180 -66.132377624512 -229.008193969727 1.293324470520
-151.430282592773 -66.400810241699 -226.244735717773 3.375757932663
-134.323669433594 -65.389694213867 -226.352371215820 2.148326873779
-133.744842529297 -61.707515716553 -228.413070678711 1.808782577515
-147.920059204102 -64.707855224609 -229.453552246094 0.744224429131
-135.106369018555 -59.226711273193 -229.733932495117 4.012018203735
-127.916641235352 -62.979225158691 -230.624313354492 2.899063110352
-10.802089691162 -66.690261840820 -236.768356323242 1.425010681152
4.694605827332 -63.180381774902 -240.368698120117 1.329099297523
13.456194877625 -60.255638122559 -242.670379638672 1.555816054344
9.255064010620 -66.708023071289 -243.481781005859 2.418291091919
-8.631335258484 -66.577285766602 -239.823577880859 2.118295669556
-12.573245048523 -64.672676086426 -246.576904296875 1.750674009323
37.789127349854 -62.787128448486 -250.017807006836 1.345903754234
47.629081726074 -63.875968933105 -252.595611572266 1.394413590431
-146.233306884766 -62.568038940430 -254.106887817383 0.995724439621
41.766963958740 -62.488166809082 -254.641616821289 2.241073608398
38.156536102295 -65.061225891113 -253.174453735352 1.207081317902
-158.764205932617 -67.071372985840 -257.375030517578 3.427736759186
-151.136978149414 -63.339385986328 -257.307464599609 1.367112040520
-151.064041137695 -66.921752929688 -259.366729736328 2.087515354156
2.354249000549 -65.017791748047 -263.319061279297 1.724140524864
-151.241363525391 -64.228431701660 -266.644836425781 1.365455865860
-0.690860986710 -64.150512695313 -274.038543701172 3.176362514496
-146.718795776367 -65.900993347168 -274.736816406250 2.434108018875
-148.162811279297 -63.737686157227 -281.522644042969 1.146858334541
-151.422363281250 -63.372699737549 -284.972991943359 1.888196110725
-150.191589355469 -57.536678314209 -283.403137207031 4.359711170197
-145.564193725586 -61.907337188721 -289.260070800781 2.843136548996
-155.670837402344 -62.628646850586 -285.186859130859 2.443186998367
-151.511734008789 -63.331352233887 -286.076660156250 1.474348068237
-152.002258300781 -61.099205017090 -287.428924560547 1.209611415863
-147.894653320313 -62.769016265869 -287.344635009766 1.861092686653
-144.334777832031 -62.856590270996 -287.110382080078 2.387777328491
11.131965637207 -64.972801208496 -284.889221191406 3.605984449387
-147.234786987305 -62.784477233887 -293.182861328125 1.471541404724
-157.420181274414 -59.999435424805 -291.365722656250 4.731458663940
-155.606536865234 -58.966331481934 -288.486267089844 3.505171060562
-150.986877441406 -61.276939392090 -293.169860839844 1.984582066536
-149.176956176758 -57.880222320557 -289.074310302734 3.972352027893
-146.983932495117 -64.532691955566 -291.843017578125 1.195894002914
3.759349107742 -65.023429870605 -292.226043701172 2.395338058472
-144.506042480469 -61.120510101318 -294.250305175781 2.770595312119
-148.207595825195 -60.154998779297 -293.239624023438 1.968392252922
28.645690917969 -61.865924835205 -16.247184753418 3.678851604462
41.899551391602 -72.209815979004 -20.252311706543 1.743725419044
42.322715759277 -64.901870727539 -21.229223251343 1.136102080345
17.498504638672 -72.430351257324 -31.319274902344 2.261050462723
26.330509185791 -59.566673278809 -34.750160217285 2.521391630173
37.225482940674 -69.124458312988 -35.669826507568 1.338568091393
-56.931838989258 -65.104179382324 -44.136535644531 1.426606178284
-51.145389556885 -66.440200805664 -41.875373840332 4.891637802124
89.592742919922 -67.005126953125 -63.969276428223 1.540956854820
-96.080947875977 -64.500350952148 -65.148254394531 1.420767068863
95.983421325684 -74.200714111328 -62.606021881104 7.153640747070
67.657493591309 -67.753837585449 -69.579544067383 2.169265270233
100.238639831543 -68.552497863770 -77.404083251953 2.828308582306
63.309890747070 -70.277160644531 -75.905830383301 3.704538106918
-42.329750061035 -66.966835021973 -77.530853271484 1.847895503044
59.639087677002 -63.410301208496 -81.429428100586 1.856219530106
-53.944072723389 -63.211189270020 -78.199905395508 0.532009959221
58.595325469971 -65.692123413086 -83.775924682617 1.716126680374
61.972938537598 -63.768901824951 -84.926361083984 1.332414150238
-98.629325866699 -65.811088562012 -83.327957153320 2.537612199783
51.222240447998 -64.966079711914 -85.917419433594 3.296006202698
51.637321472168 -70.129699707031 -92.738334655762 1.493631482124
64.542610168457 -67.380043029785 -91.767494201660 1.714050531387
52.000221252441 -64.822204589844 -95.969566345215 2.107225179672
-81.344474792480 -63.987163543701 -106.345397949219 2.339997768402
82.621810913086 -69.590538024902 -105.561843872070 1.171325564384
-81.223297119141 -68.097923278809 -117.202079772949 2.922122955322
-77.164375305176 -63.653301239014 -106.269752502441 0.935543060303
-80.057769775391 -66.317398071289 -122.209449768066 2.461638450623
-86.249893188477 -64.599510192871 -114.626670837402 2.029345035553
-94.097282409668 -63.341461181641 -119.457809448242 2.440945863724
-80.842529296875 -66.110534667969 -122.596221923828 1.941102981567
-53.071880340576 -63.145217895508 -125.390098571777 1.587892532349
-78.433776855469 -63.224655151367 -134.264282226563 1.755476832390
-57.119010925293 -60.557609558105 -130.182678222656 2.085999250412
-88.527801513672 -62.741237640381 -136.543121337891 2.943355560303
29.220233917236 -64.467117309570 -137.494812011719 1.602874636650
19.296234130859 -65.366081237793 -140.384307861328 1.153782963753
-93.462226867676 -57.405471801758 -141.782257080078 5.149227619171
20.545551300049 -66.399414062500 -148.007705688477 2.054316759109
-90.426628112793 -66.818824768066 -146.071136474609 2.021185398102
-94.420440673828 -60.796909332275 -147.196273803711 2.118151664734
18.596612930298 -65.119262695313 -158.000885009766 4.243311405182
-96.344543457031 -63.580600738525 -146.538055419922 2.077561616898
-98.489845275879 -62.430633544922 -147.195602416992 2.409711599350
-103.623428344727 -63.367557525635 -156.275955200195 2.331497192383
-96.259704589844 -63.736511230469 -160.847961425781 1.961228847504
-104.294075012207 -65.650245666504 -177.735214233398 1.875430345535
-109.052352905273 -68.766052246094 -168.659667968750 3.489610433578
-99.650848388672 -64.438911437988 -164.926788330078 3.664194583893
-105.783226013184 -64.490730285645 -169.057144165039 1.106759428978
-140.956497192383 -65.156692504883 -177.849258422852 2.329665184021
-110.279975891113 -63.535675048828 -177.819976806641 1.374404311180
-141.607101440430 -63.662094116211 -187.426315307617 2.507824420929
-148.863693237305 -61.139747619629 -189.847366333008 3.624020338058
-153.160659790039 -60.500083923340 -189.582748413086 4.895154953003
-123.056259155273 -61.682197570801 -196.167037963867 1.520121932030
-130.184600830078 -65.784317016602 -195.440444946289 1.899126410484
-122.614646911621 -62.055183410645 -200.167510986328 1.731189250946
-143.367889404297 -65.701820373535 -201.658218383789 2.126981973648
-123.781066894531 -66.071228027344 -203.557312011719 0.869933903217
-146.605056762695 -64.443763732910 -204.142593383789 2.080017328262
-151.587417602539 -63.439758300781 -205.470809936523 2.181725263596
-155.043106079102 -61.534389495850 -227.403686523438 1.406786441803
-142.942001342773 -67.629653930664 -231.405532836914 1.370764493942
-127.718002319336 -61.306846618652 -231.685653686523 4.433374404907
-154.008209228516 -61.248886108398 -230.405410766602 0.692811846733
-3.052717924118 -67.697814941406 -238.499282836914 1.924246191978
12.242798805237 -60.921863555908 -238.500198364258 3.518001556396
-2.613852024078 -66.387222290039 -243.014236450195 2.153378725052
-149.735519409180 -61.750480651855 -244.691253662109 2.669498682022
-7.925469875336 -61.554798126221 -242.905822753906 3.138831853867
-151.222717285156 -66.122100830078 -253.274185180664 1.770360231400
-6.716517925262 -66.083793640137 -249.131103515625 2.316621780396
-149.631118774414 -63.948436737061 -253.694686889648 1.791885137558
21.805658340454 -65.211982727051 -252.104919433594 2.828401327133
-152.585556030273 -58.957370758057 -255.058776855469 2.805792808533
-149.325057983398 -62.193920135498 -255.058685302734 1.931577324867
-152.762802124023 -62.144985198975 -254.040481567383 0.967377781868
-149.624404907227 -61.053176879883 -257.568695068359 1.740939974785
33.735908508301 -63.254463195801 -257.768341064453 2.766584157944
30.658950805664 -62.535850524902 -263.022094726563 2.981801033020
-146.157867431641 -62.339561462402 -255.823883056641 2.017346143723
-151.720108032227 -58.675334930420 -260.065093994141 3.107177495956
-154.336425781250 -64.710205078125 -259.827484130859 1.501209259033
-147.470809936523 -60.165966033936 -259.591674804688 2.267736911774
26.940011978149 -61.800716400146 -262.170959472656 1.909110546112
28.971097946167 -62.537540435791 -265.456481933594 2.503062486649
-154.116439819336 -63.229621887207 -262.753662109375 2.007761716843
-143.535720825195 -61.786140441895 -263.083190917969 1.291106224060
-149.849975585938 -59.357311248779 -263.043914794922 1.446962475777
-144.373367309570 -61.556491851807 -264.017791748047 2.362239837646
-144.990814208984 -64.419395446777 -263.518432617188 1.004288673401
-147.388763427734 -65.617622375488 -265.629119873047 1.957984566689
-148.610366821289 -60.113544464111 -265.796478271484 1.776387214661
-150.227172851563 -58.850875854492 -285.346923828125 3.762999773026
-148.290603637695 -61.591266632080 -282.152404785156 1.912724494934
-148.274459838867 -61.964984893799 -279.527099609375 2.410345315933
17.097005844116 -62.852317810059 -281.830810546875 3.307964324951
-154.253402709961 -59.265499114990 -284.916931152344 3.153681039810
-147.066833496094 -60.813968658447 -287.888702392578 2.233467340469
-5.071946144104 -67.582160949707 -287.169219970703 1.879212975502
4.917910099030 -62.227237701416 -292.068145751953 0.688300251961
-152.126892089844 -62.446746826172 -294.741943359375 3.004566907883
26.653787612915 -73.447387695313 -21.471147537231 1.331353068352
45.068458557129 -67.278152465820 -27.985662460327 3.122644424438
49.324138641357 -72.561164855957 -32.424102783203 2.802117586136
40.770374298096 -63.272705078125 -34.568748474121 0.497893780470
25.096366882324 -73.810310363770 -36.940280914307 2.940360069275
44.574562072754 -71.036613464355 -39.794677734375 1.611026883125
79.529884338379 -63.745994567871 -61.686862945557 2.575560808182
76.576866149902 -66.318428039551 -61.853424072266 2.043923854828
-16.552919387817 -66.415802001953 -68.909049987793 2.396336317062
66.853515625000 -63.053344726563 -70.642051696777 2.958036422729
-28.261186599731 -68.290390014648 -73.272819519043 0.892298460007
-34.710224151611 -69.849197387695 -79.464035034180 1.488097429276
-57.121879577637 -63.875171661377 -76.119865417480 3.984728574753
-54.797054290771 -62.513381958008 -78.943466186523 1.808412194252
63.843173980713 -69.804183959961 -82.067352294922 2.506644487381
106.577308654785 -70.092475891113 -89.192634582520 3.955265998840
-60.744915008545 -62.785747528076 -85.954162597656 0.966315865517
56.726516723633 -65.686370849609 -95.399986267090 2.569934368134
63.535938262939 -63.465484619141 -93.321838378906 0.932499051094
103.242958068848 -65.314460754395 -94.131210327148 2.856009721756
-66.270263671875 -67.330947875977 -93.511383056641 2.880855560303
55.005207061768 -61.726863861084 -95.513786315918 1.834523558617
-66.043792724609 -68.031890869141 -104.939613342285 4.550337791443
67.887634277344 -66.362731933594 -96.315841674805 1.913496255875
67.392707824707 -64.811454772949 -102.713272094727 1.236187934875
-75.115058898926 -63.241504669189 -108.215850830078 0.892605483532
-97.741195678711 -62.174430847168 -111.949562072754 1.715699434280
-70.096084594727 -59.367259979248 -110.575531005859 2.596228599548
-83.880897521973 -65.376312255859 -111.298645019531 2.901635169983
-63.104804992676 -66.149246215820 -114.661056518555 2.746882915497
-84.354705810547 -62.194408416748 -108.998191833496 2.590571880341
-76.860443115234 -65.009719848633 -115.026527404785 1.207862854004
-76.921211242676 -66.355987548828 -115.783325195313 1.283354878426
-68.557228088379 -67.032424926758 -119.659698486328 3.582805633545
-84.963462829590 -66.500663757324 -125.986625671387 3.094047546387
34.556076049805 -64.140335083008 -127.668937683105 1.616487622261
-50.053108215332 -64.111862182617 -129.145889282227 3.238169670105
31.306755065918 -63.794738769531 -133.833236694336 1.588308691978
30.502420425415 -65.071731567383 -132.131011962891 2.118360280991
30.411602020264 -66.249198913574 -131.906204223633 2.690030574799
-53.699146270752 -62.415821075439 -132.055480957031 1.615276932716
20.790702819824 -64.172058105469 -145.550262451172 1.200907588005
23.122978210449 -64.758255004883 -143.739410400391 2.444481849670
-145.836730957031 -63.904098510742 -177.130081176758 1.945640802383
-150.596878051758 -59.667526245117 -174.964035034180 1.991893649101
-152.510589599609 -62.781883239746 -181.408111572266 1.815204143524
-147.628158569336 -60.727886199951 -185.180206298828 2.580401659012
-148.791336059570 -63.397891998291 -191.856658935547 1.989452481270
-149.479934692383 -64.901573181152 -192.875091552734 1.551096439362
-141.146408081055 -64.862640380859 -192.899200439453 2.297635316849
-144.413467407227 -60.057022094727 -199.817184448242 2.016811370850
-122.282135009766 -64.768676757813 -199.896545410156 1.335084795952
-134.193038940430 -63.632919311523 -203.553085327148 1.411382675171
-147.927764892578 -63.773162841797 -213.058425903320 2.001217842102
-147.235153198242 -57.213851928711 -222.334320068359 3.500946760178
-151.983001708984 -61.281723022461 -226.476272583008 0.584902524948
-146.351882934570 -62.254524230957 -228.235244750977 1.922174453735
-152.221664428711 -61.328395843506 -228.175979614258 1.682423710823
-150.360061645508 -59.030494689941 -228.089401245117 3.116944074631
-148.020217895508 -62.699199676514 -230.315780639648 1.796934247017
-145.930984497070 -62.486347198486 -232.006652832031 1.699597954750
-142.298248291016 -60.527568817139 -236.595169067383 2.727458477020
-147.030593872070 -63.411895751953 -229.765640258789 1.715969324112
-154.828414916992 -61.133708953857 -233.876876831055 2.109378337860
10.033016204834 -62.020599365234 -239.460952758789 2.652915000916
-9.068454742432 -66.949363708496 -240.814315795898 1.590020775795
-145.711669921875 -59.784557342529 -240.555175781250 3.164163827896
-152.137023925781 -62.394184112549 -236.713058471680 1.272596716881
-152.875640869141 -63.166805267334 -238.894134521484 3.425352334976
8.601487159729 -63.680286407471 -243.048446655273 1.905494093895
-149.983612060547 -60.789978027344 -238.312942504883 0.883637130260
-148.935653686523 -64.240364074707 -253.273864746094 2.032660961151
-3.633243083954 -62.861434936523 -249.158447265625 1.016823053360
-148.141784667969 -60.969909667969 -251.575561523438 1.185374140739
-144.834732055664 -60.662254333496 -253.908203125000 2.124195337296
-142.508117675781 -61.841598510742 -256.105957031250 2.459428787231
-143.059906005859 -61.370883941650 -255.565902709961 2.820116758347
28.052097320557 -64.674270629883 -261.923400878906 1.132182836533
-149.563156127930 -64.489311218262 -264.289825439453 1.257338047028
27.515825271606 -63.891147613525 -271.109802246094 1.637221932411
14.511732101440 -61.789901733398 -287.602508544922 2.455125570297
1.541496038437 -61.369739532471 -287.907775878906 1.985146999359
8.906528472900 -59.200130462646 -293.094635009766 0.843102395535
31.615169525146 -65.310836791992 -19.575714111328 3.469802618027
43.136356353760 -74.551300048828 -37.564990997314 3.219776391983
35.689208984375 -73.800849914551 -38.614463806152 1.118061900139
-43.939781188965 -64.157653808594 -46.696529388428 3.399031877518
-90.763206481934 -65.252670288086 -54.768520355225 0.700872540474
-94.611083984375 -64.567665100098 -59.689990997314 4.102138042450
-22.063184738159 -63.434761047363 -66.334014892578 2.101675271988
101.437210083008 -66.632881164551 -68.344749450684 1.518380165100
106.165916442871 -63.059520721436 -74.885955810547 1.056298255920
105.206169128418 -66.768829345703 -76.841239929199 1.970195412636
-50.266914367676 -65.890419006348 -82.812011718750 2.097063064575
-62.441394805908 -62.602397918701 -84.401199340820 1.264044880867
58.259372711182 -63.317584991455 -88.460189819336 2.859235286713
53.956825256348 -66.998428344727 -89.997886657715 1.323148965836
-61.742969512939 -67.537261962891 -96.605758666992 3.742265462875
-96.673431396484 -60.196273803711 -107.011802673340 2.142032146454
77.435791015625 -64.525291442871 -108.194259643555 1.434117913246
-80.269508361816 -63.461685180664 -108.396415710449 0.530970811844
-67.632041931152 -64.638710021973 -108.832405090332 1.087416172028
-80.481658935547 -66.702911376953 -113.475784301758 1.582895755768
-84.722862243652 -58.142597198486 -115.071983337402 1.685893416405
-82.779281616211 -64.369728088379 -116.282569885254 1.508574962616
-69.797012329102 -57.351562500000 -118.200942993164 1.503536224365
-66.233108520508 -62.909946441650 -117.000709533691 1.483790993690
-81.861663818359 -59.280467987061 -117.682403564453 0.895988345146
-77.306770324707 -63.074317932129 -116.648780822754 1.458188652992
-63.297672271729 -62.260807037354 -119.628059387207 1.427169322968
-84.644859313965 -62.717044830322 -117.434776306152 1.885325312614
-75.243232727051 -63.719253540039 -120.140296936035 2.228252649307
-74.288810729980 -62.399318695068 -128.776931762695 2.300865650177
-80.238159179688 -62.968029022217 -128.417907714844 2.036203384399
27.645238876343 -61.635692596436 -124.191162109375 4.975450515747
-57.440296173096 -61.406532287598 -132.270217895508 1.876036047935
27.240159988403 -64.423316955566 -133.488250732422 1.379106044769
22.353588104248 -66.669715881348 -138.571929931641 2.746265649796
-143.510070800781 -62.552867889404 -194.169326782227 1.959269523621
-137.215942382813 -63.334320068359 -198.552749633789 3.325501918793
-152.641571044922 -62.024330139160 -202.313171386719 2.705427169800
-150.628692626953 -59.400035858154 -199.715728759766 1.444417357445
-156.783294677734 -65.294647216797 -202.209045410156 2.013905763626
-148.168609619141 -58.632774353027 -202.507019042969 1.544366598129
-141.910598754883 -60.640274047852 -202.698822021484 1.451258659363
-149.725296020508 -59.502090454102 -206.572296142578 0.721821248531
-148.722290039063 -63.095767974854 -223.202514648438 0.920219719410
-148.553146362305 -60.526142120361 -220.670013427734 1.625956773758
-144.998855590820 -59.393795013428 -223.819152832031 1.178620100021
-144.873535156250 -61.605598449707 -221.729293823242 1.792902469635
-150.186264038086 -61.223026275635 -226.812301635742 1.996837973595
-145.750686645508 -59.655654907227 -224.253051757813 0.980691909790
-147.135086059570 -59.877574920654 -227.280990600586 2.470530033112
-141.978622436523 -59.439987182617 -226.238571166992 1.481231927872
-142.187622070313 -63.572933197021 -228.139541625977 0.683368444443
-143.605926513672 -60.212997436523 -233.137023925781 2.396474599838
-148.896926879883 -58.451965332031 -234.858932495117 1.105059146881
-147.739883422852 -58.866939544678 -233.741699218750 1.174412965775
2.647811889648 -63.644538879395 -238.150558471680 2.250644683838
18.316614151001 -61.827587127686 -242.480499267578 1.512418508530
24.350982666016 -57.544681549072 -254.278518676758 1.861838102341
24.272233963013 -60.415443420410 -257.004119873047 2.853612422943
8.608240127563 -62.816036224365 -263.210876464844 2.309674501419
21.733808517456 -63.844844818115 -278.466552734375 0.767066895962
5.178250789642 -62.920600891113 -279.822967529297 2.306708574295
7.266528129578 -59.913982391357 -291.738250732422 2.217089653015
10.781744003296 -62.723152160645 -288.572204589844 2.205140352249
49.432106018066 -72.284576416016 -20.719600677490 1.539089441299
32.388484954834 -62.874023437500 -37.708896636963 1.678377389908
-30.262678146362 -62.947433471680 -49.483093261719 2.896333217621
-16.921602249146 -63.555797576904 -51.579315185547 1.180858373642
-12.401419639587 -60.626708984375 -58.715141296387 3.167305946350
94.872711181641 -65.170249938965 -60.640808105469 3.264000654221
-96.882888793945 -60.037818908691 -71.289901733398 2.336153507233
100.735618591309 -66.525779724121 -72.507438659668 2.590548276901
55.815414428711 -63.928863525391 -86.071914672852 1.327075958252
67.058593750000 -62.622966766357 -88.674781799316 2.112865209579
-64.791397094727 -61.952049255371 -91.109565734863 2.616030216217
53.273529052734 -64.842605590820 -93.113891601563 1.248463749886
60.797729492188 -59.656497955322 -89.434898376465 2.406052589417
103.972213745117 -63.119617462158 -97.151496887207 2.252299308777
-68.513999938965 -61.827239990234 -94.683845520020 1.386605739594
-70.865043640137 -60.136234283447 -96.480346679688 0.761358916759
78.649703979492 -65.164611816406 -107.303642272949 1.871399044991
-75.814674377441 -63.680244445801 -107.092285156250 1.640588045120
-63.476783752441 -62.699645996094 -107.925247192383 2.587233066559
38.727653503418 -60.484359741211 -120.081878662109 1.552487134933
-83.475700378418 -63.198661804199 -124.344131469727 1.738445162773
40.417072296143 -62.862060546875 -120.523010253906 0.516498982906
-89.946128845215 -64.643035888672 -117.842231750488 1.879495024681
-97.520446777344 -60.709720611572 -126.172409057617 3.475230693817
-68.079360961914 -60.974777221680 -122.500762939453 1.725999951363
35.317863464355 -62.182975769043 -124.801788330078 1.729459047318
-63.341495513916 -64.130851745605 -128.048767089844 1.541110277176
-57.330410003662 -62.133941650391 -133.365234375000 2.125990390778
-57.262481689453 -64.001556396484 -137.822280883789 0.347077369690
-144.109222412109 -59.463306427002 -197.745727539063 1.581258654594
-149.073822021484 -58.069004058838 -191.071670532227 4.626186370850
-147.771392822266 -60.308696746826 -194.596588134766 1.775421619415
-153.668258666992 -61.150600433350 -196.338180541992 1.971234083176
-147.925720214844 -62.344314575195 -195.143371582031 1.726306796074
-144.699707031250 -58.241485595703 -196.364822387695 1.193809747696
-139.883010864258 -58.545722961426 -199.323989868164 3.221504688263
-146.651077270508 -60.710132598877 -201.450622558594 0.653460621834
-145.916656494141 -62.211372375488 -198.843353271484 1.523897409439
-153.309707641602 -58.245189666748 -205.139831542969 2.908491134644
-142.574371337891 -61.557826995850 -202.941619873047 1.699389815331
-146.613983154297 -62.626060485840 -205.439498901367 1.778736948967
-146.939193725586 -57.820354461670 -205.142898559570 1.940960049629
-150.224121093750 -58.554988861084 -205.298309326172 1.952471971512
-146.157165527344 -60.041244506836 -223.667022705078 1.767704606056
-5.556209087372 -63.981510162354 -234.501464843750 1.273085355759
6.028371810913 -59.891910552979 -241.912994384766 0.972893416882
9.852110862732 -58.974990844727 -239.759689331055 2.925302267075
5.657082080841 -60.825893402100 -243.870590209961 1.316869497299
20.296476364136 -60.194129943848 -248.314575195313 2.551286935806
0.639320015907 -63.629009246826 -257.315765380859 1.628384828568
9.917731285095 -61.747047424316 -270.378906250000 2.648097515106
26.421915054321 -64.649497985840 -267.410522460938 3.150575399399
18.453935623169 -59.877525329590 -282.357147216797 2.419813871384
27.524232864380 -64.559562683105 -11.868504524231 3.439464569092
-68.187171936035 -64.569595336914 -40.032939910889 4.860280990601
-35.642700195313 -62.698337554932 -46.322189331055 1.938938975334
69.472610473633 -61.716529846191 -62.857822418213 1.756721258163
-28.014972686768 -65.435470581055 -69.163063049316 3.277137279510
-34.465740203857 -65.323577880859 -78.376091003418 2.532470226288
-43.346580505371 -61.283344268799 -79.389579772949 2.988581180573
68.475975036621 -58.938678741455 -92.249015808105 2.234534263611
106.085029602051 -62.495929718018 -86.217308044434 0.789705932140
66.293472290039 -68.890350341797 -87.162178039551 1.328659892082
-71.885871887207 -58.449531555176 -98.010437011719 2.208230018616
101.786575317383 -62.466514587402 -98.623123168945 2.166538953781
99.618759155273 -63.074321746826 -105.756546020508 1.874122500420
-65.663505554199 -62.357383728027 -107.023780822754 2.757570981979
80.942131042480 -62.551406860352 -107.552062988281 1.995484709740
92.728759765625 -61.218704223633 -107.901977539063 2.462422132492
-58.003791809082 -64.476417541504 -110.557266235352 4.258419990540
48.191223144531 -63.149566650391 -114.283050537109 2.660464763641
-61.422779083252 -68.893638610840 -118.702224731445 2.677997827530
-83.888862609863 -61.852684020996 -110.823600769043 1.015227317810
-55.615486145020 -63.140003204346 -122.086875915527 2.408334970474
-77.014762878418 -61.313705444336 -115.135124206543 2.170570135117
35.937492370605 -63.948127746582 -122.772537231445 2.740435123444
-97.293907165527 -63.524032592773 -127.226211547852 4.517725467682
-53.834144592285 -60.146633148193 -128.823272705078 2.831255912781
22.801559448242 -59.911552429199 -139.478302001953 1.113153576851
9.554126739502 -57.847328186035 -240.559402465820 2.531275510788
0.898020982742 -61.596199035645 -242.607269287109 1.631112694740
4.001555919647 -59.148658752441 -285.751159667969 2.210296154022
21.520296096802 -65.828201293945 -18.118370056152 1.015516042709
38.100131988525 -63.600543975830 -19.463064193726 2.924332618713
17.921035766602 -64.950012207031 -22.880878448486 1.584308505058
44.049331665039 -64.302177429199 -21.983430862427 1.748621940613
-49.993839263916 -56.495243072510 -43.111934661865 4.076981544495
-8.739245414734 -63.971084594727 -65.327018737793 1.915359735489
-101.633605957031 -61.420787811279 -85.859184265137 1.093194246292
66.832527160645 -57.374343872070 -98.924613952637 1.996179223061
84.786117553711 -63.240345001221 -106.089447021484 1.386506795883
-68.604324340820 -62.308334350586 -115.814666748047 1.463136672974
46.060405731201 -61.358428955078 -117.075927734375 3.093038558960
-78.527671813965 -59.473926544189 -118.917182922363 1.671640634537
-60.892421722412 -63.915946960449 -120.142166137695 1.790046572685
-66.037147521973 -63.199222564697 -128.755920410156 1.706870675087
29.644508361816 -60.772106170654 -138.668136596680 3.262415170670
-3.411060094833 -58.664119720459 -241.747589111328 2.834801435471
20.459346771240 -63.250484466553 -246.960632324219 0.363634109497
21.794183731079 -59.003761291504 -271.779022216797 3.057572364807
22.970623016357 -58.611293792725 -278.602172851563 2.449939012527
11.462912559509 -62.009449005127 -284.151519775391 4.532375812531
45.044357299805 -67.939636230469 -19.127923965454 2.884899139404
37.114818572998 -76.156379699707 -40.143257141113 3.927820444107
-53.304855346680 -61.341182708740 -39.335922241211 5.032422065735
-86.024658203125 -64.188858032227 -48.887783050537 3.694763183594
82.027091979980 -62.032516479492 -59.941539764404 1.283338189125
-15.375476837158 -61.613006591797 -61.975482940674 4.978732109070
61.608139038086 -62.595939636230 -80.427551269531 1.473234653473
105.356033325195 -60.960990905762 -95.515998840332 2.559372425079
-77.821304321289 -61.994041442871 -102.206657409668 2.487802505493
