13.020694732666 -68.138381958008 -200.514129638672 1.642578244209
98.238723754883 -70.621315002441 -194.731552124023 1.242384076118
-114.352210998535 -67.547409057617 -198.697448730469 2.287098407745
20.579696655273 -73.597770690918 -199.404678344727 1.701942920685
-15.938961982727 -68.911613464355 -196.376770019531 1.728383779526
-18.358369827271 -69.247604370117 -199.542602539063 1.589529156685
100.322074890137 -70.236228942871 -200.933654785156 2.309627056122
7.258738994598 -72.039299011230 -200.252563476563 2.825799703598
-22.583717346191 -68.153823852539 -197.276092529297 1.149726629257
-122.044235229492 -71.381675720215 -203.450363159180 1.845213294029
-134.844833374023 -68.448432922363 -203.565704345703 2.192250251770
-114.700195312500 -64.200614929199 -205.258865356445 2.627433061600
-142.869705200195 -70.936927795410 -203.648086547852 1.626525163651
16.872344970703 -69.954460144043 -198.753448486328 1.468432545662
93.131958007813 -72.473663330078 -203.255371093750 2.610376358032
-166.525680541992 -63.502773284912 -201.532470703125 1.947134733200
99.335021972656 -70.971992492676 -203.602554321289 1.828093171120
-22.362436294556 -73.277435302734 -206.920074462891 3.147547483444
93.919479370117 -69.131378173828 -211.932342529297 1.326161861420
87.338684082031 -72.445907592773 -212.919128417969 1.509131193161
11.431953430176 -71.801818847656 -206.992492675781 2.109056711197
19.065444946289 -69.591346740723 -213.033477783203 1.888318657875
12.179363250732 -67.339973449707 -208.833099365234 1.267103791237
-11.631954193115 -69.974098205566 -223.306350708008 2.726981878281
-95.187637329102 -70.508598327637 -219.108291625977 2.637517213821
-11.174942970276 -71.788757324219 -213.211471557617 1.783156633377
88.318420410156 -71.228530883789 -217.718765258789 0.735183298588
-94.306457519531 -70.734962463379 -218.192657470703 2.108022928238
-101.866592407227 -66.261650085449 -221.644866943359 1.851904511452
-95.199775695801 -69.221038818359 -219.996185302734 2.602168321609
87.448356628418 -72.509513854980 -223.399246215820 1.072356462479
-136.069046020508 -68.409271240234 -225.455200195313 1.287170529366
-133.273468017578 -71.850471496582 -227.067825317383 1.722955465317
-117.425315856934 -68.135589599609 -225.207183837891 2.198206901550
-113.844009399414 -65.719215393066 -223.566390991211 2.432420492172
-134.111282348633 -66.595436096191 -227.495285034180 1.985684990883
-112.569541931152 -74.808364868164 -227.990493774414 2.877154350281
-112.994041442871 -68.129287719727 -228.468246459961 2.088899374008
-7.679637908936 -72.867568969727 -225.617675781250 1.770094990730
-16.736543655396 -71.813873291016 -224.092025756836 1.589143157005
-1.751904964447 -67.788269042969 -231.405715942383 1.144183039665
-10.911476135254 -66.857734680176 -227.904647827148 2.131954908371
14.565428733826 -70.645858764648 -234.592712402344 1.212920188904
-19.630178451538 -67.859733581543 -230.007492065430 3.356451034546
-167.581314086914 -66.061515808105 -222.405395507813 2.175335884094
-4.922090053558 -69.638229370117 -234.439804077148 0.903520822525
80.038200378418 -68.042999267578 -232.572814941406 4.302198886871
10.130041122437 -71.609405517578 -234.724044799805 1.738739728928
-6.706703186035 -68.918632507324 -235.737350463867 1.736415028572
-157.661102294922 -65.411140441895 -236.673889160156 1.479749798775
-143.063247680664 -66.458259582520 -230.661209106445 0.858071863651
61.781036376953 -69.280372619629 -237.200958251953 1.284189820290
-6.484477996826 -70.562408447266 -235.096878051758 1.028042197227
8.484725952148 -71.888595581055 -231.791229248047 2.105131149292
68.605323791504 -72.833328247070 -231.656570434570 1.369436860085
76.135826110840 -71.140312194824 -235.704925537109 1.546303629875
70.173484802246 -71.703720092773 -242.748550415039 2.304331779480
-2.429739952087 -72.442939758301 -236.715179443359 1.651425600052
57.229377746582 -68.824035644531 -239.239334106445 1.425162076950
-19.888471603394 -71.924057006836 -240.652954101563 1.997419357300
-16.090797424316 -67.184226989746 -241.279846191406 2.800529956818
7.388482093811 -69.678672790527 -240.393905639648 1.419690847397
63.910503387451 -73.678573608398 -239.265457153320 1.393854260445
64.610572814941 -69.075668334961 -241.982406616211 1.584890842438
48.740661621094 -70.474281311035 -247.382934570313 2.326050996780
60.239341735840 -73.510253906250 -244.082778930664 2.896704673767
-16.470752716064 -73.727859497070 -250.618377685547 3.153604984283
-84.479370117188 -65.847473144531 -254.699905395508 3.211634635925
-77.732742309570 -66.518119812012 -253.502273559570 3.718714952469
43.348499298096 -72.921340942383 -249.037734985352 2.085764408112
-150.032516479492 -68.681518554688 -250.880264282227 1.220782279968
35.086544036865 -69.972091674805 -257.410919189453 2.533130884171
-92.982452392578 -71.746894836426 -252.442276000977 1.572083830833
-157.118026733398 -63.779464721680 -254.818511962891 2.595297574997
-141.160278320313 -61.623249053955 -253.495758056641 3.837518215179
44.261734008789 -69.961677551270 -254.743667602539 2.492130279541
-125.869369506836 -64.023742675781 -258.154968261719 1.870501399040
-117.798538208008 -68.183418273926 -255.719726562500 1.456610560417
-93.246414184570 -64.344535827637 -257.536102294922 3.078953742981
-14.554351806641 -66.232749938965 -251.269821166992 2.730612039566
30.951618194580 -69.600311279297 -258.359619140625 2.002201557159
24.039381027222 -67.265594482422 -260.556060791016 2.877893924713
-159.851913452148 -62.982860565186 -260.404968261719 4.197821140289
-115.734970092773 -70.465042114258 -263.076843261719 1.312195420265
-14.873380661011 -68.903594970703 -262.856750488281 1.919298887253
-133.759582519531 -67.364677429199 -265.656616210938 2.537105798721
-15.123362541199 -67.889884948730 -271.202484130859 3.074643373489
-165.895980834961 -66.285545349121 -272.614044189453 4.549619674683
-8.384676933289 -70.021423339844 -280.432250976563 1.751213192940
-161.995468139648 -67.215629577637 -287.924530029297 1.704815864563
-164.943496704102 -68.784744262695 -278.014190673828 2.531175374985
-143.717498779297 -67.389640808105 -285.429595947266 1.889650702477
-171.305130004883 -68.735527038574 -284.749542236328 4.027376174927
12.872648239136 -71.441833496094 -289.062194824219 1.953125476837
-104.304290771484 -68.688713073730 -286.990600585938 1.280746459961
-88.268157958984 -63.887481689453 -286.477233886719 5.439751625061
-168.860733032227 -64.107536315918 -284.632385253906 5.745840549469
-93.195747375488 -71.668334960938 -284.539245605469 4.800454616547
-154.863540649414 -67.435775756836 -288.642456054688 2.406365871429
-76.669158935547 -68.882423400879 -294.215209960938 3.434813976288
-71.785896301270 -67.432304382324 -289.325164794922 3.637000083923
-83.722465515137 -68.915100097656 -291.877136230469 2.385168075562
-4.842521190643 -66.453048706055 -289.885589599609 2.186352968216
-89.190185546875 -67.827339172363 -289.160919189453 2.958635568619
-100.199127197266 -69.074806213379 -291.408447265625 0.681516468525
-117.863655090332 -67.762054443359 -293.036437988281 1.441980242729
-117.748664855957 -64.805770874023 -293.142028808594 3.139444351196
-135.364364624023 -66.596076965332 -292.470458984375 2.145069360733
-144.062438964844 -67.229240417480 -301.029937744141 2.447806119919
-145.565093994141 -68.311378479004 -311.980468750000 1.046001434326
24.328351974487 -70.257133483887 -16.202554702759 2.852133035660
32.747135162354 -71.560218811035 -17.513545989990 1.055571675301
29.737785339355 -74.132469177246 -19.378849029541 2.491337060928
44.579078674316 -70.400222778320 -21.727842330933 1.428928971291
25.250617980957 -71.840522766113 -32.726707458496 2.055758237839
-74.606346130371 -68.566390991211 -47.576354980469 1.585315465927
89.925331115723 -68.146667480469 -66.838798522949 1.777559280396
-17.422769546509 -69.004600524902 -68.354232788086 2.045139551163
102.794700622559 -71.326324462891 -74.310317993164 2.790560960770
95.178985595703 -76.000755310059 -77.036918640137 2.755692958832
68.621154785156 -73.239562988281 -79.758415222168 2.504099130630
70.321426391602 -75.056037902832 -83.908485412598 1.203733682632
-44.607433319092 -73.469429016113 -83.157264709473 0.816660761833
61.226203918457 -74.997360229492 -83.642478942871 4.219195365906
-94.350929260254 -69.867561340332 -88.751296997070 2.178454875946
-49.095001220703 -67.941032409668 -85.885269165039 1.679706454277
-55.898979187012 -76.637847900391 -88.257751464844 2.589388370514
100.950805664063 -77.423759460449 -99.022933959961 3.675438880920
59.224975585938 -74.667182922363 -93.487281799316 1.131489276886
65.948310852051 -70.983596801758 -92.229370117188 2.450682163239
-95.619789123535 -64.091682434082 -97.280540466309 2.583655834198
107.884658813477 -73.646598815918 -94.520805358887 3.571965456009
44.132061004639 -70.018119812012 -100.042884826660 1.416521906853
101.438957214355 -71.824501037598 -99.495124816895 1.141268253326
106.761024475098 -70.021469116211 -107.378204345703 0.649486243725
101.263511657715 -72.338264465332 -105.923820495605 2.833667278290
73.851104736328 -73.877738952637 -101.981246948242 3.060164690018
87.258331298828 -73.836891174316 -107.876625061035 5.321237564087
49.975563049316 -71.024673461914 -112.325805664063 2.841498613358
110.662658691406 -70.018074035645 -104.995712280273 1.538974761963
46.161922454834 -73.794021606445 -106.564102172852 2.632276535034
40.593505859375 -69.379104614258 -102.633140563965 1.881264448166
112.713066101074 -72.486953735352 -111.787834167480 1.318473339081
-78.527458190918 -66.691314697266 -110.104415893555 1.686809539795
46.065685272217 -70.334571838379 -113.965431213379 1.657984137535
34.676734924316 -72.870460510254 -116.123825073242 1.488026142120
105.462005615234 -69.739990234375 -111.461921691895 2.040001392365
39.407459259033 -68.276077270508 -112.543449401855 2.911152601242
-88.095054626465 -68.691894531250 -113.278320312500 2.572459459305
-95.572471618652 -66.085388183594 -115.147331237793 3.081211328506
103.937423706055 -74.981887817383 -120.543006896973 3.201768636703
-94.853485107422 -70.209663391113 -119.014343261719 1.190049171448
38.862476348877 -72.914894104004 -122.347633361816 2.004112482071
36.892753601074 -70.576705932617 -121.806571960449 1.670039176941
-83.497840881348 -68.609977722168 -124.625610351563 2.290327072144
32.282341003418 -68.876640319824 -135.685852050781 1.916730046272
110.718200683594 -73.144767761230 -132.642807006836 1.399658441544
-52.764255523682 -68.991310119629 -136.610198974609 2.558931589127
-88.339881896973 -67.630836486816 -132.009918212891 1.297382712364
37.777473449707 -73.937629699707 -132.723663330078 2.257068395615
-89.166534423828 -64.528350830078 -136.210037231445 2.110718727112
-89.074501037598 -70.703414916992 -140.005065917969 3.410709857941
-49.811763763428 -70.457153320313 -137.384902954102 2.317745923996
-70.968727111816 -67.106910705566 -139.961486816406 1.985247731209
-50.801689147949 -68.354164123535 -134.016357421875 1.887641429901
115.310867309570 -69.208663940430 -138.959564208984 2.975445747375
-73.374366760254 -70.304916381836 -137.260726928711 1.718617916107
36.404312133789 -71.020820617676 -132.326370239258 2.143962144852
-78.816673278809 -67.695808410645 -140.543304443359 1.281156659126
-73.446243286133 -68.583122253418 -136.197280883789 0.833633780479
-91.495185852051 -66.562606811523 -140.467254638672 0.622304737568
-54.012256622314 -66.967277526855 -147.566131591797 2.036744356155
31.321327209473 -66.613708496094 -146.752120971680 2.165067672729
27.362077713013 -68.590583801270 -150.488479614258 1.129544496536
19.046916961670 -65.678909301758 -145.235610961914 1.266425609589
112.652320861816 -71.011871337891 -147.715423583984 2.628906488419
-93.672943115234 -66.842926025391 -152.802597045898 0.998879253864
12.783375740051 -71.483848571777 -153.317657470703 1.098295569420
-72.113784790039 -68.074432373047 -153.759994506836 1.210855722427
23.299894332886 -69.242584228516 -150.723266601563 1.694032669067
-49.348621368408 -67.922630310059 -155.981796264648 2.612390279770
9.389849662781 -68.563964843750 -154.126831054688 1.074311614037
14.852932929993 -72.227867126465 -159.339721679688 2.009153842926
17.491289138794 -74.024177551270 -164.865402221680 1.514455318451
-49.169746398926 -70.746528625488 -163.144180297852 1.711988091469
-39.367767333984 -68.122978210449 -155.460968017578 1.762591123581
-46.606044769287 -69.225883483887 -161.625976562500 1.110271096230
-103.963775634766 -68.356727600098 -172.219909667969 1.659477353096
21.431653976440 -70.805091857910 -175.013732910156 2.291645050049
-35.062404632568 -68.624290466309 -176.612869262695 1.138632893562
15.076907157898 -73.222061157227 -179.265365600586 1.251738429070
-143.927536010742 -67.202880859375 -175.802627563477 1.922446966171
-32.485317230225 -66.040069580078 -173.458374023438 1.154590487480
-155.383102416992 -71.421272277832 -177.860504150391 2.857133865356
23.146249771118 -65.576416015625 -182.747436523438 3.777407169342
-33.222507476807 -69.913856506348 -172.154006958008 2.884759902954
-107.962959289551 -66.092765808105 -177.931488037109 1.482405304909
-107.516441345215 -71.658981323242 -183.829833984375 3.321529865265
-30.297008514404 -64.550384521484 -185.863143920898 4.413573265076
-24.011707305908 -72.792137145996 -182.525985717773 1.444582700729
13.608646392822 -68.485610961914 -190.199356079102 2.344173669815
16.581407546997 -67.022850036621 -198.143951416016 2.539028167725
13.492668151855 -69.331413269043 -187.888046264648 3.051596403122
-143.211761474609 -66.062263488770 -187.532348632813 1.159457325935
21.230112075806 -66.185905456543 -190.884277343750 2.405369043350
7.131318092346 -69.068176269531 -197.641311645508 0.852292835712
-137.475891113281 -65.618095397949 -194.523284912109 3.258077383041
-114.740592956543 -67.054306030273 -195.642562866211 1.200346112251
14.470449447632 -67.690139770508 -202.116012573242 1.653403401375
-116.758682250977 -66.277702331543 -197.001678466797 1.754732489586
-108.099411010742 -62.929779052734 -192.395568847656 4.068402767181
-165.772369384766 -67.855430603027 -200.070526123047 1.960891127586
-24.733127593994 -67.674240112305 -200.739074707031 1.057764291763
12.484244346619 -67.773109436035 -201.168304443359 1.648425102234
-143.437576293945 -67.110382080078 -204.044067382813 1.960565209389
-136.274703979492 -68.762763977051 -206.504653930664 4.151777744293
-20.560367584229 -67.014915466309 -208.038314819336 2.224749803543
-12.383311271667 -69.850982666016 -205.362182617188 1.022918939590
-15.256378173828 -69.332595825195 -206.743225097656 1.526657462120
-141.310760498047 -70.062980651855 -204.576629638672 2.069739580154
-17.041542053223 -68.944374084473 -213.695190429688 1.922840833664
-11.032287597656 -72.269966125488 -215.142135620117 3.127463340759
17.091762542725 -66.695098876953 -211.951171875000 2.203445672989
-15.399261474609 -71.934280395508 -212.323776245117 0.782434761524
9.999843597412 -69.316352844238 -210.991348266602 1.101028442383
-10.910133361816 -69.569801330566 -216.434326171875 1.763411641121
-21.455726623535 -66.084251403809 -212.724441528320 5.535067558289
12.079692840576 -73.277969360352 -221.996780395508 1.902497768402
-2.165590047836 -73.513359069824 -220.710891723633 2.653349876404
10.718586921692 -65.645874023438 -222.109207153320 0.686286032200
-6.623913764954 -70.599723815918 -227.769729614258 1.103264570236
-159.336380004883 -67.039985656738 -225.377334594727 1.322305321693
80.273437500000 -72.206329345703 -221.463256835938 2.543318986893
-135.761459350586 -64.966293334961 -224.540374755859 2.362287282944
-135.572463989258 -68.431838989258 -223.364700317383 1.915346026421
-8.960427284241 -69.364669799805 -226.102890014648 2.237653970718
7.974205017090 -68.638221740723 -234.784820556641 1.483345746994
-157.445022583008 -66.093780517578 -229.640274047852 1.381354451180
87.535545349121 -68.811080932617 -221.372772216797 2.871757507324
-2.681030988693 -67.590820312500 -226.634857177734 2.058175802231
0.090999998152 -69.482170104980 -223.903274536133 1.602775931358
73.419326782227 -72.363670349121 -230.694412231445 1.260534286499
0.071191996336 -66.544326782227 -235.763793945313 1.532431483269
-15.290436744690 -70.393447875977 -228.007690429688 2.436164617538
-127.051177978516 -65.292243957520 -234.568481445313 1.594572782516
-4.852027893066 -68.330055236816 -237.787322998047 1.120486736298
1.927721023560 -66.624649047852 -232.885696411133 0.338220566511
65.457450866699 -67.776679992676 -239.535751342773 0.261495023966
-158.839431762695 -67.520057678223 -238.382629394531 2.956714153290
-13.111639022827 -67.861335754395 -245.558959960938 1.861743688583
-169.703552246094 -68.364562988281 -238.917098999023 2.593662023544
9.281356811523 -66.106964111328 -243.031799316406 2.595508098602
-165.170974731445 -66.939743041992 -239.098739624023 1.946152329445
-161.403686523438 -67.520401000977 -246.241943359375 1.541106224060
56.396183013916 -69.315010070801 -246.484924316406 1.337690830231
61.629550933838 -70.799537658691 -243.950088500977 2.691878080368
55.514183044434 -69.903434753418 -245.735412597656 0.972085416317
51.087665557861 -69.192695617676 -250.158920288086 1.474861502647
-156.066116333008 -67.025276184082 -244.210754394531 3.301455020905
-157.119338989258 -63.938816070557 -248.604217529297 4.410445690155
-14.043701171875 -71.094818115234 -250.326919555664 0.956104218960
-152.013992309570 -65.920967102051 -246.931838989258 2.049271583557
18.959888458252 -70.175437927246 -252.281707763672 1.510097861290
-170.450942993164 -70.500679016113 -251.242630004883 3.547648429871
-168.237747192383 -64.453834533691 -248.451004028320 4.124537944794
-82.812255859375 -68.709846496582 -249.472747802734 1.340092062950
-170.153747558594 -65.536163330078 -259.949279785156 3.859991550446
-86.093063354492 -66.790168762207 -257.272003173828 3.403276443481
41.847717285156 -68.265052795410 -254.409713745117 1.155070781708
21.503704071045 -72.013130187988 -257.402832031250 2.452870607376
-159.422088623047 -66.827339172363 -262.075286865234 3.163800477982
-101.483840942383 -61.577835083008 -260.054687500000 1.463020920753
38.535091400146 -69.238403320313 -256.946472167969 0.740792155266
-105.652809143066 -72.978919982910 -259.595794677734 0.492617279291
-154.802108764648 -61.939579010010 -265.121490478516 1.521102547646
-105.913108825684 -65.848709106445 -258.964599609375 1.808003425598
-168.604995727539 -67.835914611816 -259.835327148438 2.013512611389
-113.881858825684 -67.742172241211 -263.789672851563 3.316184520721
-154.083389282227 -68.157173156738 -266.024078369141 2.496723890305
-159.306640625000 -64.528198242188 -263.768737792969 3.949868917465
-166.802398681641 -65.327362060547 -263.946777343750 2.825312376022
-164.801406860352 -64.341400146484 -262.494781494141 2.745926856995
-166.486450195313 -65.954719543457 -265.916015625000 3.257355690002
-166.477676391602 -66.580116271973 -262.903686523438 1.591912984848
24.991016387939 -69.967590332031 -266.414855957031 1.727412343025
-150.643142700195 -69.404518127441 -263.980712890625 2.706495285034
-150.658218383789 -65.569366455078 -284.480712890625 1.445327997208
23.875766754150 -69.466835021973 -277.570556640625 2.047407865524
-12.518767356873 -69.749862670898 -275.438354492188 2.232043504715
-126.674484252930 -65.112304687500 -284.792205810547 2.956127643585
-137.258117675781 -67.143547058105 -286.448486328125 2.827489852905
-135.357788085938 -65.218200683594 -288.870513916016 1.978853940964
-127.758293151855 -66.904022216797 -286.315460205078 2.590459346771
-115.266532897949 -65.337265014648 -290.354309082031 0.692560255527
-106.180442810059 -63.343063354492 -286.035095214844 4.679184436798
8.316625595093 -71.009025573730 -293.545410156250 2.795322179794
-85.939582824707 -67.601287841797 -290.564880371094 1.293761730194
-150.041229248047 -66.630294799805 -288.643005371094 1.973830819130
-102.653678894043 -66.836524963379 -291.265106201172 2.396852016449
-130.168045043945 -63.833061218262 -292.259002685547 3.668181657791
8.639649391174 -70.759094238281 -289.264282226563 3.057475328445
-112.899436950684 -61.553081512451 -289.522125244141 4.703867912292
1.941763997078 -68.404342651367 -294.209136962891 2.373035907745
-144.124099731445 -65.637252807617 -289.118804931641 2.301079511642
-153.947357177734 -66.393043518066 -296.234436035156 2.668494701385
-159.085250854492 -65.210205078125 -314.386749267578 5.597951412201
-156.276870727539 -64.877906799316 -312.084869384766 4.795628547668
48.338111877441 -73.788047790527 -25.832315444946 1.556396126747
23.760341644287 -71.393272399902 -36.521183013916 1.239437460899
31.247247695923 -72.379463195801 -37.694561004639 1.563595890999
-44.537750244141 -72.005233764648 -48.173969268799 3.766451358795
-12.389422416687 -68.463302612305 -63.044612884521 1.892935752869
94.530494689941 -72.846679687500 -69.817741394043 1.325104713440
68.947532653809 -67.311897277832 -70.823516845703 1.977013707161
-23.999307632446 -69.851577758789 -75.181373596191 1.264211416245
-97.946426391602 -72.483009338379 -86.801376342773 2.136594533920
-42.356395721436 -69.589134216309 -83.233085632324 2.315019130707
61.693367004395 -70.319976806641 -82.664566040039 1.048575401306
62.299552917480 -73.327232360840 -87.213989257813 2.115624189377
53.606781005859 -68.630851745605 -88.731979370117 1.521509289742
-58.798351287842 -68.049568176270 -90.870193481445 0.647542834282
66.947418212891 -67.298393249512 -90.507629394531 2.148251771927
43.671195983887 -73.661323547363 -99.045425415039 2.069137573242
68.508750915527 -72.498947143555 -95.953437805176 3.042566537857
-62.185718536377 -67.208999633789 -96.552856445313 3.348695278168
50.184005737305 -72.483245849609 -94.359954833984 2.234098434448
45.698932647705 -72.125556945801 -99.538703918457 1.593477010727
103.384750366211 -68.625610351563 -101.943801879883 2.393070697784
-66.455459594727 -68.774040222168 -99.390762329102 0.910392522812
110.617202758789 -70.828170776367 -101.817268371582 1.834929943085
-79.023132324219 -70.636627197266 -101.576713562012 1.157303810120
54.462345123291 -73.072616577148 -106.173568725586 1.535340785980
48.043384552002 -68.773689270020 -101.816886901855 0.597469925880
91.852920532227 -69.332702636719 -105.148910522461 2.912074804306
84.498321533203 -69.442329406738 -107.935470581055 2.023054122925
54.802787780762 -70.418388366699 -105.705612182617 1.659829497337
-76.333183288574 -69.105285644531 -111.521835327148 1.248721003532
-76.853340148926 -67.679458618164 -115.358276367188 0.970753371716
-80.459289550781 -69.532028198242 -118.765815734863 2.139714241028
-93.305641174316 -72.758514404297 -118.853561401367 1.272258996964
104.889778137207 -66.131919860840 -117.852272033691 3.160416364670
-88.483192443848 -70.489540100098 -119.396194458008 2.694641590118
-76.710800170898 -64.837066650391 -121.634140014648 2.129500389099
109.496536254883 -69.892044067383 -117.445167541504 2.731557846069
-61.557575225830 -61.377883911133 -118.466598510742 0.916319370270
113.535980224609 -74.206275939941 -132.902893066406 2.014319896698
109.905448913574 -72.257858276367 -130.845260620117 0.939562380314
107.164169311523 -71.907157897949 -127.208030700684 2.555829763412
-93.603233337402 -68.329742431641 -138.093032836914 1.523757576942
-47.204578399658 -68.419952392578 -142.355072021484 1.711130142212
-79.302246093750 -66.015121459961 -144.848373413086 4.606651306152
-69.531227111816 -68.069015502930 -149.414794921875 2.119656562805
-70.443748474121 -66.708312988281 -148.352966308594 1.755873560905
-55.333328247070 -67.677619934082 -144.127410888672 0.977528929710
-47.181266784668 -72.030944824219 -146.589065551758 1.554761409760
16.192420959473 -69.377075195313 -147.282928466797 1.867322444916
-94.277503967285 -64.848075866699 -143.149185180664 1.291417479515
-45.888507843018 -67.034133911133 -147.812805175781 1.480168104172
-52.276317596436 -62.567153930664 -148.119522094727 5.505594730377
-42.307949066162 -66.615684509277 -155.401641845703 1.334522247314
27.228313446045 -71.345726013184 -162.847335815430 2.397819280624
-50.253406524658 -68.609031677246 -151.509689331055 1.833300352097
-100.579795837402 -63.676979064941 -149.682739257813 1.165735125542
-45.537273406982 -65.510902404785 -157.332260131836 4.106049060822
25.486330032349 -71.281471252441 -149.117645263672 1.873578310013
-98.868270874023 -72.164009094238 -163.350387573242 4.081317424774
22.442491531372 -71.208801269531 -158.595367431641 2.663739204407
-107.923622131348 -64.639305114746 -170.044509887695 1.358506441116
-101.346527099609 -67.675857543945 -163.937164306641 2.141340494156
21.916694641113 -68.965950012207 -165.846572875977 1.839732170105
25.914068222046 -67.502433776855 -168.763504028320 1.973731875420
-108.658561706543 -69.243911743164 -173.899688720703 1.187069654465
-142.382644653320 -64.711624145508 -174.643829345703 1.620668053627
-20.219099044800 -68.627609252930 -190.090606689453 2.837167263031
-27.758655548096 -67.437164306641 -182.335144042969 1.292840838432
-115.712562561035 -68.085441589355 -187.210128784180 1.884016513824
-144.092895507813 -62.252368927002 -187.055572509766 1.513455271721
-103.709350585938 -64.551071166992 -181.874084472656 2.076249837875
-158.392974853516 -66.416564941406 -190.542709350586 4.193895339966
-131.686965942383 -70.593475341797 -195.444122314453 0.929275512695
-133.639572143555 -68.398811340332 -196.363037109375 1.203837513924
-20.188364028931 -66.567565917969 -190.114578247070 2.726957798004
-120.739021301270 -67.248764038086 -198.225738525391 2.247015714645
-117.369575500488 -63.536979675293 -199.188446044922 1.970851659775
-27.344856262207 -69.953140258789 -195.272567749023 1.101743459702
-154.697494506836 -63.911323547363 -197.919448852539 1.152575492859
-132.684265136719 -68.217124938965 -205.040802001953 1.302143812180
-125.335250854492 -64.484764099121 -204.708190917969 1.668081283569
17.663028717041 -70.552825927734 -202.771209716797 0.938571155071
-162.408706665039 -65.472488403320 -203.211395263672 1.331571340561
10.737536430359 -67.430191040039 -216.156738281250 1.145624518394
13.423208236694 -69.434570312500 -215.603775024414 1.241365432739
-17.428600311279 -64.650672912598 -209.736267089844 4.004622459412
-5.541032791138 -68.273468017578 -217.196655273438 1.123182535172
-170.449142456055 -63.284130096436 -210.305297851563 6.092524051666
-159.515121459961 -62.654575347900 -212.975692749023 4.076629638672
-95.209365844727 -66.588790893555 -218.859207153320 2.039346456528
-99.168350219727 -68.178512573242 -223.176635742188 0.720170319080
-161.494903564453 -66.196372985840 -225.246994018555 1.888287186623
-106.976318359375 -64.844680786133 -219.635406494141 2.433714628220
-12.543625831604 -66.502975463867 -214.974441528320 0.588106453419
-127.989288330078 -67.840194702148 -222.595748901367 2.560574769974
-142.660964965820 -66.677162170410 -224.259262084961 1.979833602905
-3.672280073166 -69.506034851074 -222.172439575195 2.730064153671
-134.822036743164 -64.593467712402 -224.995758056641 2.800502061844
-124.333160400391 -70.114807128906 -223.537399291992 2.607830047607
-114.912094116211 -68.402778625488 -225.111968994141 1.762070298195
-0.168419003487 -63.496658325195 -228.955825805664 5.064496517181
-107.814849853516 -65.013473510742 -231.044754028320 1.957400321960
-160.907562255859 -60.752143859863 -222.998321533203 3.954357147217
-147.205291748047 -65.036354064941 -226.957031250000 2.522887468338
-165.947433471680 -65.099411010742 -225.243194580078 2.886436939240
-8.495787620544 -67.454704284668 -227.523986816406 3.605399608612
-9.005492210388 -68.036582946777 -233.412536621094 1.965464830399
77.855857849121 -71.366546630859 -226.777160644531 0.547097444534
-0.723716974258 -69.904769897461 -230.399551391602 1.427027940750
-143.579483032227 -65.671966552734 -236.405685424805 3.038940906525
-14.795175552368 -66.311775207520 -229.974914550781 2.693965911865
73.494895935059 -69.449905395508 -229.299316406250 1.975681900978
74.067405700684 -69.507911682129 -234.354644775391 0.806872844696
-135.144699096680 -64.650871276855 -232.709945678711 1.425635218620
-157.985885620117 -68.139656066895 -228.602920532227 1.458673238754
-114.766433715820 -65.011772155762 -233.286529541016 1.656878590584
-125.263923645020 -62.068584442139 -235.920135498047 2.785284757614
-164.274703979492 -64.294715881348 -234.986572265625 2.670400857925
-160.702224731445 -65.946434020996 -235.857696533203 2.562529802322
-147.274642944336 -62.291198730469 -234.341766357422 2.053011894226
-13.350932121277 -66.814537048340 -236.150909423828 2.858861207962
-5.828452110291 -67.208198547363 -241.323654174805 1.344324827194
-161.330444335938 -64.049842834473 -240.814041137695 2.821728467941
4.830726146698 -68.864807128906 -239.106079101563 2.121690988541
2.217844009399 -68.708930969238 -237.552734375000 0.958923816681
-160.705123901367 -65.238861083984 -238.984481811523 1.224520802498
16.083919525146 -71.839385986328 -243.249511718750 2.731746196747
50.077980041504 -70.899574279785 -246.511856079102 2.600943803787
49.883678436279 -70.855651855469 -245.545150756836 2.655307769775
-16.679851531982 -68.651069641113 -247.760681152344 2.960788011551
47.515369415283 -67.427795410156 -250.268157958984 1.016476154327
-162.177017211914 -62.349517822266 -250.233795166016 5.639963150024
-159.845886230469 -65.659034729004 -247.634979248047 1.932639718056
-161.288360595703 -68.768386840820 -249.738922119141 2.031610727310
53.990917205811 -68.448982238770 -249.865234375000 2.392864227295
-92.984710693359 -65.280433654785 -253.242095947266 2.408790588379
-125.673049926758 -65.087501525879 -254.683868408203 0.740183472633
-106.725265502930 -70.080741882324 -254.097320556641 2.423160791397
25.681259155273 -71.759635925293 -258.492187500000 2.490041971207
40.522483825684 -66.540687561035 -252.231124877930 0.782774090767
-101.600936889648 -63.768829345703 -255.309417724609 4.424908161163
-94.420997619629 -62.453887939453 -252.032089233398 3.282587766647
44.534458160400 -72.127891540527 -255.637283325195 2.748435020447
41.373256683350 -66.863876342773 -257.776428222656 1.607932448387
-155.849487304688 -69.929634094238 -258.151977539063 0.875377237797
29.550249099731 -68.178138732910 -260.271331787109 2.098580598831
-143.875411987305 -68.317840576172 -264.541076660156 0.967763364315
-114.409683227539 -65.504417419434 -262.742370605469 1.439961552620
-137.963943481445 -64.543678283691 -262.745666503906 3.012354612350
30.296949386597 -67.858917236328 -263.784881591797 2.882460355759
-127.144432067871 -64.561698913574 -263.767059326172 2.076595306396
-12.187532424927 -66.383682250977 -258.920074462891 1.720739722252
20.478776931763 -70.973609924316 -272.033050537109 4.041772365570
-6.766962051392 -71.601905822754 -266.200134277344 4.183010578156
18.617956161499 -69.779891967773 -280.861694335938 1.486395955086
-154.431884765625 -66.952232360840 -282.586547851563 1.553013920784
-12.064091682434 -66.136070251465 -281.415985107422 2.719429016113
-154.308197021484 -68.550567626953 -282.667968750000 2.735025167465
-124.982254028320 -67.248748779297 -285.262512207031 1.987348675728
-161.738861083984 -70.689224243164 -286.398803710938 1.651599049568
-115.928726196289 -65.623428344727 -287.341735839844 2.353152275085
-105.659912109375 -66.129142761230 -289.868469238281 2.563962697983
-8.128902435303 -65.924606323242 -286.053985595703 3.339228153229
-109.540512084961 -67.068351745605 -289.510772705078 1.762447595596
-117.646507263184 -63.557849884033 -285.417266845703 4.879902362823
-121.455566406250 -62.687759399414 -291.802398681641 4.208467006683
-139.265823364258 -65.102584838867 -289.952239990234 1.892442345619
-127.426933288574 -63.235580444336 -291.670928955078 2.669561386108
-158.974349975586 -69.385047912598 -289.997161865234 1.395529031754
-148.057449340820 -63.383316040039 -292.855712890625 2.048120498657
-157.759155273438 -62.685798645020 -301.781555175781 6.169887065887
-155.486770629883 -63.282730102539 -311.068054199219 4.965658664703
-159.588729858398 -63.489604949951 -301.076721191406 6.896411895752
-143.110610961914 -66.030036926270 -310.709014892578 2.445262193680
-150.936279296875 -66.156875610352 -313.894287109375 1.926220059395
36.128318786621 -71.935173034668 -9.773709297180 1.281188368797
47.424350738525 -75.067749023438 -17.327102661133 3.012366056442
24.794626235962 -67.823303222656 -24.220224380493 3.652355670929
51.038211822510 -71.873924255371 -28.256055831909 2.166817665100
28.710050582886 -73.144241333008 -35.108886718750 1.375275731087
33.422657012939 -72.086845397949 -35.365203857422 2.904673576355
-57.129528045654 -65.368171691895 -47.673522949219 3.674646377563
80.366157531738 -67.522895812988 -62.149208068848 1.377644062042
81.553268432617 -72.035247802734 -67.876129150391 1.976751327515
-89.906532287598 -69.360877990723 -62.485363006592 0.724217534065
-12.125248908997 -67.198875427246 -61.956073760986 2.189948558807
-92.060401916504 -70.136695861816 -70.217765808105 2.937705278397
96.844512939453 -73.134124755859 -69.798927307129 2.578400850296
-13.248565673828 -66.639129638672 -68.452857971191 1.061204433441
67.980606079102 -73.158973693848 -79.741249084473 2.558715105057
-41.614955902100 -73.014015197754 -79.669525146484 1.061779618263
-26.848659515381 -72.722549438477 -76.257698059082 1.652615427971
56.603221893311 -67.175964355469 -87.024116516113 1.689951062202
-43.847679138184 -78.743995666504 -84.860816955566 1.818454742432
65.291938781738 -63.404533386230 -87.789413452148 0.602591395378
53.155040740967 -74.219329833984 -90.586570739746 0.666382074356
53.958705902100 -70.325813293457 -94.496238708496 2.845608711243
59.821216583252 -74.706336975098 -91.700370788574 0.975875020027
57.156993865967 -67.414100646973 -96.540321350098 1.780084967613
100.037239074707 -68.048591613770 -98.732856750488 2.148849964142
106.284294128418 -66.991378784180 -99.643539428711 1.973928928375
60.003364562988 -72.653808593750 -100.791625976563 3.105210065842
107.211570739746 -67.022651672363 -100.547943115234 1.758068799973
-76.658180236816 -67.687660217285 -99.358879089355 1.345860362053
-72.423843383789 -67.629585266113 -102.142662048340 0.444917052984
100.603302001953 -67.770927429199 -99.484466552734 1.427535176277
53.467700958252 -70.619812011719 -101.628395080566 0.543993234634
70.656372070313 -71.675193786621 -99.565345764160 1.771767020226
-72.275970458984 -68.107040405273 -107.491676330566 2.184696197510
-84.914741516113 -66.536987304688 -107.249916076660 2.754364252090
89.347846984863 -73.222328186035 -105.328292846680 3.892278432846
40.403259277344 -70.893348693848 -104.984939575195 1.159743666649
105.094215393066 -67.414184570313 -106.833091735840 1.266155123711
46.680164337158 -71.836036682129 -114.254112243652 1.434372425079
110.312416076660 -70.911552429199 -104.602996826172 2.055468082428
-78.511276245117 -67.335250854492 -111.137123107910 1.727529048920
104.762039184570 -66.589454650879 -109.551086425781 2.535752058029
-84.142295837402 -65.268508911133 -121.223442077637 1.966076493263
-58.531501770020 -70.087165832520 -128.714889526367 1.679300069809
-55.809654235840 -66.973915100098 -125.037681579590 1.326389670372
-72.450851440430 -68.945381164551 -130.053405761719 2.706337928772
-50.948890686035 -69.231643676758 -131.160400390625 1.111158967018
-84.043312072754 -68.957763671875 -132.963653564453 2.148097276688
-77.453170776367 -64.576469421387 -133.076049804688 1.179322004318
-80.570617675781 -67.561767578125 -131.013427734375 0.644634306431
-60.324554443359 -71.989120483398 -141.733230590820 2.137365341187
-71.656990051270 -67.253944396973 -140.761230468750 1.178133726120
-60.081111907959 -70.850929260254 -135.296798706055 3.109039306641
-58.660793304443 -67.958389282227 -142.021148681641 2.330987215042
16.699089050293 -65.413169860840 -144.340652465820 1.717448472977
-91.074386596680 -67.602134704590 -142.227478027344 2.411641120911
-47.834590911865 -71.357742309570 -146.944610595703 1.531130433083
-96.597778320313 -65.247421264648 -149.708496093750 1.843802213669
-101.002876281738 -64.740242004395 -149.189956665039 0.893178045750
18.929834365845 -70.475013732910 -154.365005493164 2.627569675446
13.813089370728 -69.788986206055 -158.701080322266 1.284857869148
-96.090438842773 -68.528785705566 -159.755477905273 0.687202394009
-103.694007873535 -66.994476318359 -154.177490234375 2.458194255829
-100.655921936035 -65.610931396484 -168.368225097656 1.580253839493
21.741065979004 -67.819633483887 -170.461654663086 2.175607919693
-110.847602844238 -66.285308837891 -172.700942993164 3.146947383881
22.377422332764 -68.649871826172 -167.050369262695 1.322775125504
-147.980911254883 -66.079925537109 -176.352005004883 1.364906907082
17.449602127075 -68.105110168457 -176.995513916016 1.591229796410
23.698369979858 -69.015251159668 -186.506027221680 1.144241094589
-152.754470825195 -64.497444152832 -186.406555175781 0.666420161724
21.014656066895 -69.130996704102 -176.998352050781 0.698414325714
18.773033142090 -62.961208343506 -180.948303222656 3.550500154495
-144.153442382813 -69.322334289551 -184.686080932617 2.912959337234
-152.307342529297 -63.467140197754 -189.051040649414 2.739184617996
19.446193695068 -68.269668579102 -188.928543090820 1.699849009514
17.968750000000 -69.822425842285 -190.426651000977 1.392854928970
-142.689636230469 -67.712783813477 -193.695053100586 1.165059924126
-109.567321777344 -66.671836853027 -197.760482788086 0.544499397278
23.332128524780 -68.681152343750 -199.127059936523 2.721002340317
-125.363632202148 -65.915527343750 -194.804153442383 1.455935359001
10.085688591003 -69.981796264648 -200.497573852539 1.850811839104
-130.638259887695 -61.296340942383 -194.309478759766 3.303345918655
-159.890060424805 -63.458770751953 -190.495819091797 6.366893291473
-162.022583007813 -64.917739868164 -196.598937988281 4.228056907654
-159.332473754883 -66.525650024414 -194.977523803711 2.238526582718
-20.788429260254 -67.422966003418 -205.039321899414 2.010600328445
-168.199737548828 -67.506263732910 -199.455047607422 3.537227392197
-26.959825515747 -64.507209777832 -193.081237792969 3.462171316147
-16.040018081665 -68.846702575684 -196.391540527344 1.725095152855
9.296087265015 -63.633899688721 -196.194442749023 4.703446865082
-158.403778076172 -65.464820861816 -203.787765502930 3.166684865952
-108.701919555664 -65.036254882813 -202.327194213867 2.709839344025
-18.055246353149 -64.619857788086 -202.098098754883 4.551605701447
-160.700576782227 -61.464790344238 -201.561035156250 3.382997035980
16.137241363525 -68.157440185547 -202.140838623047 1.951182126999
-169.407852172852 -63.326335906982 -204.885406494141 4.097042083740
-121.372871398926 -68.226493835449 -202.887985229492 2.457442998886
-116.007278442383 -63.472099304199 -207.360626220703 4.366121768951
-123.593948364258 -65.051445007324 -204.326980590820 1.237092375755
-15.425827980042 -66.668197631836 -204.096511840820 1.980041384697
-17.994741439819 -67.680755615234 -204.981384277344 1.465390801430
-164.960647583008 -64.579483032227 -210.661788940430 2.595171451569
-160.731506347656 -63.399738311768 -212.359344482422 3.848340511322
-165.559753417969 -65.506698608398 -219.481704711914 1.545115470886
-142.064422607422 -67.435668945313 -214.189956665039 3.374792098999
-145.520721435547 -65.489685058594 -223.907241821289 1.330127954483
-3.667592048645 -65.849670410156 -220.515640258789 3.257910490036
-10.306645393372 -70.733375549316 -217.506744384766 1.413707971573
-100.695266723633 -64.496383666992 -221.034805297852 3.661797523499
-7.564732074738 -65.848464965820 -232.698287963867 1.385160684586
-167.823272705078 -62.645954132080 -228.936950683594 2.011051177979
-107.544647216797 -63.769275665283 -232.482879638672 3.814608573914
0.657832980156 -67.423118591309 -227.229614257813 2.167453765869
2.072025060654 -66.347679138184 -230.457229614258 2.547057151794
-112.596641540527 -66.263023376465 -233.226593017578 2.127568483353
-2.244837999344 -68.007514953613 -229.365921020508 1.985371232033
-118.488830566406 -62.948986053467 -234.402999877930 2.190701961517
-8.487657546997 -64.441688537598 -233.664337158203 2.385221481323
-2.981662988663 -66.163169860840 -235.447402954102 1.330247282982
-2.381392002106 -66.810211181641 -238.240768432617 1.573849081993
70.897613525391 -65.514495849609 -237.253372192383 2.554324388504
-11.591686248779 -69.844589233398 -238.166229248047 1.313415408134
6.560832023621 -67.886894226074 -237.829208374023 2.587888956070
10.363135337830 -66.442619323730 -239.720199584961 1.357204556465
4.633358001709 -67.890281677246 -239.438140869141 2.042194604874
1.744431018829 -68.581726074219 -241.710983276367 1.341712832451
63.431850433350 -64.217140197754 -239.323364257813 2.733862161636
68.200790405273 -65.331237792969 -241.023147583008 3.614270687103
7.515336036682 -66.952209472656 -247.505111694336 2.516288518906
53.229290008545 -68.811637878418 -242.979919433594 1.975792527199
54.729991912842 -71.439338684082 -241.475570678711 1.899428725243
46.177833557129 -64.662254333496 -250.060653686523 1.151884078979
40.486484527588 -65.536148071289 -251.970199584961 1.583932161331
39.841884613037 -66.443634033203 -257.101196289063 2.834643602371
-132.734909057617 -61.374011993408 -257.890380859375 2.886576175690
-11.235840797424 -66.383979797363 -250.533966064453 1.604310989380
27.485969543457 -66.136520385742 -258.684814453125 1.915179371834
44.206832885742 -66.790275573730 -248.792984008789 1.112080693245
26.466165542603 -69.610183715820 -254.549957275391 1.965923428535
-103.841957092285 -66.958595275879 -258.942504882813 3.698253870010
30.337699890137 -68.123703002930 -256.919647216797 1.658574342728
-148.114746093750 -66.654365539551 -260.958618164063 0.884912133217
-117.326454162598 -66.628608703613 -256.974517822266 2.594223260880
-109.777366638184 -65.166381835938 -258.042907714844 2.264470338821
-4.514252185822 -68.732070922852 -259.577331542969 2.677851200104
-151.404953002930 -66.031723022461 -257.348083496094 1.852473020554
34.332256317139 -67.066192626953 -262.504791259766 1.962201118469
-110.683998107910 -64.092445373535 -256.784576416016 2.969083309174
25.186859130859 -70.408592224121 -259.874633789063 2.335728406906
-135.953842163086 -66.494728088379 -262.842163085938 2.052095174789
-117.487640380859 -64.228012084961 -264.142425537109 2.186269521713
-110.524475097656 -64.602081298828 -261.449005126953 2.736361265182
-116.033950805664 -69.190643310547 -261.644409179688 2.789167642593
-140.992355346680 -66.304969787598 -257.902618408203 3.314939737320
28.037042617798 -67.644599914551 -260.834991455078 1.461725831032
-118.356887817383 -63.851249694824 -263.112945556641 2.113447189331
-145.360382080078 -66.250274658203 -263.538696289063 2.126188278198
-6.089296817780 -64.683860778809 -271.247558593750 3.898827314377
-151.907196044922 -66.765121459961 -281.165527343750 2.157869100571
-9.490796089172 -67.019935607910 -286.758605957031 3.045575618744
-6.468057155609 -64.307853698730 -283.399169921875 2.904165744781
-135.482971191406 -64.356430053711 -287.775695800781 2.687349796295
-128.731689453125 -65.019935607910 -290.543731689453 2.329062700272
-136.878753662109 -64.459152221680 -294.038330078125 4.481112003326
-127.759269714355 -63.530323028564 -291.870574951172 2.765955209732
-156.064590454102 -64.768562316895 -294.466339111328 1.588950991631
-157.390472412109 -64.534370422363 -300.180145263672 4.645249843597
-149.142089843750 -67.374732971191 -301.031158447266 3.130312442780
-151.040634155273 -64.967987060547 -303.352569580078 1.090743541718
-146.326644897461 -64.284240722656 -299.132904052734 3.585257768631
-150.735702514648 -63.471340179443 -304.230682373047 2.105568885803
-147.537857055664 -62.066577911377 -314.827117919922 5.260729312897
19.888711929321 -72.857666015625 -28.127317428589 1.292597055435
49.749801635742 -73.075843811035 -36.642272949219 2.266511201859
25.814891815186 -75.392112731934 -38.446441650391 4.388438224792
32.853622436523 -71.027801513672 -43.241882324219 1.535382509232
-42.144477844238 -63.431098937988 -48.216033935547 3.373548269272
-76.165740966797 -65.945732116699 -50.737079620361 2.111524581909
80.694313049316 -69.086624145508 -62.395008087158 1.548544526100
74.850944519043 -70.432670593262 -63.194026947021 2.677298784256
71.823753356934 -71.388572692871 -67.149055480957 2.554617643356
-99.083038330078 -67.048828125000 -72.851982116699 4.145556449890
99.467399597168 -73.266227722168 -76.826499938965 0.950877428055
-30.349143981934 -69.106002807617 -83.045928955078 5.246006965637
63.289367675781 -68.076026916504 -77.342781066895 3.552823543549
-43.021583557129 -64.935760498047 -82.999633789063 1.745206475258
-53.792781829834 -65.538177490234 -82.931770324707 0.872286498547
50.888668060303 -70.165710449219 -91.267631530762 2.492708683014
102.421371459961 -69.365013122559 -91.458198547363 1.259474039078
64.176544189453 -67.186691284180 -94.589553833008 1.135065793991
56.862483978271 -67.749038696289 -93.712234497070 0.893553733826
48.727634429932 -66.555877685547 -102.189422607422 1.437133550644
56.687011718750 -65.715209960938 -101.170295715332 2.081737756729
103.175308227539 -67.890342712402 -98.864982604980 0.563919723034
69.781600952148 -68.503067016602 -107.170547485352 2.914972543716
50.164234161377 -68.616798400879 -106.537269592285 2.333802461624
76.544334411621 -73.644462585449 -107.928695678711 5.049348831177
95.653823852539 -66.197998046875 -108.833328247070 2.709017038345
-75.206932067871 -65.224708557129 -101.800918579102 0.807812929153
-86.853759765625 -67.389915466309 -110.395698547363 0.958620011806
-82.275047302246 -67.609786987305 -112.991554260254 1.035440206528
-60.241687774658 -66.147369384766 -118.935249328613 2.237787961960
-57.350162506104 -70.338142395020 -126.343826293945 0.845796465874
-94.730499267578 -66.119117736816 -121.893859863281 1.678892850876
-75.218368530273 -68.137847900391 -119.694976806641 1.798138380051
-76.927352905273 -69.954841613770 -132.594879150391 1.677988052368
-60.995552062988 -64.684013366699 -128.583435058594 1.179315686226
-88.695419311523 -63.142658233643 -130.536819458008 2.065736532211
-89.931877136230 -65.844062805176 -130.246322631836 2.326637268066
-48.400108337402 -70.475234985352 -135.704711914063 0.558204650879
-51.676815032959 -67.570106506348 -136.981719970703 1.680380225182
-77.505409240723 -68.132064819336 -138.718383789063 1.448613882065
-54.207855224609 -68.507354736328 -141.869171142578 1.953359723091
-74.663612365723 -69.364173889160 -144.085571289063 2.009397745132
20.953950881958 -65.800155639648 -139.377197265625 1.094722032547
-57.739929199219 -70.504676818848 -145.147216796875 2.123326778412
-55.226638793945 -64.028121948242 -145.865341186523 3.388611793518
8.855031967163 -70.554504394531 -155.753280639648 1.844781398773
16.475412368774 -66.150054931641 -151.684448242188 1.151244878769
-142.705169677734 -65.655433654785 -174.095840454102 1.504919052124
-110.732009887695 -64.885200500488 -178.184600830078 1.667683482170
-110.087219238281 -62.525997161865 -189.762985229492 2.835591793060
-153.030838012695 -66.604026794434 -191.359619140625 2.313441514969
-113.461059570313 -64.875762939453 -185.780975341797 2.990729570389
-152.501495361328 -61.306602478027 -196.086761474609 1.716797351837
-114.606063842773 -64.104820251465 -198.588592529297 0.924398243427
-150.757904052734 -62.586151123047 -200.240844726563 1.447591423988
-151.075393676758 -64.913589477539 -206.178726196289 1.555905222893
-153.498733520508 -68.339424133301 -207.876800537109 2.709057569504
-148.433731079102 -64.454666137695 -223.819229125977 1.873104333878
-150.949218750000 -67.297851562500 -225.218978881836 3.410482168198
-105.649040222168 -63.197723388672 -226.119110107422 2.484956264496
-102.493041992188 -65.117118835449 -222.567276000977 3.281729459763
-123.887588500977 -60.862270355225 -230.484207153320 3.471479177475
-108.677162170410 -64.598411560059 -226.216842651367 2.341928243637
