-152.917388916016 -72.223213195801 -280.713195800781 1.604580283165
-165.207321166992 -73.171051025391 -286.546020507813 1.321053862572
-155.535415649414 -74.301078796387 -279.147735595703 4.153456687927
-165.782806396484 -70.822265625000 -286.511322021484 1.692582249641
0.639590978622 -76.828018188477 -287.297973632813 2.114713191986
6.626745223999 -78.701042175293 -282.936187744141 0.876698911190
-102.711502075195 -71.608779907227 -290.004211425781 2.266410350800
-154.683624267578 -76.453361511230 -286.586059570313 1.828837037086
-148.957489013672 -70.812263488770 -284.794525146484 1.180930614471
-108.029953002930 -72.018463134766 -289.812194824219 1.383809566498
-152.970932006836 -74.412040710449 -290.751098632813 2.183614730835
-149.208374023438 -75.179618835449 -288.277191162109 1.694688200951
-72.898086547852 -75.635299682617 -291.907806396484 3.921699047089
-166.516479492188 -73.911437988281 -288.265655517578 1.958469390869
-123.823661804199 -70.146217346191 -290.436370849609 1.776617765427
-43.918834686279 -77.068374633789 -287.485290527344 1.946107029915
-154.088516235352 -72.192382812500 -287.341766357422 2.735143423080
-133.856216430664 -68.626472473145 -292.409912109375 1.850662946701
-19.349393844604 -72.142768859863 -293.503570556641 2.737823724747
-128.733840942383 -70.164573669434 -292.404296875000 2.106293439865
5.068424224854 -75.211791992188 -294.224792480469 1.638347506523
14.640959739685 -72.624084472656 -292.454895019531 2.059007406235
-134.285537719727 -70.087913513184 -290.721679687500 1.538971781731
-146.456726074219 -73.649894714355 -296.085144042969 1.688148975372
-157.085556030273 -73.973876953125 -312.714996337891 1.957301735878
-70.936622619629 -71.662727355957 -51.803291320801 1.461847662926
-21.166858673096 -71.494415283203 -63.598232269287 4.165044784546
-19.255504608154 -77.983451843262 -64.903488159180 3.513911485672
73.548202514648 -75.306442260742 -77.389617919922 1.789467573166
91.940238952637 -77.121406555176 -76.242301940918 2.490979671478
-36.095054626465 -75.371116638184 -78.684036254883 1.247492551804
76.186569213867 -76.617446899414 -79.895133972168 1.752567291260
90.335784912109 -80.520606994629 -82.759864807129 3.196831941605
68.813407897949 -76.950935363770 -83.856201171875 2.539147138596
73.514022827148 -76.280387878418 -89.151771545410 2.339978456497
-48.945709228516 -76.831764221191 -85.963035583496 1.240517973900
-91.013259887695 -76.987876892090 -87.795623779297 4.832949161530
59.482192993164 -78.630187988281 -94.165412902832 4.616061687469
50.830238342285 -78.028305053711 -99.272720336914 1.855190396309
94.528488159180 -74.814826965332 -99.704147338867 2.018057107925
-91.428092956543 -70.958618164063 -101.101867675781 4.647681713104
82.697425842285 -74.006370544434 -99.634147644043 2.289942979813
73.816040039063 -77.243370056152 -100.454345703125 3.965248584747
92.410354614258 -78.717834472656 -98.854660034180 4.525427818298
83.955650329590 -76.659034729004 -98.483360290527 1.650693416595
83.716361999512 -79.568534851074 -99.064270019531 3.886395931244
-84.649955749512 -76.498931884766 -101.892196655273 4.677460670471
43.178089141846 -75.105583190918 -107.011276245117 2.385899543762
106.106765747070 -77.983963012695 -111.434509277344 3.317429304123
108.732208251953 -77.636306762695 -111.461410522461 2.648128271103
48.703346252441 -78.617736816406 -119.080718994141 2.287346839905
111.709846496582 -79.216987609863 -121.819595336914 3.785408258438
117.092048645020 -79.561157226563 -135.718704223633 4.023914813995
-50.902996063232 -73.001174926758 -130.945434570313 1.610725164413
27.837558746338 -75.471237182617 -134.681930541992 1.944665908813
41.068889617920 -78.440795898438 -133.868392944336 2.889488458633
25.548830032349 -73.296195983887 -142.898193359375 1.912569880486
113.390190124512 -79.394371032715 -139.178695678711 1.347886919975
112.260879516602 -77.717674255371 -132.579406738281 1.865223050117
-73.231277465820 -74.380958557129 -147.834869384766 2.174747943878
-43.530555725098 -74.227577209473 -142.630355834961 1.255761623383
-70.854736328125 -72.654083251953 -150.911895751953 1.202010989189
20.080854415894 -74.288330078125 -149.833770751953 2.926141977310
112.916183471680 -74.858779907227 -150.226837158203 1.209154963493
-53.295948028564 -75.731063842773 -150.669570922852 1.801721334457
-70.888099670410 -73.110107421875 -150.622451782227 1.515482425690
-38.613681793213 -77.759750366211 -152.309829711914 1.855665326118
32.748985290527 -71.213058471680 -153.438812255859 2.377712011337
110.398773193359 -74.047065734863 -151.988296508789 1.224133253098
115.663887023926 -75.720039367676 -161.428924560547 1.759920954704
-67.887802124023 -71.450180053711 -154.686096191406 1.799852371216
-72.397201538086 -75.713562011719 -160.780136108398 2.223501205444
21.961866378784 -78.561843872070 -163.546783447266 1.078563451767
-59.835559844971 -72.288024902344 -166.533432006836 2.203387975693
-32.516433715820 -73.384292602539 -162.340606689453 1.099982619286
8.117522239685 -76.306823730469 -163.577133178711 2.381678342819
109.045845031738 -74.722434997559 -162.510055541992 1.931252837181
8.050387382507 -77.814979553223 -167.109558105469 4.011827945709
-32.591960906982 -74.940429687500 -165.543472290039 2.341449260712
-1.640326976776 -71.314735412598 -165.800537109375 1.747003912926
107.863998413086 -73.705207824707 -168.899154663086 2.272409439087
-41.118820190430 -72.112747192383 -165.388076782227 1.962295174599
29.431346893311 -72.783187866211 -172.460906982422 1.935880541801
113.166641235352 -79.196853637695 -173.335769653320 2.788030624390
-57.031265258789 -71.399353027344 -175.903823852539 1.851969957352
-28.039173126221 -76.873420715332 -174.579589843750 1.193059325218
103.168594360352 -76.344528198242 -174.949478149414 3.591147422791
29.361715316772 -73.627876281738 -169.967788696289 2.507540225983
107.769912719727 -78.000434875488 -176.046249389648 3.019361972809
-36.705123901367 -71.445236206055 -177.998992919922 1.669193029404
108.492637634277 -78.608665466309 -181.576431274414 3.194199085236
-61.687278747559 -71.800964355469 -177.292800903320 3.002567291260
-25.399444580078 -78.084732055664 -178.821685791016 1.200569987297
-146.219757080078 -68.438125610352 -182.700790405273 1.183493852615
-53.991607666016 -73.247062683105 -180.469360351563 1.830309510231
-146.994934082031 -73.116767883301 -185.423294067383 1.396225214005
-33.921577453613 -72.366989135742 -184.898574829102 0.844017982483
26.990242004395 -78.606605529785 -182.080215454102 0.810461580753
106.609596252441 -76.723022460938 -184.156753540039 2.102554082870
-33.892776489258 -74.491050720215 -183.776214599609 1.445647478104
11.082585334778 -75.401451110840 -190.986633300781 0.674097895622
17.333881378174 -74.359466552734 -203.783264160156 1.577648043633
-148.057647705078 -73.282798767090 -188.891906738281 0.777130544186
105.107620239258 -77.940521240234 -196.420898437500 1.170317411423
-21.212644577026 -72.127021789551 -193.138046264648 2.532803535461
101.450973510742 -76.863807678223 -189.089675903320 2.693963527679
13.026811599731 -72.600189208984 -189.637252807617 1.049786210060
-136.858688354492 -72.352127075195 -202.925292968750 2.359565258026
-138.739456176758 -72.386276245117 -199.094467163086 2.776196002960
100.286834716797 -78.247802734375 -202.179931640625 3.089111089706
-11.890254020691 -77.902671813965 -200.493621826172 2.199873924255
-16.320644378662 -75.157997131348 -202.985107421875 2.064857721329
10.550915718079 -76.475585937500 -207.572738647461 1.269161224365
-149.964660644531 -70.883605957031 -205.022140502930 2.113399267197
-146.237869262695 -73.765884399414 -207.242263793945 2.095829486847
100.165908813477 -71.828811645508 -205.396881103516 1.806292295456
-82.159233093262 -72.899765014648 -207.742279052734 3.142779827118
-35.990772247314 -74.600135803223 -201.537963867188 3.470330238342
18.772583007813 -77.102424621582 -213.613281250000 2.312891006470
-25.197601318359 -74.518928527832 -211.075973510742 1.054661035538
-76.486175537109 -71.834388732910 -207.462661743164 1.628904581070
91.013244628906 -75.649978637695 -210.447036743164 1.795530557632
-80.387306213379 -71.014884948730 -211.934112548828 1.483097076416
-147.387283325195 -72.677726745605 -217.779129028320 1.311833500862
-79.950866699219 -72.068626403809 -212.822723388672 1.861611604691
-13.171054840088 -69.794090270996 -209.864578247070 1.646598458290
-20.668411254883 -71.657707214355 -218.861648559570 2.016157150269
18.496681213379 -74.498817443848 -213.534790039063 1.377470135689
-5.545072078705 -75.552268981934 -219.612838745117 1.826877593994
-88.337951660156 -76.171188354492 -218.406555175781 1.907311439514
92.620323181152 -74.819282531738 -214.367752075195 1.360018730164
-98.389038085938 -72.080917358398 -215.112670898438 1.637275457382
-152.285903930664 -71.449707031250 -223.186264038086 0.913062155247
-25.237003326416 -72.910667419434 -223.599014282227 1.621184706688
17.737958908081 -75.018241882324 -216.276275634766 1.435455441475
-102.067199707031 -72.999145507813 -219.440643310547 1.736098170280
7.399199008942 -71.431632995605 -218.991821289063 2.948477268219
-25.683282852173 -74.029281616211 -215.553726196289 2.338266611099
82.811157226563 -73.735656738281 -224.869918823242 1.809100627899
-145.333740234375 -71.600234985352 -218.309814453125 1.738020420074
10.265030860901 -73.029296875000 -225.955001831055 2.505374193192
-9.599151611328 -76.933128356934 -225.786224365234 1.158276915550
17.510620117188 -68.816802978516 -222.675903320313 1.106913924217
83.551261901855 -76.127853393555 -222.984542846680 1.111893773079
-13.723280906677 -76.117881774902 -228.572509765625 2.663934469223
-130.645462036133 -73.497467041016 -225.810455322266 2.147358417511
-13.917151451111 -74.168792724609 -224.484893798828 0.731680750847
16.627130508423 -74.719871520996 -231.357528686523 1.973204612732
-126.824089050293 -74.421020507813 -226.527572631836 1.626075029373
-151.663818359375 -69.028297424316 -228.639511108398 1.340889573097
-142.478134155273 -71.193611145020 -228.060821533203 2.873890399933
-130.960952758789 -70.556808471680 -227.126708984375 1.849913477898
-13.200005531311 -72.011787414551 -225.228713989258 1.439025640488
71.746597290039 -74.727149963379 -228.783554077148 1.776583552361
-143.395812988281 -68.711845397949 -235.411727905273 1.893435478210
70.663414001465 -76.091117858887 -229.364807128906 2.755504608154
-20.604030609131 -76.912879943848 -229.642791748047 1.794408202171
-142.407974243164 -75.323013305664 -228.531143188477 1.574929237366
77.150886535645 -79.740463256836 -229.539245605469 4.190714836121
9.516367912292 -77.854110717773 -233.681564331055 1.822016596794
-141.807052612305 -76.114875793457 -234.485000610352 2.189148902893
-150.185989379883 -71.043281555176 -232.992370605469 2.684802770615
16.757030487061 -71.145431518555 -231.661483764648 1.700479030609
-2.901679992676 -76.219154357910 -237.796340942383 1.593223214149
-27.853727340698 -73.045417785645 -237.115798950195 1.650514602661
-1.767619013786 -70.103363037109 -237.664718627930 1.627197861671
-160.978530883789 -73.752502441406 -236.780380249023 1.831030249596
7.743990898132 -72.910095214844 -243.688446044922 0.758303642273
-164.902191162109 -72.182441711426 -237.782333374023 0.206530526280
-12.992210388184 -74.883789062500 -237.713043212891 2.162574768066
61.327468872070 -75.510612487793 -239.723815917969 2.260102987289
-13.256261825562 -72.853858947754 -238.125061035156 1.306166887283
-25.106584548950 -72.745048522949 -244.302139282227 2.715518951416
-25.212936401367 -73.030220031738 -241.704666137695 1.338072180748
-13.080040931702 -75.847930908203 -240.908218383789 2.564938783646
-146.453018188477 -72.305244445801 -230.155944824219 1.556911349297
7.878984928131 -73.295646667480 -242.479827880859 1.158089995384
64.025192260742 -74.239898681641 -244.207763671875 2.876782655716
14.496187210083 -71.953559875488 -245.313446044922 2.014037132263
-166.157150268555 -69.996284484863 -240.583541870117 1.677008152008
-50.679866790771 -72.135826110840 -240.559417724609 2.253464221954
3.616350889206 -80.420898437500 -248.321563720703 0.828563332558
16.771163940430 -74.088691711426 -244.458602905273 2.864820003510
-54.441886901855 -72.297203063965 -246.944763183594 1.762562274933
-3.035696983337 -69.915161132813 -248.334747314453 3.967431306839
20.622251510620 -78.731086730957 -248.227676391602 2.141129255295
-169.357757568359 -69.631240844727 -247.760055541992 3.199792861938
-67.857772827148 -75.907592773438 -247.850799560547 0.837989985943
-51.800731658936 -71.893341064453 -247.167449951172 2.628542661667
-81.362617492676 -71.606376647949 -250.906005859375 2.481004953384
-161.256134033203 -72.340736389160 -246.038742065430 2.536545991898
-150.933273315430 -65.893379211426 -248.640182495117 1.284568428993
-60.384243011475 -74.554885864258 -249.402725219727 1.518626332283
-69.018737792969 -72.530113220215 -249.624099731445 1.723706126213
-153.869567871094 -69.612449645996 -251.818435668945 1.214332222939
-152.303588867188 -72.207496643066 -251.453308105469 1.359584689140
-76.108802795410 -69.491455078125 -254.017639160156 2.214668989182
-93.699996948242 -69.868614196777 -254.748931884766 2.089814901352
-164.603805541992 -66.841560363770 -251.278930664063 1.985322356224
-157.147735595703 -71.496971130371 -258.860229492188 1.659857630730
-135.136123657227 -73.034332275391 -257.554748535156 2.522880315781
-83.406768798828 -72.391403198242 -250.965652465820 1.304721713066
-162.408706665039 -68.581474304199 -252.022598266602 2.571645736694
-142.130142211914 -69.801605224609 -256.109436035156 2.470215797424
-85.581581115723 -71.516845703125 -250.858413696289 1.850862026215
-97.002311706543 -69.952186584473 -259.868591308594 1.384293317795
-145.374038696289 -72.305175781250 -255.218399047852 2.625524044037
-93.789848327637 -71.861938476563 -255.672195434570 2.493341922760
-152.873382568359 -69.809364318848 -255.191131591797 1.950931787491
-102.615730285645 -71.574630737305 -255.094253540039 0.253166735172
-168.986770629883 -70.405807495117 -257.930694580078 2.008663892746
-161.850067138672 -72.487510681152 -262.559082031250 2.125200748444
-126.757270812988 -74.425003051758 -255.969909667969 0.942299962044
-152.008712768555 -71.430946350098 -258.639373779297 2.402643680573
-112.156684875488 -69.187271118164 -261.383880615234 2.285546302795
-14.676708221436 -72.060874938965 -261.980804443359 1.342885375023
-141.914489746094 -71.139091491699 -260.292083740234 1.903800010681
-126.168571472168 -71.004798889160 -259.495086669922 1.743486881256
-154.504943847656 -69.686378479004 -261.856445312500 0.849542140961
23.148773193359 -74.525627136230 -271.153350830078 2.527625560760
-149.128005981445 -73.312026977539 -277.907745361328 2.975316524506
-168.859649658203 -71.133377075195 -279.237274169922 2.893007755280
-8.641919136047 -73.308113098145 -279.587158203125 2.636288166046
-146.305770874023 -71.083526611328 -279.773834228516 2.379707098007
-9.990703582764 -71.738967895508 -283.310485839844 1.648706197739
12.332833290100 -73.818214416504 -286.379394531250 2.244669198990
-137.101608276367 -69.805473327637 -285.298767089844 2.030303955078
-68.798408508301 -73.932678222656 -286.729217529297 2.303020238876
-33.845989227295 -74.946311950684 -288.067291259766 1.668661832809
-113.351356506348 -71.458137512207 -283.900726318359 1.990239858627
-95.854774475098 -75.320861816406 -289.864593505859 2.447101116180
-90.128967285156 -72.128479003906 -291.054626464844 1.914731740952
-50.341030120850 -73.762802124023 -291.796630859375 3.063484668732
-116.490066528320 -75.425155639648 -288.092987060547 1.621774911880
-114.220787048340 -72.677993774414 -289.772033691406 1.746890306473
-33.541538238525 -70.436088562012 -289.188934326172 2.157287120819
-115.844146728516 -71.910392761230 -292.506530761719 2.060984373093
-127.518257141113 -67.365051269531 -289.603363037109 2.593255519867
-144.938262939453 -72.941062927246 -292.893890380859 2.713135480881
6.639293193817 -73.133361816406 -291.781585693359 2.640930414200
16.083377838135 -75.174797058105 -293.649414062500 0.617175877094
-160.409439086914 -70.767501831055 -292.038238525391 0.688402473927
-158.912109375000 -74.249382019043 -299.908996582031 3.343559741974
-147.611007690430 -72.166168212891 -309.785125732422 2.895006895065
-152.573394775391 -69.631408691406 -310.090026855469 2.920870065689
-153.215820312500 -72.258163452148 -312.817504882813 1.934204459190
30.340667724609 -78.662475585938 -15.342411994934 4.174208641052
32.316455841064 -73.986991882324 -18.680400848389 1.048308849335
22.892711639404 -75.815650939941 -24.638408660889 2.623036623001
30.332115173340 -73.555923461914 -39.661556243896 1.552945733070
-56.805572509766 -73.226646423340 -49.573654174805 2.357638120651
-63.911193847656 -73.622276306152 -49.965370178223 2.552851676941
-37.600502014160 -77.234535217285 -50.286750793457 4.988868713379
-83.176994323730 -69.974739074707 -62.579124450684 4.480530738831
82.276809692383 -79.082130432129 -74.995941162109 3.889501571655
-14.285651206970 -72.954689025879 -71.171829223633 1.771589636803
90.255119323730 -77.338470458984 -67.223152160645 4.151736736298
100.432380676270 -76.280220031738 -77.881706237793 2.793522119522
-91.452812194824 -71.658622741699 -75.944427490234 1.418848872185
68.699592590332 -75.942321777344 -81.121887207031 3.330032587051
-40.071846008301 -77.963394165039 -85.613700866699 0.730203330517
101.966079711914 -75.590423583984 -83.002906799316 4.168973445892
-54.593193054199 -72.734481811523 -88.496383666992 2.566520452499
52.013298034668 -76.094886779785 -91.158523559570 1.886495232582
71.851814270020 -81.108421325684 -91.519325256348 6.599212169647
56.446285247803 -74.955436706543 -96.921890258789 1.262579679489
53.722713470459 -77.401718139648 -99.188728332520 1.238917350769
75.314491271973 -79.117622375488 -96.446769714355 3.950845003128
47.368125915527 -75.353126525879 -105.786560058594 1.832137227058
101.312721252441 -77.095436096191 -101.719238281250 3.922492504120
106.709510803223 -80.352798461914 -107.433921813965 4.823541164398
80.913063049316 -73.468559265137 -104.211799621582 1.706114172935
92.682060241699 -77.520538330078 -104.347061157227 4.924663066864
101.806610107422 -76.742805480957 -96.081153869629 3.669407606125
110.383682250977 -77.145195007324 -104.712173461914 2.795451402664
40.448753356934 -75.479118347168 -106.648841857910 1.831018209457
113.344718933105 -73.974777221680 -119.626960754395 1.878612399101
114.540664672852 -77.836776733398 -119.898742675781 4.458998680115
32.099281311035 -73.817108154297 -123.979553222656 1.768451571465
45.513282775879 -76.689811706543 -119.429969787598 1.216794967651
115.969100952148 -76.930625915527 -131.215682983398 2.112730979919
36.982185363770 -74.854423522949 -127.136291503906 2.756088256836
115.739105224609 -80.017723083496 -128.771286010742 4.707334041595
109.509025573730 -77.434669494629 -123.417831420898 3.036103010178
27.105718612671 -75.863883972168 -135.984878540039 1.604534149170
-47.240669250488 -74.302841186523 -134.025650024414 2.510226488113
-51.384014129639 -72.254318237305 -134.997512817383 0.731197416782
112.055091857910 -75.804840087891 -135.959091186523 0.482059806585
-68.576820373535 -77.136077880859 -140.291107177734 3.461328029633
-72.136932373047 -74.158981323242 -140.116027832031 0.743157267570
-58.261119842529 -74.243400573730 -141.049652099609 1.463731884956
32.593936920166 -75.125816345215 -144.065002441406 2.573426485062
116.810104370117 -78.154327392578 -146.924163818359 5.105788707733
-68.696739196777 -70.432846069336 -146.870544433594 1.907536745071
-47.284515380859 -73.591789245605 -142.510986328125 2.519417762756
34.028392791748 -75.690254211426 -151.684082031250 2.204555988312
-67.462623596191 -74.642349243164 -147.628524780273 1.695359349251
114.708282470703 -75.468368530273 -142.291915893555 1.928128480911
112.487937927246 -74.489654541016 -158.505935668945 2.400667190552
116.935386657715 -77.491172790527 -153.962738037109 2.540914535522
-37.771411895752 -76.383888244629 -153.063552856445 1.561371564865
-64.142005920410 -73.497917175293 -164.132293701172 2.023038625717
-68.504264831543 -70.387115478516 -156.925277709961 1.906074404716
30.834579467773 -76.116539001465 -146.810226440430 1.738917946815
-1.511206030846 -76.352706909180 -162.304321289063 1.633185863495
109.759368896484 -75.778915405273 -162.551895141602 1.044956088066
112.492561340332 -74.631614685059 -153.964782714844 2.246686935425
112.849884033203 -78.456588745117 -159.357666015625 2.469555854797
-63.063873291016 -70.838729858398 -159.857482910156 1.451805353165
-44.762645721436 -75.632766723633 -165.163619995117 1.351940393448
-1.705039024353 -73.632720947266 -165.244293212891 2.433302402496
-28.698083877563 -74.094886779785 -174.924423217773 2.194061040878
106.571861267090 -75.228004455566 -168.133666992188 1.813503980637
-33.759506225586 -76.867012023926 -160.061172485352 1.444325923920
110.016647338867 -74.617469787598 -169.280654907227 1.386423230171
-41.214111328125 -74.226119995117 -173.562438964844 0.964103460312
109.259399414063 -73.978034973145 -169.539627075195 1.902421236038
-150.949798583984 -72.871406555176 -179.241424560547 1.742385387421
-26.325084686279 -70.217071533203 -176.770370483398 0.663981914520
-19.793535232544 -74.004104614258 -183.410934448242 1.913898110390
25.386785507202 -77.670288085938 -177.504806518555 0.818829059601
15.572765350342 -74.129570007324 -183.448898315430 1.325385332108
28.142498016357 -75.050415039063 -183.423461914063 1.597410440445
104.710540771484 -79.608764648438 -184.631332397461 3.324920177460
-151.261016845703 -69.031105041504 -184.046203613281 2.998801708221
-19.254154205322 -76.117095947266 -184.926696777344 1.029649019241
102.710624694824 -76.731300354004 -179.462173461914 2.377109050751
103.681762695313 -72.702125549316 -190.528213500977 1.217637658119
108.710647583008 -77.076103210449 -178.712234497070 1.700339674950
99.465660095215 -77.337539672852 -194.587844848633 3.626874923706
-150.901168823242 -72.198638916016 -195.712142944336 2.019681215286
100.353591918945 -76.355934143066 -206.342788696289 1.532467842102
-27.794912338257 -71.520156860352 -197.138565063477 2.310248613358
97.943038940430 -75.361854553223 -196.602737426758 1.691573619843
-121.041458129883 -75.196479797363 -199.515655517578 2.793881416321
-29.381431579590 -78.062347412109 -190.142623901367 1.883155465126
-141.470855712891 -67.846122741699 -197.511383056641 2.334752559662
95.711448669434 -75.655174255371 -199.419158935547 2.450520992279
9.008570671082 -74.912597656250 -199.309173583984 1.958901524544
24.307212829590 -73.215309143066 -192.893814086914 1.751369237900
-147.743423461914 -72.022506713867 -202.121124267578 0.627432525158
-138.569412231445 -71.017456054688 -201.315093994141 1.356466531754
-9.725419998169 -73.407295227051 -206.813018798828 1.838272929192
-124.036651611328 -71.786727905273 -203.121826171875 0.969397783279
-143.553955078125 -74.059570312500 -198.965469360352 1.965338706970
4.308778762817 -74.350036621094 -199.784210205078 5.043426036835
-23.918815612793 -75.753021240234 -201.116653442383 2.283632278442
20.975625991821 -77.083419799805 -202.633850097656 1.146345496178
6.884770870209 -75.286132812500 -212.042053222656 1.743135690689
85.759841918945 -72.874229431152 -209.267059326172 3.060050487518
-18.091093063354 -71.095733642578 -211.947891235352 1.862529993057
91.640029907227 -73.217193603516 -209.708618164063 1.181351661682
97.329353332520 -77.285377502441 -207.827896118164 1.146354436874
-148.706756591797 -72.451538085938 -213.750839233398 1.451644062996
95.734939575195 -77.067192077637 -212.381591796875 2.190477371216
5.310811042786 -73.117805480957 -207.489242553711 2.472821235657
3.802294969559 -76.015068054199 -214.612335205078 3.457773685455
-32.661426544189 -73.019912719727 -206.920532226563 1.680586457253
-89.151947021484 -71.834678649902 -212.700790405273 2.918838500977
-25.977336883545 -74.857872009277 -210.844375610352 0.477610081434
85.361129760742 -74.429527282715 -217.607681274414 2.016561985016
89.521591186523 -74.324264526367 -217.744247436523 1.190046787262
-31.568981170654 -72.582786560059 -212.173995971680 2.415635108948
-84.128852844238 -69.507781982422 -217.987258911133 3.886440038681
-0.864820003510 -75.767295837402 -218.868606567383 1.994609713554
82.333732604980 -71.714691162109 -213.818466186523 3.927025079727
-151.775314331055 -74.969322204590 -221.114028930664 3.009742021561
-165.531036376953 -69.567520141602 -213.433273315430 3.225965738297
-161.814773559570 -73.523056030273 -221.448394775391 1.872943162918
-21.258714675903 -74.243354797363 -226.883529663086 1.814991712570
-153.742156982422 -74.074050903320 -221.997833251953 1.532283902168
-5.577704906464 -74.773048400879 -224.588134765625 2.936746358871
6.760428905487 -74.916015625000 -218.584548950195 2.050261497498
-166.976364135742 -70.831260681152 -224.695571899414 2.013947963715
-158.645584106445 -71.431602478027 -226.594604492188 1.640744686127
79.345359802246 -77.989013671875 -232.088333129883 1.117056608200
0.440221995115 -72.569961547852 -226.780197143555 0.235897228122
-157.299636840820 -66.536788940430 -225.344131469727 1.467473864555
-142.332443237305 -72.937416076660 -223.703079223633 1.125727057457
-19.001375198364 -72.468795776367 -223.937362670898 2.341037511826
-0.266645997763 -77.871131896973 -222.628189086914 2.257234096527
80.259361267090 -72.574127197266 -226.231735229492 2.102562189102
-161.075576782227 -69.395835876465 -227.075332641602 2.985754489899
-143.817337036133 -69.011856079102 -230.167144775391 2.936774730682
-124.945083618164 -69.996772766113 -230.326858520508 3.334286928177
78.933807373047 -76.310317993164 -227.303329467773 1.189266324043
-115.472923278809 -71.646675109863 -228.659881591797 1.008103728294
-146.245712280273 -71.173393249512 -228.601364135742 1.632593631744
-150.345001220703 -69.834167480469 -230.704193115234 2.236084938049
-148.882995605469 -71.904396057129 -230.645706176758 2.190978050232
-155.671920776367 -71.601539611816 -228.370147705078 1.030987381935
-164.921554565430 -71.381530761719 -228.238937377930 1.949187755585
-133.582626342773 -71.532173156738 -234.741210937500 1.829336881638
-133.153076171875 -72.539093017578 -232.549591064453 1.680814623833
-153.094711303711 -74.699333190918 -232.211120605469 3.233917236328
-145.214920043945 -67.730590820313 -236.144073486328 1.581669330597
-151.491256713867 -71.560653686523 -234.623565673828 1.539317131042
75.050376892090 -76.754737854004 -233.033737182617 2.411352396011
67.555961608887 -69.885078430176 -236.486114501953 1.021751046181
-156.847915649414 -69.597824096680 -234.643539428711 2.020314931870
71.963882446289 -70.393760681152 -233.806991577148 1.564479470253
-19.609533309937 -71.835273742676 -236.681869506836 1.973145008087
11.547215461731 -74.918823242188 -237.317794799805 0.681320488453
7.076252937317 -74.434242248535 -236.220840454102 2.816191673279
-154.392913818359 -71.081802368164 -241.955047607422 3.478662490845
14.726932525635 -73.155616760254 -241.337341308594 2.775969266891
61.122886657715 -73.286911010742 -238.481674194336 1.725347518921
13.600428581238 -71.318450927734 -238.161972045898 1.245307445526
5.484589099884 -74.017257690430 -241.765686035156 1.102895855904
-6.338095188141 -71.340286254883 -240.462936401367 1.077932238579
-20.998498916626 -71.717102050781 -242.878997802734 1.964731454849
-1.589589953423 -73.359184265137 -242.124572753906 0.946233928204
3.902009010315 -76.124145507813 -245.204376220703 0.974397659302
57.540843963623 -75.359184265137 -242.081115722656 0.887560546398
-55.375701904297 -75.865966796875 -244.648452758789 1.179762959480
19.710071563721 -72.672645568848 -247.622207641602 1.311076164246
-59.439472198486 -73.459922790527 -241.660217285156 3.456336498260
-9.785840034485 -73.405303955078 -248.015625000000 0.632850646973
-65.969245910645 -69.013809204102 -250.074066162109 3.288598060608
-85.980133056641 -70.420692443848 -252.834777832031 1.254555106163
-82.578300476074 -72.976432800293 -251.868377685547 1.852655649185
-9.803891181946 -72.522270202637 -254.916473388672 2.239379167557
-123.876235961914 -71.152046203613 -258.554718017578 3.156950235367
-14.081501007080 -73.988052368164 -253.100708007813 1.949965357780
-116.972938537598 -71.501266479492 -255.255218505859 2.795664310455
-116.482437133789 -70.158493041992 -258.180084228516 2.615077018738
-103.545730590820 -71.500999450684 -256.163726806641 0.815461635590
-143.898895263672 -70.057037353516 -261.234680175781 1.781158328056
-145.085433959961 -70.398223876953 -266.633728027344 2.046031713486
-168.709533691406 -70.640335083008 -262.877166748047 2.278503417969
19.162281036377 -76.741264343262 -280.606872558594 2.621063470840
-58.217708587646 -70.205116271973 -285.256286621094 1.327356696129
-67.409774780273 -70.942787170410 -283.526367187500 3.088123798370
-42.364871978760 -74.021080017090 -283.863586425781 3.150574207306
-28.279195785522 -73.449638366699 -286.533355712891 0.433661162853
-96.589012145996 -73.297798156738 -288.917785644531 1.246854543686
-31.027971267700 -70.575721740723 -285.737976074219 2.763497829437
-4.333514213562 -72.912597656250 -286.362304687500 0.564477384090
-167.625213623047 -70.375785827637 -288.595001220703 2.009209871292
-16.126596450806 -74.765380859375 -286.022033691406 3.316800832748
6.098456859589 -74.191680908203 -288.194488525391 1.171887159348
13.850791931152 -77.500083923340 -283.929595947266 2.813115358353
-57.240406036377 -74.338951110840 -287.531372070313 1.649359822273
-33.506839752197 -72.807373046875 -291.505249023438 2.264446258545
13.937696456909 -71.226905822754 -293.344268798828 1.617738962173
-71.187492370605 -70.421051025391 -292.727600097656 2.731375932693
-40.488162994385 -69.799385070801 -289.113037109375 1.711683273315
-18.109489440918 -70.649299621582 -290.083099365234 2.147546768188
14.733667373657 -75.322792053223 -291.327850341797 1.260073304176
-11.896559715271 -74.319267272949 -294.372253417969 2.769578218460
3.654938936234 -71.760467529297 -294.021881103516 1.803831458092
13.944073677063 -75.053581237793 -290.893310546875 1.461961507797
-135.188125610352 -69.807327270508 -293.787872314453 1.069244980812
-145.336257934570 -72.894584655762 -298.558990478516 1.113211631775
-151.451156616211 -70.759246826172 -312.569274902344 0.864899694920
44.807109832764 -75.244056701660 -14.176385879517 3.480266809464
31.915735244751 -75.496017456055 -12.207717895508 3.938410997391
41.038982391357 -75.869659423828 -15.859993934631 2.619636535645
23.759775161743 -72.329383850098 -19.038665771484 2.889752149582
46.686927795410 -73.753135681152 -22.838560104370 3.093626737595
27.265369415283 -73.665084838867 -24.321031570435 2.188452720642
25.421936035156 -75.668548583984 -27.851135253906 3.349256515503
26.377212524414 -76.129508972168 -38.642322540283 5.256595134735
41.157501220703 -77.639839172363 -31.258367538452 5.421947956085
27.844091415405 -78.789505004883 -36.717609405518 6.694908618927
44.674903869629 -74.314559936523 -38.121337890625 2.814337491989
33.428413391113 -75.922935485840 -39.817642211914 3.996213436127
40.357139587402 -76.876434326172 -36.380996704102 5.697291374207
32.531898498535 -74.531173706055 -40.334121704102 2.849397659302
45.159759521484 -75.527832031250 -41.640018463135 4.841851711273
35.300506591797 -74.937072753906 -39.394901275635 2.425268411636
-39.438774108887 -72.475837707520 -48.189430236816 0.780819118023
-28.541007995605 -69.449729919434 -50.630340576172 2.329304218292
-87.920242309570 -71.846313476563 -54.395893096924 3.843670368195
-87.709114074707 -74.093147277832 -65.181724548340 2.804450035095
79.222389221191 -78.172248840332 -67.270408630371 5.714235305786
85.623527526855 -75.535621643066 -73.102485656738 1.612241625786
-18.329160690308 -72.254646301270 -73.577301025391 1.867270588875
-86.929237365723 -73.269584655762 -71.339141845703 2.058923006058
-23.899055480957 -73.385940551758 -76.729965209961 1.482187390327
-48.474781036377 -74.633705139160 -84.793243408203 2.928617954254
67.169990539551 -71.643280029297 -86.668395996094 3.309843540192
53.874511718750 -74.060409545898 -93.597541809082 1.525393605232
100.687889099121 -73.978767395020 -92.039985656738 3.820704221725
70.554809570313 -76.745666503906 -97.050025939941 1.391347527504
-67.076782226563 -74.613479614258 -90.754409790039 2.794452190399
-61.050712585449 -71.405044555664 -97.605285644531 5.000174999237
45.936851501465 -75.315544128418 -97.715988159180 2.017729282379
78.541046142578 -73.902282714844 -100.330749511719 0.787571787834
55.459495544434 -81.869331359863 -105.407875061035 3.896753311157
102.409004211426 -75.301521301270 -97.208625793457 2.260096311569
-94.178222656250 -74.219802856445 -106.791679382324 1.965193629265
40.881519317627 -74.894813537598 -110.921562194824 2.399764776230
108.074523925781 -76.442634582520 -109.326210021973 2.224319219589
49.523956298828 -74.624214172363 -111.539634704590 1.779032468796
102.508148193359 -76.457847595215 -110.292800903320 3.451962471008
-84.459014892578 -72.719024658203 -114.876213073730 3.462420463562
36.802490234375 -77.695487976074 -112.105911254883 3.147985458374
107.622306823730 -74.398223876953 -117.354499816895 2.435010194778
105.740348815918 -72.916900634766 -116.325813293457 1.604937076569
106.512336730957 -75.848617553711 -115.665550231934 2.013973236084
111.531028747559 -74.588424682617 -115.141662597656 2.379838705063
40.920188903809 -76.301490783691 -110.410835266113 2.145984411240
33.061130523682 -72.060974121094 -117.457687377930 1.359141707420
41.931324005127 -74.221733093262 -114.350151062012 2.272245645523
107.719329833984 -76.716896057129 -122.336807250977 2.936866760254
41.073005676270 -72.889541625977 -123.430824279785 1.084400653839
109.950996398926 -74.511932373047 -132.704528808594 2.129570245743
111.837486267090 -74.131561279297 -131.600448608398 2.557712316513
34.553333282471 -72.258110046387 -120.768112182617 2.604995012283
-77.083908081055 -72.553840637207 -124.939964294434 3.593775987625
114.748779296875 -72.935432434082 -134.795166015625 3.443335533142
-53.660057067871 -73.036712646484 -137.111297607422 1.378498435020
36.308967590332 -75.050598144531 -134.908584594727 2.833695173264
-72.525955200195 -73.018501281738 -134.951354980469 3.866363048553
27.716493606567 -76.304557800293 -131.801895141602 1.460531353951
-78.906555175781 -73.033210754395 -142.288772583008 2.244666099548
-44.660915374756 -75.931167602539 -141.621139526367 1.254543066025
-73.265701293945 -73.342117309570 -137.689743041992 1.323120832443
110.958221435547 -74.446701049805 -137.589111328125 1.449666976929
117.922264099121 -73.547851562500 -142.167846679688 2.356803417206
118.721252441406 -78.315734863281 -147.008148193359 6.096625804901
-76.642852783203 -71.620246887207 -143.115432739258 1.437113761902
8.656421661377 -69.948661804199 -150.747589111328 2.108215808868
-51.423278808594 -73.469413757324 -148.985092163086 1.698422312737
-50.254547119141 -73.722335815430 -154.903976440430 2.369967699051
107.423530578613 -75.312629699707 -162.191757202148 2.531442880630
-40.855899810791 -74.780014038086 -148.923675537109 2.665136575699
14.563859939575 -71.673950195313 -157.680801391602 1.103029847145
22.853187561035 -75.457992553711 -157.667968750000 2.859437227249
115.226852416992 -74.409843444824 -165.193054199219 2.960946083069
30.288314819336 -73.351181030273 -165.824600219727 3.099603891373
-0.409200996161 -74.775405883789 -163.412017822266 0.906263172626
32.346733093262 -74.747573852539 -160.914138793945 1.054900646210
-67.222373962402 -70.939620971680 -157.158569335938 1.302061319351
-65.249092102051 -72.214317321777 -158.622253417969 1.550204515457
-68.376106262207 -71.118270874023 -165.108810424805 1.576370358467
115.283760070801 -71.774528503418 -161.969604492188 2.289334535599
-44.073219299316 -72.988304138184 -162.612152099609 1.067925572395
18.229734420776 -73.879516601563 -165.525512695313 1.138586640358
-63.484966278076 -71.452499389648 -169.120559692383 1.694394707680
-62.607265472412 -70.739921569824 -170.875350952148 2.753257989883
-40.799064636230 -73.739646911621 -159.899475097656 1.196954131126
-33.126964569092 -75.011054992676 -168.314468383789 2.429673910141
115.402648925781 -77.045364379883 -171.867218017578 3.271305561066
-36.595249176025 -68.245849609375 -179.392837524414 4.210730075836
14.149120330811 -74.565773010254 -173.122268676758 4.236920356750
111.029678344727 -77.413124084473 -184.848526000977 3.741265773773
-147.227569580078 -72.832237243652 -174.972381591797 1.091781139374
-145.476913452148 -70.963081359863 -172.466339111328 2.733582735062
-148.239639282227 -69.333099365234 -178.809982299805 3.850127220154
-142.079101562500 -72.466438293457 -181.697052001953 1.092450022697
-31.490501403809 -71.462150573730 -185.155700683594 2.309723138809
-22.757114410400 -72.977928161621 -185.444107055664 1.280043244362
23.627712249756 -70.000625610352 -191.063278198242 1.926210999489
-141.074493408203 -70.273231506348 -185.636001586914 2.702994346619
-146.942672729492 -71.272468566895 -187.439270019531 2.149790525436
-20.922088623047 -70.386703491211 -186.167404174805 2.000097751617
11.476869583130 -73.724426269531 -182.486618041992 2.496400356293
-149.045303344727 -70.805099487305 -193.120880126953 1.806324005127
-31.244930267334 -73.401168823242 -187.634521484375 2.179918050766
100.456489562988 -74.678016662598 -188.820037841797 1.312160730362
106.608657836914 -73.751029968262 -190.317352294922 1.513320326805
24.534614562988 -69.203582763672 -193.419692993164 0.808501422405
-13.165574073792 -73.189971923828 -188.273788452148 4.401604175568
-27.456438064575 -74.596260070801 -193.063323974609 1.666824698448
-155.069854736328 -71.708015441895 -197.974899291992 1.375728249550
-132.338806152344 -71.954940795898 -195.844802856445 1.619991302490
-124.837318420410 -68.573905944824 -194.049682617188 1.049121260643
-124.378936767578 -69.538375854492 -196.646255493164 2.014799356461
-22.130613327026 -68.704338073730 -195.844299316406 0.901021897793
12.966143608093 -75.253440856934 -192.416763305664 2.076220273972
92.858467102051 -77.864494323730 -201.672378540039 2.840811252594
-149.698562622070 -67.201980590820 -194.270141601563 1.223590850830
-144.742752075195 -68.399032592773 -197.620803833008 0.927603423595
-150.607421875000 -70.103942871094 -199.007263183594 2.598286867142
-154.602371215820 -68.426704406738 -196.282653808594 1.781524062157
-24.484010696411 -72.170951843262 -199.343582153320 2.028602123260
-10.396379470825 -71.463226318359 -195.198318481445 3.528870820999
-146.048019409180 -66.923286437988 -201.003463745117 2.694428920746
-18.182783126831 -71.954025268555 -200.945190429688 2.186733722687
-161.124633789063 -69.768676757813 -199.442840576172 2.630691766739
-134.060729980469 -70.688041687012 -198.381240844727 1.700872540474
15.922118186951 -74.938072204590 -207.057388305664 1.996199250221
-160.994171142578 -67.273574829102 -202.876113891602 2.970486879349
-145.896591186523 -72.011413574219 -205.405014038086 1.581826448441
8.518367767334 -71.244750976563 -202.784439086914 1.961500048637
-153.817153930664 -68.043983459473 -201.489883422852 0.685572624207
-24.312204360962 -72.024169921875 -201.581634521484 2.315642595291
97.641883850098 -75.112182617188 -199.893524169922 1.520862460136
-158.271209716797 -71.244804382324 -211.319549560547 1.687449932098
-164.302505493164 -73.269081115723 -206.494033813477 3.526570081711
-76.617835998535 -69.692932128906 -207.703536987305 2.763868808746
89.501388549805 -73.581504821777 -209.564926147461 2.167050361633
-3.662399053574 -71.531326293945 -218.318099975586 2.202385902405
-154.318557739258 -69.234191894531 -211.745391845703 2.701512098312
-87.423118591309 -71.496391296387 -212.814102172852 3.478636264801
-9.158560752869 -75.238311767578 -211.218719482422 1.500226736069
15.706915855408 -72.777023315430 -219.976608276367 1.452517390251
-144.793258666992 -71.098190307617 -219.014099121094 1.731594204903
-3.528075933456 -76.483413696289 -220.872360229492 1.853312492371
-19.256771087646 -73.425872802734 -218.080703735352 0.935694813728
-14.464477539063 -69.444152832031 -220.296691894531 1.778732895851
90.374954223633 -74.159317016602 -219.701217651367 2.144501686096
-20.579118728638 -71.195716857910 -216.643341064453 2.447243690491
-31.586980819702 -71.716041564941 -216.890548706055 1.703692555428
-107.427085876465 -66.784576416016 -223.965637207031 2.649250984192
-16.013128280640 -70.867523193359 -223.092193603516 1.805946588516
92.576057434082 -72.232688903809 -219.599990844727 2.258125066757
77.602218627930 -74.722122192383 -221.018936157227 2.907276153564
7.308374881744 -74.036773681641 -219.391769409180 1.495346784592
-11.070663452148 -70.412811279297 -225.316558837891 1.291137933731
78.726127624512 -74.504859924316 -222.598815917969 1.483217239380
-122.334907531738 -73.830764770508 -224.353454589844 1.883255600929
-19.909593582153 -70.519882202148 -223.063568115234 2.681796312332
-97.039535522461 -70.473945617676 -222.951751708984 1.753946423531
-102.416809082031 -71.098983764648 -223.470367431641 1.620978474617
-131.540100097656 -72.428459167480 -227.794128417969 1.631740927696
81.406646728516 -74.059783935547 -224.244384765625 2.510133266449
-123.128005981445 -71.218208312988 -226.449813842773 1.954854726791
4.792325973511 -72.122047424316 -228.840820312500 2.364677429199
81.335060119629 -72.596977233887 -225.042861938477 2.392616510391
-15.696477890015 -73.383705139160 -230.490325927734 0.677622973919
-13.490032196045 -73.158615112305 -227.389495849609 0.708961725235
-1.887833952904 -77.481010437012 -229.996490478516 2.315720081329
10.326393127441 -74.624412536621 -227.564056396484 2.641649007797
88.939743041992 -75.280021667480 -227.178634643555 4.113809585571
10.019704818726 -71.328178405762 -231.536575317383 2.873708009720
5.609491825104 -72.432563781738 -229.549179077148 2.106240272522
-8.981888771057 -73.018638610840 -231.260604858398 2.259902000427
-6.713490009308 -73.351356506348 -230.164962768555 2.484793901443
18.790472030640 -71.709472656250 -232.944702148438 1.848664641380
-12.397125244141 -70.006332397461 -233.202209472656 1.409272551537
70.999664306641 -74.191650390625 -240.365005493164 2.880919933319
-9.119308471680 -70.938362121582 -238.832534790039 2.537775278091
19.006208419800 -73.881385803223 -235.978454589844 1.262348413467
-162.872909545898 -68.602180480957 -239.283187866211 2.723915338516
-5.546114921570 -70.401321411133 -237.116210937500 2.053681612015
-8.131321907043 -73.173995971680 -240.245666503906 0.764665961266
-167.778579711914 -70.256942749023 -249.606994628906 2.366772890091
-10.881230354309 -70.770126342773 -244.419754028320 1.873202443123
15.533907890320 -70.207031250000 -245.698822021484 2.243356227875
-147.789550781250 -71.889892578125 -250.793197631836 2.426035881042
-73.388786315918 -70.626548767090 -249.943923950195 1.180687546730
-61.736267089844 -72.283782958984 -246.659805297852 1.842388033867
52.267436981201 -71.173011779785 -247.281906127930 1.270617246628
-74.767646789551 -70.831726074219 -246.343261718750 2.028615951538
16.747869491577 -73.344589233398 -249.756210327148 2.880599260330
-73.229003906250 -71.583572387695 -250.847549438477 2.153162717819
-15.431564331055 -70.611602783203 -245.914733886719 3.175520896912
-145.687896728516 -72.673072814941 -251.736633300781 1.219100475311
46.521026611328 -69.967651367188 -250.417861938477 1.645125985146
-80.258323669434 -73.176788330078 -255.220458984375 1.518525838852
-102.897598266602 -67.864082336426 -254.295120239258 2.917012453079
-99.552772521973 -72.310615539551 -253.927932739258 1.597568035126
-120.035415649414 -68.570907592773 -252.163330078125 4.567483901978
-106.012390136719 -68.254867553711 -256.392639160156 1.914928793907
-106.054924011230 -70.315032958984 -257.393493652344 2.540350675583
21.384429931641 -70.260299682617 -258.790191650391 2.806247234344
-129.619522094727 -67.879211425781 -264.146667480469 2.946346282959
-14.271529197693 -72.780441284180 -275.576171875000 3.661084890366
-148.141281127930 -67.305473327637 -282.234436035156 2.018221616745
-169.275833129883 -70.924652099609 -284.326843261719 2.264321804047
-125.516380310059 -70.986686706543 -283.252136230469 1.964237689972
-114.730903625488 -67.201454162598 -286.035827636719 3.206777334213
-76.102699279785 -66.732330322266 -283.990692138672 3.803325176239
-58.148475646973 -71.661834716797 -286.357208251953 1.882248520851
-42.523132324219 -70.248100280762 -285.845184326172 3.047098875046
-16.076803207397 -74.604568481445 -289.828704833984 2.464069366455
-14.495503425598 -69.337898254395 -291.725585937500 2.940049648285
-39.133956909180 -73.105194091797 -290.020050048828 2.212806701660
-35.096431732178 -71.154731750488 -288.626800537109 1.395608186722
-19.675907135010 -68.638748168945 -288.706542968750 3.443174839020
-72.570877075195 -69.742324829102 -292.553527832031 3.231365919113
-56.298435211182 -70.317825317383 -290.749450683594 2.564052581787
-18.370738983154 -68.209442138672 -291.453735351563 3.620210170746
-14.525686264038 -73.176795959473 -289.748748779297 0.968292832375
-4.498652935028 -70.981422424316 -292.475097656250 3.651748418808
1.719548940659 -68.662712097168 -292.325897216797 1.789267301559
-92.964462280273 -70.489181518555 -292.352050781250 2.759985685349
-140.627288818359 -71.262123107910 -294.029998779297 2.638740777969
-117.139144897461 -70.961776733398 -291.848419189453 1.939947009087
-154.387359619141 -68.291313171387 -293.816101074219 0.730011940002
-152.874038696289 -70.085258483887 -298.436248779297 0.703556478024
-147.612716674805 -67.934745788574 -298.979675292969 1.566852331161
46.180629730225 -72.439964294434 -21.473272323608 1.642087101936
21.514503479004 -76.908004760742 -23.579681396484 3.880963325500
51.190956115723 -71.961265563965 -25.328268051147 0.776775002480
48.631835937500 -75.347877502441 -35.358272552490 3.097843408585
88.843368530273 -74.536720275879 -70.744766235352 0.985096275806
96.749435424805 -76.403694152832 -74.552696228027 3.619045495987
102.385292053223 -74.415931701660 -78.781661987305 3.877006292343
99.412048339844 -75.242065429688 -84.121261596680 2.215785503387
57.752521514893 -74.991287231445 -89.763587951660 1.735152125359
46.536930084229 -78.903327941895 -91.502754211426 5.482714176178
64.383010864258 -73.063987731934 -91.169662475586 3.212324857712
-64.141754150391 -69.765548706055 -92.675277709961 1.597512722015
71.893547058105 -73.725280761719 -88.278549194336 2.105717658997
101.910179138184 -68.547225952148 -99.535835266113 1.219852566719
75.487388610840 -74.917335510254 -101.613616943359 3.360141515732
95.262413024902 -73.431320190430 -103.191993713379 2.856326580048
-83.625587463379 -72.670837402344 -102.903861999512 3.573138952255
46.141719818115 -72.792747497559 -98.423179626465 1.237799525261
-85.552230834961 -73.075317382813 -101.712402343750 4.686262607574
52.024578094482 -75.093147277832 -110.723510742188 3.229951858521
38.632682800293 -78.611679077148 -103.934753417969 2.114133834839
103.096939086914 -73.655296325684 -103.978340148926 1.620274901390
38.105228424072 -73.332199096680 -106.226593017578 2.412008762360
43.380416870117 -74.543464660645 -118.878578186035 1.344246745110
43.592498779297 -73.355155944824 -113.367744445801 2.386114835739
110.949241638184 -73.312461853027 -113.151519775391 1.850808501244
-80.601234436035 -75.494384765625 -121.051254272461 4.661334037781
112.920684814453 -77.586364746094 -124.832489013672 2.679183959961
40.800685882568 -70.006546020508 -125.031585693359 2.725203514099
41.316307067871 -72.736328125000 -120.543418884277 2.714762210846
35.746948242188 -73.749931335449 -121.166824340820 2.172636747360
-55.123191833496 -75.944015502930 -129.270599365234 3.747877120972
30.917730331421 -72.387550354004 -123.710639953613 1.683491110802
-76.785484313965 -69.874435424805 -137.323013305664 1.572222471237
