-152.218002319336 -79.111122131348 -186.698791503906 3.202763557434
-48.863655090332 -74.761795043945 -188.563735961914 2.350543022156
98.038558959961 -70.959487915039 -197.309265136719 0.708062946796
-144.877227783203 -79.812072753906 -191.184890747070 2.328741312027
-149.214279174805 -78.208190917969 -195.594879150391 1.924341201782
21.651943206787 -72.655151367188 -198.622131347656 1.105446100235
-137.527755737305 -78.313293457031 -196.529174804688 2.617401123047
15.389272689819 -71.304672241211 -200.228759765625 1.551886677742
-139.407485961914 -79.792243957520 -198.506607055664 2.587743043900
12.756495475769 -71.447563171387 -198.613388061523 1.075609922409
-134.256362915039 -75.964088439941 -197.673980712891 1.977158308029
5.750730991364 -72.032234191895 -205.627349853516 3.121728181839
-151.117523193359 -78.568145751953 -203.478790283203 1.949807047844
94.045082092285 -71.117263793945 -207.910598754883 1.430193543434
-16.326042175293 -76.509712219238 -207.053161621094 1.254899740219
-30.817193984985 -74.111061096191 -208.920333862305 0.579137086868
-11.613913536072 -71.653152465820 -206.648818969727 0.432424813509
-147.340118408203 -81.139732360840 -210.772216796875 0.871798574924
-35.794231414795 -75.195510864258 -205.326919555664 0.556258082390
-83.284942626953 -78.414825439453 -206.738662719727 4.986093997955
-27.183252334595 -75.958709716797 -210.089218139648 1.224661707878
15.768380165100 -73.634651184082 -213.464965820313 1.859927773476
-147.470993041992 -77.243209838867 -213.641586303711 1.662677049637
-90.418846130371 -77.577445983887 -217.317398071289 2.052487611771
-30.099376678467 -73.552993774414 -217.735382080078 1.556894421577
-27.171085357666 -73.867256164551 -220.649169921875 2.047647237778
-11.265840530396 -75.385025024414 -212.313247680664 2.720519542694
-27.852706909180 -74.071022033691 -210.933242797852 2.167140245438
-83.334556579590 -76.205902099609 -219.807342529297 1.925747871399
-88.763664245605 -79.818923950195 -219.181106567383 3.496199131012
-23.950345993042 -73.951019287109 -221.663879394531 1.915730237961
-2.501949071884 -78.497833251953 -224.936691284180 1.056172251701
-153.831222534180 -79.518051147461 -216.611907958984 4.200655460358
-2.929132938385 -75.146102905273 -221.572494506836 1.131242036819
85.725578308105 -73.580238342285 -228.355545043945 2.477005720139
-141.197174072266 -79.984359741211 -223.493988037109 2.516307830811
-6.907293796539 -74.574371337891 -223.613235473633 2.117702007294
-140.811325073242 -79.036987304688 -225.713165283203 1.111220002174
-147.457855224609 -85.341537475586 -225.650894165039 1.169431924820
-6.950272083282 -72.415046691895 -230.190261840820 2.100090742111
18.744058609009 -73.584106445313 -219.095825195313 2.875509738922
-140.489395141602 -76.423301696777 -228.915954589844 2.252622842789
-17.496332168579 -74.837348937988 -229.588409423828 2.128067731857
73.946548461914 -71.852981567383 -228.586486816406 1.338026285172
74.946037292480 -70.924903869629 -235.081192016602 2.343732833862
8.860582351685 -74.320678710938 -232.045852661133 1.314484596252
-31.744077682495 -75.437759399414 -237.698852539063 0.957943797112
-22.235857009888 -78.929756164551 -242.661941528320 1.578777074814
3.082751035690 -71.390991210938 -244.510482788086 1.755423784256
-48.173881530762 -71.440483093262 -243.506271362305 2.145858287811
-22.807703018188 -72.460021972656 -243.911544799805 2.387526035309
8.422224998474 -70.871299743652 -242.217926025391 0.307332515717
-64.183944702148 -75.153244018555 -245.980377197266 1.707579255104
-34.802715301514 -76.846397399902 -244.754257202148 2.083344936371
-41.303039550781 -72.645881652832 -246.030456542969 2.247223377228
-149.720687866211 -76.136703491211 -245.441055297852 1.498425483704
-46.585990905762 -76.412574768066 -248.617080688477 2.519512176514
-54.053237915039 -70.102226257324 -248.229125976563 3.049259662628
-67.121276855469 -74.824226379395 -250.090896606445 2.642195224762
-11.515801429749 -75.744506835938 -249.288528442383 0.926812827587
-80.803710937500 -75.752983093262 -254.370223999023 1.140351772308
-156.680374145508 -82.293212890625 -254.225814819336 2.669118642807
-142.073150634766 -76.732757568359 -254.377960205078 2.239397764206
-124.069862365723 -77.237762451172 -259.460815429688 2.558313608170
-157.608123779297 -74.166038513184 -259.923706054688 2.771824359894
18.909761428833 -76.081359863281 -266.832733154297 3.137833118439
-14.842096328735 -74.403945922852 -269.715637207031 1.037906289101
-154.219543457031 -79.140449523926 -272.447204589844 1.738419890404
-152.969482421875 -81.538993835449 -277.619567871094 2.659042835236
-146.385314941406 -79.228805541992 -284.730743408203 2.401592016220
-59.678344726563 -70.233963012695 -282.686950683594 2.457493066788
-40.059818267822 -69.718864440918 -286.573822021484 0.930016398430
-22.838554382324 -70.165618896484 -289.204132080078 1.891811609268
-12.028970718384 -69.783668518066 -283.144622802734 3.246869802475
-67.121490478516 -75.701568603516 -286.482604980469 2.244238853455
-81.494087219238 -76.369880676270 -286.797210693359 1.484327316284
-4.103958129883 -72.659950256348 -285.870391845703 0.961209774017
3.783538103104 -72.323326110840 -291.908386230469 1.596753835678
-139.518508911133 -74.848739624023 -287.299896240234 2.471956491470
-80.865882873535 -72.013557434082 -287.447418212891 1.600138783455
-148.584243774414 -75.529708862305 -287.387542724609 2.398734807968
-95.524108886719 -79.517959594727 -287.006530761719 5.056883811951
-79.916664123535 -73.538932800293 -287.468414306641 2.556461572647
-86.506202697754 -71.923408508301 -293.878479003906 3.058063745499
-63.150585174561 -72.955406188965 -291.784027099609 2.126241207123
-30.399423599243 -68.028617858887 -294.628509521484 4.689476966858
-7.940782070160 -71.250312805176 -292.372497558594 3.282949209213
-153.660675048828 -71.286064147949 -296.497528076172 1.277614235878
-151.518661499023 -74.411941528320 -299.743103027344 2.808285713196
-146.269378662109 -75.220458984375 -302.973510742188 2.258079528809
-158.146560668945 -75.616477966309 -305.088623046875 3.258407592773
-55.286994934082 -77.387252807617 -56.212520599365 2.995975494385
-45.424545288086 -78.326789855957 -53.756179809570 2.735469818115
-37.546760559082 -79.596931457520 -55.345378875732 4.886148929596
-74.997901916504 -81.604339599609 -61.380626678467 6.264320850372
-27.488521575928 -77.427093505859 -64.664527893066 2.760618209839
-31.645324707031 -77.749313354492 -80.435615539551 1.602472543716
76.264366149902 -77.341522216797 -84.094543457031 2.997114419937
76.596130371094 -75.581779479980 -82.707359313965 1.433784604073
74.780227661133 -73.604408264160 -85.956214904785 2.102196216583
99.615570068359 -71.475364685059 -92.495277404785 2.323046684265
71.596443176270 -76.420707702637 -91.571052551270 2.129192829132
51.455265045166 -76.905097961426 -92.505340576172 3.163074970245
51.282028198242 -79.115196228027 -102.569427490234 1.513292312622
-65.861984252930 -77.694915771484 -101.592109680176 2.121680021286
-72.313903808594 -73.444442749023 -102.311035156250 0.448151737452
45.980571746826 -76.111328125000 -105.108215332031 1.304086923599
-81.138664245605 -83.113273620605 -109.854652404785 3.216936111450
-92.321823120117 -77.397834777832 -111.402755737305 2.675850868225
51.968879699707 -74.495521545410 -109.210327148438 3.059899806976
108.250373840332 -71.860092163086 -115.950942993164 1.162532806396
33.559757232666 -76.603042602539 -124.950302124023 0.626428425312
44.765792846680 -75.668098449707 -120.585769653320 1.196319222450
41.796760559082 -74.206748962402 -125.927734375000 2.726748228073
30.633995056152 -76.169189453125 -125.184059143066 2.805863142014
109.787940979004 -72.536613464355 -122.783081054688 1.718904972076
40.017108917236 -76.264976501465 -132.038894653320 1.532460093498
33.274120330811 -71.660362243652 -133.244903564453 2.114059925079
-45.012573242188 -76.006454467773 -143.760055541992 1.108263134956
-70.536010742188 -79.199783325195 -144.822189331055 3.476872444153
-53.317283630371 -75.536613464355 -147.503250122070 1.702590703964
-72.492851257324 -79.989212036133 -146.486465454102 3.624684333801
-39.439342498779 -75.430618286133 -148.211471557617 2.939166784286
107.493896484375 -71.193504333496 -156.506851196289 3.270774841309
-71.414512634277 -78.524589538574 -156.245498657227 2.704706907272
24.222522735596 -77.328765869141 -149.330444335938 2.538714885712
30.876007080078 -76.053817749023 -152.785217285156 0.928539514542
112.905097961426 -73.455703735352 -163.781616210938 1.711745858192
9.658581733704 -76.260452270508 -160.708755493164 1.965696096420
32.666732788086 -72.212020874023 -157.017990112305 1.415059447289
-63.579288482666 -77.905517578125 -159.696182250977 1.473774075508
-41.613761901855 -77.118293762207 -172.295211791992 1.852521538734
20.528900146484 -73.314643859863 -164.749588012695 0.616883277893
-64.413597106934 -75.689079284668 -160.079284667969 0.756971359253
-69.097702026367 -76.930526733398 -165.823501586914 3.384918451309
111.568527221680 -72.549743652344 -168.710021972656 1.199625730515
-7.687316894531 -75.526496887207 -167.754943847656 2.445060014725
-63.923458099365 -75.550781250000 -174.280563354492 1.277909517288
-31.942417144775 -76.704551696777 -169.371337890625 1.743925809860
-54.807163238525 -74.922668457031 -173.175384521484 1.664697408676
29.429708480835 -73.115203857422 -174.157546997070 2.563748359680
110.731315612793 -69.261985778809 -175.324829101563 1.910481572151
102.308242797852 -70.150245666504 -185.916000366211 2.093373775482
105.584526062012 -70.627204895020 -191.761825561523 2.458028793335
106.814994812012 -69.226409912109 -179.417633056641 2.376397371292
-52.455505371094 -74.628425598145 -190.825820922852 1.455241799355
-49.484191894531 -72.994781494141 -183.432891845703 2.603630781174
26.541452407837 -73.579574584961 -184.901260375977 2.446034431458
-48.999366760254 -74.049354553223 -187.567581176758 1.924930930138
-20.558248519897 -75.182914733887 -185.214614868164 1.377855181694
-51.058967590332 -77.236419677734 -192.163543701172 1.276307106018
-151.363082885742 -77.909545898438 -192.278045654297 1.969984531403
101.061393737793 -71.960777282715 -195.323715209961 1.786781907082
-45.016895294189 -72.850021362305 -194.513473510742 2.639506101608
-14.678954124451 -75.506042480469 -199.457244873047 2.159874439240
-140.266174316406 -78.368186950684 -194.036483764648 1.159896850586
-43.563819885254 -72.898452758789 -198.293350219727 2.905189514160
101.691329956055 -69.894409179688 -199.456726074219 2.895556688309
106.707992553711 -69.268127441406 -188.081741333008 1.589586377144
-44.733943939209 -74.896064758301 -197.037872314453 1.842560768127
-23.319910049438 -79.378784179688 -199.028015136719 3.184159517288
-148.115386962891 -82.181541442871 -199.384796142578 1.085542201996
-25.331449508667 -74.887275695801 -197.748886108398 1.636432409286
-157.664901733398 -79.443939208984 -197.252838134766 4.612450599670
-152.934341430664 -83.697158813477 -203.551681518555 2.432605743408
-143.478744506836 -79.945922851563 -201.369064331055 1.293554186821
-38.761665344238 -75.300056457520 -200.552337646484 1.536521911621
100.774780273438 -70.979568481445 -204.074935913086 1.260417819023
-41.400234222412 -73.062675476074 -200.331695556641 2.293541669846
-143.537200927734 -81.283592224121 -204.505249023438 1.839653372765
-38.365329742432 -71.517227172852 -206.371154785156 1.672337412834
-21.118614196777 -77.829055786133 -210.943618774414 3.093854665756
96.591377258301 -72.051261901855 -207.585906982422 1.818177819252
90.735504150391 -71.244590759277 -215.543853759766 2.154325723648
-35.056434631348 -72.739791870117 -217.840988159180 3.752029418945
-87.925460815430 -76.966835021973 -211.129699707031 2.488029479980
-76.168807983398 -76.166923522949 -211.983871459961 1.722481966019
-19.218465805054 -73.894485473633 -214.690216064453 2.585672855377
-150.199310302734 -79.053642272949 -205.278244018555 2.047555923462
89.596145629883 -70.358627319336 -215.699920654297 2.181428670883
88.207046508789 -68.525566101074 -220.381851196289 2.419074296951
89.498649597168 -70.170646667480 -222.318176269531 3.017327308655
-102.886894226074 -76.169868469238 -220.174331665039 3.222177743912
-153.578155517578 -80.154556274414 -221.419250488281 3.691843032837
-20.727266311646 -72.381408691406 -223.516296386719 2.222269296646
79.068702697754 -68.062278747559 -228.071228027344 1.810218334198
-150.162063598633 -80.909393310547 -223.463821411133 2.277378082275
-28.632251739502 -74.988632202148 -219.833633422852 3.235556364059
-134.280349731445 -75.465080261230 -230.830581665039 1.052317857742
-12.555315971375 -75.345314025879 -231.072341918945 1.408065438271
16.696966171265 -71.637878417969 -227.386444091797 2.602358341217
18.849748611450 -72.868576049805 -234.128677368164 2.062467098236
-155.502975463867 -80.538261413574 -233.661087036133 3.770221471786
-126.764022827148 -73.537559509277 -232.340805053711 2.105758905411
-9.112065315247 -72.124076843262 -236.253479003906 2.305072069168
-0.867780983448 -71.802421569824 -238.356262207031 2.413419246674
68.297676086426 -70.148193359375 -234.879486083984 0.786915719509
69.609565734863 -67.653762817383 -239.884536743164 1.850976347923
-1.382369041443 -71.053718566895 -241.373092651367 1.801787972450
15.329094886780 -68.590126037598 -240.957305908203 2.448614835739
-31.317842483521 -67.717285156250 -241.228347778320 7.563598632813
-34.490230560303 -78.860145568848 -242.392639160156 0.866372466087
-47.815120697021 -73.313392639160 -239.286865234375 0.676461637020
-40.284984588623 -71.686393737793 -241.580047607422 2.762099742889
-18.417026519775 -74.029830932617 -243.713333129883 1.535567522049
-53.482234954834 -72.285758972168 -244.328369140625 1.784196853638
0.830721974373 -72.401245117188 -246.273468017578 0.405938625336
-69.163185119629 -74.993904113770 -244.531341552734 2.120971202850
19.643693923950 -72.232566833496 -248.521881103516 2.280557394028
-145.030715942383 -78.893814086914 -244.597167968750 3.005145788193
-73.694473266602 -76.511070251465 -252.026275634766 1.367232680321
14.261054039001 -73.081199645996 -250.543594360352 3.927564859390
-162.405212402344 -76.104255676270 -248.665649414063 2.057832002640
14.012386322021 -74.637062072754 -254.197158813477 5.328185558319
-81.182540893555 -70.805503845215 -250.860305786133 2.174002647400
-76.264656066895 -74.953796386719 -251.125030517578 1.078394055367
18.476991653442 -72.650581359863 -256.454040527344 4.043879985809
-90.325027465820 -74.081207275391 -252.304168701172 1.514635086060
-126.916427612305 -73.342819213867 -254.733078002930 1.780799031258
-134.678268432617 -78.137596130371 -259.171569824219 1.429396986961
-136.130691528320 -78.365257263184 -254.395553588867 1.749261856079
-148.300689697266 -76.930946350098 -260.348205566406 1.527666211128
-145.556365966797 -74.134384155273 -254.495117187500 2.092551946640
-136.131896972656 -74.353355407715 -261.271453857422 1.968160271645
-162.971954345703 -74.277503967285 -259.956207275391 1.322855830193
-128.368011474609 -74.638206481934 -265.818023681641 3.035356521606
-136.706832885742 -72.486061096191 -262.059631347656 2.346698522568
-165.097839355469 -74.165748596191 -266.542572021484 2.411203145981
-158.072250366211 -74.200492858887 -263.386901855469 2.053027153015
-150.681411743164 -74.658332824707 -264.878601074219 1.978317379951
-149.325607299805 -76.503578186035 -265.060943603516 2.636729717255
15.223394393921 -73.046936035156 -279.934600830078 3.462185144424
-167.439788818359 -76.471618652344 -266.271545410156 2.420175075531
-153.286148071289 -76.746742248535 -272.837615966797 2.917977333069
-7.004209041595 -78.248138427734 -274.304687500000 2.413676500320
-158.728958129883 -74.252540588379 -271.803588867188 2.958289861679
10.704649925232 -74.193763732910 -283.304382324219 1.947588562965
-153.816726684570 -75.352737426758 -281.185974121094 2.668926000595
-166.088424682617 -76.726913452148 -286.972106933594 2.765612125397
-156.333663940430 -77.568862915039 -279.644531250000 4.757530212402
-166.764266967773 -74.406112670898 -286.892547607422 2.184082031250
-0.245077997446 -73.212669372559 -288.634216308594 1.619729638100
5.842596054077 -74.902244567871 -284.337158203125 2.027755022049
-103.739112854004 -72.409576416016 -290.720214843750 1.026909708977
-155.433639526367 -79.551002502441 -287.124328613281 2.330882310867
-149.945205688477 -73.700599670410 -285.261566162109 1.618685841560
-109.033782958984 -73.051620483398 -290.508453369141 1.811061382294
-153.834823608398 -77.364631652832 -291.260955810547 2.726100206375
-150.028289794922 -78.012664794922 -288.820343017578 1.029147624969
-73.791687011719 -75.112152099609 -292.847259521484 4.270710468292
-167.374572753906 -77.492668151855 -288.697998046875 4.232553005219
-124.896820068359 -71.851692199707 -291.018615722656 1.617027521133
-44.752201080322 -75.371536254883 -288.598754882813 1.862128973007
-155.026916503906 -75.255661010742 -287.806854248047 2.344992399216
-134.996871948242 -70.731590270996 -292.913543701172 1.112279176712
-20.453208923340 -69.285415649414 -294.653259277344 5.120801925659
-129.813110351563 -72.047149658203 -292.961517333984 2.986051321030
4.069424152374 -71.285102844238 -295.553558349609 2.183749437332
13.531923294067 -68.318473815918 -293.786529541016 3.219247341156
-135.352996826172 -72.239700317383 -291.249511718750 1.456151008606
-147.390823364258 -76.228340148926 -296.613677978516 0.870143234730
-158.093124389648 -76.717437744141 -313.192291259766 4.753077507019
-70.596084594727 -75.289794921875 -52.723129272461 2.953532695770
-20.949657440186 -72.766967773438 -64.766624450684 2.469000339508
-18.768476486206 -79.143516540527 -66.197257995605 3.827038049698
73.759254455566 -72.246223449707 -79.106292724609 2.257271289825
92.218765258789 -73.286071777344 -78.085289001465 2.645725011826
-35.785316467285 -77.017608642578 -79.842987060547 1.017513155937
76.436874389648 -73.397850036621 -81.648231506348 1.953316926956
90.723937988281 -76.635955810547 -84.654251098633 1.359376072884
69.061813354492 -73.979232788086 -85.576995849609 1.196309566498
73.698097229004 -73.013343811035 -90.883636474609 2.112380504608
-48.603630065918 -78.902740478516 -87.081336975098 1.749062180519
-90.635498046875 -80.841026306152 -88.702056884766 5.239853382111
59.751266479492 -75.877532958984 -95.866874694824 3.012442588806
51.051647186279 -75.559524536133 -100.918479919434 1.949266195297
94.567825317383 -70.456962585449 -101.515098571777 1.277490854263
-91.387397766113 -74.601760864258 -101.896247863770 4.278560638428
82.713539123535 -70.160964965820 -101.370391845703 1.328964948654
73.975044250488 -73.763107299805 -102.203002929688 2.923477172852
92.624649047852 -74.462074279785 -100.724662780762 1.458230495453
84.091484069824 -72.776748657227 -100.273582458496 2.281689643860
83.974243164063 -75.683174133301 -100.905128479004 3.067215681076
-84.381835937500 -79.829750061035 -102.819900512695 2.713724851608
43.235584259033 -72.833709716797 -108.564529418945 1.604416489601
106.202819824219 -72.916534423828 -113.359031677246 1.965619683266
108.810676574707 -72.455535888672 -113.393096923828 1.695816397667
48.836059570313 -75.891059875488 -120.722755432129 3.251851797104
111.792831420898 -73.723548889160 -123.792892456055 1.975440025330
117.103324890137 -73.590278625488 -137.723175048828 2.396411418915
-50.987518310547 -74.368179321289 -131.977630615234 1.966580510139
27.763126373291 -73.373153686523 -136.158782958984 1.232032656670
41.114540100098 -75.783081054688 -135.465820312500 3.672892808914
25.334800720215 -71.154441833496 -144.323135375977 2.213042497635
113.377502441406 -73.522399902344 -141.160736083984 0.884043157101
112.215759277344 -72.012504577637 -134.526885986328 1.438339233398
-73.334312438965 -76.412040710449 -148.775039672852 1.189526796341
-43.637725830078 -75.069343566895 -143.720001220703 1.490543603897
-71.052368164063 -74.530303955078 -151.832809448242 1.377311110497
19.874044418335 -72.259162902832 -151.247375488281 3.037219047546
112.643997192383 -68.817512512207 -152.123565673828 1.589393019676
-53.376300811768 -76.850791931152 -151.734939575195 3.006329059601
-71.064376831055 -74.992370605469 -151.551391601563 1.654134631157
-38.630195617676 -78.215042114258 -153.485931396484 1.676444768906
32.376739501953 -68.577255249023 -154.861434936523 2.238332748413
110.083702087402 -68.084236145020 -153.857406616211 2.507533550262
115.360534667969 -69.361938476563 -163.353118896484 2.853556871414
-68.162162780762 -73.133224487305 -155.599975585938 0.587815165520
-72.519523620605 -77.479118347168 -161.746124267578 2.996963977814
21.856853485107 -76.205284118652 -165.043930053711 2.491593837738
-60.150886535645 -73.414077758789 -167.501251220703 0.767786324024
-32.785793304443 -73.404586791992 -163.467926025391 1.110518097878
7.928343772888 -74.549362182617 -164.963455200195 1.991270899773
108.699462890625 -68.631843566895 -164.382522583008 1.231714367867
7.905482769012 -75.996543884277 -168.521865844727 4.072409629822
-32.813045501709 -74.905860900879 -166.697647094727 2.111497402191
-2.048177003860 -69.944442749023 -167.047637939453 3.377573251724
107.437515258789 -67.554130554199 -170.746353149414 2.515954732895
-41.452644348145 -72.451797485352 -166.448333740234 1.056533336639
29.018339157104 -69.953628540039 -173.891387939453 1.459696054459
112.945510864258 -72.732902526855 -175.307266235352 1.664533495903
-57.442394256592 -72.240303039551 -176.868469238281 0.877548456192
-28.234310150146 -76.481147766113 -175.789916992188 1.793138623238
102.824684143066 -70.286521911621 -176.818817138672 2.502703189850
28.999738693237 -70.844337463379 -171.413421630859 1.461168527603
107.486503601074 -71.722824096680 -177.968429565430 1.757944822311
-37.145740509033 -71.372421264648 -179.067657470703 2.614681959152
108.202308654785 -72.201774597168 -183.512191772461 0.675180792809
-62.084865570068 -72.817840576172 -178.240646362305 3.655990123749
-25.569797515869 -77.502532958984 -180.066360473633 1.260714888573
-146.713989257813 -73.009780883789 -183.156951904297 3.011357545853
-54.352832794189 -73.874443054199 -181.481689453125 2.157828330994
-147.303009033203 -77.668807983398 -185.958587646484 1.144996523857
-34.365581512451 -72.051544189453 -185.996688842773 0.862691342831
26.773805618286 -75.706535339355 -183.600585937500 0.426520168781
106.224769592285 -70.353942871094 -186.048812866211 1.865988850594
-34.238815307617 -74.191833496094 -184.912597656250 0.487290292978
10.691027641296 -73.034133911133 -192.367187500000 2.241868972778
16.816591262817 -71.498153686523 -205.174865722656 2.133432865143
-148.377899169922 -77.819381713867 -189.424148559570 0.673022866249
104.704750061035 -71.418823242188 -198.324920654297 1.086851358414
-21.727254867554 -71.118446350098 -194.295211791992 1.982766151428
101.048171997070 -70.630187988281 -190.957107543945 2.635257959366
12.520762443542 -70.175819396973 -190.977935791016 2.156866312027
-137.311798095703 -76.159385681152 -203.495559692383 0.814785063267
-139.166870117188 -76.342117309570 -199.656433105469 0.547509908676
99.867988586426 -71.832252502441 -204.063888549805 1.070234656334
-12.208187103271 -76.356086730957 -201.800155639648 1.070273280144
-16.767122268677 -73.761611938477 -204.219619750977 3.052198410034
10.108898162842 -73.837799072266 -208.966918945313 1.240275025368
-150.480895996094 -75.220848083496 -205.499053955078 1.635390877724
-146.646575927734 -77.900123596191 -207.789245605469 2.278765916824
99.452064514160 -65.368759155273 -207.165054321289 5.520317554474
-82.668632507324 -74.262023925781 -208.600204467773 2.682171106339
-36.434215545654 -74.078346252441 -202.662551879883 3.156784534454
18.314386367798 -74.002876281738 -215.059494018555 2.141499996185
-25.710617065430 -73.363594055176 -212.252471923828 2.503954887390
-77.045143127441 -72.958023071289 -208.330520629883 1.482656717300
90.442909240723 -69.491607666016 -212.235946655273 0.518646359444
-81.004066467285 -72.228904724121 -212.766693115234 2.185436010361
-147.903488159180 -76.677070617676 -218.299011230469 1.332777380943
-80.527893066406 -73.247016906738 -213.676193237305 1.294497966766
-13.891674995422 -68.146453857422 -211.018188476563 1.354851841927
-21.354467391968 -70.172927856445 -220.008789062500 2.860934972763
17.927148818970 -71.415374755859 -214.933120727539 2.062991142273
-6.082188129425 -73.397659301758 -220.906448364258 2.827046632767
-88.763214111328 -77.608528137207 -219.289581298828 2.573857784271
91.989738464355 -68.523414611816 -216.149337768555 3.143139362335
-98.961555480957 -74.014297485352 -215.872009277344 2.187597513199
-152.882034301758 -75.566429138184 -223.658340454102 2.789458751678
-25.892581939697 -71.538124084473 -224.744430541992 0.822996973991
17.175434112549 -71.918663024902 -217.679550170898 2.153673648834
-102.622085571289 -75.013938903809 -220.196899414063 2.142658233643
6.676156044006 -68.734077453613 -220.277908325195 2.160086154938
-26.243152618408 -72.816535949707 -216.718231201172 1.840311050415
82.081657409668 -67.679046630859 -226.580368041992 3.159369468689
-145.901367187500 -75.502815246582 -218.820831298828 2.592115163803
9.567241668701 -70.083702087402 -227.283020019531 0.980017721653
-10.109185218811 -74.843132019043 -227.082778930664 1.620023727417
16.643907546997 -65.621009826660 -223.966186523438 4.291139125824
82.935066223145 -70.069946289063 -224.741806030273 0.540704131126
-14.280836105347 -74.157569885254 -229.832992553711 0.752354204655
-131.189254760742 -76.632240295410 -226.428894042969 1.105372428894
-14.534458160400 -72.290985107422 -225.710296630859 2.102568149567
15.964438438416 -71.402809143066 -232.747222900391 1.290238738060
-127.335937500000 -77.377319335938 -227.181854248047 2.691079616547
-152.396697998047 -73.024726867676 -229.070571899414 2.668640136719
-143.123092651367 -74.801651000977 -228.577453613281 1.761572003365
-131.638717651367 -73.685188293457 -227.690811157227 0.378176987171
-13.915184020996 -70.092277526855 -226.419128417969 2.109302997589
71.047279357910 -69.077789306641 -230.454666137695 1.658152699471
-144.189788818359 -72.232643127441 -235.878097534180 1.056556105614
70.020408630371 -70.476760864258 -231.054656982422 1.272608995438
-21.127147674561 -75.229660034180 -230.882232666016 3.363735914230
-142.878036499023 -78.915252685547 -229.121780395508 2.305218458176
76.657806396484 -73.839233398438 -231.327285766602 1.046055078506
8.981663703918 -74.799430847168 -235.090591430664 2.560568332672
-142.278488159180 -79.575431823730 -235.091827392578 2.184075117111
-150.859039306641 -74.897079467773 -233.466186523438 2.293137788773
15.938594818115 -67.821296691895 -232.987960815430 2.129001855850
-3.519140958786 -73.629409790039 -239.112197875977 2.432003736496
-28.580244064331 -71.547447204590 -238.247970581055 2.969609260559
-2.648596048355 -67.473663330078 -238.877182006836 1.880490064621
-161.546997070313 -78.002159118652 -237.246932983398 4.710044860840
6.939537048340 -69.760925292969 -244.998443603516 2.743445158005
-165.540390014648 -76.585411071777 -238.200683593750 3.192169189453
-13.657132148743 -72.732231140137 -238.953659057617 0.683211863041
60.607593536377 -70.117088317871 -241.353942871094 1.083374142647
-14.010714530945 -70.708641052246 -239.328002929688 1.588715553284
-25.890731811523 -71.002281188965 -245.441696166992 4.256715297699
-25.969490051270 -71.337501525879 -242.849227905273 2.403647899628
-13.722106933594 -73.642822265625 -242.165039062500 2.338859319687
-147.058654785156 -76.046623229980 -230.671798706055 2.130494117737
7.098080158234 -70.161529541016 -243.797607421875 1.838007330894
63.221805572510 -68.652374267578 -245.828170776367 2.755939245224
13.634669303894 -68.485527038574 -246.640487670898 3.451155900955
-166.904678344727 -74.406394958496 -240.955993652344 0.724858880043
-51.444164276123 -71.562805175781 -241.558456420898 2.738469123840
3.111900091171 -77.359985351563 -249.743850708008 3.065011262894
16.004402160645 -70.535270690918 -245.835510253906 1.772463917732
-55.233104705811 -71.773773193359 -247.926406860352 1.134672045708
-3.986102104187 -67.152366638184 -249.535552978516 3.972097158432
20.029571533203 -74.940093994141 -249.706451416016 2.858410120010
-170.160018920898 -74.053367614746 -248.108444213867 4.037086009979
-68.486251831055 -75.942985534668 -248.828399658203 1.538716077805
-52.613128662109 -71.252502441406 -248.155303955078 3.710823297501
-82.181365966797 -72.175155639648 -251.737472534180 2.038516759872
-161.939346313477 -76.440773010254 -246.477081298828 2.896497964859
-151.918975830078 -69.509292602539 -249.015563964844 1.270895719528
-61.087085723877 -74.242034912109 -250.393981933594 1.910139441490
-69.801872253418 -72.588012695313 -250.535171508789 2.422604322433
-154.711044311523 -73.294990539551 -252.244689941406 1.939231872559
-153.032714843750 -75.826103210449 -251.933944702148 2.739043951035
-77.041770935059 -69.781082153320 -254.837570190430 2.872928142548
-94.604415893555 -70.903762817383 -255.485855102539 1.946010231972
-165.551239013672 -70.999649047852 -251.601119995117 1.057790517807
-157.946273803711 -75.194801330566 -259.302215576172 3.246787309647
-135.881622314453 -75.804000854492 -258.136596679688 1.489632844925
-84.190155029297 -73.046455383301 -251.800704956055 0.961399912834
-163.287689208984 -72.629875183105 -252.386917114258 1.335617780685
-142.999694824219 -72.901939392090 -256.598144531250 1.564468860626
-86.399932861328 -72.268554687500 -251.666793823242 2.218267917633
-97.930015563965 -71.039482116699 -260.589294433594 2.100326538086
-146.127563476563 -75.558418273926 -255.735443115234 3.795943260193
-94.613800048828 -72.882530212402 -256.444091796875 1.306727051735
-153.727081298828 -73.389297485352 -255.625411987305 1.248128294945
-103.440330505371 -72.986427307129 -255.816146850586 1.985614895821
-169.815658569336 -74.631889343262 -258.293060302734 4.479400634766
-162.623214721680 -76.321929931641 -262.994171142578 1.681464433670
-127.441543579102 -76.859657287598 -256.619537353516 1.976990103722
-152.813659667969 -74.911064147949 -259.106445312500 2.581378221512
-113.111885070801 -70.902404785156 -262.013458251953 2.265788793564
-15.603739738464 -69.557464599609 -263.158264160156 1.975376009941
-142.751205444336 -74.154983520508 -260.805053710938 1.871452927589
-127.021255493164 -73.355659484863 -260.086029052734 2.516540765762
-155.401458740234 -73.219375610352 -262.279083251953 2.303163290024
22.238368988037 -70.226272583008 -272.565948486328 2.406120300293
-149.967620849609 -76.326332092285 -278.419738769531 1.547274589539
-169.782180786133 -74.977775573730 -279.609588623047 3.221419811249
-9.624136924744 -70.232810974121 -280.814605712891 1.466614723206
-147.254882812500 -73.945640563965 -280.260101318359 1.975942015648
-11.061000823975 -68.657951354980 -284.502380371094 3.381825447083
11.312971115112 -69.717918395996 -287.721618652344 2.175380945206
-138.146789550781 -72.174591064453 -285.808166503906 1.596464514732
-69.738815307617 -73.325775146484 -287.660095214844 2.778304100037
-34.783603668213 -72.807022094727 -289.194091796875 2.365009307861
-114.339637756348 -72.825607299805 -284.560882568359 0.953238189220
-96.728271484375 -75.824317932129 -290.681823730469 1.638373613358
-91.152236938477 -72.367446899414 -291.843841552734 1.371987938881
-51.335865020752 -72.270622253418 -292.817626953125 2.110724210739
-117.329216003418 -76.849838256836 -288.807250976563 0.879260957241
-115.190155029297 -73.978187561035 -290.448547363281 1.956636548042
-34.680126190186 -68.268806457520 -290.236572265625 2.602420568466
-116.861045837402 -73.233261108398 -293.160583496094 1.047239065170
-128.702743530273 -69.247581481934 -290.117279052734 2.254017829895
-145.885604858398 -75.511001586914 -293.418029785156 0.971412777901
5.563673019409 -69.184219360352 -293.081665039063 1.586552619934
15.075759887695 -70.783142089844 -295.033721923828 3.476202726364
-161.430709838867 -74.022247314453 -292.444885253906 2.333342313766
-159.831054687500 -77.297073364258 -300.384094238281 5.104146003723
-148.688156127930 -74.554618835449 -310.278900146484 3.049677133560
-153.756744384766 -72.231300354004 -310.513214111328 1.535586118698
-154.301498413086 -74.834861755371 -313.283843994141 2.668184518814
31.100526809692 -78.555656433105 -16.909532546997 3.873270273209
32.853660583496 -73.741210937500 -20.173530578613 2.266719102859
23.482604980469 -75.869407653809 -26.115148544312 2.567641973495
30.729696273804 -73.026527404785 -41.133266448975 1.238008499146
-56.397998809814 -76.281745910645 -50.593799591064 3.813102245331
-63.482177734375 -76.976547241211 -50.956310272217 2.840426921844
-37.042736053467 -79.444290161133 -51.476192474365 5.973958492279
-82.960693359375 -73.941780090332 -63.404602050781 2.587672710419
82.656143188477 -75.683464050293 -76.824920654297 2.540731906891
-14.056476593018 -73.795394897461 -72.400054931641 2.910155773163
90.597434997559 -73.734497070313 -69.062980651855 1.596723556519
100.657089233398 -72.050590515137 -79.752662658691 2.759602069855
-91.234550476074 -75.745330810547 -76.755508422852 4.109873294830
68.920715332031 -73.024803161621 -82.824562072754 1.615268468857
-39.687389373779 -79.656509399414 -86.797485351563 1.706901907921
102.129638671875 -71.205162048340 -84.868476867676 2.754272699356
-54.436969757080 -75.008880615234 -89.512313842773 1.943349003792
52.197925567627 -73.720146179199 -92.777183532715 1.967561125755
72.231384277344 -77.866119384766 -93.328521728516 3.485939025879
56.543914794922 -72.289161682129 -98.541801452637 1.726648807526
53.914916992188 -74.810333251953 -100.838050842285 2.859328508377
75.576232910156 -75.641296386719 -98.237213134766 1.401412367821
47.439495086670 -72.921829223633 -107.365791320801 2.900633573532
101.431999206543 -72.406951904297 -103.605133056641 1.922375798225
106.930397033691 -75.327285766602 -109.404495239258 1.956189274788
80.880889892578 -69.620056152344 -105.928565979004 1.328391909599
92.812377929688 -73.157585144043 -106.196121215820 1.633950948715
101.943275451660 -72.132736206055 -97.964241027832 1.073695778847
110.478996276855 -72.012634277344 -106.644660949707 2.444297313690
40.527023315430 -73.330963134766 -108.194923400879 1.411265969276
113.213394165039 -68.455139160156 -121.515357971191 1.039251208305
114.572830200195 -72.256568908691 -121.862152099609 1.568885087967
32.012348175049 -71.725563049316 -125.450431823730 2.182140827179
45.563983917236 -74.096679687500 -121.021270751953 2.202821016312
115.894599914551 -71.090385437012 -133.168243408203 1.710234045982
36.916790008545 -72.495506286621 -128.650024414063 2.948898792267
115.812019348145 -74.227119445801 -130.778213500977 1.079671621323
109.508018493652 -72.009941101074 -125.347808837891 1.254936099052
27.041238784790 -73.773986816406 -137.464797973633 0.739861786366
-47.290679931641 -75.456176757813 -135.099212646484 2.654567480087
-51.523975372314 -73.571487426758 -136.013229370117 1.293468594551
111.908042907715 -70.051078796387 -137.870788574219 1.809758782387
-68.521469116211 -79.096298217773 -141.305480957031 4.307367324829
-72.205322265625 -76.279098510742 -141.059143066406 1.768505811691
-58.344444274902 -75.748420715332 -142.064804077148 1.872784733772
32.445163726807 -72.657615661621 -145.558319091797 2.149373531342
116.695434570313 -71.999702453613 -148.900146484375 1.219899058342
-68.968330383301 -72.289604187012 -147.763488769531 2.207857131958
-47.414806365967 -74.598281860352 -143.570175170898 1.536680698395
33.857910156250 -73.025321960449 -153.193466186523 2.818830490112
-67.558639526367 -76.427940368652 -148.602783203125 0.761331617832
114.507133483887 -69.488945007324 -144.210037231445 1.118055820465
112.151756286621 -68.321388244629 -160.392471313477 1.728575944901
116.750808715820 -71.207855224609 -155.926315307617 0.889937877655
-37.852352142334 -76.791061401367 -154.219253540039 1.564939379692
-64.387130737305 -74.850723266602 -165.100204467773 2.250317335129
-68.836921691895 -72.058448791504 -157.816650390625 1.791290879250
30.714021682739 -73.674781799316 -148.311782836914 2.316904067993
-1.681861996651 -75.032966613770 -163.642623901367 0.870820999146
109.457542419434 -69.655662536621 -164.446853637695 0.360748767853
112.189094543457 -68.543006896973 -155.854660034180 1.137692570686
112.679100036621 -72.253395080566 -161.316741943359 1.461032986641
-63.399406433105 -72.223236083984 -160.784133911133 1.405714154243
-44.940216064453 -76.129135131836 -166.268203735352 1.595887422562
-2.009804964066 -72.272499084473 -166.532546997070 2.304986000061
-29.014204025269 -73.727981567383 -176.081710815430 3.283779621124
106.216621398926 -69.144500732422 -170.001586914063 1.914924383163
-33.864440917969 -76.977302551270 -161.244735717773 2.363122701645
109.625160217285 -68.365821838379 -171.155029296875 2.352062463760
-41.504787445068 -74.422958374023 -174.658554077148 1.098738551140
108.839584350586 -67.755180358887 -171.398696899414 2.756308794022
-151.228485107422 -77.703231811523 -179.753234863281 4.072664260864
-26.821159362793 -69.719490051270 -177.870208740234 1.816013813019
-20.171695709229 -73.103660583496 -184.610534667969 2.239399671555
25.158376693726 -74.921028137207 -179.001068115234 2.215773105621
15.166399002075 -71.702758789063 -184.830917358398 1.559162497520
27.764049530029 -72.080841064453 -184.885986328125 0.992434442043
104.448928833008 -73.310111999512 -186.565155029297 1.377684712410
-151.732833862305 -73.795867919922 -184.487045288086 2.353757858276
-19.550767898560 -75.164382934570 -186.166503906250 1.164755821228
102.357345581055 -70.613113403320 -181.335327148438 2.643181324005
103.089317321777 -66.351448059082 -192.332458496094 4.916971683502
108.370941162109 -70.711936950684 -180.622238159180 2.141476869583
99.052902221680 -71.092163085938 -196.452682495117 0.717950284481
-151.305358886719 -76.738891601563 -196.209365844727 1.875521779060
99.828872680664 -69.866203308105 -208.192596435547 3.817718505859
-28.352870941162 -70.725685119629 -198.250671386719 3.031808376312
97.434883117676 -69.148803710938 -198.424194335938 2.560578107834
-121.367103576660 -78.378433227539 -200.217895507813 4.099149703979
-29.615327835083 -77.452468872070 -191.364669799805 2.809657573700
-142.081832885742 -71.952613830566 -197.978637695313 2.433269500732
95.201515197754 -69.488449096680 -201.233993530273 1.273126959801
8.549162864685 -72.488639831543 -200.669006347656 2.068825721741
23.797908782959 -70.246307373047 -194.302383422852 1.303647756577
-148.195739746094 -76.313812255859 -202.630187988281 2.183228731155
-139.068908691406 -74.928321838379 -201.853103637695 1.321129560471
-10.275902748108 -71.660865783691 -208.049224853516 1.865835666656
-124.527359008789 -75.038032531738 -203.747299194336 2.643300533295
-143.904052734375 -78.223541259766 -199.532791137695 1.156560659409
3.826812028885 -72.121047973633 -201.109970092773 4.859437465668
-24.321565628052 -74.716659545898 -202.323410034180 1.603778004646
20.578870773315 -74.082305908203 -204.092849731445 2.240160942078
6.368832111359 -72.729034423828 -213.395538330078 1.747515559196
85.081909179688 -66.966278076172 -210.979843139648 4.774194717407
-18.763256072998 -69.622207641602 -213.099319458008 2.757212638855
90.968719482422 -67.047439575195 -211.457412719727 2.562524080276
96.838783264160 -70.898933410645 -209.678634643555 1.903345465660
-149.207839965820 -76.579025268555 -214.260650634766 2.265106439590
95.209800720215 -70.669525146484 -214.219528198242 2.046312808990
4.729712963104 -70.711174011230 -208.796783447266 3.305209398270
3.305577039719 -73.544853210449 -215.962692260742 2.968203544617
-33.207561492920 -72.261383056641 -208.032943725586 1.572671771049
-89.729644775391 -73.412368774414 -213.503204345703 1.339741468430
-26.473672866821 -73.739883422852 -212.022994995117 2.175451517105
84.701637268066 -68.390129089355 -219.344757080078 1.103557586670
88.852836608887 -68.103103637695 -219.500625610352 1.360996842384
-32.165748596191 -71.685043334961 -213.283264160156 2.790596246719
-84.842414855957 -70.778175354004 -218.772811889648 2.688310384750
-1.392737984657 -73.423683166504 -220.190032958984 2.199215650558
81.582458496094 -65.875595092773 -215.492309570313 3.988422155380
-152.208282470703 -79.096702575684 -221.651901245117 3.771090507507
-166.138504028320 -74.429466247559 -213.805923461914 2.759206295013
-162.302474975586 -78.079177856445 -221.909225463867 5.769772052765
-21.879938125610 -72.639892578125 -228.072448730469 2.658053398132
-154.216995239258 -78.271675109863 -222.509536743164 2.495491504669
-6.177482128143 -72.533035278320 -225.866790771484 2.348641157150
6.190340042114 -72.249404907227 -219.929672241211 2.351752042770
-167.594085693359 -75.555740356445 -225.081481933594 2.895098447800
-159.256439208984 -75.762611389160 -227.033355712891 2.801090002060
78.759887695313 -71.950111389160 -233.855819702148 2.448274850845
-0.272897988558 -70.034126281738 -228.049819946289 0.588853716850
-158.115112304688 -70.837097167969 -225.702560424805 2.423160314560
-142.876968383789 -76.614059448242 -224.252334594727 1.883255600929
-19.683839797974 -70.821792602539 -225.106597900391 2.911603927612
-0.726611971855 -75.433189392090 -223.989578247070 1.235751628876
79.474296569824 -66.604858398438 -227.908218383789 1.455934524536
-161.774581909180 -73.825408935547 -227.465270996094 1.241240739822
-144.567276000977 -72.642921447754 -230.637634277344 2.237598657608
-125.671379089355 -72.809875488281 -230.911056518555 2.746562480927
78.304512023926 -70.375289916992 -229.039566040039 0.508692681789
-116.127388000488 -74.078765869141 -229.322097778320 1.825570702553
-146.891159057617 -74.934448242188 -229.098342895508 1.247513532639
-151.056533813477 -73.736450195313 -231.156021118164 2.501458168030
-149.506469726563 -75.742393493652 -231.141937255859 0.699150264263
-156.288681030273 -75.772811889648 -228.826782226563 2.789967060089
-165.538284301758 -75.954345703125 -228.644546508789 3.944875955582
-134.260559082031 -74.638420104980 -235.308059692383 1.737926840782
-133.775238037109 -75.664329528809 -233.136978149414 1.467314958572
-153.603103637695 -78.688392639160 -232.735534667969 1.557404637337
-146.053710937500 -71.318023681641 -236.583526611328 2.216558933258
-152.150375366211 -75.441452026367 -235.099700927734 2.177179098129
74.410301208496 -70.885780334473 -234.757156372070 1.891887187958
66.607063293457 -64.286033630371 -238.048080444336 3.762989044189
-157.586563110352 -73.711463928223 -235.057327270508 2.519701957703
71.048416137695 -64.651229858398 -235.400970458984 2.700032234192
-20.393371582031 -69.990646362305 -237.834503173828 1.998242616653
10.862955093384 -71.715652465820 -238.684127807617 1.187450170517
6.381784915924 -71.443786621094 -237.555938720703 2.460045099258
-155.112854003906 -74.959106445313 -242.406585693359 3.470163106918
13.940230369568 -69.746383666992 -242.687698364258 0.917710423470
60.314777374268 -67.926513671875 -240.071258544922 2.448665142059
12.754327774048 -68.015754699707 -239.474334716797 3.133168458939
4.741185188293 -70.998214721680 -243.084274291992 2.647004127502
-7.177919864655 -68.857093811035 -241.673706054688 1.496663093567
-21.822425842285 -69.823326110840 -244.021392822266 3.569418668747
-2.356743097305 -70.639694213867 -243.395309448242 1.806076288223
3.230627059937 -73.110504150391 -246.551925659180 2.664476156235
56.804210662842 -70.087631225586 -243.688842773438 1.495667099953
-55.998985290527 -75.419410705566 -245.689468383789 2.403337717056
18.861051559448 -68.938247680664 -248.988250732422 1.627782940865
-60.144966125488 -73.243919372559 -242.638061523438 2.644378662109
-10.577791213989 -70.935516357422 -249.244400024414 1.380326032639
-66.909233093262 -68.936058044434 -250.937820434570 3.800817966461
-86.856857299805 -71.155960083008 -253.621215820313 1.241770863533
-83.342582702637 -73.579208374023 -252.717941284180 1.878131151199
-10.674268722534 -69.932632446289 -256.128204345703 3.277536630630
-124.719238281250 -73.420425415039 -259.160125732422 2.504941940308
-14.874114990234 -71.613334655762 -254.317138671875 0.720289051533
-117.788085937500 -73.529624938965 -255.902618408203 0.771778166294
-117.372985839844 -72.115615844727 -258.805511474609 1.821277737617
-104.378883361816 -72.934150695801 -256.879394531250 1.538444399834
-144.785827636719 -73.143089294434 -261.718078613281 1.963176488876
-145.988189697266 -73.439956665039 -267.116241455078 1.716441631317
-169.557571411133 -74.767051696777 -263.244262695313 4.111444473267
18.295602798462 -72.444908142090 -282.037109375000 1.514172434807
-59.319904327393 -69.171806335449 -286.174743652344 2.178356885910
-68.461410522461 -70.335670471191 -284.411468505859 2.994862318039
-43.309631347656 -72.324333190918 -284.931182861328 3.024881362915
-29.277490615845 -71.098869323730 -287.662048339844 0.835118651390
-97.543334960938 -73.851799011230 -289.695343017578 1.946421504021
-32.142700195313 -68.360664367676 -286.801513671875 3.936502695084
-5.376522064209 -69.532501220703 -287.603485107422 0.240687549114
-168.636352539063 -74.002876281738 -288.958465576172 3.551697969437
-17.076738357544 -71.897979736328 -287.236236572266 2.638130187988
5.089916229248 -70.327919006348 -289.511322021484 1.962706923485
13.002316474915 -73.373474121094 -285.345733642578 1.593003630638
-58.178939819336 -73.218910217285 -288.528228759766 1.858634114265
-34.556976318359 -70.595199584961 -292.595001220703 2.789471864700
12.763978958130 -66.937469482422 -294.647216796875 3.818261146545
-72.311927795410 -69.815330505371 -293.582550048828 3.944192647934
-41.647155761719 -67.933776855469 -290.113952636719 3.682418584824
-19.258707046509 -67.800346374512 -291.213012695313 4.198829650879
13.747296333313 -71.030105590820 -292.708343505859 1.018919348717
-12.918824195862 -71.122756958008 -295.598602294922 2.844253301620
2.509921073914 -67.902076721191 -295.281860351563 3.147544145584
12.949408531189 -70.802909851074 -292.265045166016 0.253208965063
-136.284774780273 -71.944335937500 -294.305572509766 1.470373034477
-146.318420410156 -75.381919860840 -299.079315185547 1.830421686172
-152.601547241211 -73.265823364258 -313.017883300781 2.171060323715
45.413024902344 -74.537475585938 -15.756378173828 2.977392196655
32.556198120117 -75.379928588867 -13.726863861084 2.523426294327
41.665508270264 -75.295265197754 -17.431667327881 1.701508164406
24.231618881226 -72.448188781738 -20.458538055420 2.398938655853
47.176139831543 -72.814453125000 -24.400016784668 2.220024585724
27.760437011719 -73.538146972656 -25.781707763672 1.683961153030
25.984283447266 -75.556755065918 -29.337583541870 3.235092163086
26.895263671875 -75.785881042480 -40.140014648438 4.511688232422
41.769870758057 -76.787101745605 -32.859603881836 4.701598644257
28.486518859863 -78.413627624512 -38.270599365234 6.774014949799
45.100624084473 -73.192787170410 -39.679939270020 2.325462102890
33.924030303955 -75.254661560059 -41.347370147705 3.879047393799
40.907394409180 -75.968788146973 -37.963642120361 4.249921321869
32.965435028076 -73.893981933594 -41.834342956543 2.705275058746
45.616622924805 -74.321823120117 -43.222152709961 5.222121715546
35.754405975342 -74.196556091309 -40.916637420654 2.658212661743
-39.071792602539 -74.807006835938 -49.284896850586 2.220800161362
-28.328859329224 -71.271087646484 -51.726879119873 2.417671203613
-87.570968627930 -76.160110473633 -55.232028961182 5.143966674805
-87.326538085938 -78.205360412598 -66.057197570801 6.691904544830
79.610725402832 -75.042449951172 -69.068901062012 2.738017320633
85.858169555664 -72.029808044434 -74.885513305664 1.754074215889
-18.140396118164 -73.228141784668 -74.772003173828 3.265578508377
-86.618919372559 -77.240554809570 -72.202827453613 2.533240079880
-23.674816131592 -74.542922973633 -77.915954589844 2.983366966248
-48.220890045166 -76.707366943359 -85.874900817871 1.564450860023
