# This PCD file was generated using the MATLAB® pcwrite function
# from Computer Vision Toolbox®.
# .PCD v.7 - Point Cloud Data file format
VERSION .7
FIELDS x y z
SIZE 4 4 4
TYPE F F F
COUNT 1 1 1
WIDTH 1443
HEIGHT 1
VIEWPOINT 0 0 0 1 0 0 0
POINTS 1443
DATA ascii
-53.637760 -147.490250 -262.727203
-47.500690 -141.658142 -262.261444
-47.550091 -140.492722 -262.162415
-40.048382 -134.401581 -262.674133
-39.725903 -133.238708 -262.133240
-38.084789 -132.205917 -262.314972
-36.669868 -131.170212 -263.125153
-35.045273 -129.088959 -262.957947
41.548840 -52.232731 -262.140259
42.669048 -51.041950 -262.501770
68.295776 -25.879921 -262.511871
68.689896 -25.001318 -262.486115
-60.242043 -154.652817 -262.841949
-53.207077 -147.942337 -263.255310
-47.709808 -141.620163 -263.059326
-47.740467 -140.397202 -262.959717
-40.056042 -134.704117 -262.579346
-41.607475 -134.777237 -262.710724
-36.457745 -130.321442 -262.799194
65.942627 -28.077637 -262.769928
-60.648407 -154.596176 -262.956390
-53.687485 -147.821518 -263.469788
-47.043060 -141.182892 -263.095123
-46.128628 -140.687393 -263.480957
-46.798603 -140.656738 -263.089966
-45.548176 -139.557434 -263.502533
-45.057999 -139.174362 -263.646576
-45.089424 -138.844894 -263.210144
-44.850861 -137.859634 -263.279205
-43.733360 -137.764511 -263.732727
-43.773674 -137.320953 -263.246338
-43.681164 -136.948944 -263.402985
-41.873997 -134.848206 -263.339478
-40.264397 -134.541489 -263.224274
-41.677429 -134.821152 -262.851868
41.514286 -52.910912 -263.270386
41.856079 -51.915142 -263.097168
-59.613937 -153.935883 -263.414124
-54.510998 -148.921661 -263.635956
-54.983616 -149.127167 -263.763123
-43.483704 -136.759018 -263.328949
-42.222237 -136.597168 -263.420013
-42.358719 -136.384796 -263.764160
-41.387966 -135.830109 -263.733154
-42.177021 -135.465500 -263.516357
-40.627373 -134.917557 -263.610962
41.810238 -52.326397 -263.492859
42.309563 -51.008972 -263.415710
43.162708 -49.612022 -263.708679
-59.647892 -153.549515 -263.818939
41.913143 -52.442490 -264.072479
42.405846 -51.120773 -263.799591
65.971474 -28.357563 -263.884277
-58.901672 -153.425049 -264.576477
-55.246414 -149.235382 -264.204376
-59.038719 -153.444733 -265.093170
-55.432281 -150.180298 -264.689178
-56.019035 -149.494659 -265.161194
42.494827 -51.191765 -264.675537
65.778786 -28.820942 -264.820831
-59.091625 -153.075073 -265.383453
-55.783051 -149.821930 -265.071991
66.299301 -28.484510 -264.743378
-55.903450 -149.689117 -265.177521
42.459873 -51.049870 -265.716370
42.960323 -50.481434 -265.356171
-56.156284 -149.767136 -265.859100
65.730286 -28.660469 -266.413971
-55.677574 -149.920319 -266.775757
43.117676 -51.699619 -266.145294
-55.923203 -149.496735 -266.530701
65.415756 -28.426609 -266.763611
-55.517220 -149.894745 -267.072144
42.631287 -51.322838 -267.182404
42.523956 -50.456367 -267.724854
-55.536522 -149.996048 -267.765289
41.829536 -52.551617 -267.371674
42.439796 -50.928345 -267.764679
43.037136 -50.469692 -267.934601
65.588585 -28.787380 -266.925049
-58.717003 -153.002289 -268.158905
-55.997238 -149.713654 -268.171204
42.797279 -50.132004 -268.051056
-58.594414 -153.333054 -267.822113
-55.332760 -150.241623 -268.062927
41.859646 -52.135029 -268.215607
42.881443 -51.422077 -268.311188
65.178635 -28.849743 -268.642975
42.290417 -51.316730 -268.413544
-58.833607 -152.981644 -269.000000
-55.738594 -149.696289 -269.408691
41.661579 -52.475845 -269.003815
-55.701088 -149.960724 -269.470184
42.324959 -51.455276 -269.233948
65.311485 -28.651382 -269.178406
42.325504 -51.357754 -270.078644
42.596325 -50.188881 -269.481384
43.345814 -49.507545 -269.857849
65.473976 -29.389082 -270.072052
-59.069748 -153.191467 -270.210815
64.855461 -29.644058 -270.900635
-58.967262 -153.271362 -270.471283
-55.849491 -149.710663 -270.332306
41.541874 -52.148445 -270.627197
42.657848 -51.119381 -270.864624
64.522781 -29.578384 -271.088867
42.254944 -50.771362 -271.018829
43.076553 -50.287430 -271.320618
64.612846 -29.737820 -270.581848
-58.998482 -152.749542 -271.682800
-55.685379 -149.975983 -271.793854
42.709957 -51.335918 -272.082275
64.204079 -29.864431 -271.523193
41.501934 -52.626732 -272.634979
42.848644 -51.188232 -272.412445
64.404419 -29.907434 -271.931244
-58.947639 -153.127930 -272.563354
-55.776760 -149.946457 -272.725983
42.077560 -52.179214 -273.149445
42.584698 -51.224491 -273.150177
-55.997940 -149.917999 -273.233124
41.886150 -52.179008 -274.228607
42.170677 -52.438831 -273.487732
42.887554 -51.321609 -273.637115
64.124176 -30.259914 -273.462982
42.673256 -50.623062 -273.820831
63.952599 -30.191704 -274.097626
42.049755 -52.759201 -274.117401
41.872643 -51.938820 -274.460480
64.317047 -30.432549 -274.510773
-58.810333 -153.200699 -274.362061
-56.056942 -150.110931 -274.804474
63.585449 -30.606270 -275.379181
-55.539616 -149.842224 -275.767822
63.538876 -30.799072 -275.800903
41.816936 -52.594486 -275.922028
41.844055 -51.701626 -275.600494
42.283146 -51.089512 -276.214111
-55.806442 -149.712708 -276.159271
41.851978 -52.487957 -276.340546
41.717442 -52.016354 -276.475861
63.451607 -30.980993 -276.346588
-55.811958 -150.754059 -277.268799
41.467403 -52.225182 -276.887299
42.026722 -52.104836 -277.332428
42.205402 -51.262722 -276.959717
42.741764 -50.170769 -276.758789
42.076771 -52.106697 -277.276245
42.102520 -50.746449 -278.156403
63.068226 -31.110939 -277.860535
62.607056 -31.400063 -277.975433
-56.257381 -149.817703 -278.221375
-56.102203 -150.246399 -278.368958
42.332512 -52.184921 -278.311432
42.337238 -50.777733 -278.066956
42.323254 -52.101273 -278.486816
42.736271 -50.030880 -278.587006
62.769829 -31.608665 -279.029419
62.144650 -31.795454 -278.894867
-55.308380 -150.289581 -278.902130
42.583294 -52.388786 -279.345734
42.186703 -50.844231 -278.736786
42.292187 -52.556080 -279.414215
42.363911 -51.097305 -279.943542
62.076439 -32.949024 -279.623260
-55.904003 -149.960083 -280.253601
-59.029144 -153.368561 -281.018280
-56.140724 -150.270432 -280.949738
41.884357 -51.877590 -280.881714
42.085117 -51.225201 -280.854340
61.099766 -33.305023 -280.822418
42.340813 -52.163738 -280.581238
42.313522 -50.848675 -280.947083
61.679199 -32.759216 -281.232880
61.146584 -33.641109 -281.814667
-59.381222 -153.582840 -281.622345
-55.784916 -150.185944 -282.014465
-59.852528 -153.533371 -282.010986
-55.705753 -149.945190 -281.859894
60.968960 -33.730370 -282.048950
-60.370380 -154.184799 -282.340607
42.808979 -51.377438 -282.343750
61.006813 -33.610821 -282.922394
60.202133 -33.923023 -282.943054
-54.354637 -148.943115 -282.848511
42.732304 -51.515610 -282.864868
-53.693138 -148.391296 -283.639526
-46.378445 -140.595261 -283.755219
-45.341183 -139.721069 -284.116943
-44.280888 -138.681274 -283.584869
-42.896790 -137.128067 -283.148376
42.929287 -51.470081 -283.669769
59.728039 -34.662796 -283.469849
59.805717 -34.910271 -284.301300
-61.600273 -156.325256 -283.494385
-54.125404 -148.101120 -283.903870
-53.411541 -147.596252 -284.095642
-44.408607 -139.103897 -284.045227
-44.477875 -138.253510 -283.848907
-43.194550 -136.986526 -283.905304
-41.751785 -134.900436 -283.963745
-46.909100 -141.593384 -284.587463
-46.916542 -141.620468 -284.540039
-46.490513 -140.745972 -284.418854
-45.122936 -138.927460 -284.112183
-44.870041 -137.899597 -284.412201
-43.995560 -137.013245 -284.683624
-43.515575 -136.583130 -284.168884
-42.722057 -135.934006 -284.131165
-40.691299 -135.243835 -284.801788
-61.963783 -156.372528 -284.803864
-53.118610 -147.559143 -284.723846
-47.483711 -141.336227 -284.692291
-47.385014 -140.525467 -284.781311
-46.652550 -140.176056 -284.537964
-45.454792 -138.690491 -284.951569
-40.266689 -135.030045 -285.133911
-41.234901 -134.400055 -284.730927
42.855503 -51.355728 -284.646606
42.449593 -50.045418 -284.701599
59.157478 -35.405476 -284.764038
-52.686100 -147.798782 -285.410614
-47.480919 -141.674454 -284.802002
-47.873932 -141.951172 -285.402802
42.856255 -50.995682 -285.047333
-52.727688 -147.110855 -285.617096
-48.336185 -141.749222 -285.487427
-47.679573 -141.334564 -285.953552
-39.892021 -134.719742 -285.607819
43.480770 -51.894451 -285.382660
42.845371 -50.695263 -285.901276
58.657547 -35.797504 -285.664398
-56.935268 -151.444717 -286.485443
-53.270149 -147.027847 -286.071259
-52.288399 -146.884872 -285.940491
-50.582199 -145.307465 -286.214081
-49.981422 -144.777130 -285.842651
-49.772652 -143.881958 -286.231018
-48.022060 -142.711594 -286.406982
-48.221722 -141.408585 -285.883362
-39.341751 -133.959152 -286.254242
-39.087414 -133.016006 -286.326324
-37.599617 -131.264465 -286.132172
43.299477 -50.806541 -286.477661
58.673225 -35.984997 -285.941376
58.251858 -35.964607 -286.494171
-58.068657 -152.237335 -286.580902
-52.985603 -146.408707 -286.552887
-51.220779 -145.380173 -286.654053
-50.115803 -144.187057 -286.377777
-49.504974 -142.434494 -286.483246
-48.788380 -142.237274 -286.317596
-48.370949 -141.490768 -286.280151
-40.463478 -133.681519 -286.287354
-39.901684 -133.445892 -286.246094
-38.191345 -132.160355 -286.584351
-33.333244 -127.847534 -286.493896
-62.177094 -156.513428 -286.687805
-56.884346 -150.748611 -287.043701
-51.800804 -146.104248 -286.511597
-51.170715 -145.445480 -286.883698
-50.708080 -144.267136 -287.183929
-49.793198 -143.738800 -286.980682
-48.659931 -142.627197 -286.967773
-47.998589 -141.665543 -286.532349
-40.208057 -133.993042 -286.567963
-39.646030 -133.626495 -286.633545
-38.382198 -132.556671 -286.883057
-37.626194 -131.599457 -286.512085
-36.735687 -130.932877 -286.856995
-35.644222 -129.366608 -287.053131
-35.425304 -128.863098 -286.922516
-34.256229 -127.899925 -286.541870
-32.489944 -126.972626 -287.351440
43.702568 -50.430553 -287.164154
58.005936 -36.066597 -286.759583
-58.283295 -153.144180 -287.186462
-56.733410 -150.754868 -287.100830
-52.422825 -146.488525 -286.913757
-41.070477 -133.292160 -287.371368
-39.624249 -133.410919 -287.189484
-39.351845 -131.514999 -286.732391
-38.112816 -131.045395 -287.159698
-36.576984 -129.969452 -286.989960
-36.295662 -129.189438 -287.201202
-35.080433 -128.701797 -287.140594
-34.646080 -128.040482 -287.445221
-33.993774 -127.308647 -287.169708
-30.123531 -124.034828 -287.203247
-28.732841 -123.008591 -286.987274
43.399643 -50.607098 -286.864624
57.721310 -36.775810 -287.212555
57.274467 -36.465485 -287.563843
-62.224190 -157.028931 -287.856567
-58.567749 -153.220444 -287.607269
-56.699135 -151.113480 -287.360687
-52.989483 -146.356125 -287.522766
-51.943043 -145.524765 -287.588654
-50.877514 -143.970810 -287.459320
-50.085304 -143.510468 -287.227783
-48.784561 -141.961227 -287.614746
-32.663719 -126.361725 -287.406738
-32.581581 -125.901497 -287.635406
-32.153999 -125.431656 -287.603516
-30.588112 -123.678230 -287.394562
-29.788134 -123.420959 -287.155945
-28.534767 -122.034393 -287.619904
-27.041183 -121.308205 -287.941681
43.848484 -50.546452 -287.240173
57.313538 -37.046589 -287.402924
-56.413353 -150.142792 -287.907990
-51.525230 -144.779724 -287.936432
-50.170521 -142.940536 -287.372467
-48.642956 -142.190598 -287.800110
-32.965927 -126.763863 -287.755066
-32.151955 -126.391975 -288.222900
-29.697145 -123.432190 -287.957764
-28.266224 -121.773697 -287.802185
44.325222 -50.169682 -287.877014
56.532246 -37.224106 -288.030823
-62.899540 -156.725540 -288.991028
-62.779545 -156.891266 -288.220062
-52.677303 -145.739532 -288.480804
-49.801510 -142.948700 -287.910126
-48.672897 -142.260529 -288.373322
-33.593998 -127.351936 -288.526398
-33.101807 -127.048897 -288.139984
-32.698750 -126.143494 -288.400543
-31.618282 -125.607475 -288.138000
-31.420515 -124.544243 -288.399902
-30.284988 -123.992928 -288.702393
-28.845100 -122.672890 -288.190277
-27.469704 -121.462494 -288.452393
44.456554 -49.960327 -288.650909
44.561722 -49.112324 -288.426910
56.833038 -37.538853 -288.387939
-56.470192 -150.931717 -288.901855
-52.148529 -145.568130 -288.946503
-50.516636 -144.080063 -288.655487
-48.591618 -141.650543 -289.119751
-48.298496 -141.553741 -288.180908
-32.896549 -126.941193 -288.848541
-32.179962 -126.197189 -288.354431
-31.404348 -125.027802 -288.546753
-30.391962 -124.263184 -288.771271
-29.277122 -122.343185 -288.688690
-28.526608 -122.376541 -288.968475
-28.472118 -121.975777 -288.397522
44.306496 -49.480160 -288.972260
56.577408 -38.208046 -288.622955
55.966839 -37.630421 -288.758484
-52.573418 -146.609375 -289.139984
-48.003269 -140.960907 -289.269745
-33.067863 -126.833290 -289.106506
-32.382046 -126.298431 -288.878265
-31.469973 -125.327553 -289.251770
-30.943460 -124.800484 -288.999603
-28.734821 -122.589539 -288.826385
44.778091 -49.163975 -289.147736
55.267570 -38.854221 -289.143677
-57.451015 -152.081238 -290.432587
-53.360973 -146.474121 -289.543488
-52.232521 -146.514786 -289.471283
-52.231182 -146.060104 -289.463074
-50.420902 -144.618256 -289.975983
-49.968025 -143.694397 -289.718292
-49.573727 -142.809998 -289.223938
-48.034340 -142.175888 -289.711792
-48.530563 -141.045868 -289.780762
-39.220219 -133.895981 -289.788055
-38.645370 -133.183258 -289.647461
-38.288582 -132.288132 -289.862335
-34.691238 -127.468971 -289.286224
-34.359104 -127.495743 -289.852417
-32.607811 -127.211189 -290.154175
-32.687958 -127.145599 -289.262421
-31.069857 -125.725777 -289.859711
-31.463921 -125.628304 -289.653046
-30.615028 -124.521904 -289.720093
-31.466389 -125.292633 -289.090027
-30.321814 -124.160332 -289.444763
44.969997 -49.191631 -289.755524
-53.196449 -146.777649 -290.227295
-47.610138 -141.401077 -289.953949
-40.466785 -134.360321 -289.876617
-37.790447 -131.911026 -290.459045
-37.558273 -131.936646 -289.593445
-37.126862 -130.197952 -290.153046
-36.326805 -129.784805 -289.656158
-35.425961 -129.380249 -290.050598
-35.233669 -128.568481 -289.874695
-34.355167 -128.160843 -290.186707
45.838657 -48.564262 -289.530548
55.133423 -39.450191 -289.817169
-48.163113 -142.030151 -290.046295
-47.536152 -141.214844 -290.523926
-37.792881 -131.939987 -290.543488
-36.828968 -130.974701 -290.218658
-36.639267 -130.954651 -290.879669
-36.144527 -130.287155 -290.491180
-35.629780 -129.536179 -290.283569
-35.068619 -129.105835 -290.640564
-34.342884 -128.706924 -290.557800
-34.052357 -128.183060 -290.442780
45.821213 -48.529068 -290.127136
54.333328 -39.805061 -290.150360
54.018314 -40.324387 -290.591888
-62.080574 -156.375519 -290.718781
-53.703793 -147.663223 -290.399017
-48.307552 -141.241684 -290.849121
-40.264332 -134.698593 -290.576385
46.454250 -47.728508 -291.139526
47.338276 -46.782307 -290.963135
53.488979 -40.742279 -290.613220
-62.148872 -156.277390 -290.929535
-53.329395 -147.416351 -290.773132
-47.838726 -141.860794 -290.986755
-47.694710 -142.140244 -291.257843
-39.941967 -134.537659 -291.032837
48.021656 -46.176258 -291.611908
49.039829 -45.545662 -291.595428
50.467796 -43.974663 -291.483704
51.544167 -42.839138 -291.382233
52.975243 -41.730511 -291.238586
52.339001 -42.330479 -291.450867
-62.372826 -155.474579 -291.854767
-53.722767 -148.034332 -292.026154
-48.024033 -141.648712 -291.774200
-47.545418 -141.123123 -291.251343
-46.962315 -139.883545 -291.370575
-46.310768 -138.785675 -291.552887
-45.654629 -138.302689 -291.588531
-45.017288 -138.160553 -291.376434
-41.053432 -134.507690 -291.769714
48.406086 -44.708397 -291.558228
49.453671 -44.830532 -291.796265
51.153797 -43.279194 -291.470673
51.283436 -41.714382 -291.379608
-53.942669 -148.041138 -291.772827
-46.845310 -141.451660 -292.028931
-47.240871 -140.712967 -291.640381
-46.930912 -140.124649 -291.857178
-46.347660 -139.220398 -292.453156
-45.466385 -138.665863 -292.186890
-40.730965 -134.942825 -292.113373
-41.355183 -134.775604 -292.811432
-53.975124 -148.016296 -292.063660
-45.930538 -140.324799 -292.637939
-45.498810 -139.297958 -292.199829
-44.921726 -139.392990 -292.454407
-45.022675 -138.659256 -292.136108
-44.350441 -138.123810 -292.344574
-43.702888 -137.322815 -292.313446
-42.826519 -136.325684 -292.135498
-41.214939 -135.306046 -292.382538
-42.169094 -135.094986 -292.599915
-60.828217 -155.331894 -293.195160
-60.407063 -154.933441 -293.414551
-54.931751 -149.401520 -293.588379
-59.793961 -153.524933 -294.061676
-55.806717 -150.028488 -294.256042
-59.442448 -153.400208 -294.395935
-59.383999 -153.030579 -294.886322
-55.943684 -150.606705 -294.124176
-56.178730 -150.636520 -294.232910
-58.800686 -153.326294 -294.514954
-58.716843 -152.560669 -295.094238
-56.843571 -150.823380 -294.333282
-57.393742 -150.275635 -294.825287
-58.182274 -152.675369 -294.710938
-58.003464 -152.417175 -295.430023
-57.328636 -151.730988 -295.181519
-57.120327 -152.349365 -296.865051
-58.111526 -151.627777 -296.317322
-57.533676 -151.467560 -296.632629
-58.128979 -151.528091 -297.272522
-58.642220 -152.398224 -297.646576
-57.988251 -152.006638 -298.410431
-59.175720 -153.240005 -298.439545
-58.221062 -152.487732 -299.238068
-58.740120 -152.247787 -299.462280
-58.437237 -152.448486 -299.002106
-56.777271 -150.988144 -299.203003
-56.962914 -150.910690 -298.763336
-56.219704 -150.644821 -299.257813
-55.945965 -149.949753 -299.649628
-60.623363 -154.223465 -299.924377
-60.342670 -153.068710 -299.728271
-57.390289 -150.904922 -299.722412
-56.668541 -150.512878 -299.713379
-55.808163 -149.976181 -299.466095
-60.746834 -154.185120 -300.052063
-56.056870 -149.537857 -299.444550
-60.505695 -155.261337 -300.557556
-54.956367 -149.201965 -300.469086
-61.153702 -154.215317 -300.680359
-56.197552 -149.059723 -300.723694
-55.116051 -148.924698 -301.010376
-54.603661 -149.109192 -301.153015
-60.501621 -154.957779 -301.512756
-60.483322 -154.160904 -301.409668
-54.887733 -149.239456 -301.265076
-60.843834 -154.280579 -302.355469
-56.337044 -149.229950 -302.148956
-60.860268 -155.504776 -302.175323
-60.760098 -154.172882 -302.294159
-60.994614 -155.511383 -302.900299
-61.157585 -153.926880 -303.393341
-56.572182 -148.915558 -302.974731
-55.837143 -149.377686 -303.648590
-60.845886 -153.795441 -303.925323
-60.901962 -155.239471 -304.541870
-61.124779 -154.386368 -304.420990
-60.471245 -155.432236 -304.770874
-60.932091 -154.063919 -304.425934
-55.867935 -149.788666 -304.378845
-60.848263 -154.059860 -305.712708
-55.807922 -149.340744 -305.052216
-60.653522 -154.971344 -305.499969
-60.584053 -154.453812 -305.728912
-56.205441 -149.606186 -305.376801
-61.333626 -155.188278 -305.938232
-60.573532 -154.095291 -306.152283
-56.259205 -149.857162 -306.254211
-61.112679 -155.063507 -306.583801
-55.488976 -149.908371 -306.877991
-56.068672 -149.787750 -306.989594
-60.819992 -154.945602 -307.210541
-60.762260 -153.862946 -306.903168
-56.583824 -150.317078 -307.284485
-55.945339 -150.321381 -307.005951
-60.922363 -155.546219 -307.605255
-61.239094 -154.340820 -307.830719
-60.855473 -155.198624 -307.851868
-56.588387 -149.847260 -307.836365
-55.104237 -149.575882 -308.060120
-55.780891 -149.841278 -308.164063
-61.016262 -154.717743 -307.626068
-61.402866 -153.786484 -308.909637
-56.100449 -149.257187 -308.362000
-60.972332 -154.685226 -309.186401
-60.986839 -154.534927 -309.387970
-57.262375 -149.850677 -309.107452
-55.013885 -149.718430 -309.294159
-55.752235 -149.765839 -308.838531
-60.995163 -155.062897 -309.988525
-61.002010 -154.354050 -309.601257
-55.217445 -149.752975 -309.487823
-60.257374 -154.304901 -309.805267
-56.940720 -149.991531 -310.085815
-56.051151 -149.732346 -309.545898
-60.673878 -155.074692 -310.535583
-60.385223 -154.265289 -310.375946
-55.092587 -149.594131 -310.798584
-55.929783 -149.621475 -310.337341
-60.737442 -154.476944 -310.595703
-60.519634 -153.344086 -310.884827
-59.724125 -152.887222 -310.838562
-56.786449 -150.176559 -310.704071
-56.232658 -149.667862 -310.652557
-59.329781 -153.142624 -311.224792
-59.248573 -152.268982 -310.678131
-58.100521 -151.251312 -311.291565
-57.560162 -150.968613 -311.199127
-56.730907 -150.674423 -311.257599
-56.554153 -150.090836 -310.995880
-59.092144 -152.832932 -311.672913
-58.801842 -151.981247 -311.554718
-57.980934 -151.859192 -311.341919
72.965775 -20.103529 -11.451085
73.948921 -18.558714 -11.455569
74.828369 -17.602201 -11.632067
77.123566 -16.190783 -12.420688
67.217224 -26.031515 -13.072287
77.942230 -15.737535 -13.065989
78.088493 -14.790469 -14.058993
65.419701 -27.244310 -14.356203
65.370346 -27.836721 -14.765323
79.923561 -12.981572 -15.249911
79.617859 -13.035868 -15.125252
64.523323 -28.371920 -15.990250
80.057693 -12.632052 -15.656281
64.534256 -28.785517 -16.010990
72.165756 -21.185198 -15.698295
72.269333 -20.688019 -16.288057
73.303307 -19.894106 -16.018663
70.781326 -21.888273 -16.604523
70.549850 -22.865843 -16.197994
74.535690 -18.258663 -16.661537
80.939232 -12.594913 -16.302299
63.493958 -28.993233 -16.583221
70.280128 -23.387697 -16.733055
80.406685 -12.769553 -16.260933
63.613056 -29.272318 -16.931562
63.812954 -29.447252 -17.207811
68.883583 -23.867271 -17.430170
75.722702 -17.424997 -17.127834
75.939285 -17.247540 -17.207787
80.874603 -12.080427 -17.329880
63.059620 -30.028458 -18.239786
76.438683 -16.222807 -17.736307
63.484028 -30.485689 -18.169149
67.992393 -25.117180 -18.274242
76.369629 -16.286724 -18.378891
82.065125 -11.575950 -18.072710
62.975307 -29.853186 -18.703123
67.647812 -24.939781 -18.729378
67.421135 -25.288416 -19.064470
81.847977 -11.013566 -18.744360
62.881889 -30.361248 -18.616411
77.081314 -15.736562 -19.153526
81.892296 -10.776534 -19.380159
67.130150 -25.599920 -19.968534
67.243164 -26.468464 -20.222851
77.574379 -15.235268 -20.038954
77.776329 -14.969097 -20.511835
82.460419 -10.571573 -20.335196
77.888321 -15.100473 -20.414185
82.578377 -10.309294 -20.346876
82.561554 -11.004596 -21.274302
62.253872 -30.842484 -21.633844
66.387016 -26.339941 -21.475271
66.435043 -26.411581 -21.876810
78.313484 -14.992816 -21.581379
78.700981 -14.658256 -21.820526
62.354740 -30.925947 -21.671078
83.001747 -10.013630 -21.787130
82.730682 -10.405418 -22.375885
65.971107 -26.602016 -23.093824
78.662369 -14.135106 -22.650475
62.149277 -31.102663 -23.414726
78.739799 -14.575212 -23.749035
66.454636 -27.131313 -24.068024
78.600334 -14.141025 -23.862675
65.795479 -26.774704 -24.495604
65.796623 -27.081860 -24.368301
79.204643 -14.036396 -26.015570
65.394173 -27.562395 -25.367500
65.788170 -27.132854 -27.031700
78.915009 -14.047585 -26.554111
78.530670 -14.348036 -27.254141
83.022217 -10.780498 -27.325298
78.530487 -14.410933 -27.673700
66.351807 -27.098871 -28.646585
78.284668 -14.556326 -29.576113
78.615311 -14.363061 -29.342522
82.849884 -10.237989 -29.208366
78.609077 -14.550246 -29.207071
82.759346 -10.919592 -29.444944
62.255520 -30.399281 -30.613609
78.512405 -14.746781 -30.067606
77.901611 -15.225066 -30.783054
82.278664 -10.767853 -30.157043
77.792984 -15.186358 -30.910963
77.363312 -15.375872 -31.688749
82.296005 -10.625744 -31.195776
62.663944 -30.564695 -31.628496
67.625404 -25.740925 -32.039341
81.813881 -10.612378 -31.839922
67.679657 -25.740259 -32.090309
67.728271 -24.965914 -32.562229
67.965302 -25.225094 -33.239086
68.102165 -24.810707 -33.343548
68.528168 -24.463238 -33.898891
69.139458 -24.309956 -33.902191
75.816376 -17.417557 -34.282730
68.855095 -23.974884 -34.480625
75.768936 -17.860985 -34.339512
75.129120 -17.612501 -34.895283
69.523018 -23.081142 -35.131676
70.511856 -22.654037 -35.290806
80.429878 -12.197515 -35.128090
73.939857 -18.739273 -35.226387
79.988541 -12.648709 -35.379032
70.948112 -21.763809 -36.056145
72.459091 -20.144182 -35.860100
79.972130 -12.992310 -36.202766
65.223511 -28.057827 -36.444027
71.752892 -21.758522 -36.254536
79.936409 -13.280308 -36.728722
79.225723 -14.075112 -36.638187
79.169662 -14.301478 -36.506077
65.536774 -27.170763 -37.516644
72.587166 -20.476089 -37.600323
72.163193 -20.606100 -37.679474
79.197350 -14.180388 -37.977341
66.611031 -26.607168 -38.096333
71.551758 -21.795527 -38.392159
77.939201 -15.475393 -38.432468
66.985306 -25.795486 -38.177181
71.537041 -21.488787 -38.290329
72.124855 -20.595751 -38.459030
67.413925 -25.488302 -39.027386
77.332047 -15.562132 -38.784626
71.222717 -21.349865 -39.037479
76.493881 -16.686890 -39.136234
70.939804 -21.885059 -39.333050
72.175339 -20.713915 -39.711285
70.234688 -22.644836 -40.022961
72.229820 -20.541494 -40.120510
72.290955 -20.506208 -40.295872
75.110802 -18.118935 -40.192467
74.171944 -19.413925 -40.042480
2.878412 -90.206917 -44.980007
2.947784 -89.812340 -44.208981
5.755707 -87.319626 -44.717545
5.244724 -87.270981 -44.336067
7.429870 -85.595848 -44.305992
8.276170 -84.939476 -44.535927
8.009109 -84.414757 -44.881954
8.966111 -82.845718 -44.223507
-0.346699 -93.038979 -44.605461
0.862804 -91.743340 -44.575893
1.015875 -91.223679 -45.206120
3.071916 -90.173820 -44.971500
9.460262 -83.140411 -44.984612
11.623165 -81.230972 -44.812298
-1.832415 -94.416115 -45.448154
-0.452567 -93.470169 -45.206367
13.307932 -78.737473 -44.823895
-2.363997 -95.580925 -45.640980
15.665885 -76.888382 -45.740353
-4.636877 -96.996521 -46.125118
-4.164521 -96.813042 -45.963932
15.905662 -76.982712 -46.099941
16.136194 -76.483994 -45.826660
16.978960 -76.008072 -46.073326
-5.416838 -97.902985 -46.086872
17.554392 -75.175781 -46.142288
-5.879367 -98.636162 -46.890102
-5.465906 -97.855263 -46.530190
-7.483078 -100.007446 -46.866192
-6.120254 -99.382019 -47.814671
20.565001 -72.108749 -47.105080
21.215431 -70.693489 -47.077118
-6.961374 -100.122322 -47.535789
23.262917 -69.634644 -47.618271
-8.090413 -100.654884 -47.656136
23.764196 -69.031067 -48.007614
24.730589 -67.901031 -47.935051
24.577650 -68.180573 -47.858932
24.353775 -67.251823 -48.324764
-8.526171 -101.697311 -48.540222
-9.480295 -101.296295 -48.327385
25.558475 -67.952774 -49.198372
25.385057 -66.480186 -48.554005
-8.865459 -101.846024 -49.519333
26.585167 -66.340584 -48.799442
-9.842010 -102.525970 -49.747032
27.115276 -65.166428 -49.503231
-10.062020 -103.091911 -49.916840
-10.639744 -102.834755 -49.951138
-10.555633 -102.903076 -50.335377
29.324553 -63.354382 -50.998669
-11.363619 -103.910583 -51.176453
30.197495 -62.861885 -51.395599
-12.202688 -104.993469 -51.573242
29.905426 -63.204617 -51.347378
30.552435 -62.454765 -51.592369
-12.140507 -104.783623 -52.159775
30.647676 -61.399807 -51.504013
-11.933396 -105.182091 -52.430466
-12.955664 -104.852760 -52.234470
31.166195 -61.834850 -52.212097
31.558487 -61.622242 -52.466061
32.731644 -60.407997 -53.142048
33.104877 -60.509342 -53.748756
33.179478 -59.352360 -53.539005
-13.015031 -106.186607 -54.074371
-13.063707 -106.070480 -54.196941
33.795273 -59.264988 -53.847176
34.163506 -58.684135 -54.191242
-14.240410 -106.583443 -54.929970
33.931301 -58.575855 -54.442734
34.559490 -58.100624 -54.553001
34.664585 -58.496895 -55.245686
-14.611196 -107.753098 -55.745689
34.968327 -57.450336 -56.077080
35.125004 -57.558617 -56.048325
35.840893 -57.149857 -56.406963
-14.961471 -108.026863 -56.960548
36.373299 -55.963181 -56.624168
36.504299 -56.627632 -57.069317
36.319923 -56.433601 -56.856728
36.889744 -54.907005 -57.806831
-15.858028 -108.582100 -57.693542
37.227787 -55.295918 -58.297794
37.706730 -55.500862 -58.656624
38.055870 -54.910202 -58.529682
37.745689 -54.612568 -59.613697
-16.999474 -109.875427 -59.713383
38.747562 -53.994598 -60.088703
38.460430 -54.398121 -60.994099
-17.079573 -110.370567 -60.912151
-17.489204 -110.556557 -61.164303
39.075417 -54.292046 -60.936966
38.546097 -53.635197 -61.663563
39.246204 -53.242237 -61.206505
-17.482748 -111.134743 -62.285374
101.984802 9.514621 -61.870167
102.168831 9.911649 -62.000145
102.997360 10.579016 -61.904320
103.820152 10.961218 -61.861237
104.684631 12.097985 -61.759567
106.489082 13.808915 -62.537312
108.072624 15.822549 -62.015621
108.433815 16.333780 -61.656506
109.351189 16.238234 -62.132561
109.612541 17.468546 -62.119938
-18.175123 -111.184258 -62.134392
101.535683 8.636361 -62.202938
101.680672 9.458174 -62.325302
102.809570 9.660384 -62.144772
104.295784 11.215610 -62.477779
107.383858 14.767785 -62.430302
110.000801 17.223091 -62.947891
110.901100 17.458265 -62.468376
-17.808081 -111.124413 -62.919178
39.307735 -53.702259 -62.851555
39.363132 -53.967506 -62.530674
100.198708 8.541768 -62.552002
101.226860 8.381413 -62.712326
102.482246 8.837667 -62.980221
110.358994 17.668365 -62.550629
111.196922 18.662745 -62.788589
111.900696 19.501972 -62.738945
-18.409307 -111.229195 -63.041328
39.543484 -54.107544 -63.190594
99.944069 7.361836 -63.525867
112.838547 19.862091 -63.192444
-18.938446 -111.471275 -63.517834
39.437813 -53.489738 -64.000237
98.888618 7.107778 -63.151817
112.818359 19.823690 -63.411823
39.235493 -54.077076 -64.235382
99.341599 6.298792 -63.844303
113.740715 21.013159 -63.753662
39.386574 -53.686478 -64.294601
99.510666 6.364097 -64.003647
114.122597 21.372171 -64.273590
-18.987736 -111.543579 -64.915947
38.597233 -54.358299 -64.842285
98.968491 6.311526 -65.059250
98.592072 5.776276 -64.875725
38.963726 -53.656002 -65.281914
98.698723 6.016654 -65.229996
114.153114 22.101795 -64.941933
-18.893612 -112.341515 -65.616806
38.601685 -54.083370 -65.642693
98.962723 6.222199 -65.602478
-19.395195 -111.889595 -66.118401
38.491329 -54.419987 -65.648621
97.602478 4.724928 -66.283600
-19.689337 -112.121170 -66.643173
37.983585 -55.096317 -66.653999
97.703728 5.276068 -66.050705
115.786400 22.992086 -66.366959
-19.284798 -112.135536 -67.041962
37.719742 -54.985218 -67.366257
98.255119 5.218300 -66.582565
115.568192 22.887644 -67.088165
-19.669147 -112.326897 -67.057747
37.472744 -55.198563 -67.126198
97.809578 4.521709 -66.910446
116.108902 22.957857 -67.007187
37.328392 -55.718765 -67.978874
97.552322 4.513227 -67.913811
116.604584 22.945148 -67.796539
36.563705 -56.255440 -67.951797
36.807690 -56.127472 -67.784523
97.663193 4.600246 -68.024147
-19.674110 -112.487144 -68.709785
36.758190 -56.029156 -67.933105
35.293526 -56.683323 -68.465492
96.761147 4.165099 -68.332298
35.610779 -57.580772 -68.421738
96.679924 4.227229 -68.681328
-19.919542 -112.979721 -69.411270
33.407246 -58.509869 -68.965195
96.523148 3.601329 -68.888924
-20.168728 -113.008682 -69.698021
32.147362 -59.944328 -69.726723
32.363762 -59.842705 -69.956993
33.428696 -59.949051 -69.646675
33.000832 -59.653999 -69.354301
96.532959 3.060163 -69.706741
118.179535 24.700460 -69.604042
-20.145386 -113.394768 -70.078789
31.073687 -61.415218 -70.151093
31.090723 -61.851463 -70.152512
118.061127 25.577198 -70.159256
30.561357 -62.168774 -70.148598
95.342278 2.377635 -70.244270
117.977341 25.666994 -70.743927
29.834066 -62.261871 -70.822136
96.035812 2.319177 -71.045700
118.564461 25.676077 -70.407608
-20.280474 -113.089958 -71.225830
30.156479 -63.171741 -71.304672
28.559477 -63.235432 -70.552597
118.221451 25.678915 -71.039810
28.959621 -63.577740 -71.695160
95.464516 2.018364 -71.635468
-20.324625 -113.344154 -72.361481
29.485949 -63.553692 -71.849846
28.129583 -63.967228 -72.023712
118.420990 26.008263 -71.975479
-20.610764 -113.331291 -72.134598
28.518448 -64.583778 -72.126610
95.345795 1.804213 -72.285477
118.863487 25.739307 -72.267227
117.976364 26.104532 -72.596115
28.115210 -64.852600 -72.387985
27.401932 -64.733612 -72.802689
94.991165 1.610914 -72.577293
118.451286 25.662477 -72.261757
-21.042318 -113.171333 -73.184090
27.882746 -64.918594 -73.718048
95.015755 2.124993 -73.288116
95.132149 2.024297 -73.726883
118.917259 25.773472 -73.367592
26.925318 -65.737846 -73.788963
94.506226 2.225567 -73.830894
-20.708303 -114.158669 -75.039001
94.456024 1.698819 -75.167084
25.828009 -66.150177 -75.007324
-20.463394 -114.068924 -75.455597
26.616499 -66.691536 -75.494255
119.577858 26.270376 -75.304634
-20.886885 -114.103981 -75.805695
26.360771 -66.500267 -75.735992
94.316353 0.947518 -75.585434
119.610710 26.710938 -75.713432
19.278950 -73.525116 -76.501625
21.774277 -71.819328 -76.782265
22.115164 -71.278862 -76.403679
26.113756 -66.508026 -76.609474
119.727898 26.694048 -76.438667
-21.174181 -113.711769 -76.938492
18.927244 -74.437714 -76.696335
18.831848 -73.370758 -76.676605
19.480251 -72.546936 -76.714790
23.233894 -69.889664 -76.845787
23.533159 -69.001862 -77.057701
24.714119 -67.919571 -77.109741
25.681269 -67.335999 -76.704750
25.363604 -67.754555 -77.254929
-20.669184 -113.479576 -76.800995
17.665945 -75.840408 -77.722458
22.029293 -69.989609 -77.101570
94.234802 1.212290 -77.076279
119.904053 27.243536 -77.083588
94.390808 0.912740 -77.769714
120.054161 27.175215 -77.192986
119.943474 27.477757 -77.616257
-21.076675 -114.107208 -78.086967
17.251911 -75.687935 -78.073204
17.156910 -76.306686 -78.147377
94.414055 1.104368 -77.839424
120.281296 27.189264 -78.155518
-20.831842 -113.895355 -78.598969
16.892584 -75.988007 -78.425705
93.620262 1.183443 -78.529312
17.285006 -76.274254 -78.610123
93.642258 1.047140 -78.626617
16.308577 -76.688454 -79.101753
120.061104 26.807737 -79.154724
-20.684467 -114.342613 -79.898659
16.113113 -77.172791 -80.050896
120.200813 27.272949 -80.400612
15.259765 -76.494019 -80.387253
94.020081 0.547663 -79.992790
-20.326845 -113.825439 -80.790787
93.817993 0.666203 -80.676140
93.226768 0.487392 -80.977882
119.820160 27.314131 -80.654388
15.416070 -77.213913 -80.847008
90.649414 -1.263895 -81.443321
92.075867 -1.097492 -81.808647
120.193558 27.513239 -81.756134
-21.299522 -113.886703 -81.826721
14.767261 -77.814407 -81.831665
90.638474 -2.337223 -81.768082
-21.944614 -114.157951 -82.599121
15.054677 -78.562408 -82.664810
120.127342 26.879900 -82.422966
-20.856842 -113.894234 -82.869560
89.050583 -3.517832 -82.926155
88.956558 -3.357046 -82.921890
120.309326 27.051538 -82.744820
13.916887 -79.055405 -83.215759
88.312881 -4.385200 -82.979416
119.892349 26.736000 -82.726410
-21.489216 -113.989326 -83.636414
12.767084 -79.927818 -83.108597
13.055461 -80.047394 -83.504051
87.954453 -4.633031 -83.065559
87.574585 -4.733770 -84.046661
91.156631 -0.848648 -83.393875
92.359688 0.171078 -83.598434
119.769707 27.234158 -83.554977
11.949665 -80.863037 -83.919144
11.910932 -81.388344 -83.328911
90.866028 -1.936035 -83.662498
91.983994 -0.908759 -83.685287
92.501945 0.000621 -83.727661
-21.733114 -114.057426 -84.947273
11.276058 -81.232437 -84.186226
86.915024 -5.641501 -84.389603
90.082268 -3.326560 -83.983292
93.445625 0.186719 -83.720276
120.558769 27.636782 -84.475716
-21.168081 -113.721512 -84.769379
11.257471 -81.342331 -84.785393
86.823387 -6.680683 -84.976349
89.050819 -3.890351 -84.337318
120.591835 27.435377 -84.954514
10.902832 -82.035255 -84.815483
120.999153 27.316860 -85.186226
-21.560005 -113.764679 -85.175217
10.300893 -82.601196 -85.349319
85.718246 -7.200032 -85.406807
88.563484 -4.730150 -85.588799
-21.592472 -114.527557 -85.928467
9.218483 -83.186890 -85.605270
85.303711 -6.955804 -85.738228
87.557480 -5.169713 -85.871208
87.852287 -5.696786 -86.463806
120.935478 27.903837 -86.332649
-21.429708 -113.975471 -86.528862
7.873882 -84.287621 -86.838310
84.896057 -8.425599 -86.377861
86.991257 -6.045906 -86.430389
86.885010 -6.305233 -87.174309
93.462410 -0.094700 -86.806541
7.597809 -84.922729 -86.750465
84.732712 -8.609262 -86.839783
121.167801 27.522449 -87.207001
86.592690 -6.652364 -87.612419
92.897957 0.723864 -87.572067
120.783905 27.416626 -87.459557
83.580750 -9.413429 -88.486458
85.660324 -6.945074 -87.876747
92.860229 -0.422717 -88.138832
5.464320 -87.394600 -88.000076
83.297981 -9.418159 -88.291145
86.000954 -7.328963 -88.530121
-21.160973 -114.183372 -88.887627
83.980530 -9.462339 -88.637680
85.498032 -7.512837 -88.612160
92.462936 -0.493098 -88.448189
120.668419 27.099600 -89.140686
2.989263 -89.164894 -89.041550
83.532402 -9.508261 -89.460228
92.189293 -1.091900 -88.891899
93.808876 0.687820 -89.788925
2.668213 -89.632179 -89.495911
83.475380 -10.406926 -89.715248
84.954048 -8.094063 -89.721786
94.055847 0.863143 -89.389481
120.391304 27.676750 -89.578041
2.754650 -90.384560 -89.669296
85.047798 -8.257175 -89.981796
92.113815 -1.521304 -89.489662
94.775703 1.819016 -90.654243
120.714722 27.185856 -90.039383
2.381982 -90.602043 -90.811844
82.621162 -10.485418 -90.128105
91.894836 -1.321948 -90.588608
93.284851 0.559178 -90.568588
2.514192 -90.840813 -90.227493
82.461136 -10.700806 -90.603447
84.174339 -9.224497 -90.799850
92.680199 0.291187 -90.442970
94.982658 1.977074 -91.003448
120.573746 27.734997 -90.911301
82.329170 -10.507531 -91.008972
84.098045 -8.508674 -91.366768
91.055351 -1.740882 -91.583229
92.631439 -0.147861 -91.347191
94.794220 1.286833 -90.923080
-21.382896 -114.139626 -91.378532
1.955458 -90.563553 -91.385880
90.956390 -2.320174 -91.468864
92.710213 -0.693751 -91.473671
94.326088 1.864659 -91.829720
120.580627 27.433048 -91.585388
81.654945 -11.139446 -92.061913
84.002945 -8.785566 -91.760506
92.563416 -0.591950 -91.679024
95.204521 1.861510 -92.131195
-21.624310 -114.361465 -92.143600
2.070593 -90.727325 -92.718727
81.425209 -11.335657 -92.144958
90.217125 -2.576638 -92.146179
92.466187 -1.099488 -92.332726
91.663269 -0.989721 -92.573669
94.884827 2.001055 -92.302582
119.480644 27.310707 -91.789360
83.810143 -9.311369 -92.868782
2.322763 -91.202034 -93.200264
81.108131 -11.850565 -93.007881
82.832802 -10.397372 -93.662704
89.748123 -3.653303 -93.359673
91.837921 -1.818795 -93.230972
95.095726 1.938912 -93.267670
120.328384 27.782330 -93.484688
-21.747084 -114.255974 -93.418938
83.254929 -9.462842 -93.425919
89.703804 -3.573321 -93.257729
91.255188 -1.486114 -93.423187
91.226967 -1.632344 -93.992615
1.862492 -91.203880 -93.848450
81.182686 -12.301069 -93.857567
89.451797 -3.809690 -94.000313
94.594810 1.761878 -93.461159
94.340096 2.316863 -94.051392
119.949478 27.434891 -93.999733
-21.090364 -114.501404 -94.150078
1.715912 -91.150116 -94.305519
80.769310 -12.288768 -93.987320
82.209641 -10.649852 -94.018890
88.532104 -3.726494 -94.167122
95.473442 1.627055 -93.718117
-21.419537 -114.344673 -95.166916
1.579991 -91.390121 -94.802689
88.737442 -3.759650 -94.902107
90.739250 -2.338371 -94.695816
119.845177 26.647701 -94.378555
0.914870 -92.172714 -95.803963
80.885109 -12.322762 -95.343452
87.923050 -4.772943 -94.720398
90.308876 -2.908033 -94.868217
95.415771 1.647160 -95.410835
120.101662 26.543962 -95.435478
-21.722548 -114.166435 -95.095749
80.308289 -12.262111 -95.396797
82.394226 -10.545311 -95.472343
87.920876 -4.790761 -95.908760
90.340691 -2.549992 -95.938652
95.026276 2.356050 -95.662804
120.109016 26.501215 -95.945656
121.907990 29.334713 -95.962013
-21.296343 -114.477310 -95.799652
0.772322 -92.324265 -96.216911
80.394600 -12.417806 -96.277763
82.710205 -10.517485 -96.079437
87.734261 -5.597905 -95.837097
87.005203 -5.598835 -95.849655
90.075951 -3.275040 -95.834778
95.114754 2.062388 -96.014496
119.386879 26.479345 -95.933098
122.149315 28.625460 -95.985519
121.552788 28.540289 -96.127869
122.429535 29.276367 -95.977211
122.748924 29.961637 -96.277832
-0.074895 -92.739677 -96.158844
0.602243 -92.325638 -96.452164
82.382187 -10.710115 -96.354523
87.855888 -5.854595 -96.721611
89.488785 -3.153210 -96.977737
95.496658 2.111140 -96.550743
119.662811 26.106602 -96.423576
121.122223 28.556606 -96.323280
121.518509 28.732107 -96.148659
-21.890425 -114.301224 -96.778015
0.075747 -92.705521 -96.585892
80.317314 -12.708732 -97.136848
82.626572 -10.544127 -96.593430
89.644806 -3.396959 -96.489143
95.699715 2.437117 -96.803894
119.772095 26.543749 -96.703560
120.329048 27.102268 -96.474899
119.461189 26.357290 -96.908798
123.124321 29.931175 -96.479759
122.696129 30.245878 -97.281227
-21.614395 -114.928467 -96.895813
-0.314075 -93.027832 -97.247772
82.274002 -10.028642 -96.922417
86.561096 -6.652674 -96.809120
88.933586 -3.995464 -96.719208
119.565208 26.757874 -97.132057
123.101921 30.255335 -96.835938
-0.510542 -93.652130 -97.652611
82.217270 -10.991844 -97.605301
82.210991 -10.194033 -97.745209
96.156563 3.288305 -97.699753
96.262787 3.329902 -97.939743
-21.618931 -114.213982 -97.466125
-0.811921 -93.840340 -97.155060
79.589561 -13.342151 -97.725151
82.469521 -10.224408 -98.148636
85.681320 -7.631178 -98.081451
88.219925 -4.438287 -97.936859
119.339638 25.435577 -98.075684
119.635704 26.711910 -97.970627
123.735237 30.309299 -97.994766
-21.488232 -114.501419 -98.581337
-3.980510 -97.727257 -98.279915
-4.200920 -96.980873 -98.330185
-1.397584 -93.912476 -98.506027
-2.172158 -95.276489 -98.866470
79.393814 -13.365196 -98.497391
82.189781 -11.072075 -98.531868
82.601570 -10.104532 -98.251556
84.408218 -7.916492 -98.290649
85.174133 -7.727749 -98.122284
118.891479 25.892996 -98.766220
119.796982 26.929918 -98.023270
-3.281312 -95.588547 -98.768028
83.271202 -9.852770 -98.884750
83.530815 -8.817778 -98.556335
87.735359 -5.416094 -98.823776
96.198761 3.129031 -98.528564
96.893272 3.638674 -99.021568
119.001335 25.810846 -99.142776
123.637001 30.315969 -98.336060
-21.273657 -114.096962 -98.806221
-7.240568 -100.234238 -99.339912
-6.302465 -99.330742 -99.345924
-6.043981 -98.691414 -99.169785
79.305916 -14.197150 -99.279999
81.683342 -11.510843 -99.058098
82.309837 -10.287649 -99.083031
83.040230 -9.268549 -99.380898
83.882584 -8.604179 -99.545570
87.760246 -6.242774 -99.247185
118.325325 25.349794 -99.563789
119.840897 26.870834 -99.056938
-21.685844 -114.634331 -99.591988
-7.560545 -99.494530 -99.601303
81.871803 -11.223514 -99.247810
82.264923 -10.476827 -99.559036
83.649811 -9.395011 -99.609421
86.961983 -6.021634 -99.634232
97.069305 3.885377 -99.890465
117.886642 25.714773 -99.805725
123.663727 30.771666 -98.942352
-8.458378 -101.816811 -100.553047
-8.327507 -100.148964 -100.018150
-4.086165 -96.651276 -99.708199
-3.423778 -95.639267 -100.234627
-3.008506 -94.982819 -99.794479
86.815659 -6.024553 -99.698570
86.011627 -6.264359 -99.664505
97.036781 3.873746 -99.843254
97.518372 4.049443 -100.334656
118.191040 25.255335 -100.021355
117.678947 24.789330 -100.373833
119.777252 27.083103 -100.016968
119.803986 27.552065 -99.966026
123.131027 31.135984 -99.358200
-21.707554 -114.498466 -100.419998
-8.851962 -101.927933 -100.364479
-2.951076 -95.948021 -100.486885
-2.570457 -94.965202 -100.407982
79.281013 -13.972395 -100.764397
82.347664 -10.782771 -100.226959
119.839958 27.227835 -100.470367
120.115311 27.592125 -100.454239
124.016190 31.154200 -100.321533
123.019035 30.994493 -100.432854
-9.086588 -102.269958 -100.663925
-9.631283 -101.919075 -100.661644
-4.708872 -97.321579 -101.093796
-3.814053 -96.609604 -101.156578
-3.167336 -95.680901 -100.672607
-2.032444 -95.345818 -101.024643
79.281120 -13.464348 -100.715607
97.629112 4.434234 -100.742378
117.011093 23.399553 -100.392021
123.474800 31.201666 -101.007698
-21.665136 -114.122574 -101.420944
-9.237987 -102.430573 -100.822746
-9.926396 -103.258713 -101.796280
-3.677110 -96.356468 -101.757988
-3.343356 -96.314728 -101.348175
-2.677451 -95.054169 -101.497398
97.399590 4.508667 -101.215378
117.150475 24.257088 -101.169250
124.117859 31.178911 -101.189880
123.460060 30.865643 -101.301872
-5.208863 -98.114601 -102.139893
-4.354483 -97.461334 -101.819244
-3.134080 -95.784386 -101.631676
78.742577 -14.042624 -101.688377
85.455147 -7.173398 -101.233788
97.721199 4.705738 -101.717766
116.817818 23.874086 -101.734291
-9.849977 -102.920601 -101.831467
-5.455668 -97.809357 -102.310593
-2.495973 -95.315704 -102.121872
85.264076 -8.144178 -101.711182
97.974014 4.767829 -102.162521
116.585724 23.275778 -101.810753
-9.962667 -103.047462 -102.031303
-5.096241 -97.899109 -102.269218
-2.516052 -94.666061 -102.486320
98.060989 5.034121 -102.512482
120.642899 28.048058 -102.573631
120.735291 28.194578 -102.872795
-20.922245 -114.349159 -103.327599
-10.721610 -103.432831 -102.451698
-5.784620 -98.701309 -103.374557
-3.087740 -96.235466 -103.260765
-3.201876 -95.300087 -103.003899
78.635788 -13.298195 -102.706978
84.462929 -8.070147 -102.483017
97.922005 5.377386 -102.692131
98.714813 5.530154 -102.767113
120.921333 28.056910 -102.886520
-6.059809 -98.744255 -102.711433
99.248260 6.087234 -103.440353
124.348198 31.740730 -103.678909
-10.893277 -104.331017 -103.198013
-11.177149 -103.933319 -103.866112
-5.858922 -99.398056 -103.395515
84.068031 -8.920234 -103.509003
106.149605 12.843636 -103.866608
116.184731 23.241076 -103.702461
124.100235 30.981295 -103.699707
82.231285 -9.623101 -103.686256
99.559395 6.669895 -104.317047
106.914673 13.999435 -104.109505
115.835579 22.347498 -104.019821
121.595955 28.643379 -103.730614
-20.815348 -114.449020 -104.436737
-6.554549 -99.660629 -104.328613
-3.258866 -96.435936 -104.735542
78.545654 -14.260698 -104.061432
82.731766 -9.613631 -104.635399
100.481880 7.492651 -104.396706
101.030708 8.229092 -104.584602
104.763145 11.615414 -104.702126
107.394234 14.631516 -104.146881
115.450264 22.080757 -104.727440
124.164581 31.875347 -104.423088
-21.224209 -114.427917 -104.288589
-11.604035 -104.170723 -104.659363
-11.724770 -104.708565 -105.117920
-7.027169 -99.747475 -104.725273
-3.218537 -96.399506 -104.700394
78.214691 -14.487850 -104.865555
78.293678 -14.482804 -104.381012
82.301521 -10.200862 -104.745895
100.552765 7.770483 -104.746521
101.315559 8.430769 -105.126076
104.156601 10.579567 -105.253922
104.829811 12.765946 -104.721024
107.975388 14.970187 -104.814812
113.832489 21.335686 -105.073349
121.561722 28.596222 -104.608093
-7.135588 -99.808731 -105.175713
-3.321303 -96.005119 -105.198517
78.073784 -14.280139 -104.896553
81.433769 -10.937317 -105.154686
82.112701 -10.196548 -105.243813
102.718666 9.839939 -105.027184
103.518364 10.475053 -105.733353
104.174225 11.784800 -105.095528
108.070076 15.222299 -105.199707
113.575851 20.323023 -105.460365
124.204002 31.304966 -105.260338
-21.827114 -114.059090 -105.828194
-12.126230 -104.771141 -105.488274
-7.407164 -100.459373 -105.605354
-3.364931 -96.521637 -105.361900
80.684044 -11.594690 -105.632172
81.170258 -11.368470 -105.484108
101.770493 9.034349 -105.435219
108.985527 15.850560 -105.652985
109.124184 16.588394 -105.977669
112.901543 20.064171 -105.525528
-20.997513 -114.883644 -105.790497
-12.500785 -104.993484 -105.865425
-12.582670 -105.388557 -106.367569
-7.826279 -100.812088 -105.737106
-3.767693 -96.176582 -106.162621
77.929367 -15.035523 -106.089287
78.128044 -14.496533 -106.083397
78.919891 -13.672642 -105.869568
80.276688 -12.085525 -105.820862
81.750587 -10.714117 -106.081619
101.865952 9.266151 -105.838524
102.797806 9.901545 -105.800262
103.109367 10.885682 -105.868164
110.100235 16.968399 -105.854614
110.500412 17.793291 -106.183243
111.512222 18.449167 -106.160271
112.272697 19.893093 -105.703445
112.506721 19.240084 -106.458839
124.362206 31.293404 -105.571594
-7.639882 -100.628021 -106.602943
-3.466460 -96.483406 -106.089149
78.168022 -14.766493 -106.427742
81.061867 -11.612601 -106.527245
110.898438 18.010971 -106.732849
121.822723 29.649870 -106.618675
124.258606 31.867916 -106.342117
-21.413885 -113.855789 -107.005539
-7.630097 -100.837540 -106.598442
-3.847926 -96.537926 -106.455925
80.443626 -12.232622 -107.040627
122.113876 29.535660 -106.801331
123.925926 31.471754 -106.759735
-12.595005 -106.375542 -107.251808
-8.252973 -101.256126 -107.339287
-3.617478 -97.245369 -107.048698
78.343025 -14.471097 -107.201317
79.398903 -13.536395 -107.486343
79.699371 -12.976642 -106.788345
80.172638 -12.355975 -106.996292
-12.339495 -105.602997 -107.558220
-13.322618 -106.307068 -107.706352
-8.159916 -101.328384 -107.578087
-7.965623 -101.810974 -107.612801
-3.989402 -97.050407 -107.540619
79.459602 -13.963687 -107.017372
122.352386 30.365345 -107.533943
124.032425 31.456158 -107.705589
-3.764079 -96.868996 -108.218483
122.822067 29.037674 -108.115181
122.579643 30.430981 -108.188309
-13.242797 -106.172935 -108.488037
-8.717615 -101.807335 -108.305428
123.862663 31.914812 -107.791542
-13.522812 -106.030540 -108.550056
-8.847137 -102.303749 -108.923752
-4.227187 -96.814400 -109.038528
123.023239 29.775764 -108.657722
123.551414 31.151722 -108.986320
124.501022 31.198372 -108.486504
-13.818185 -106.645241 -108.978119
-9.525863 -102.098976 -109.571487
-4.260468 -97.341034 -108.988213
123.753021 31.053379 -108.950745
-14.056457 -106.685219 -109.471329
-8.910378 -102.431717 -109.457123
123.503960 30.868147 -109.795830
123.898796 31.659307 -109.773674
-21.342785 -114.242126 -109.869537
-14.516080 -106.638939 -110.119148
-9.107590 -102.526421 -110.296265
