# This PCD file was generated using the MATLAB® pcwrite function
# from Computer Vision Toolbox®.
# .PCD v.7 - Point Cloud Data file format
VERSION .7
FIELDS x y z
SIZE 4 4 4
TYPE F F F
COUNT 1 1 1
WIDTH 1428
HEIGHT 1
VIEWPOINT 0 0 0 1 0 0 0
POINTS 1428
DATA ascii
30.803102 -70.291702 -171.050644
35.115601 -68.897430 -171.786682
62.637398 -37.888824 -171.636520
73.073616 -29.564611 -171.878296
126.553719 24.647985 -172.293182
129.512344 26.737322 -172.487244
130.258453 28.519346 -173.084213
133.394821 29.780018 -172.354431
8.679599 -92.287743 -172.001999
8.911188 -91.765167 -171.499496
10.126142 -91.953903 -172.921356
23.423864 -77.989464 -171.409622
25.446327 -75.455879 -172.491501
31.422220 -70.715263 -171.224960
33.598015 -68.068748 -171.796951
65.871475 -35.499443 -172.245056
71.162857 -32.032276 -172.054214
129.182632 27.170004 -170.976151
130.995468 28.614769 -171.954483
8.482870 -91.813118 -172.943634
10.111700 -92.887093 -173.694702
10.603609 -90.375839 -172.560745
11.183470 -92.072304 -172.713196
25.434946 -78.070992 -173.269089
31.050758 -69.265251 -172.995132
64.140022 -39.663757 -172.293747
71.272552 -30.079002 -171.868057
72.957550 -30.272797 -173.222046
128.103836 24.448898 -173.048584
128.617630 26.705303 -172.997772
132.514999 29.914715 -173.177658
8.986767 -92.128510 -171.923248
10.448446 -92.641319 -174.205719
12.245030 -88.978416 -174.046661
24.513458 -77.872131 -172.433075
24.688320 -78.009163 -172.856415
33.751301 -68.679825 -174.106049
71.677315 -30.655355 -172.880844
126.985146 24.511225 -172.488403
130.611588 26.854925 -173.450699
8.763053 -92.907082 -174.235107
9.784170 -89.938896 -174.542740
10.992452 -91.068306 -174.234253
10.539593 -90.025986 -173.343506
23.491905 -78.884521 -173.578232
25.542358 -77.279678 -172.137802
32.019306 -69.533539 -173.252228
32.726212 -68.876404 -173.598740
34.184818 -68.059441 -174.988449
65.286209 -36.801064 -173.441483
71.965424 -29.232407 -173.673431
127.570076 23.486208 -172.611481
130.203049 27.202335 -173.080109
132.084869 29.964779 -172.485794
9.240582 -92.399185 -173.900787
10.952521 -92.463707 -175.415543
11.723169 -90.188583 -173.759552
10.753457 -89.805618 -173.722931
11.704616 -90.906898 -173.828857
12.527726 -89.209900 -172.692200
24.865395 -78.739090 -172.722870
26.470396 -77.193504 -174.235275
62.497513 -38.424034 -174.498520
70.779404 -31.516037 -174.214401
73.272186 -29.988161 -174.112518
127.972473 24.113504 -174.487518
127.502342 26.491863 -173.271698
8.445025 -92.270851 -174.870560
11.272296 -90.800934 -174.243332
12.706809 -89.730812 -175.186066
32.747364 -70.135956 -174.374466
33.394978 -68.874329 -174.942307
34.422886 -67.973152 -173.851318
127.045990 24.205252 -174.739960
127.751381 26.802149 -174.745895
132.472916 30.583366 -173.955582
-53.076427 -153.815536 -173.930527
10.451827 -90.526268 -175.270615
11.528529 -92.377327 -175.538925
11.581949 -89.418610 -173.207657
12.973772 -89.337105 -174.592636
23.918840 -77.483391 -175.312256
25.125515 -75.947853 -173.979614
31.927473 -70.577507 -174.265335
64.413582 -38.460354 -175.216522
64.726105 -36.523750 -173.941147
71.383560 -31.041819 -174.728989
72.565514 -30.316900 -175.161026
127.666901 26.014545 -176.217026
131.177750 27.103586 -175.099472
132.166046 29.252165 -174.486511
-52.915268 -154.544022 -175.363831
-51.344604 -153.619110 -174.854950
-52.345852 -152.348785 -176.084991
10.376135 -91.835457 -175.445175
11.840545 -89.383682 -174.854935
11.605332 -90.509903 -175.191376
11.068058 -89.310776 -174.106506
13.904040 -88.871712 -174.893799
24.776733 -77.651375 -176.620239
33.286388 -70.036278 -175.760452
32.419651 -69.612419 -175.041794
34.773579 -68.230286 -175.327682
71.876480 -30.366732 -175.287521
126.404182 24.332617 -175.700424
127.476479 22.576166 -174.145569
127.202301 25.534149 -175.580017
130.352341 28.622772 -175.050903
130.463013 28.395451 -176.439590
130.915451 29.484337 -174.924789
-52.837101 -154.549301 -175.322250
-50.582325 -151.924423 -174.719803
-51.739857 -152.299133 -175.826187
10.042295 -91.621300 -175.339935
9.920469 -91.013771 -174.810013
12.246115 -89.284325 -175.913513
26.845652 -75.749771 -175.181091
36.075130 -65.960411 -174.770325
63.616844 -38.713131 -176.373230
65.107414 -38.204422 -175.597778
71.937920 -31.689827 -176.389664
131.755875 30.261177 -175.046677
-53.536236 -155.792862 -176.058151
-51.924202 -153.770691 -175.858200
-52.887810 -153.598450 -177.001282
-50.941471 -153.531143 -176.143860
10.385218 -90.211700 -175.581070
12.086473 -90.078293 -177.528992
13.193639 -89.714340 -176.247589
26.197382 -76.952705 -175.315369
63.520741 -38.840450 -176.751907
72.385124 -30.585791 -175.820435
124.726433 23.749371 -176.810074
128.265656 24.688313 -174.801895
128.166580 25.402746 -176.144852
-53.262753 -154.373459 -177.308777
-52.184875 -155.173157 -177.173706
-50.587383 -151.855377 -176.906311
11.157584 -90.805458 -176.005417
12.209505 -91.089401 -175.823349
12.732894 -89.114799 -175.416824
12.261721 -88.996582 -177.001144
33.529423 -68.754845 -176.239502
35.234680 -67.348038 -176.696243
70.504601 -31.259407 -176.299286
71.308601 -31.451765 -176.134018
125.723923 23.825037 -175.644440
127.794785 25.398727 -176.394119
132.181061 29.125967 -175.600174
-51.327396 -153.927902 -177.356598
-50.003349 -151.783371 -176.835358
11.481791 -90.162621 -177.294922
12.575772 -92.397697 -175.011871
25.344339 -77.854393 -176.944855
27.877213 -75.005913 -176.074799
35.235390 -67.530563 -177.334183
63.809330 -39.117245 -176.667450
64.646072 -38.209209 -176.814072
125.538094 24.419344 -176.548584
130.377136 26.437485 -176.710709
-53.786934 -156.091522 -176.784286
-52.497562 -153.660477 -176.648590
12.519653 -88.807266 -177.536545
11.875933 -89.764694 -176.380600
12.637166 -89.105049 -176.922058
12.815111 -88.069832 -176.103943
26.292717 -75.430000 -177.020035
33.278397 -69.804802 -177.321228
35.246159 -67.974045 -177.485931
62.671227 -40.038582 -176.727127
70.441887 -32.191151 -178.278336
71.444389 -30.968315 -177.647507
130.228439 26.976662 -177.646866
132.000992 28.070702 -176.962570
-54.816357 -156.309479 -177.555222
-53.869743 -156.028152 -177.387314
-54.164536 -156.018646 -177.246994
-50.836342 -153.964371 -177.669708
-52.379814 -153.379623 -177.016159
-50.476131 -152.064545 -177.647171
12.222665 -90.588455 -177.055435
12.711867 -91.259956 -178.205093
12.646428 -88.828941 -177.030762
13.322244 -88.925026 -179.293777
26.119497 -77.916031 -176.884232
35.595257 -66.502678 -178.628082
62.949200 -39.066090 -177.875107
127.382271 25.475868 -177.508209
-50.719910 -153.696243 -177.439926
13.267810 -89.792000 -177.972610
12.840304 -88.664680 -178.280838
26.194269 -76.387741 -177.954208
28.883875 -74.950020 -178.503693
34.602016 -66.947266 -178.395615
35.761032 -67.268097 -177.835526
65.606155 -37.878464 -178.317215
128.741211 25.867470 -178.850677
129.427063 27.763855 -177.868988
131.382843 29.053734 -176.967163
-52.012249 -153.958572 -178.925446
11.772645 -90.315498 -178.169815
13.384619 -89.507950 -178.743393
12.652112 -88.552780 -178.234344
14.354239 -89.566895 -178.027618
13.109158 -88.764984 -178.216461
26.274412 -77.693359 -179.295822
35.480694 -66.906433 -178.172409
62.560650 -40.392548 -177.800873
65.021698 -38.852352 -177.971298
68.696991 -32.177155 -177.232224
72.366776 -30.614580 -178.908600
125.818176 22.436823 -178.567139
127.515907 25.725292 -177.880951
130.862045 27.901041 -179.869751
-52.370197 -155.733017 -177.776688
-50.724892 -152.830215 -177.595596
13.403788 -89.984108 -178.644562
11.982882 -89.350479 -178.270706
14.657613 -88.344154 -178.192169
26.327423 -76.814392 -178.193268
27.921028 -75.470757 -179.305222
34.346745 -67.092346 -178.147278
34.434391 -67.831490 -178.363739
36.724052 -64.882668 -179.050079
-52.022209 -155.227524 -177.970703
-50.221210 -154.914368 -177.004547
-50.564686 -152.832092 -179.184570
13.358189 -90.048187 -177.582962
33.337490 -67.553650 -178.791626
35.631565 -66.888054 -178.038513
61.024609 -41.372467 -177.929047
69.905708 -30.549900 -178.296616
126.061760 23.496664 -177.494888
127.705704 24.124500 -179.677750
127.401848 25.634247 -178.935211
129.396454 26.351868 -178.850723
128.172256 26.600012 -179.482819
129.681030 28.972879 -178.501205
-53.569683 -155.666153 -179.424316
-50.715816 -151.514740 -180.267822
12.534070 -88.872910 -179.041763
15.139416 -87.376503 -178.709824
13.830772 -88.815376 -180.904861
26.456150 -76.559906 -178.678101
29.269087 -75.147224 -178.694458
36.862968 -66.851776 -179.085770
61.205235 -40.838970 -180.561340
64.640587 -38.011658 -178.701935
69.650162 -31.824072 -177.516968
126.637764 26.641003 -179.289246
128.287292 27.473152 -179.528397
-53.417747 -156.403381 -179.318649
-50.546803 -154.048264 -179.560196
-49.680359 -152.596558 -180.831726
13.084608 -89.472572 -180.157410
13.654848 -87.718979 -180.715118
27.328278 -75.265259 -179.698288
26.929140 -74.684364 -180.320541
36.622871 -67.015251 -179.776459
35.750072 -65.023720 -180.313980
128.670883 24.648729 -180.210205
130.110962 25.562443 -181.104202
127.329018 26.892897 -179.944458
-55.156273 -154.884384 -180.966110
-52.392273 -155.505280 -180.758377
-50.170979 -152.599442 -179.496216
35.191143 -67.727676 -180.395126
36.754036 -64.926682 -180.423660
62.791473 -40.064529 -180.614899
69.078293 -32.796326 -181.416641
71.414619 -31.048777 -179.417236
124.799538 22.010994 -180.742294
126.656990 24.491854 -179.181381
127.034035 26.882332 -179.149384
131.023224 28.462963 -179.358658
-53.880348 -156.041122 -180.920090
-53.023685 -154.574203 -180.425705
-52.594452 -155.112091 -181.429672
-52.826572 -153.213608 -180.835983
-51.068924 -153.155609 -181.069809
-50.827702 -151.115814 -180.266251
14.041477 -89.009834 -180.762573
26.891363 -75.009178 -181.400620
28.163324 -72.595604 -180.437958
36.477066 -66.694733 -180.702133
38.076271 -64.913002 -181.153748
61.538834 -38.813850 -179.969727
63.743179 -39.195255 -179.776062
70.891113 -32.591015 -180.611633
71.760513 -30.579952 -181.380081
125.092316 23.327402 -180.259399
128.161682 26.157106 -181.256439
128.574234 25.661987 -180.977509
128.016342 26.912989 -180.011795
132.605209 28.037529 -179.917465
-51.467693 -154.731705 -180.273132
-52.676769 -155.247116 -181.680206
-50.613567 -151.755737 -180.161896
-49.441135 -152.405853 -181.244171
28.890039 -74.136284 -180.434326
60.568611 -39.270771 -180.780609
64.837349 -37.831257 -180.398087
69.736328 -32.646286 -181.117249
69.718040 -31.747232 -180.850830
124.726929 22.450117 -181.736404
126.524124 25.897989 -182.143265
127.322426 23.431126 -180.943314
128.995255 26.972687 -180.046295
130.917633 29.030602 -181.331070
-52.079678 -155.821991 -182.600082
-50.944969 -152.291092 -182.596710
27.247631 -74.778770 -181.506271
28.522692 -72.483215 -181.609741
35.081085 -65.871536 -182.580566
34.612835 -66.292686 -181.998230
37.468910 -66.020164 -181.239136
62.438370 -40.647999 -181.676956
63.839489 -38.197086 -181.647659
69.784050 -32.809296 -182.843491
71.240768 -31.170795 -181.133041
125.201538 22.647703 -182.152847
130.121796 27.358078 -181.010300
-52.844208 -154.337219 -182.560349
-53.415550 -155.105713 -183.327103
-49.784409 -151.123856 -181.352692
60.771431 -39.420567 -181.875656
70.375275 -33.388264 -182.160629
70.937576 -32.807663 -181.863358
130.156998 26.209047 -180.811768
-52.902893 -154.703369 -183.064819
27.992836 -74.693810 -182.374329
27.322729 -74.134026 -181.894623
28.339201 -73.254578 -183.784149
36.114616 -66.864212 -181.827454
37.766628 -64.383667 -181.186523
124.606926 21.226454 -180.905289
129.438797 26.438547 -182.834610
-53.307148 -155.673264 -182.272842
-49.090462 -153.497040 -183.702377
28.878059 -73.360825 -182.850250
38.073254 -65.672882 -181.510574
61.451107 -39.860828 -182.511414
63.019840 -38.036739 -182.410400
70.891190 -32.792591 -183.356689
125.479164 23.790562 -182.193268
-50.331795 -151.716339 -183.504623
-50.198277 -151.870941 -182.800598
29.047485 -73.657730 -182.764633
37.121250 -66.065376 -183.090332
36.790707 -65.286415 -181.895004
61.343933 -39.503822 -182.910736
70.769272 -32.244900 -181.750137
71.674294 -32.075523 -182.236816
125.525124 21.708727 -183.072067
124.940659 24.159327 -182.864014
128.795410 24.939785 -183.533157
130.265869 27.537235 -183.019257
28.503761 -73.449883 -182.743546
29.319294 -73.370522 -183.424957
35.395615 -66.855194 -184.800644
61.798740 -39.149212 -184.333939
69.561905 -33.280102 -183.077881
127.571686 23.947132 -184.088745
130.661301 27.484390 -185.721725
-54.787010 -156.437210 -184.078003
-49.353649 -150.746460 -184.125473
29.184170 -71.986115 -183.541382
38.845604 -63.603260 -183.967224
61.301468 -41.668945 -183.815155
70.823456 -31.066469 -184.734573
124.986374 23.792595 -184.774689
128.587311 25.592398 -184.273956
126.276627 25.445471 -185.481644
129.898376 27.751877 -184.035080
-55.805782 -155.226685 -184.110123
-52.483295 -153.556900 -184.341507
28.860411 -74.260590 -184.276566
29.863733 -71.355484 -183.446732
37.383221 -66.054924 -184.378159
35.535522 -64.823784 -183.134857
71.557930 -31.631094 -185.253586
125.515266 24.512117 -183.928970
128.112503 24.747971 -184.182266
127.077209 24.757240 -183.897324
129.629807 27.295362 -184.897537
-54.840023 -154.706161 -184.666870
-53.102341 -154.739777 -185.063904
-49.209324 -150.460022 -185.182266
28.171928 -73.350014 -184.199295
30.474625 -71.953720 -184.034195
36.253281 -66.468681 -185.151154
38.070469 -64.484657 -184.536148
39.960712 -63.992985 -184.888885
63.750751 -39.105865 -185.823959
70.148384 -31.496103 -184.653900
124.290901 20.177139 -185.116470
-55.751339 -157.195541 -184.982498
37.445889 -65.781555 -185.845230
62.813286 -39.873055 -185.441940
63.119999 -39.658836 -185.805603
69.707695 -32.837395 -184.830811
125.511520 23.636328 -184.172226
126.552460 25.067982 -185.055466
-54.301758 -155.440979 -184.891953
-51.917656 -155.121506 -185.729111
-50.609772 -152.892365 -185.575241
-49.974384 -150.397949 -186.042603
30.790445 -71.266495 -185.923264
38.066055 -65.030197 -185.186264
38.729416 -63.871250 -186.557175
69.376579 -33.438690 -186.829086
70.072350 -31.730392 -186.386276
124.122375 21.735678 -185.973221
126.580925 23.086014 -185.638916
128.024963 24.533096 -185.545975
-54.175323 -155.364502 -185.983429
-51.594635 -153.465759 -184.830780
-49.533821 -150.545532 -186.171463
28.408447 -72.907967 -185.813950
30.714338 -71.763481 -186.073517
36.558426 -65.483955 -187.048309
38.786526 -64.182457 -185.867386
61.513416 -41.145332 -185.362640
63.011673 -39.549683 -186.193848
127.086258 23.057207 -186.577744
125.793930 25.277433 -185.550766
125.791054 24.591444 -186.478607
-54.867851 -154.822601 -186.449219
-54.522663 -154.323547 -186.000168
-52.289089 -154.319748 -186.990677
-51.403271 -152.355240 -187.214645
-51.383373 -153.187073 -187.427109
29.468493 -72.168655 -185.424530
30.199247 -71.886948 -186.163330
61.527836 -41.473125 -185.847946
70.667862 -35.543869 -186.836166
69.009727 -31.164366 -186.849335
124.462982 21.054110 -185.903976
124.094452 23.042603 -186.129349
126.512840 25.220215 -184.174271
129.766830 27.304049 -187.066986
28.606766 -73.211967 -187.188950
30.797054 -70.467880 -186.166336
37.932552 -66.211174 -186.717117
126.950020 24.796669 -186.838806
127.330910 24.491644 -187.639252
130.952652 27.047918 -186.905563
31.159529 -73.280418 -185.814484
31.937418 -70.131218 -186.581085
38.528587 -64.368729 -187.654282
39.203064 -62.926888 -186.946014
62.143360 -40.373726 -187.190872
69.073128 -33.824791 -187.914078
123.552750 20.980736 -185.444717
126.025597 24.302086 -187.803574
129.226852 25.868635 -186.375763
29.692633 -72.632225 -187.219574
28.323713 -71.446358 -187.404160
31.883739 -70.605408 -187.375641
38.171398 -64.587944 -188.212265
39.565182 -63.984119 -187.053009
67.516609 -33.507740 -186.589447
70.808762 -33.051701 -185.330704
122.277931 22.260586 -187.945023
125.546280 22.795666 -186.717560
126.051598 24.946283 -188.299225
32.332565 -71.346794 -187.353821
38.028111 -64.988220 -188.164352
40.106861 -63.949913 -187.309906
61.238995 -40.076923 -187.914261
62.042938 -39.892681 -188.672089
124.122032 20.985451 -188.204788
126.526749 24.372707 -186.361526
129.018661 26.079636 -187.622299
32.234585 -70.855698 -189.078217
31.330973 -70.301796 -188.561920
61.125916 -41.874561 -188.799744
61.852257 -40.239807 -187.918259
70.389183 -33.205433 -187.909836
124.384384 21.168507 -187.614288
127.967583 24.434023 -188.324463
32.137047 -72.245422 -188.382202
39.148384 -63.731701 -188.386459
39.672249 -61.010918 -189.106720
68.971107 -33.321686 -188.709259
124.229630 20.838432 -189.105576
125.303986 22.976717 -189.335144
126.094032 24.199543 -188.202835
128.067169 26.236214 -189.310181
31.554049 -71.243408 -189.827347
31.104250 -71.110451 -188.253601
39.431721 -63.372673 -188.859299
40.068100 -60.797298 -188.887253
61.247860 -41.892017 -188.741135
63.053669 -40.523655 -188.098022
122.865097 19.348724 -188.003296
125.276306 20.817696 -188.575699
128.826477 27.125389 -188.113281
129.767868 26.610622 -189.912857
33.460388 -69.923203 -188.656265
38.180035 -63.051785 -191.201859
60.935173 -42.360874 -189.958435
61.666267 -40.454460 -188.911545
68.343163 -34.655117 -189.983185
69.941299 -32.964725 -189.594650
122.633865 19.385546 -190.043411
126.734413 24.316671 -190.183029
125.129395 24.143356 -188.935577
30.670805 -72.036049 -189.177658
67.901772 -34.237118 -189.271179
69.153328 -33.042034 -189.421219
124.497574 22.136969 -188.889282
126.123466 24.435169 -189.625015
127.469322 25.407410 -190.866547
31.045872 -70.858551 -190.998642
32.915245 -69.604317 -190.777084
40.097149 -63.379959 -191.195801
40.831474 -63.017891 -190.103745
59.533127 -43.062973 -189.391602
61.370106 -40.491463 -190.328384
122.827690 21.117128 -189.633621
123.471748 21.354305 -190.991562
126.198334 22.563766 -190.280823
40.383293 -62.340950 -189.816696
60.677059 -43.515667 -189.508072
68.860176 -34.314194 -190.049911
68.337517 -33.514244 -190.768707
123.042030 19.476978 -191.824585
125.274574 23.996759 -190.321335
31.602802 -71.076057 -192.130463
34.092010 -69.342979 -190.239731
38.918236 -62.240551 -190.539978
40.308090 -63.256115 -191.368958
69.520615 -35.150883 -191.471069
69.636497 -33.666676 -191.289307
125.557091 23.254124 -189.963715
127.423805 25.678036 -190.705643
-51.831207 -155.085373 -191.362320
-50.832161 -155.638977 -192.427383
-52.715492 -153.288010 -191.246887
-52.408428 -153.474701 -190.619843
40.172222 -61.063782 -190.759415
62.413803 -40.304413 -190.730728
121.015190 19.434711 -191.169098
125.272972 21.550304 -191.977692
125.283501 23.459631 -191.368866
127.152351 25.373236 -190.974777
-53.021996 -155.099167 -191.102570
-51.528519 -155.036575 -190.753647
32.107895 -70.064392 -191.551254
35.010880 -68.479752 -192.980942
39.438366 -62.733093 -191.592834
60.906776 -42.002392 -192.939545
67.507324 -34.254253 -191.654022
69.770470 -33.065937 -191.204346
121.803688 20.474680 -191.367538
126.570709 24.051786 -190.798798
128.848999 25.011316 -190.198807
-54.401463 -155.745255 -192.968445
-49.317150 -151.707733 -192.723068
32.133396 -69.893097 -193.129333
34.320324 -67.502167 -192.161484
39.484726 -61.294079 -192.779465
41.256252 -60.583382 -192.680130
60.735977 -42.528500 -192.389771
67.732559 -34.254471 -192.990829
123.033958 21.529415 -193.255585
125.421181 23.160486 -192.414642
-55.608650 -156.124161 -193.336472
-49.229881 -150.911606 -193.253540
32.883572 -70.518684 -192.663925
34.931786 -67.624054 -193.691803
40.037861 -62.732635 -191.728210
41.458313 -61.335140 -192.840469
68.344040 -32.754326 -192.290771
121.697388 20.099213 -193.710114
123.353088 20.956032 -192.538788
126.345978 22.723877 -193.806046
126.202133 24.995977 -192.628647
-55.165066 -157.518768 -193.382950
-49.048786 -151.346573 -191.827744
30.466085 -69.277359 -192.406693
42.817329 -60.837601 -192.862656
58.882332 -43.617565 -193.743423
62.558411 -40.854168 -192.849091
66.474350 -35.637234 -192.900330
67.384857 -34.210625 -193.573502
122.159470 22.433014 -192.426270
124.973038 22.798054 -192.540375
124.525314 23.472069 -194.218750
-55.286377 -157.474930 -193.782333
-48.749752 -150.052795 -193.281738
32.824162 -70.668381 -193.713394
33.338982 -66.830544 -193.559723
39.702297 -61.657688 -193.820679
41.752171 -61.719341 -192.596451
120.960190 19.879900 -194.573853
127.602806 23.721428 -192.690125
127.185944 24.403088 -194.179047
-56.358246 -157.583725 -193.237732
32.589962 -70.490974 -193.176590
33.867767 -68.622482 -194.625885
40.452339 -63.092457 -193.924957
41.598721 -60.815678 -194.155167
58.799355 -43.569016 -194.025314
61.236805 -41.127541 -194.448013
67.015511 -35.220478 -193.932281
69.614792 -32.813347 -193.363892
121.227684 17.750828 -194.788116
124.245697 19.213041 -194.647552
123.622253 21.761383 -194.711395
125.024612 23.951698 -193.793396
-54.863976 -157.854401 -195.460052
-48.931042 -151.051239 -194.006989
32.056667 -71.175636 -194.997681
34.837547 -68.671783 -194.189972
58.980553 -42.980835 -193.568466
68.411064 -36.321144 -193.779816
122.960815 21.263990 -194.128403
124.385674 22.287086 -193.878738
123.925003 22.353714 -193.500809
126.408325 24.553064 -192.922119
32.824078 -68.703758 -194.969849
33.513924 -68.064537 -195.179672
40.157112 -62.757252 -194.641342
59.446636 -43.444530 -195.199081
61.460735 -42.024498 -194.104767
67.408249 -36.573681 -194.320816
121.880424 19.314734 -194.971313
122.693779 20.265079 -196.498077
124.815376 22.582619 -194.436447
123.865799 21.959042 -194.064056
-47.302059 -150.330368 -194.766647
33.770145 -69.501808 -195.473740
33.866032 -68.171021 -194.447678
41.130741 -62.454674 -194.524750
40.066593 -61.940662 -195.421890
41.747028 -59.272652 -195.301407
122.530067 21.131756 -194.010132
126.443459 23.766680 -194.189514
-56.678284 -159.655655 -195.116669
-47.516666 -150.109070 -196.330017
34.465733 -66.598999 -196.199921
43.003757 -60.159477 -195.756927
59.234192 -42.585392 -196.227631
66.440353 -36.447285 -196.249313
68.451225 -34.040375 -195.540512
119.673447 18.255047 -195.188095
124.372223 21.288942 -197.428726
123.263847 22.725712 -195.694427
126.529564 25.098337 -196.418121
-56.353832 -158.199112 -196.586349
-40.573189 -142.334030 -196.124527
34.584591 -69.571144 -195.556427
35.753433 -67.564186 -196.324585
42.122772 -62.576904 -195.947464
42.726429 -60.279221 -194.855316
59.867462 -41.637012 -194.587433
122.862007 19.303297 -195.360336
-56.812229 -158.892227 -197.032684
-51.766735 -155.268219 -196.544662
-48.363735 -150.093933 -196.353714
-40.527355 -141.297455 -196.468399
-39.176365 -140.533737 -195.649216
-37.466152 -140.145096 -195.431946
-35.778214 -137.031769 -196.082382
34.890152 -67.347572 -195.946457
42.314819 -60.262840 -197.883957
60.765427 -42.177547 -196.424072
64.403046 -35.783691 -195.946671
67.663033 -33.808598 -195.973648
119.958481 17.770437 -196.334335
120.289001 17.890718 -196.513290
122.741692 20.600992 -195.876297
123.777718 21.356800 -195.165115
127.375481 23.941011 -195.760345
-56.020584 -160.318329 -197.154633
-41.853016 -143.318054 -197.130264
-41.555317 -141.640793 -197.320831
-39.970978 -141.956085 -196.086823
-39.108597 -142.166519 -195.823669
-36.789509 -138.382629 -196.825104
-36.213398 -138.057465 -197.880951
-35.342804 -137.040009 -196.463287
34.222336 -69.361900 -196.808197
40.907585 -61.693344 -196.236710
42.447948 -59.078377 -196.022583
60.114517 -42.718102 -196.963501
121.068428 18.917582 -197.832443
123.906921 21.085752 -196.337921
-56.696484 -160.067978 -196.383484
-52.423893 -154.508698 -198.027954
-53.591541 -156.283813 -198.793015
-51.316235 -153.321121 -197.555161
-46.923576 -149.371002 -197.678955
-40.782616 -143.013000 -196.968842
-40.552006 -143.318176 -198.242645
-39.043304 -142.383194 -198.518646
-38.769485 -139.289520 -196.283890
-36.257072 -137.691025 -196.906723
-37.016125 -138.294785 -196.117294
35.097084 -68.413162 -198.526947
33.623138 -69.193298 -197.040970
42.580997 -61.003719 -196.040787
43.215996 -59.584446 -196.681747
61.988895 -40.809929 -196.852417
66.968002 -36.406181 -196.329956
119.464775 16.748888 -196.726883
-42.784611 -143.531708 -197.059433
-40.513237 -142.266220 -197.577255
-39.776432 -142.727249 -197.468887
-41.709660 -141.499268 -197.673752
-38.232555 -139.272461 -196.686554
-37.374996 -137.870514 -197.144775
-35.245735 -138.249863 -198.052231
41.719414 -60.788410 -197.553543
43.627174 -59.349804 -197.349365
58.426331 -43.610870 -198.712784
65.595467 -35.048645 -198.395599
67.562088 -35.969139 -197.440628
120.542198 18.021889 -198.210587
121.831589 19.244545 -197.659500
121.590706 20.099705 -198.183365
124.033440 20.929916 -198.370819
123.938385 21.295103 -198.113266
123.865974 24.168680 -197.020996
125.632179 22.353640 -197.563126
-57.180191 -158.658615 -198.323029
-47.587273 -148.777603 -198.868423
-38.288151 -141.333588 -198.467072
-38.445309 -141.118790 -197.925354
-35.193653 -138.310486 -198.469543
35.036377 -68.313110 -197.489685
35.034824 -66.882156 -197.655960
41.764660 -62.142029 -198.263016
60.044567 -42.039719 -197.813065
121.599785 18.757500 -197.117462
-57.262760 -159.053650 -198.443436
-52.705654 -155.807480 -199.120178
-47.510891 -149.754227 -198.759262
-40.637432 -143.913971 -198.992371
-39.969231 -142.611572 -197.847122
-38.659531 -141.821335 -198.181610
-36.852951 -139.248505 -198.316055
34.748196 -68.088989 -198.908737
35.801735 -65.980476 -198.896027
41.959484 -60.141171 -198.182846
43.364635 -58.344643 -197.110580
44.544197 -58.065083 -198.011047
58.482632 -42.938786 -198.591110
58.004078 -41.954319 -199.853806
66.434784 -35.723854 -199.160049
68.025894 -34.359947 -197.761719
118.486427 17.101864 -199.241974
122.115921 19.510168 -198.868454
124.818863 21.966583 -197.739441
122.033974 21.179890 -198.001328
125.678513 23.509657 -198.741241
-56.900372 -159.213196 -200.407791
-53.611839 -155.237961 -198.717224
-53.658154 -155.415710 -199.346619
-38.246727 -139.163742 -198.611710
-36.250473 -138.365799 -198.664581
-35.747925 -137.157578 -199.776215
34.161068 -68.550301 -199.727371
41.154198 -60.945225 -198.879044
58.029961 -43.762939 -198.199219
59.983093 -42.933735 -199.263596
66.088631 -36.159260 -200.358414
68.411774 -32.866932 -198.521011
122.281647 18.721327 -199.125092
121.776276 21.276085 -198.785645
125.608093 22.757385 -199.172958
-47.344204 -148.766541 -199.297333
-42.721874 -143.329926 -198.170090
-40.954182 -142.849808 -200.672638
-40.183331 -141.105499 -198.194992
34.219185 -68.157394 -199.372101
35.821289 -65.164345 -200.065918
43.473923 -58.408394 -199.153503
118.438652 17.460976 -200.023788
120.888618 18.624554 -197.914597
124.525276 20.519604 -197.856354
125.186607 21.738100 -198.787186
125.156700 22.279343 -200.357620
-56.748405 -158.538742 -199.697662
-53.373909 -155.854523 -200.071320
-46.619656 -149.734283 -199.948288
-42.987446 -142.261902 -200.113235
-39.540127 -143.873947 -200.287369
-40.211720 -143.045868 -199.323685
-39.270515 -140.220520 -199.433075
-36.520676 -139.563858 -199.772842
-36.355774 -139.152740 -199.857605
-34.860237 -137.816360 -199.811676
-35.649624 -137.104599 -198.780121
42.106369 -60.139317 -199.189713
59.584648 -44.072109 -199.452667
60.538918 -42.422817 -199.237549
65.257301 -36.245834 -198.905182
67.488792 -34.809536 -199.989182
122.435371 20.511454 -200.592865
-56.974762 -158.870880 -199.804337
-50.901825 -154.527924 -199.823929
-41.570660 -143.318375 -199.245148
-39.289165 -141.385696 -200.869965
-39.948090 -142.184097 -199.937302
34.494953 -67.837250 -199.109009
37.172260 -64.875168 -199.838547
44.005039 -59.614666 -199.413315
68.123085 -35.886814 -198.490341
119.386024 17.043921 -199.639389
120.576454 18.352535 -198.859161
124.743500 21.809944 -200.376129
-56.312794 -157.835953 -200.383163
-56.223705 -158.002731 -200.627869
-47.321281 -149.496033 -199.377808
-40.627975 -144.016205 -200.621490
-35.547443 -139.730042 -200.522064
-36.884106 -137.883743 -199.536774
36.417675 -65.958481 -200.580612
41.801712 -60.775112 -199.953079
44.464222 -57.724838 -200.189499
64.765732 -36.969929 -199.966492
123.193031 20.171690 -200.858398
124.759010 21.294353 -198.769409
-46.994530 -149.433670 -200.768494
-41.223602 -142.236206 -201.071075
-41.934200 -142.604477 -200.884598
-39.637333 -142.147812 -200.516830
-40.447224 -141.665939 -200.242859
-37.867767 -139.004288 -200.519943
-38.277859 -138.601105 -201.621979
-36.463272 -139.825485 -200.046448
-35.474358 -137.906708 -201.327805
34.914051 -68.032768 -200.945007
56.802769 -45.109474 -201.420898
60.960491 -42.559082 -201.182663
67.028046 -35.041149 -201.542465
118.322487 16.342968 -200.713226
120.426048 18.659807 -200.483475
123.269951 19.440899 -200.104980
-58.033249 -157.478271 -202.033279
-41.476036 -143.572723 -200.497696
-38.678295 -139.777527 -201.665237
-38.765785 -139.682312 -201.889343
-36.530426 -138.724548 -199.871429
-35.990463 -136.875198 -201.669189
-34.212105 -136.506454 -200.615433
42.199692 -59.689442 -201.156403
43.279881 -58.193535 -200.797272
66.306885 -37.702766 -202.832077
68.089890 -35.855106 -201.333221
119.256310 15.985214 -201.578934
120.877815 17.527624 -200.856567
121.037277 19.778309 -201.275986
123.507874 21.877474 -202.219269
125.333435 22.667347 -201.511917
-55.144741 -158.662628 -202.408813
-48.444168 -150.862717 -199.766815
-42.224693 -142.185089 -202.537582
-41.268131 -142.318192 -200.693878
-38.891346 -138.528564 -200.859543
-37.773628 -138.100876 -201.324280
-36.933880 -138.488174 -200.674194
-36.438103 -137.085678 -201.828827
35.008831 -67.085739 -201.081177
38.318672 -66.356667 -201.085876
44.208187 -59.469875 -202.504883
45.334629 -56.158020 -201.499176
57.736000 -44.681076 -202.167404
58.434162 -43.415943 -201.905151
60.303871 -41.892422 -201.934204
117.987389 15.495773 -202.319321
120.781746 17.835306 -201.607315
-56.306465 -158.319992 -201.163177
-56.628010 -158.208496 -202.741882
-37.592415 -138.856201 -203.033081
-36.868950 -138.378220 -201.898285
26.613279 -77.412079 -201.484207
25.455095 -74.893097 -202.824692
57.723419 -44.482353 -201.419418
65.193565 -36.963711 -202.761200
67.077713 -34.202133 -201.454987
119.531693 17.545385 -203.099335
121.243393 19.643320 -201.818619
-48.471375 -150.523941 -202.859467
35.754650 -67.209496 -202.336349
37.401169 -65.461433 -201.569519
41.818813 -59.396851 -201.363724
43.660847 -57.749744 -202.179749
63.999386 -36.953545 -202.219513
117.877678 15.128964 -200.801300
124.385155 23.048378 -203.032257
-54.494289 -157.538986 -202.746216
-48.731251 -149.733459 -203.135071
25.345087 -78.253258 -203.845520
24.918215 -75.510582 -203.157715
37.328117 -64.464851 -202.300018
42.967598 -59.136051 -203.551254
45.258266 -57.662426 -201.415878
57.961540 -44.703106 -203.141235
60.608433 -42.908554 -203.255356
67.625084 -35.667679 -202.596878
119.487358 15.914122 -204.238663
119.196335 17.300859 -202.765762
121.104485 19.483816 -202.689438
124.237381 21.025953 -203.059662
-55.345608 -157.214188 -202.660767
-54.570286 -158.165115 -202.524460
-48.328468 -151.495956 -202.363586
-49.553928 -150.038193 -202.662781
24.585176 -77.587067 -202.756134
24.969347 -76.372665 -203.531036
27.526241 -75.694893 -202.878357
35.040802 -66.610298 -202.874557
42.869778 -58.335026 -202.884415
44.071716 -56.667202 -202.950409
57.435555 -44.171688 -203.300919
64.627594 -36.785385 -203.491714
118.257523 14.992799 -203.511627
120.552719 16.554129 -202.971848
122.864189 21.433231 -204.114822
-55.287853 -157.581161 -204.162094
-47.992130 -151.270676 -203.648682
26.388409 -75.884338 -205.276413
25.922832 -75.267975 -202.656357
28.520615 -73.919342 -203.365067
35.515896 -66.247604 -202.184967
38.600380 -63.641605 -203.918549
43.121292 -58.651779 -203.752563
45.575802 -57.502296 -203.879913
121.080780 18.352619 -203.401306
121.009094 21.888041 -201.741409
-53.699539 -155.065445 -204.025925
-50.092110 -152.502045 -202.976685
25.452396 -76.818947 -204.277649
26.145979 -76.441170 -204.337341
26.233349 -75.469559 -204.042496
38.117615 -64.449654 -203.237335
58.597458 -45.428867 -204.006332
59.207321 -41.468159 -204.098068
65.215347 -35.937588 -204.424286
65.869797 -35.457760 -203.321609
116.479591 14.566133 -204.702774
119.528671 17.438189 -203.270355
118.130836 17.594994 -205.087387
121.950531 19.634384 -202.131927
121.014427 18.727259 -203.774307
122.438667 21.552488 -204.178391
-52.592945 -155.690765 -204.837097
-50.336353 -152.912994 -204.553452
-50.957722 -152.618378 -205.545242
26.792261 -75.850922 -204.537109
26.706566 -76.345047 -204.727249
25.337822 -75.282219 -205.728088
35.841877 -65.954857 -206.092819
38.177761 -63.834717 -204.560944
43.462963 -57.171230 -204.614410
45.982685 -57.882542 -203.352417
116.258278 15.354365 -203.787415
121.192528 16.767956 -203.675934
120.384178 17.956770 -204.753281
123.545731 19.815361 -203.639099
-53.178608 -156.108749 -203.952728
-51.642357 -153.114777 -204.102020
27.118303 -74.826073 -205.139328
27.340347 -73.863480 -204.381104
27.714113 -74.019958 -203.644562
38.804634 -64.766930 -206.516144
46.929825 -56.136688 -203.158218
58.050735 -43.975597 -204.426697
117.228851 12.560718 -204.707321
118.254578 16.408949 -204.999893
119.738106 18.868353 -204.307938
-49.955788 -152.979538 -204.193222
25.288177 -77.707489 -205.406830
27.174175 -75.115440 -204.431366
28.655451 -74.522339 -205.771133
28.232470 -74.383728 -205.825653
36.805397 -65.521187 -204.896790
46.044468 -56.228321 -205.467453
58.145329 -45.841988 -206.298080
58.469437 -42.600754 -204.330093
67.083473 -36.109009 -204.172455
121.335739 17.030895 -205.805862
122.432922 19.788870 -204.583984
-53.134430 -156.659836 -206.131775
-50.964893 -154.091675 -205.877640
26.443750 -73.663582 -205.677750
28.520758 -74.738907 -205.546509
38.095173 -64.549789 -206.074860
44.284107 -58.665237 -205.845337
46.217476 -56.878105 -205.690002
65.630676 -38.366341 -205.427383
66.380875 -35.536827 -205.673981
116.597771 13.661092 -206.505249
119.017174 18.821596 -204.041199
119.283340 17.383366 -204.917877
25.995489 -77.306595 -205.938293
26.264797 -75.894417 -204.866623
26.269552 -75.013153 -206.546844
28.200583 -73.363960 -206.311829
28.599304 -73.202141 -205.204773
37.742001 -64.488319 -206.787003
38.610065 -64.558571 -207.426361
44.206688 -57.673122 -206.990402
46.997589 -56.385727 -204.839615
57.947033 -45.436333 -207.054672
64.540283 -38.095585 -204.467087
66.683212 -35.732098 -205.497375
118.476013 15.733521 -206.144196
120.996780 19.238846 -206.513260
122.434677 19.716730 -205.677368
-50.505978 -153.198532 -206.608871
26.162613 -76.365044 -206.641190
26.423635 -74.975922 -206.292267
27.664034 -74.671799 -205.451370
28.456564 -73.215446 -206.583557
28.473812 -72.232628 -206.094818
37.931999 -65.166603 -206.945969
38.920860 -61.926537 -206.581711
45.926964 -56.213604 -207.292435
56.483734 -44.451550 -205.250839
59.099777 -44.168926 -207.498581
115.010643 13.476301 -205.350784
117.919968 15.164659 -206.061218
121.230232 17.933371 -207.246811
-54.813438 -157.343140 -206.595840
29.038860 -72.068344 -206.348801
30.412846 -72.579063 -207.673309
37.667049 -65.626587 -206.832489
39.775211 -63.795689 -208.016571
45.758125 -58.163155 -207.689392
45.586411 -56.126038 -206.330505
116.551758 13.655899 -206.501541
118.427704 14.668646 -207.148712
118.226021 16.506796 -206.943710
119.777985 17.811821 -207.149506
25.757549 -75.070641 -208.202530
27.707609 -73.709305 -208.426437
29.637156 -71.765984 -205.488388
30.641493 -72.289299 -206.917999
36.337223 -64.640831 -206.465927
38.962700 -61.928291 -207.844833
45.466301 -57.083431 -206.560974
57.551197 -45.184834 -207.239975
58.709496 -44.171391 -206.445038
63.630257 -37.270042 -208.394257
66.646400 -36.211601 -206.755951
119.906593 17.554134 -206.576859
120.973450 18.144789 -205.728683
-53.108967 -156.768265 -207.202469
-50.355122 -155.160431 -207.271057
27.302227 -74.725739 -208.257355
26.466177 -75.045448 -207.183701
27.419088 -72.979584 -208.086761
29.570415 -71.393768 -206.208710
30.209614 -71.623444 -208.154419
37.565701 -64.834114 -208.575577
39.287876 -63.304729 -206.808212
44.381329 -57.592682 -207.821426
46.465504 -56.135483 -207.906296
66.326958 -37.834522 -207.402328
65.930191 -36.426952 -205.957809
117.484970 11.883436 -207.321777
118.020233 15.320991 -208.757385
117.995132 16.673189 -206.132874
119.768318 17.758112 -208.122620
121.506149 19.313913 -206.582458
122.436783 18.385841 -208.250534
-52.410069 -155.612762 -207.278381
-3.212227 -104.969772 -208.837708
-3.664301 -104.200874 -207.574020
-1.707195 -104.080467 -209.101288
26.461918 -75.935905 -207.761673
27.416183 -74.314941 -207.554703
29.593636 -72.237541 -207.764816
29.645483 -72.198456 -208.486633
37.848606 -64.641594 -208.562607
39.083351 -61.739414 -208.074677
46.334373 -58.049492 -206.934662
47.078926 -55.266106 -208.582275
116.943634 14.921741 -207.226212
-52.043446 -152.786011 -208.404099
-3.452575 -105.208397 -208.818848
-2.333028 -104.258591 -207.893143
-0.386967 -104.174980 -209.125748
-1.891661 -104.306549 -208.777008
-3.391855 -104.455971 -209.788712
27.301714 -73.934967 -207.774796
27.787622 -72.267952 -208.201019
28.898348 -72.177498 -209.467728
30.711981 -71.444283 -207.230392
32.562813 -70.495186 -209.030609
45.611496 -57.217533 -208.092239
48.394394 -55.265087 -208.730637
48.161789 -54.529079 -209.012436
57.459126 -45.513828 -209.026917
58.670078 -42.677498 -209.553207
65.312561 -37.809772 -209.465530
66.060020 -36.041981 -207.821960
115.996864 13.620582 -208.534775
118.556450 16.748053 -207.999359
-3.725460 -106.140022 -209.606064
-4.194915 -105.606789 -209.037155
-2.061167 -104.070549 -208.057037
27.998714 -73.842072 -209.486145
27.546886 -73.177811 -208.096542
30.109316 -73.326431 -207.957703
29.489645 -70.977196 -208.282257
31.112305 -70.897491 -207.902634
32.611534 -70.490112 -208.764496
38.141315 -63.707691 -209.607895
39.834007 -63.009506 -209.232712
44.187210 -55.350239 -206.976547
65.781593 -37.686424 -208.272217
67.247986 -36.966572 -208.500778
116.822472 15.098019 -208.675766
121.046928 16.556221 -209.999344
119.125107 17.666035 -208.320099
120.630486 19.558012 -209.162689
-52.676003 -156.251175 -209.646194
-4.310278 -104.856812 -209.333664
-2.763113 -103.265549 -209.658432
27.601345 -74.618782 -208.747971
28.034428 -72.306160 -209.540787
29.490789 -70.468582 -209.333481
30.133259 -70.486748 -207.908646
32.542000 -69.925537 -207.928787
38.478378 -63.150345 -210.176865
39.306541 -61.692646 -209.006088
45.752571 -56.987087 -209.865128
47.660496 -54.197685 -209.398117
115.244255 14.055148 -209.140900
117.516846 13.710135 -208.466324
121.298637 17.767189 -209.997559
-50.871346 -153.998734 -208.818558
-4.952268 -105.774147 -209.274902
-3.489393 -107.044670 -210.425079
-1.763216 -105.662811 -209.418671
28.964748 -73.103462 -209.074036
29.736309 -72.948471 -209.520462
29.058777 -71.748154 -209.481491
31.632833 -70.446281 -210.975174
31.828245 -69.874435 -209.452820
37.704834 -63.431252 -208.233032
56.577385 -45.508675 -209.437210
58.194447 -43.378304 -209.265610
63.435402 -37.218235 -210.315262
66.668587 -36.183239 -210.380630
114.607330 11.768450 -209.143570
119.051895 16.056990 -209.845169
120.439362 18.158022 -208.738754
-50.754902 -152.693832 -209.223984
-3.833149 -105.632950 -209.791473
-3.333205 -104.931519 -210.273346
-1.671732 -104.314980 -209.746643
27.608122 -73.700981 -210.880219
28.718960 -72.862747 -209.986664
28.469641 -72.288605 -209.500092
31.317551 -70.829163 -209.215881
33.300945 -69.967621 -211.192520
38.971596 -63.943237 -209.819290
41.764683 -61.268627 -209.119400
46.706699 -55.840786 -210.922943
48.792675 -53.974648 -210.317307
114.464020 10.920017 -208.549561
116.062874 14.633412 -209.895065
119.915977 15.177658 -209.985413
120.149734 17.881834 -210.705292
-53.296570 -155.075241 -209.577744
-3.091534 -105.876884 -210.780487
-3.602322 -105.295448 -209.547714
-0.678143 -104.188599 -210.326584
-2.203181 -103.494301 -210.648392
28.121429 -74.332664 -209.087585
29.082523 -73.369240 -210.774200
29.072504 -70.442856 -210.837677
30.913425 -70.715584 -210.486328
33.286827 -69.998779 -209.971329
41.064709 -61.495075 -210.424164
41.409042 -62.329540 -211.072098
48.340870 -54.765797 -209.103882
59.021477 -44.311443 -211.146988
115.155151 11.383542 -211.087601
115.828560 14.648742 -210.173798
121.228806 18.113972 -210.633820
120.196236 16.733324 -211.395172
-48.611118 -152.390579 -210.723923
-4.103919 -105.152977 -210.239182
29.093111 -73.446526 -209.697586
30.185627 -72.997551 -211.316010
30.735289 -71.493858 -210.837875
32.602177 -68.860161 -210.321701
32.785072 -68.672935 -209.455978
40.708515 -63.887650 -208.960693
45.893513 -56.981617 -211.775497
56.274834 -44.930801 -210.152832
59.401085 -44.050709 -211.315826
63.968361 -38.410313 -211.626785
66.318153 -37.160587 -210.596954
-50.756783 -153.502274 -210.952362
-7.051513 -110.338951 -210.223709
-5.411168 -107.665489 -211.319595
-3.527622 -104.268875 -211.756287
-3.017156 -106.505928 -210.873322
-4.003813 -104.251480 -211.268555
-3.560776 -105.506020 -211.723801
29.477339 -72.728737 -211.184250
29.145226 -71.630707 -210.426559
32.386002 -69.917809 -210.934906
38.349457 -63.730164 -210.467545
39.607285 -61.840084 -211.627533
49.158108 -54.744450 -211.564011
112.431526 11.516870 -211.996826
117.307503 16.326105 -209.978882
120.087029 17.810381 -211.547775
-53.250629 -155.479691 -212.350327
-52.016426 -151.327652 -211.545288
-9.760655 -110.797043 -211.894592
-8.047911 -109.882843 -212.538391
-7.992075 -109.235779 -212.206589
-6.729326 -108.178658 -210.700699
-7.117671 -107.730019 -210.975311
-3.862320 -108.994331 -211.649261
-5.182237 -104.851563 -212.628586
30.194830 -73.488297 -212.007080
29.394548 -71.327377 -210.699890
30.297720 -71.666496 -210.623459
32.976002 -68.210869 -210.456741
34.770947 -67.924141 -211.641144
39.642448 -61.939159 -211.812531
41.538967 -60.067680 -211.295944
46.769627 -54.338261 -211.743195
55.684628 -44.755032 -212.002701
58.299877 -44.168911 -210.489349
65.458351 -37.195332 -212.300797
114.681107 10.867589 -212.041992
115.462059 13.940556 -212.015656
118.225883 15.865203 -211.966263
120.302933 17.496910 -212.039795
-50.899384 -153.757431 -212.620544
-11.063433 -111.204895 -211.697144
-9.648373 -111.438507 -212.861588
-9.751567 -109.268860 -212.846634
-8.655803 -110.307655 -213.567688
-6.970453 -108.631187 -210.927673
-6.685843 -107.407906 -210.886963
-5.259490 -108.789528 -210.618011
-3.981852 -106.848289 -210.704819
-5.578007 -108.672531 -212.020081
29.331261 -72.725937 -212.756775
30.476126 -71.505943 -211.742584
32.650841 -69.471695 -211.311203
48.752243 -52.769844 -211.604126
56.069904 -46.559048 -211.999344
58.422367 -43.287201 -212.002426
64.370094 -38.409790 -211.504288
114.898193 13.770011 -212.800217
116.200119 14.301066 -210.261978
118.871292 16.616892 -211.114502
-10.701988 -113.770103 -211.913773
-11.612484 -113.286888 -212.378693
-9.220290 -112.927460 -212.578094
-6.525194 -108.989250 -213.322998
-5.140607 -108.611427 -213.566162
-5.064252 -107.340569 -212.248047
-5.794744 -107.334869 -212.039627
30.351892 -72.055214 -213.458252
33.517475 -67.787979 -214.409332
34.857090 -67.656784 -212.517487
39.386696 -62.203262 -211.611420
40.616875 -61.345783 -211.471436
46.780056 -55.949757 -213.107513
49.157978 -54.199043 -212.688522
113.802834 10.854859 -212.280457
117.782455 15.280617 -212.424698
119.293633 16.421076 -212.046829
-50.949577 -152.971542 -213.484055
-12.056929 -114.309792 -212.769852
-5.083378 -105.343910 -211.973877
-5.650768 -107.081345 -213.737885
32.713802 -73.738686 -211.996307
29.380482 -71.820618 -213.319077
29.831553 -71.051720 -212.465836
35.764954 -66.498047 -212.470444
33.807987 -67.674080 -212.019852
41.209938 -60.512085 -212.906586
48.881035 -52.974663 -212.238266
60.189091 -44.914776 -212.577805
57.989868 -42.951393 -213.269852
64.123680 -37.881992 -212.775421
65.553955 -38.039188 -214.304932
113.512741 11.158680 -212.806427
115.321396 13.663033 -213.082047
117.620453 14.945966 -211.657959
118.277367 17.603344 -212.585678
-53.368900 -155.874573 -213.362167
-12.320333 -114.366684 -212.119644
-6.450158 -107.188011 -213.044571
-4.768460 -105.816971 -214.746658
-4.478095 -106.274445 -213.171143
30.459196 -73.343544 -211.686279
30.574818 -71.292580 -213.610062
34.332870 -66.429764 -211.775696
34.466709 -66.794281 -213.769058
40.069469 -62.152813 -213.152710
42.909725 -60.222958 -214.153946
48.310917 -55.639286 -213.457474
49.302063 -52.066841 -212.934082
55.578587 -45.418846 -213.464340
64.881485 -37.103985 -214.597626
113.047096 10.660780 -214.167831
115.076660 12.880653 -213.549759
119.709091 16.754446 -212.525131
118.607811 17.789095 -214.166153
-50.057121 -153.279480 -212.552063
-13.771454 -117.245956 -214.173233
-12.990627 -114.672050 -212.791565
-7.352987 -108.224129 -214.428787
30.953362 -71.399162 -212.370544
35.882374 -67.019615 -214.065155
34.604916 -66.655670 -212.835495
39.752129 -62.189823 -213.932632
41.976055 -61.701721 -212.879929
47.702087 -55.308437 -213.912430
49.170464 -52.908920 -212.739960
57.817493 -44.143471 -213.144760
57.914131 -43.304813 -213.132523
63.568588 -37.552135 -213.726471
117.735001 14.775826 -211.717377
-14.323249 -115.477112 -214.475693
-6.471817 -108.556213 -213.587433
-7.627402 -106.970695 -213.465942
30.707670 -72.076073 -214.137253
30.032696 -69.685196 -213.604340
34.235653 -66.281204 -213.669144
35.249458 -65.810493 -214.172134
35.253044 -66.814850 -214.343964
47.836735 -54.507065 -213.339096
49.639755 -52.760456 -213.668793
56.107632 -45.447910 -213.455490
66.424683 -36.273193 -214.224915
112.035133 9.032776 -213.200119
115.306114 11.920178 -214.213455
116.378342 13.498380 -214.595795
118.715576 16.944347 -215.157806
-50.532619 -152.731461 -214.331177
-14.854970 -116.974922 -213.166382
-7.646667 -107.991753 -214.273361
-5.420269 -108.172112 -214.550186
31.032825 -72.325172 -214.703629
31.105648 -70.618576 -215.482407
36.782227 -65.780136 -215.238159
35.806194 -66.823051 -214.512527
41.581963 -60.236115 -213.898361
41.547821 -59.975349 -213.224640
112.601204 10.941694 -214.801437
115.095451 11.020872 -213.814240
116.551292 12.808082 -214.492828
115.811165 14.214758 -213.507645
118.694954 16.545139 -213.614166
-53.634739 -155.930420 -215.459183
-14.898480 -116.339622 -214.694260
-6.641854 -109.258347 -214.363220
-5.404463 -109.012688 -215.569412
-6.895907 -108.468422 -215.494598
30.064690 -70.598732 -215.180984
35.174587 -65.813255 -214.534531
36.252842 -65.820045 -215.589890
40.768276 -60.795284 -214.199036
41.430031 -60.182785 -214.007889
47.921654 -53.631374 -215.596588
49.400513 -52.584309 -213.774933
56.632481 -46.701141 -213.014069
59.112572 -44.585072 -215.345032
64.511467 -38.968254 -214.174103
63.718239 -38.749512 -213.322098
111.929016 8.997795 -214.177170
117.610031 16.890322 -214.149307
-54.448601 -155.099060 -214.405106
-49.711761 -153.049118 -214.762146
-16.843390 -117.717186 -214.044022
-17.729172 -117.760483 -215.026154
-8.747927 -109.325050 -214.221588
-6.703142 -108.255013 -214.878784
29.769928 -71.104858 -215.285660
31.418018 -69.947487 -215.941422
34.823128 -65.073547 -214.865967
37.462387 -65.453308 -214.658646
41.253242 -61.097801 -215.886490
42.950111 -61.440662 -214.672195
51.542770 -52.797848 -215.335663
65.931770 -37.048248 -215.764023
111.943199 9.997338 -215.146347
114.882431 11.435053 -216.252731
115.812836 13.802362 -214.287170
-50.317631 -152.973541 -215.692245
-15.562667 -118.592621 -217.480576
-8.722912 -109.341637 -215.955643
-7.666481 -109.225098 -215.848923
31.238356 -70.847816 -215.285339
30.916664 -70.205269 -215.429276
36.596672 -64.499222 -215.219330
41.084560 -61.591869 -215.529510
43.703705 -59.016701 -216.509232
51.235889 -51.966675 -216.669327
111.993065 8.858742 -215.547043
114.451866 11.373215 -216.053040
118.675789 13.158102 -216.628754
-52.568218 -155.627777 -215.291183
-50.695301 -153.808868 -215.106613
-16.546665 -119.576012 -215.437698
-7.033600 -109.315102 -216.469055
-8.284331 -110.638504 -216.307358
-7.640422 -110.435829 -216.526566
31.325470 -70.046883 -216.346970
30.606056 -69.558922 -215.950806
35.959702 -64.405029 -215.435333
40.400776 -60.059738 -216.043564
42.737225 -60.126255 -215.581329
48.828098 -54.617096 -216.879669
51.858013 -51.578701 -216.935730
56.304848 -45.594707 -216.234558
59.123745 -44.705738 -214.894669
62.496799 -38.333649 -214.261124
64.749092 -38.059593 -215.479996
