# This PCD file was generated using the MATLAB® pcwrite function
# from Computer Vision Toolbox®.
# .PCD v.7 - Point Cloud Data file format
VERSION .7
FIELDS x y z
SIZE 4 4 4
TYPE F F F
COUNT 1 1 1
WIDTH 1455
HEIGHT 1
VIEWPOINT 0 0 0 1 0 0 0
POINTS 1455
DATA ascii
86.586395 15.498316 -72.336319
87.035500 15.932214 -71.859917
87.696854 16.726334 -72.141800
90.014481 18.591602 -71.902420
93.776947 21.652882 -72.142288
93.480682 22.444815 -71.431038
94.978668 24.095148 -72.207939
95.838089 24.784388 -72.195526
97.702019 28.033226 -71.849312
-34.106808 -105.076218 -72.221352
9.524742 -61.897785 -72.240219
83.581726 12.836282 -72.342369
84.002159 13.522732 -72.216164
84.742249 14.157271 -72.427750
85.743637 14.675011 -72.432587
86.996155 16.100225 -71.776047
96.170105 24.782351 -72.521194
96.599205 25.641491 -71.980507
97.913483 27.015505 -72.197258
110.492142 39.324146 -72.546829
84.967125 13.611374 -72.565720
86.879753 15.363222 -72.407318
97.550034 27.025970 -72.410294
98.309753 27.441141 -72.917419
110.083817 38.592941 -72.588684
10.053985 -62.394833 -72.818779
83.498390 11.836557 -73.043594
83.649796 12.679274 -73.063919
84.369713 13.410357 -73.241974
85.141563 13.959372 -73.538292
98.194611 27.710716 -73.718376
99.200050 29.056847 -72.880417
100.307053 30.759293 -73.003151
9.270006 -62.158081 -73.624176
8.753932 -62.175110 -73.607216
85.742149 14.349591 -73.832512
98.735573 27.144970 -73.744705
99.319038 28.482275 -73.726128
109.703316 38.563599 -73.594475
83.477333 12.176614 -73.607391
84.116554 11.851183 -74.246986
84.347237 13.565377 -73.991341
85.162399 13.607082 -74.195198
85.410194 13.275376 -73.824799
110.412125 38.988598 -73.582275
-34.456524 -105.124321 -74.444099
8.766407 -61.996052 -74.399483
84.591843 12.544972 -74.490211
84.565582 12.920354 -74.397873
99.545753 28.403467 -74.504059
100.897507 29.956207 -74.557869
101.076126 30.300865 -74.400139
110.712013 39.163994 -74.523178
8.767077 -62.323917 -74.893417
100.432854 28.829483 -74.872261
100.923752 30.264938 -74.375412
110.187820 38.738728 -75.152954
101.225960 30.056019 -75.136620
101.560814 30.651665 -75.514061
109.189186 38.549931 -74.954971
109.879311 38.582756 -75.055168
-34.668938 -104.966026 -75.971634
8.779198 -62.859299 -75.549126
80.401993 10.704728 -75.574997
101.346031 29.853109 -75.605591
101.933311 31.072481 -75.306168
108.591492 38.916317 -75.341606
101.986748 30.868429 -75.721428
103.188675 33.013271 -75.478600
-34.178055 -105.421516 -76.567238
80.691566 10.124604 -75.806252
102.306984 30.533232 -76.246078
103.307785 32.348888 -76.526451
103.419815 33.123547 -76.474716
110.213730 38.349888 -76.649208
109.107796 38.710602 -76.240746
-33.912510 -105.765289 -76.798660
9.364938 -62.739906 -77.199898
108.749413 38.415596 -76.971016
-34.181614 -105.553429 -77.941299
8.460502 -62.537670 -76.819504
80.762558 10.249297 -77.624641
102.856186 31.295010 -77.085060
103.402473 32.064243 -77.154358
104.028015 32.636814 -76.999542
104.325783 33.911842 -77.129700
104.942734 34.362179 -77.106842
81.089821 10.670970 -77.451378
103.954292 32.190685 -78.074348
103.363091 32.879131 -77.264626
104.398659 33.480602 -77.690315
104.643761 34.691956 -77.600677
106.775902 36.468491 -77.364044
107.866005 37.549702 -77.494843
108.484085 38.018753 -77.075272
109.324333 38.209793 -77.553268
4.855056 -66.573914 -78.207375
8.490005 -63.176353 -78.274437
7.897044 -63.313061 -77.768555
80.576279 10.103377 -77.889282
104.158707 33.031929 -78.174339
104.094894 33.650959 -78.173668
104.952148 34.572186 -77.986115
105.888924 35.741302 -77.988815
106.995201 37.039371 -78.389977
-34.227577 -105.899605 -78.558609
5.251583 -66.302734 -78.140823
5.994173 -65.853561 -78.358383
80.415291 9.589583 -78.716064
104.511688 32.298641 -77.838051
108.396881 37.487919 -78.360382
109.462212 38.113651 -78.732979
4.366668 -66.922478 -78.800072
80.845573 10.487247 -78.886978
105.036301 32.998772 -78.725555
105.334564 34.318871 -78.303169
105.946739 35.741154 -78.933617
106.115913 36.003036 -78.949364
107.387993 36.756344 -78.767639
108.132217 37.171009 -78.572235
108.037704 37.373295 -78.018135
109.803062 38.041103 -78.204140
-34.709145 -106.013222 -78.813225
4.489749 -67.554588 -79.085503
3.904784 -67.678108 -79.696594
103.870110 32.835304 -79.297363
104.905403 34.485111 -79.366333
105.649872 35.318249 -79.128693
106.111282 35.719067 -79.258263
108.831215 37.880966 -78.591988
-34.155392 -105.498009 -79.191429
79.746407 10.042785 -80.209862
107.657578 37.040871 -79.114029
109.434387 37.866024 -79.633476
3.688529 -68.386551 -79.915054
80.039352 9.645189 -79.814972
80.662193 10.051218 -79.574608
105.198601 33.739628 -80.188843
105.120049 34.067463 -80.168770
106.079468 34.878155 -79.938416
106.528870 35.955727 -80.051247
107.454453 36.526016 -79.711800
108.097931 36.977520 -79.964592
108.245407 37.404457 -80.157639
-34.358738 -105.979317 -80.333839
80.188118 9.827041 -80.451988
104.777939 33.553921 -80.301453
105.225021 33.694176 -80.589874
108.365822 37.603271 -80.068687
109.425941 38.025459 -80.544113
2.427487 -69.368187 -80.677887
80.575188 10.056511 -80.352974
106.308823 35.590801 -80.690605
-34.204277 -105.985817 -81.199745
1.258592 -69.070366 -81.416786
80.112679 10.034338 -81.191063
106.140099 34.568211 -81.451790
106.744003 35.589687 -81.084740
107.297432 36.107475 -81.480820
107.780403 37.092438 -81.323189
108.550903 37.855919 -80.846664
1.559107 -70.409164 -81.550194
105.569824 34.190712 -81.569794
108.168564 37.413620 -81.091881
109.724831 37.846066 -81.928978
-34.461182 -105.729454 -81.543022
0.140333 -71.229195 -82.267731
106.473595 35.430565 -82.065491
107.076439 36.545719 -82.263840
107.892693 37.475315 -81.991409
108.543030 37.615955 -81.637260
109.553230 37.779152 -81.807861
-0.587792 -71.627937 -82.940697
105.533524 34.488705 -82.986526
105.999168 34.840054 -82.499420
-1.073065 -72.572205 -82.452477
80.179726 9.339603 -82.611397
105.894737 34.332993 -82.774666
106.034828 34.866184 -82.698425
106.643539 35.824780 -82.801414
107.053291 36.170338 -83.190605
109.157120 38.554207 -82.831474
-33.821003 -105.592728 -83.678604
80.181709 9.542276 -83.321869
81.110352 10.078131 -83.435303
107.526154 37.331284 -83.552338
108.578705 38.118111 -83.390739
109.597107 37.979591 -82.970772
81.170609 10.707805 -83.733879
106.059616 34.817722 -83.761772
108.526657 37.858295 -83.583282
-3.451009 -74.283279 -84.271141
-3.576449 -74.953262 -84.257103
106.133812 33.849224 -84.416756
106.454002 35.740860 -83.969109
106.894142 37.131580 -83.914719
109.599167 38.705399 -83.695892
110.004532 38.503513 -83.736267
80.119812 9.508187 -84.255569
105.748055 34.614243 -84.003860
110.904449 39.107231 -84.618164
-4.475080 -76.047432 -84.567261
80.946007 10.723697 -84.614487
105.871986 34.592735 -84.918594
106.335236 34.989494 -84.460205
105.986450 35.712162 -84.455284
108.919579 38.824863 -84.557518
-34.440819 -106.164238 -85.186493
-4.583451 -76.074883 -85.367485
105.816795 34.604542 -85.138428
106.483376 36.050720 -84.980110
108.844543 38.822098 -84.968750
-4.927167 -76.745827 -85.340065
-5.627610 -75.690376 -85.775192
80.097130 9.527117 -85.584869
106.175758 35.152367 -85.426941
110.167870 38.568466 -85.533188
-34.470428 -106.231888 -86.503304
-5.952814 -77.153572 -85.848724
80.989342 9.985208 -85.824158
105.831284 34.585823 -85.744179
105.961632 35.312874 -85.842003
105.791100 36.037247 -85.907333
-34.296165 -106.023422 -86.318069
-6.152413 -77.713455 -86.453613
-7.040580 -77.564369 -86.391167
80.119278 9.111645 -86.100922
81.313492 9.852298 -86.211784
105.845940 34.579468 -86.394707
105.744637 34.743156 -85.853821
106.438637 35.414207 -86.287071
110.026619 38.011292 -86.335861
-34.849491 -106.120033 -86.694962
105.648384 34.297836 -87.311035
105.876106 35.054523 -87.133484
106.001076 36.340843 -87.181335
109.755417 38.587822 -87.517647
-6.841261 -78.378937 -87.352325
80.286423 9.941550 -87.514572
80.728012 10.078177 -87.865791
81.197472 10.762894 -87.767632
106.061539 34.377930 -88.088249
109.099480 38.393513 -87.563210
-34.462635 -105.834305 -88.040405
-7.440613 -78.463524 -87.644699
109.848602 38.300980 -87.957443
-7.967814 -79.180420 -88.487442
80.029770 9.689769 -88.430534
80.981361 10.503063 -88.026634
81.016747 11.179857 -88.325966
106.223099 34.883980 -88.359283
106.027740 35.735447 -88.491501
110.016655 38.369827 -88.313972
80.149811 9.566618 -88.581947
81.007439 10.276108 -88.974586
81.273933 11.030803 -88.903328
106.275246 34.724026 -88.890266
105.702713 34.475113 -88.400047
106.622444 36.104164 -88.417480
109.768005 38.502659 -88.556465
-8.585692 -79.675781 -89.047234
105.943527 34.423351 -89.151665
110.131805 38.222717 -88.888702
-35.095058 -105.896217 -89.569756
-8.533957 -79.838837 -89.890785
80.140015 9.594950 -89.726593
80.891670 10.122675 -90.091019
80.770866 11.079041 -89.628105
109.443985 38.389320 -89.325439
-8.553670 -80.278000 -89.745384
79.774948 9.411317 -90.203575
81.321617 10.915771 -89.841835
106.301888 35.112400 -90.006012
106.226723 35.315296 -89.864647
109.789474 38.124691 -89.601402
-9.279835 -80.906479 -90.612465
80.229187 9.716339 -90.552261
81.005951 10.182170 -90.469124
109.262215 37.953522 -90.607246
81.391182 10.849695 -90.629105
108.305061 38.263149 -90.647072
-10.201331 -81.325638 -91.003159
-10.267255 -81.077896 -91.350891
79.500435 9.631313 -91.223961
106.507385 35.058743 -90.815155
108.963516 37.647335 -91.001610
-10.063915 -81.756096 -91.652481
80.983261 10.295221 -91.685616
81.416084 10.997669 -91.305206
106.516930 35.509792 -91.641968
107.178062 36.683624 -91.504784
109.476357 37.925858 -91.400475
108.308571 37.929729 -91.700394
-10.972100 -81.717567 -91.835464
106.831047 35.543114 -92.021927
107.041878 36.205982 -91.767776
107.710732 37.019745 -92.139870
108.004189 37.604046 -92.155777
-34.510414 -106.052094 -92.452202
81.015198 10.500868 -92.298790
107.033470 35.156586 -92.399239
106.268021 35.683781 -92.744965
108.995041 37.419048 -92.550682
-11.006820 -81.896744 -92.894287
81.153755 10.496874 -92.938934
107.072174 35.250725 -93.492249
107.058983 36.092804 -92.354256
107.168549 37.057285 -92.763947
109.322113 37.573452 -92.393356
108.216507 37.606174 -93.009315
-11.039000 -82.437439 -92.614723
80.612274 10.255979 -93.454887
81.690247 10.456488 -92.877220
108.737762 37.450249 -93.261360
81.002388 10.104218 -93.357407
82.110855 11.935853 -93.455170
107.063644 35.469276 -93.598045
107.249863 36.707775 -93.594162
107.976151 37.293747 -93.472603
109.014107 37.328247 -93.594780
108.724640 37.313789 -93.952019
-34.842571 -105.920395 -93.851151
109.081825 37.403229 -94.352859
-34.103569 -105.400291 -94.443237
-12.313735 -83.277702 -94.536362
80.460472 10.065747 -94.541817
81.291344 10.468328 -93.980797
82.137688 11.635964 -93.824654
107.890121 36.226307 -94.227409
107.863503 36.793098 -94.708557
108.164940 36.523396 -94.901863
-12.775855 -84.337265 -94.888847
80.441078 10.204306 -95.369240
81.646736 10.994521 -95.183647
82.452034 11.321064 -94.776939
81.511536 10.622695 -95.893387
-34.299885 -105.677055 -95.723740
-12.825881 -84.031830 -95.759743
82.263222 11.559663 -95.906219
81.635124 11.419991 -96.431114
81.440857 11.052429 -96.646156
82.024712 11.266777 -96.490471
-13.747975 -84.722160 -97.340508
81.660202 10.745419 -96.746765
82.033676 12.046775 -97.245155
-13.854672 -84.878746 -97.276863
82.839874 12.567173 -97.569801
-34.522049 -105.922119 -97.826393
-14.192950 -85.469475 -98.269455
81.658913 10.872610 -97.769951
82.196648 11.580293 -97.411530
-34.426384 -105.509033 -98.308235
81.764954 11.696821 -98.595100
82.901459 11.948864 -98.396461
-34.308460 -105.668587 -98.600655
82.335793 11.423812 -98.697708
82.567924 12.003003 -98.566711
-35.038120 -104.840210 -99.268341
81.998322 11.377054 -99.845512
82.787407 12.388479 -99.418167
-14.709754 -86.138855 -100.015945
81.880714 12.113419 -99.784683
82.769554 12.134513 -99.838097
83.311676 12.427512 -99.689636
-15.065023 -86.444542 -100.450424
82.141838 11.388744 -100.197525
82.597672 11.451912 -100.475670
83.348045 12.939522 -100.181526
82.489502 12.218930 -101.072243
83.100433 12.986143 -100.555794
-34.116703 -105.220306 -100.959740
82.802338 12.207312 -101.249138
83.863571 12.850594 -101.337570
82.343536 11.906915 -101.244125
83.567207 13.049555 -101.677132
83.773010 12.903261 -102.081062
-34.330734 -105.119804 -102.074432
-15.126658 -87.065323 -102.121208
83.323128 13.176780 -102.527580
84.006691 13.652458 -102.108772
83.467354 12.940007 -102.981705
84.245293 13.468488 -102.874466
-16.341660 -87.044434 -102.635246
83.768105 13.445554 -103.178940
-16.254488 -87.153549 -103.454781
84.056648 13.652155 -103.508102
84.404099 14.138743 -103.194702
-33.961273 -105.315353 -103.969299
83.679100 13.952970 -103.481918
84.604530 14.012758 -103.746872
-16.531395 -87.683144 -104.532272
84.504974 14.203920 -104.458824
-16.151911 -87.708908 -104.667168
-17.282701 -87.676216 -105.108589
85.388680 14.656427 -104.836906
-9.349658 -81.131973 -105.051231
-8.332603 -80.028526 -105.139496
85.487236 15.060000 -105.153130
-33.196396 -105.191948 -105.268188
-9.670296 -81.285011 -105.954758
-9.688820 -80.456055 -105.554558
-9.124186 -79.687386 -105.617195
-8.095067 -78.820206 -105.005188
-16.317438 -88.136581 -105.487144
-10.099997 -80.912056 -106.040939
-9.724393 -80.146713 -106.158356
-8.977426 -79.593155 -105.901299
-7.937104 -78.888191 -105.728027
-17.281181 -88.130356 -106.302711
-11.661510 -82.675262 -106.154167
-10.818718 -82.186211 -106.515327
-11.048428 -82.827194 -106.739555
-11.519740 -81.577744 -105.817497
-9.858799 -80.696686 -106.230034
-9.867284 -79.928619 -106.169426
-8.905601 -79.566750 -106.333260
-7.848364 -79.094215 -106.391777
-32.883858 -103.992630 -106.646858
-16.844217 -88.596703 -106.466675
-11.922127 -82.876236 -106.923889
-10.148784 -79.691742 -106.276108
-8.799194 -79.402802 -106.758293
-33.286842 -104.583061 -107.079498
-17.362438 -88.769539 -107.567528
-12.176080 -83.674759 -107.070450
-12.143928 -82.883308 -106.999977
-7.819156 -79.450737 -107.101410
-32.892536 -104.462677 -107.484367
-17.476818 -88.686638 -107.725471
-12.092683 -82.521423 -107.204765
-11.735788 -82.403793 -107.476646
-33.037216 -104.458305 -107.850845
-17.761147 -88.997299 -107.806313
-13.207512 -84.637634 -108.117653
-12.851860 -83.109856 -107.908401
-12.506664 -82.789375 -107.689499
-8.554210 -79.503174 -108.477905
-7.970950 -78.890083 -107.850449
-33.123291 -103.944847 -107.881805
-32.647484 -104.503098 -108.673935
-33.124889 -103.811867 -108.704384
-18.459795 -89.748413 -108.434822
-12.971188 -83.068054 -108.381035
-12.747705 -82.816208 -108.534416
-8.602906 -79.233292 -107.772888
-8.003408 -78.605469 -108.119255
-18.000174 -89.330902 -108.671806
-18.837505 -89.307762 -108.641830
-12.663988 -82.573746 -108.413315
-11.888879 -81.762741 -108.844749
-10.470292 -80.758064 -109.374687
-9.562712 -80.201469 -108.775253
-9.086638 -79.177696 -108.953072
-7.969534 -79.235886 -108.836517
-32.515499 -103.636688 -109.181755
-18.107840 -89.639771 -109.208076
-13.615268 -84.774605 -109.780014
-13.121143 -83.680588 -109.729805
-12.501396 -82.393661 -109.570007
-11.421593 -82.378838 -110.029518
-10.194786 -80.511787 -109.432930
-9.605012 -79.939819 -109.693001
-7.992889 -79.598267 -109.001717
-32.707901 -103.796432 -109.843819
-19.944876 -90.140099 -109.988106
-11.717767 -82.051872 -110.166695
-11.391686 -81.009262 -109.871162
-8.968966 -79.538773 -109.612617
-7.659002 -79.172150 -110.150139
-12.907265 -84.514565 -110.639671
-12.518193 -82.759651 -110.459686
-19.604511 -90.549179 -110.761375
-12.880775 -84.695694 -110.826622
-12.615117 -83.455612 -110.284286
-12.706402 -82.729881 -110.544106
-11.836357 -82.084534 -110.680946
-11.391418 -81.375565 -110.881996
-10.836516 -80.749931 -110.681778
-9.742805 -80.163597 -110.233154
-9.023963 -79.054741 -110.632454
-32.267807 -103.500427 -111.443382
-19.781847 -90.535225 -110.860771
-10.333482 -80.945786 -111.498711
-9.346812 -80.001045 -111.325180
-8.151620 -79.381973 -111.220177
-32.903328 -102.686501 -111.499397
-20.128763 -91.387939 -111.122307
-12.276304 -83.859360 -111.581795
-12.009404 -82.841545 -111.431541
-8.355335 -78.827286 -111.551422
-19.630499 -91.602325 -111.798164
-11.560495 -82.048195 -111.630508
-11.620023 -81.448463 -112.132881
-10.196971 -80.278488 -111.818771
-9.241001 -80.162956 -111.657646
-8.878130 -79.486870 -111.764091
-7.751850 -79.440132 -111.858078
-11.971820 -83.895248 -112.276031
-11.995655 -83.011658 -112.774063
-10.906385 -81.745697 -111.643341
-9.888452 -80.198051 -112.409149
-9.137244 -79.087639 -112.859291
-11.668524 -83.180962 -112.695457
-11.162404 -82.792511 -112.583214
-32.034821 -103.356010 -113.234489
-21.666973 -92.323654 -113.376541
-10.398348 -81.077263 -113.344345
-9.360185 -80.148918 -112.748085
-7.583589 -79.427719 -113.122810
-8.818001 -79.412422 -112.989555
-31.902485 -103.208488 -113.213226
-21.394997 -92.573608 -113.702682
-11.312927 -82.622406 -113.558350
-10.632595 -81.683830 -113.342827
-8.924993 -80.079300 -113.849014
-22.501581 -92.959908 -114.000610
-10.309241 -81.728218 -113.520325
-10.024763 -80.394524 -114.701340
-8.009185 -79.511368 -114.107597
-9.173324 -80.004433 -113.922714
-31.495018 -103.125847 -114.160446
-31.816868 -102.322502 -114.562775
-22.278408 -93.593391 -114.325043
-31.454632 -102.472176 -114.608810
-31.638374 -102.243530 -114.666740
-22.710747 -93.492722 -115.000122
-9.488743 -81.227501 -114.673065
-9.459731 -80.126083 -114.483238
-8.347600 -80.019020 -114.792168
-22.697660 -93.953758 -115.193352
-9.058537 -79.968994 -114.845428
-23.546196 -94.100624 -115.576233
-31.106636 -102.191582 -116.221352
-23.988796 -95.343498 -115.824295
-24.043318 -95.561562 -116.413437
-31.518166 -102.929817 -116.360374
-31.459881 -101.196747 -116.291756
-23.406563 -95.590958 -116.767174
-30.763115 -102.374153 -117.011177
-30.957781 -101.950279 -116.955116
-24.991114 -95.781593 -117.458626
-24.822077 -96.143982 -117.513336
-26.009365 -96.479340 -117.860664
-30.672810 -102.224693 -117.484978
-25.446791 -96.866829 -117.975807
-30.920311 -101.755783 -118.249474
-29.859142 -101.626808 -118.351334
-25.865435 -96.844208 -118.411858
-29.815035 -99.744934 -118.731590
-26.205194 -97.761078 -118.837776
-26.709427 -98.346245 -118.622498
-29.781271 -100.952675 -118.954155
-29.328299 -100.616837 -119.330330
-29.602354 -100.052597 -119.282936
-28.724897 -99.908981 -119.164909
-27.642286 -99.919189 -119.679382
-27.120716 -99.027214 -118.975304
37.293629 -34.043926 -234.819809
38.452995 -33.408360 -235.078583
38.511818 -32.832455 -234.640198
34.594513 -36.593224 -235.438660
35.007172 -36.141869 -234.799850
36.018253 -35.103420 -235.259277
36.325916 -34.923458 -235.251175
37.732540 -33.029835 -234.971664
38.885399 -32.095711 -235.036346
39.306190 -31.628246 -235.723450
39.110622 -31.964462 -235.329941
39.906635 -31.244984 -235.745056
41.504112 -28.520195 -235.414246
42.368599 -27.786579 -235.055725
43.554535 -26.931263 -235.114578
44.083714 -25.919069 -235.146210
44.918289 -25.776369 -234.998184
34.314713 -37.127609 -235.797638
34.807697 -36.218307 -235.146774
35.167324 -35.125103 -235.643341
36.994476 -33.384808 -235.330963
37.233910 -33.499172 -235.497543
38.255001 -32.361919 -235.557144
38.992764 -31.180056 -235.618469
41.347603 -29.870096 -235.325241
41.586140 -29.355747 -235.296082
42.478554 -28.494444 -235.587540
42.844814 -27.647415 -235.609833
43.927612 -26.956627 -234.749710
44.978817 -26.276377 -235.830551
44.663387 -25.937342 -235.810638
45.089859 -26.143991 -235.655563
45.950317 -24.822023 -235.373291
34.035976 -37.494709 -235.646912
36.508366 -34.225269 -235.964813
37.896030 -32.925785 -235.890747
38.694572 -31.656017 -235.947083
42.812641 -28.449881 -235.470825
47.049023 -24.668297 -235.580780
47.053780 -24.160151 -235.642883
47.465416 -23.429964 -236.085175
48.403065 -23.326298 -236.226868
33.309826 -37.803776 -235.979996
34.172504 -37.565830 -236.224686
35.744217 -35.529427 -236.537170
35.918446 -35.632256 -236.229095
36.645004 -34.905315 -236.660721
37.374592 -33.939335 -236.461258
38.322990 -31.681541 -236.590012
40.532288 -30.560184 -235.953781
41.132977 -30.003862 -236.522980
42.596096 -28.960789 -236.222656
41.508244 -29.098240 -236.082550
48.697464 -22.404278 -237.403152
33.337036 -38.188808 -237.131561
34.663639 -36.451996 -236.305725
37.601170 -33.667507 -236.791885
38.883038 -32.393394 -236.536697
39.427753 -31.876085 -237.124207
39.500233 -31.808409 -236.816635
39.329033 -31.441046 -237.131485
39.506817 -31.010231 -236.558395
40.121086 -30.424072 -237.013397
41.403927 -29.364576 -236.755569
41.862534 -29.353045 -236.706863
41.859730 -28.215300 -236.760818
43.789547 -27.381004 -236.605911
44.719791 -25.850971 -237.257706
45.012985 -26.173586 -236.661072
45.739552 -24.977381 -236.487534
49.636108 -22.083357 -236.669312
37.955875 -33.261326 -237.369415
37.622009 -33.534637 -237.462418
38.708004 -32.403278 -237.024429
38.283810 -32.135487 -236.938980
40.123573 -31.043093 -237.519562
40.846542 -31.095034 -237.320877
41.833973 -29.261351 -237.313965
41.638348 -30.002363 -237.235382
42.078381 -28.925898 -236.904831
42.942989 -28.924053 -237.488205
43.395401 -28.480774 -237.053558
46.953018 -24.534401 -237.152969
47.279736 -24.013336 -237.073029
50.338181 -21.730970 -237.098907
50.831341 -20.416677 -237.535477
38.334167 -32.284363 -237.847977
39.007885 -31.898846 -237.757736
39.128170 -31.434034 -237.139587
40.101406 -30.180899 -237.442627
40.813251 -30.024904 -237.516922
41.858395 -29.172514 -237.554718
42.321865 -28.645868 -236.987259
48.348904 -23.457779 -237.617325
39.122723 -32.372292 -237.914566
38.817936 -31.617752 -237.775772
39.724857 -30.853622 -238.242889
39.995499 -29.981497 -237.485260
40.762741 -29.572489 -237.575485
41.956654 -29.322294 -237.944504
49.046188 -22.481928 -237.702850
51.563499 -20.006569 -237.953598
51.476261 -20.365534 -238.098404
38.908772 -31.846598 -238.476669
39.828632 -30.828474 -238.508820
40.162983 -30.377001 -238.553268
41.469181 -29.653212 -238.722900
49.735607 -21.894352 -238.650665
40.669296 -30.405607 -238.366608
45.986820 -25.180025 -239.324783
46.767899 -24.190620 -238.825943
52.258904 -19.387264 -238.329514
45.120251 -26.606876 -239.580246
50.820080 -20.318529 -239.308762
52.330448 -19.083473 -239.055466
46.830833 -23.477251 -239.184326
47.865658 -22.980637 -239.210159
49.076447 -22.552328 -239.736404
53.121349 -18.775452 -239.529449
35.449848 -35.887856 -240.053665
35.668758 -35.343513 -240.118149
36.784576 -34.866520 -240.181488
37.810921 -33.806538 -239.541595
38.280170 -33.497723 -240.656204
43.378174 -27.474012 -240.058319
45.967472 -25.606058 -240.370697
46.985153 -24.365644 -240.136520
49.090950 -21.920471 -239.836716
51.124622 -20.146914 -239.819763
52.657822 -18.781862 -240.111862
28.110519 -43.140217 -240.289795
28.380579 -42.709461 -241.024261
32.353622 -38.966999 -240.594421
33.634876 -37.973656 -240.766586
33.829838 -37.874763 -240.722473
34.807453 -36.888710 -240.548035
43.434017 -28.054369 -240.411453
45.240520 -26.359245 -240.636917
45.063992 -26.880228 -240.392197
45.629486 -25.734127 -240.181259
45.582962 -24.877340 -240.638245
46.321571 -24.087109 -240.138458
46.945366 -24.149151 -240.427719
48.132328 -21.723345 -240.100388
51.683060 -19.812147 -240.432983
27.907558 -43.285759 -240.580551
28.579887 -42.523746 -240.398575
29.215200 -42.282940 -241.160263
29.804264 -41.056427 -241.213181
30.735725 -40.887962 -241.402100
32.216721 -39.768303 -240.876236
36.059727 -35.504719 -241.396164
36.733215 -34.800453 -240.980499
38.519279 -32.631714 -241.121155
43.180897 -28.876976 -240.876068
44.013092 -26.589745 -240.560837
44.405666 -26.118547 -240.994659
47.268948 -23.436852 -241.508148
48.270832 -23.283861 -240.997833
47.817429 -23.361496 -240.725708
49.298061 -21.564838 -240.722610
51.923695 -19.182394 -240.561325
53.362606 -18.292810 -240.780746
26.692396 -44.929295 -241.716934
26.880108 -44.185574 -241.057693
27.572327 -43.127892 -241.014679
28.879934 -41.824333 -240.931046
29.374390 -41.142536 -241.282761
34.964500 -36.793686 -241.694321
35.265579 -36.229977 -241.191101
37.279648 -34.226788 -241.804001
39.253876 -32.380024 -241.685394
43.909027 -27.277084 -240.677505
43.604065 -26.649576 -240.951599
48.766064 -22.559427 -241.264160
47.030712 -22.809845 -240.877670
49.299313 -21.802044 -240.717224
50.129353 -21.501434 -241.343323
51.704006 -19.494600 -241.285141
53.827599 -17.923328 -240.692139
53.549667 -17.074440 -241.379425
26.912514 -44.004581 -241.613312
31.973965 -39.421936 -242.184418
32.476555 -38.602837 -241.913086
33.555206 -38.035931 -241.564285
36.501095 -33.075283 -241.228912
37.783413 -33.086769 -241.928268
39.816166 -31.184538 -241.854660
40.384827 -30.399963 -241.988983
42.816708 -28.035707 -241.719742
46.986027 -22.554886 -241.450485
49.058929 -22.034958 -241.940155
48.563843 -22.116146 -241.360260
50.454720 -21.020536 -241.757797
49.620770 -20.678686 -241.821701
51.914551 -19.487951 -241.638016
52.964355 -18.333302 -241.759811
26.490629 -44.992928 -241.781235
26.358019 -43.818073 -242.260132
28.964745 -42.290600 -241.837814
29.792156 -41.746891 -242.455368
30.718439 -41.363407 -242.334641
31.829058 -40.241459 -241.546814
38.110065 -33.588734 -242.318283
37.322006 -32.976265 -242.363007
43.004139 -28.203611 -242.089722
48.540874 -22.124964 -242.031052
50.739326 -20.709311 -242.119720
48.910126 -20.567902 -242.153717
52.574974 -18.954281 -241.521484
52.865116 -17.886383 -242.156906
26.953959 -43.928249 -242.297379
28.138485 -42.842140 -242.829498
39.364262 -31.977297 -242.526443
42.306160 -29.100197 -242.507202
42.203117 -29.138130 -242.086700
50.040539 -21.635157 -242.223511
48.965168 -21.261232 -242.502396
50.647575 -20.652172 -242.152954
27.104996 -44.161976 -242.817032
28.384153 -43.035023 -242.747971
40.286858 -31.507729 -242.960846
40.899529 -30.435369 -242.825165
41.298412 -30.372866 -242.582581
41.512646 -28.396404 -242.644012
47.895134 -21.958630 -242.444214
49.723709 -22.023716 -243.153427
49.086708 -21.656540 -243.077927
51.525337 -20.266893 -242.723328
50.319336 -20.195662 -243.263641
52.581047 -18.229649 -243.177658
54.148396 -17.721733 -242.495346
53.585190 -16.759232 -242.437927
28.480778 -42.863049 -243.074585
39.566109 -30.769808 -242.973068
40.239326 -30.704781 -242.983765
49.254120 -22.166954 -243.110504
49.109158 -21.336824 -242.758682
50.281082 -20.093784 -242.925491
52.992470 -18.845272 -243.400787
54.156437 -16.774384 -243.195435
54.782127 -15.758185 -243.761047
47.597759 -24.121601 -243.983932
51.321354 -20.099056 -243.921631
50.365829 -20.263733 -243.485535
52.436466 -18.879604 -243.521179
53.725552 -17.386730 -243.620209
53.961475 -16.878576 -243.400955
54.548004 -16.162237 -243.788803
27.498413 -44.065178 -243.556793
28.252148 -43.280861 -243.775650
47.260780 -24.496014 -243.868927
46.391357 -23.915937 -244.070328
52.671310 -18.170816 -244.210281
54.263245 -17.504755 -244.206772
54.156551 -17.047396 -244.625427
53.935463 -16.624081 -244.135376
55.177891 -15.875901 -243.849106
28.761669 -43.114056 -244.295532
51.937874 -19.991077 -244.636169
53.106155 -17.511711 -244.438217
54.275681 -16.594332 -244.645813
55.649487 -15.507384 -244.950577
27.424980 -44.338703 -244.714294
46.500877 -24.657446 -244.843323
46.156624 -24.063322 -245.015762
53.534843 -18.055328 -244.401184
53.135574 -17.496523 -244.854904
55.206764 -16.866104 -244.677139
54.833233 -16.834850 -244.896606
54.915157 -15.870515 -244.533569
55.894966 -15.855949 -244.751984
55.370594 -14.796622 -244.695969
27.329016 -44.064926 -245.053192
28.100845 -42.905563 -245.499222
46.490730 -25.081526 -245.166412
45.914120 -24.195351 -245.188461
51.622307 -19.478468 -245.326828
53.845520 -17.935123 -244.996384
55.154034 -16.334026 -245.005692
56.222260 -14.517482 -244.808228
27.608047 -44.069721 -245.693863
28.102888 -42.297585 -245.387527
46.098988 -25.415632 -245.750732
52.156757 -19.741207 -245.599503
51.056458 -19.555241 -245.118439
56.018074 -15.233047 -245.465271
56.473888 -13.891058 -245.326111
27.167700 -44.289501 -246.214493
28.263065 -43.097313 -245.833984
46.390907 -25.307930 -245.668091
51.822392 -19.762897 -245.470367
51.057316 -19.792105 -245.754639
54.458527 -16.606787 -245.804718
56.800339 -14.660587 -246.371033
56.655495 -14.011515 -246.236115
27.504120 -43.955658 -246.466980
28.022331 -42.896248 -246.166595
54.463402 -16.562857 -246.566406
27.622047 -44.470562 -246.793701
46.093544 -25.182653 -246.560745
55.142036 -14.995838 -246.789780
57.619492 -14.510106 -246.749283
27.672716 -44.016476 -247.205414
27.762434 -43.600948 -247.154251
46.178093 -25.114223 -247.010132
46.773224 -23.841698 -246.965912
51.929417 -18.921692 -246.976151
55.335285 -15.220506 -247.230820
27.164164 -44.552944 -247.473999
28.511459 -43.530575 -247.688004
46.632004 -25.029882 -247.624542
53.081451 -18.846426 -247.251633
55.536434 -15.778418 -247.615051
55.924187 -14.682133 -247.600433
57.814083 -13.270701 -247.737518
26.955688 -43.861771 -248.031906
56.239933 -15.512425 -247.979752
57.602383 -13.658853 -247.642227
27.306389 -44.057400 -248.350876
27.990702 -43.584885 -248.608383
47.189850 -24.697279 -248.343735
52.988865 -18.824362 -248.504288
56.458633 -15.535786 -248.348953
56.080833 -13.787048 -248.500534
58.379692 -13.056895 -248.033737
58.276405 -12.944210 -248.832764
28.429962 -42.872185 -248.883377
27.440258 -42.225464 -248.684662
47.095448 -24.380087 -248.370880
57.002312 -14.696899 -248.867584
56.945477 -13.844048 -248.631851
26.956306 -44.074570 -249.304184
28.168461 -43.604042 -248.911774
27.944984 -43.615395 -249.925735
42.169460 -27.878811 -248.909744
47.497372 -24.454485 -248.841309
54.267620 -17.176388 -249.151993
52.827259 -17.338705 -249.395874
58.228096 -12.927361 -249.265533
26.810375 -43.951790 -249.704468
26.669006 -43.783676 -249.946228
27.777491 -43.152073 -249.525681
27.779480 -42.460129 -249.385880
41.777767 -28.370916 -249.633911
43.000000 -27.284979 -249.777466
46.854774 -24.421030 -249.638000
46.292366 -23.044220 -249.393509
57.367569 -14.341351 -249.594620
58.453659 -12.702460 -249.381378
26.617884 -43.768692 -250.003021
28.027924 -43.533428 -250.000046
27.912493 -43.249451 -250.303360
27.929176 -42.493061 -249.936737
41.387711 -28.739370 -249.730713
42.577400 -28.078985 -249.683380
47.307854 -24.343039 -250.059448
54.497410 -16.385321 -249.825150
57.204140 -14.354912 -249.583099
56.396580 -13.103432 -249.947784
58.650860 -12.825678 -249.753677
26.967314 -44.513256 -250.490753
26.853041 -43.719776 -250.140976
27.830854 -43.601986 -250.485489
41.960609 -27.839550 -250.391251
56.566959 -14.408248 -250.352249
58.396416 -12.779932 -250.185425
27.934919 -43.906021 -250.547913
26.838585 -43.501072 -250.635849
27.671825 -43.476700 -250.511581
28.570581 -42.010925 -250.723297
41.442463 -28.729837 -250.776031
42.104992 -27.904371 -250.522125
48.047760 -23.567602 -251.256866
55.141769 -16.090410 -250.742569
56.989292 -13.101814 -250.596649
26.944487 -44.351124 -250.831268
27.734758 -43.915924 -251.325027
26.686352 -43.617496 -251.306259
27.822502 -43.287590 -250.846970
27.868216 -42.345173 -251.137741
39.837395 -30.438910 -250.899567
40.867168 -29.323601 -250.980225
42.337498 -28.179142 -251.272003
42.964066 -26.900913 -251.468246
44.178665 -26.333536 -251.043427
47.213123 -23.373245 -250.989670
55.200417 -16.288361 -251.185577
58.094894 -12.908474 -251.153809
27.240015 -44.638840 -251.747620
27.689165 -43.570889 -251.989227
26.386875 -43.597141 -251.264099
27.474161 -43.378124 -251.425446
28.623821 -41.932709 -251.320236
45.410946 -24.599356 -251.519974
48.171410 -23.370695 -251.244659
55.367794 -16.165083 -251.192764
57.480228 -14.378287 -251.378494
58.280891 -12.640408 -251.547729
27.378672 -44.628731 -251.732437
27.621943 -43.899441 -251.744858
26.674135 -43.413830 -252.026230
28.167501 -43.120392 -252.030792
28.550623 -42.159718 -251.771576
29.329185 -41.699203 -251.928879
41.297825 -29.435331 -251.879562
41.262310 -28.703974 -251.978439
42.848446 -26.752138 -252.474884
44.303329 -26.407124 -252.101288
45.181469 -25.364269 -252.065399
27.043062 -44.600639 -252.020828
28.171206 -43.295212 -252.438019
26.885447 -43.593784 -252.181946
28.245817 -43.215885 -252.561768
27.894249 -42.611626 -252.466248
29.670012 -40.605942 -252.627975
39.854080 -30.289152 -252.265976
41.969254 -28.695957 -252.195786
42.613197 -27.343929 -252.700455
42.493275 -26.756235 -251.907043
44.942841 -25.110058 -252.478531
48.474579 -22.960039 -252.561371
55.088737 -16.654196 -251.920181
57.001202 -14.647697 -252.006561
26.511045 -43.195145 -252.598602
43.332344 -27.418425 -253.106537
58.290604 -13.306540 -252.640778
26.706413 -45.035450 -253.256012
28.382051 -42.292343 -252.851120
28.880154 -41.840797 -253.169052
28.936779 -41.129971 -253.139618
40.813934 -29.351059 -252.707031
41.888702 -28.548548 -253.267548
42.386936 -27.957321 -252.608231
43.408642 -26.797918 -252.986023
44.004215 -25.801523 -252.931274
46.259754 -24.028667 -253.248138
48.901291 -22.636026 -253.356018
47.595928 -22.704420 -252.629623
55.830997 -16.299105 -252.912155
56.860592 -15.075750 -253.084122
57.870625 -13.244610 -252.924225
29.205460 -41.202469 -252.988724
39.874912 -30.191866 -253.680832
40.751125 -29.226463 -253.495682
44.036385 -26.882002 -253.373215
43.912189 -26.661879 -253.603653
44.810764 -25.450108 -253.099014
45.317345 -24.666235 -253.889740
47.132385 -22.914412 -253.846939
48.467476 -23.179861 -253.626114
47.544659 -22.957582 -253.640564
54.821781 -15.960335 -253.639709
54.341579 -15.506530 -253.547562
26.883961 -44.677353 -254.099518
28.742363 -42.488255 -254.370743
29.753567 -40.723312 -253.925644
41.662373 -28.296604 -253.683655
43.836311 -26.962275 -253.669937
44.199524 -25.984112 -254.034958
48.326702 -23.116062 -254.408401
47.620583 -22.612139 -253.852783
56.873989 -14.805493 -253.854752
56.540451 -14.159984 -253.816299
58.318089 -13.378445 -253.909653
26.874193 -44.694870 -254.177582
28.053740 -43.315239 -254.222549
28.815771 -42.370861 -253.928818
29.565634 -40.746719 -254.740005
40.027000 -30.303516 -254.149628
41.481216 -28.571009 -254.513306
42.869553 -27.665556 -254.477127
43.987816 -25.847771 -254.287613
46.338551 -23.847019 -254.887878
47.532677 -22.696575 -254.533188
48.539734 -22.525200 -254.251282
55.062157 -15.968374 -254.766602
26.585154 -44.436378 -254.656250
28.969156 -41.504490 -254.628448
40.227753 -29.955265 -255.179337
41.018948 -29.204947 -254.231995
42.485474 -28.396772 -254.938919
44.140171 -26.618996 -254.939865
45.712582 -24.792517 -254.362701
46.416355 -24.517527 -254.725098
47.147724 -23.371239 -255.001450
47.567970 -22.789272 -254.477127
48.661179 -22.633400 -255.218063
48.920330 -21.859566 -255.176147
54.907528 -16.090714 -255.039749
56.295444 -15.114016 -254.588333
56.563099 -13.561911 -254.953995
57.737782 -13.858927 -254.706985
26.723499 -43.658298 -255.028137
29.335985 -41.773571 -255.409988
30.306711 -39.906155 -254.994720
42.232399 -28.007811 -255.005814
43.748508 -26.869526 -255.131317
48.844200 -22.187664 -255.038162
56.215427 -15.526031 -255.185562
58.120823 -13.888659 -255.065872
26.446472 -44.557076 -255.566315
27.295616 -44.059536 -255.644226
29.195545 -41.967823 -255.640442
30.987362 -39.324463 -255.541290
40.557957 -29.609703 -255.737213
42.390244 -28.522053 -255.718979
42.982735 -26.994690 -255.379807
44.326775 -26.441820 -255.757050
46.212521 -24.022707 -255.473145
54.902519 -16.349306 -255.594025
56.051186 -15.361227 -255.746445
57.454876 -13.663952 -255.430481
27.638273 -42.558121 -256.104309
40.080219 -30.135641 -255.686081
41.331287 -28.728531 -255.874725
44.466480 -26.032084 -256.176331
47.022091 -22.973362 -256.062408
47.498627 -22.548281 -256.301178
55.693832 -16.660816 -256.251984
54.924019 -16.179340 -256.080597
56.389851 -15.344916 -255.945709
56.395309 -15.302890 -256.164154
57.181721 -14.154555 -256.074585
26.810543 -44.633106 -256.379517
29.248901 -42.012402 -256.388763
29.753452 -41.706299 -256.255920
30.425814 -40.538445 -256.384094
30.666595 -39.862835 -256.824432
41.847252 -28.797674 -256.427765
43.045044 -27.406811 -256.336029
43.556511 -26.627466 -256.065979
45.790752 -24.718706 -256.434509
49.009041 -22.639074 -256.105072
48.474968 -22.974323 -256.040619
55.353210 -16.515907 -256.606445
57.185364 -14.084037 -256.115997
57.096668 -13.263175 -256.468567
27.405609 -43.208401 -256.690887
28.942238 -42.237206 -256.997070
42.363956 -28.013233 -256.763611
44.586956 -25.603821 -256.216187
45.397526 -26.264772 -256.798401
46.405495 -24.075048 -256.581726
47.106987 -23.285269 -257.047028
47.838219 -22.768206 -257.223724
54.830669 -16.733257 -256.615143
55.758591 -15.458154 -256.752289
57.331581 -14.276646 -256.401337
27.205894 -44.550125 -257.234589
26.463076 -43.637009 -257.406006
27.268442 -42.722042 -257.070770
29.717266 -41.235134 -257.158173
30.354301 -40.733578 -256.931427
41.545799 -28.540468 -257.309113
48.780193 -22.281029 -257.539276
55.200581 -16.590660 -256.860321
55.842411 -15.236964 -257.479431
57.157440 -14.226987 -256.638580
27.957664 -43.226078 -257.883728
29.975887 -41.386280 -257.336060
30.969120 -38.653465 -257.709991
41.020020 -29.608059 -257.683899
42.525330 -27.453331 -257.167572
44.506973 -26.064756 -257.502991
45.358700 -24.842484 -257.459625
45.862431 -24.387791 -257.667816
47.345806 -22.763445 -257.405029
48.820690 -22.038111 -257.236267
54.775051 -17.236931 -257.771667
55.880680 -15.752063 -257.724121
55.829285 -15.014421 -257.302124
57.276936 -13.883611 -257.509796
27.381695 -44.157223 -258.610107
30.020742 -41.922085 -257.626251
30.574390 -40.610397 -257.929810
43.281479 -27.914652 -258.240875
44.446022 -25.844336 -257.950989
46.321663 -24.356243 -258.454132
46.804661 -23.776543 -258.038635
56.315281 -15.139933 -257.979065
57.124981 -14.777568 -257.742371
27.265728 -43.822964 -258.253448
27.483141 -43.397408 -258.249664
28.043854 -42.327419 -257.845520
29.987541 -41.223381 -258.218689
30.449167 -40.623981 -258.419220
30.668125 -39.752247 -258.258026
40.409180 -30.369204 -258.645203
41.051807 -29.343136 -258.828888
42.150192 -28.999563 -258.605621
42.973328 -27.634890 -258.020630
44.191223 -26.340801 -258.517120
46.689724 -24.373352 -257.917480
47.648617 -22.779181 -258.230103
48.230083 -22.348278 -258.774078
54.436333 -16.841934 -258.505127
56.020687 -15.414174 -258.442688
56.133949 -15.083405 -258.468414
56.845646 -14.429794 -258.351471
27.698145 -44.611984 -258.371399
27.297606 -43.224617 -258.773865
28.093681 -42.424446 -258.757446
30.610392 -40.877579 -258.892303
31.281967 -39.741058 -258.794708
32.029907 -37.930851 -258.639069
39.247063 -30.686283 -258.383057
40.520794 -29.515974 -258.358856
41.499889 -28.819544 -258.113434
43.863350 -26.892366 -258.739166
44.928841 -25.120302 -258.553314
46.406212 -24.210915 -258.999268
47.374153 -22.589148 -258.851471
49.232643 -22.506144 -258.465607
48.045284 -21.943686 -258.879364
54.315681 -16.882839 -258.279480
56.344501 -15.481417 -258.707397
55.806461 -14.665173 -258.732758
57.506218 -14.151556 -258.253693
40.274029 -29.954903 -258.928070
41.592930 -28.782696 -259.607147
47.970562 -22.902960 -259.046173
54.120209 -16.791111 -258.970245
57.870880 -14.259396 -259.096008
57.102432 -13.163401 -259.027344
27.875240 -43.995018 -260.133911
27.444820 -43.179649 -259.744843
28.089247 -42.707615 -259.151672
30.591923 -40.728962 -259.475647
30.918406 -39.903500 -259.444611
33.058498 -37.561913 -259.785156
40.186901 -30.195789 -259.647278
41.362328 -29.507103 -259.230255
42.743900 -28.102592 -259.900452
43.869373 -27.064514 -259.399048
44.988590 -25.605917 -259.385284
46.117565 -24.511269 -259.883728
46.507286 -23.734026 -259.853577
47.693211 -22.480625 -259.638611
48.583035 -22.165785 -259.493164
48.439953 -21.993887 -259.625366
54.719429 -16.936356 -259.412506
53.884007 -16.551365 -258.940308
57.301365 -14.232660 -259.372864
27.722603 -43.739353 -260.036163
27.562529 -43.533669 -259.854279
28.411621 -42.468254 -259.696014
28.885612 -41.590237 -259.827240
31.108784 -39.971886 -259.571869
32.894833 -36.898468 -259.778931
39.534931 -30.623384 -260.085083
40.732388 -29.555513 -259.767120
41.640297 -29.524546 -260.045746
42.714581 -27.793890 -259.738068
44.356964 -26.166870 -259.392548
46.253445 -24.155706 -259.901367
47.214840 -23.406973 -259.912720
48.277302 -21.790186 -260.146881
56.114040 -15.567061 -259.756256
56.111431 -15.110681 -259.781982
57.529453 -14.100470 -259.820679
33.011856 -37.526085 -260.249512
40.071144 -30.696798 -260.201569
40.982265 -29.487965 -260.565735
42.312492 -29.160988 -260.186523
53.459404 -16.878027 -260.121338
56.458946 -15.367049 -260.443054
55.788853 -15.168184 -260.319275
57.165691 -13.962058 -260.306793
28.026291 -43.583157 -260.858826
28.428896 -42.730301 -260.417969
28.906246 -41.671307 -260.726807
31.197746 -39.735504 -260.495941
32.642937 -38.207127 -260.795807
33.547436 -36.826408 -260.440552
39.333275 -30.491213 -260.900055
40.211346 -30.181639 -260.643280
42.749683 -28.492188 -260.738434
42.760319 -27.189735 -260.987427
43.627632 -27.030373 -261.055206
44.365250 -26.299583 -260.677429
46.140862 -25.372246 -260.803925
46.636162 -23.168303 -260.812836
48.234577 -22.586935 -261.370056
49.249767 -22.545847 -260.773987
54.770409 -16.919916 -260.884308
53.328857 -16.679560 -261.042419
57.602753 -14.219842 -260.565613
28.248720 -42.781593 -261.272522
28.990757 -41.488022 -261.346375
30.934717 -40.031227 -261.110901
31.536543 -39.521084 -260.748627
32.994423 -36.642876 -261.444794
34.439697 -36.064693 -261.503601
39.601181 -30.197412 -261.049133
41.055061 -29.582699 -260.822998
42.800762 -27.339979 -261.572601
43.737492 -27.063776 -261.132202
44.285538 -25.698133 -261.359558
46.131580 -24.367853 -261.367798
47.812668 -23.506813 -261.098450
48.627167 -22.326853 -260.989410
48.263275 -22.591267 -261.373505
55.164524 -17.385759 -260.986755
56.196262 -15.477952 -261.231750
57.538586 -13.811647 -260.958923
29.232931 -41.822277 -261.232483
35.091854 -35.344574 -261.705109
38.996037 -31.028366 -261.197144
48.137302 -22.340942 -261.506073
54.687294 -16.717176 -261.460388
56.533512 -15.694574 -261.408783
57.640411 -13.987163 -261.419739
28.074383 -43.200531 -262.065674
28.297174 -42.425522 -261.751587
30.911938 -40.434010 -261.942261
31.514824 -39.085289 -261.951752
32.081314 -38.875694 -262.414703
33.152660 -36.617199 -262.071106
34.194378 -35.309544 -262.316711
38.967770 -31.592220 -262.230530
40.397770 -29.912062 -262.472839
42.268959 -28.093271 -262.082123
44.591198 -26.371973 -261.679688
45.450130 -24.316532 -262.323517
47.528133 -22.844936 -262.565796
48.547413 -22.181690 -261.643402
57.366871 -14.046281 -262.111176
28.205326 -43.101952 -262.112061
28.589911 -41.957203 -262.323792
29.416128 -40.429703 -262.152374
31.885368 -39.362293 -262.366150
31.880753 -38.689762 -262.296173
32.992626 -37.459999 -262.399750
34.267353 -36.302616 -262.764587
35.358761 -34.391411 -262.421692
36.901752 -33.472145 -262.377686
37.539875 -32.647667 -262.689270
38.011421 -32.271774 -262.320557
39.457966 -30.713226 -262.798706
40.262253 -29.843468 -262.457367
42.176445 -28.336786 -262.608612
43.148258 -27.895746 -262.320465
44.311932 -26.439888 -262.493744
47.755230 -22.713661 -262.259460
48.263252 -22.851063 -262.663055
54.435616 -16.968380 -262.323090
56.373638 -15.241167 -262.328735
57.338078 -14.171038 -262.078400
32.928768 -37.973560 -262.529358
35.704578 -34.849407 -262.678192
36.219955 -33.615166 -262.822449
39.444904 -30.911121 -262.929321
41.082878 -28.959545 -262.960602
44.352352 -26.247272 -262.471771
45.939522 -25.337845 -262.764313
54.752579 -16.534348 -262.288391
28.562407 -42.463867 -263.389282
31.744307 -39.119953 -263.176544
31.897835 -38.707848 -263.725342
33.115112 -37.741646 -263.024475
34.292252 -35.085484 -263.409973
35.364742 -35.173382 -263.096497
36.027660 -33.805077 -263.004303
37.516281 -32.796921 -263.375977
38.851398 -31.356468 -263.104828
39.787849 -30.732428 -263.180298
40.802761 -29.714851 -263.035461
41.822250 -29.043827 -262.828278
43.661224 -26.678404 -262.853760
45.574341 -24.829731 -262.981018
47.600609 -22.748791 -263.054169
48.451622 -22.499453 -263.121002
55.973907 -15.405266 -262.976959
57.578220 -14.235097 -263.463623
29.041368 -41.343815 -263.606476
29.524632 -40.769634 -264.140839
29.735764 -40.086098 -263.521912
34.530556 -36.147480 -264.067352
35.427902 -34.529251 -263.017151
35.766335 -34.173706 -263.640930
37.510960 -32.853294 -263.237396
38.443085 -31.444193 -263.465332
40.107796 -30.550386 -263.617645
41.447861 -28.688959 -263.484985
42.016930 -28.347263 -263.606110
43.945461 -26.438854 -263.528076
45.252487 -25.086971 -263.531525
46.715370 -24.240822 -263.429749
48.268730 -22.176327 -263.745758
54.546307 -16.858398 -263.813385
53.492500 -16.936602 -263.088013
56.363071 -14.657810 -263.705994
57.312180 -14.096806 -263.500702
56.148411 -13.923399 -263.583374
30.078232 -41.139431 -264.294281
32.396061 -38.247929 -264.013306
32.486012 -37.565083 -263.591888
34.468910 -36.501518 -264.065155
35.924770 -34.348011 -264.386810
36.712288 -33.321449 -264.052704
38.326065 -32.189190 -264.299316
39.676395 -30.640221 -263.893890
49.600136 -22.455721 -263.971558
56.215473 -14.765985 -264.241394
56.532516 -15.224030 -264.358856
29.150229 -42.609539 -264.312988
29.093317 -42.476696 -264.197540
32.592678 -39.205204 -263.990936
33.194496 -37.812561 -264.298706
34.327888 -36.551693 -264.364624
34.847012 -35.774586 -264.425903
36.445011 -34.213245 -264.662903
37.672306 -33.267212 -264.207916
39.401150 -31.074034 -264.357452
41.570995 -28.787193 -264.457977
42.350697 -27.901228 -264.005585
43.807461 -26.875484 -264.623749
44.414181 -26.020468 -264.085236
47.622364 -23.017944 -264.647369
48.632664 -22.228212 -264.317413
53.813812 -16.700994 -264.064636
57.481976 -14.518760 -264.340027
29.177692 -41.954559 -264.850159
29.756336 -40.092350 -264.310425
33.513954 -37.146454 -264.607605
35.156124 -35.421665 -264.764832
36.516178 -34.229908 -264.497772
36.950157 -33.900429 -264.614380
38.325600 -31.310255 -264.422028
40.478092 -30.159626 -264.746613
46.523117 -24.239080 -264.660065
54.872784 -16.707022 -264.974579
57.332539 -14.322902 -264.808655
30.479078 -40.483318 -264.874023
32.773960 -38.963860 -265.190765
33.182934 -37.770016 -265.171906
33.776268 -36.795940 -264.868073
35.180725 -35.206673 -265.098022
36.396336 -33.456474 -265.351776
38.962673 -31.731949 -265.337921
39.825375 -30.540316 -264.902985
41.052921 -29.968582 -265.157684
41.668167 -28.691231 -264.979279
43.190292 -27.656546 -264.660370
44.502350 -26.266407 -264.828827
48.888729 -22.085527 -265.011353
56.231609 -15.103057 -264.849152
29.207108 -42.319759 -265.560974
30.553308 -39.465630 -265.673157
34.182003 -36.045574 -265.220367
36.507824 -34.267593 -265.575226
37.833721 -33.118481 -265.499542
40.291401 -29.884075 -265.578827
45.399712 -25.451878 -265.483887
56.405388 -14.748833 -265.612366
57.346745 -14.626005 -265.196045
56.322769 -13.982418 -266.088837
29.611008 -41.403500 -265.534698
33.400169 -38.315811 -265.754730
41.157898 -29.546640 -266.070160
42.145473 -27.840216 -265.954834
43.893398 -26.787659 -265.798431
46.237053 -24.377901 -265.186493
48.219440 -22.702305 -266.141571
49.524906 -22.182802 -266.144257
48.510769 -22.430710 -265.785645
54.073715 -16.889650 -265.587006
56.299187 -13.881740 -266.301697
31.060246 -39.660641 -266.368591
33.182087 -37.813107 -266.278870
34.057762 -37.731663 -266.096924
34.202366 -36.326851 -266.116425
36.024460 -34.288616 -266.027130
37.828964 -32.669060 -266.388672
39.083805 -31.118671 -266.370209
39.787998 -30.370728 -266.289001
41.059147 -29.478865 -266.136536
42.048840 -29.197851 -266.425751
43.831352 -26.898733 -266.372192
45.132462 -26.539946 -266.407623
47.583672 -23.136003 -265.957184
49.157818 -22.419462 -266.510956
54.643417 -16.677628 -266.472992
56.225891 -14.660146 -266.376678
29.675934 -41.283661 -266.591309
33.524975 -37.239399 -267.086731
37.439026 -33.425629 -266.703766
38.860386 -31.427860 -266.824707
39.849808 -30.074095 -266.757629
44.420120 -26.192572 -267.027924
44.917042 -25.304579 -266.757263
47.895885 -22.954893 -266.675232
48.344322 -22.728754 -267.008484
53.785187 -16.905918 -266.663025
56.210690 -14.679281 -266.660797
55.953133 -14.230897 -266.856445
30.194937 -40.585560 -267.132751
