# This PCD file was generated using the MATLAB® pcwrite function
# from Computer Vision Toolbox®.
# .PCD v.7 - Point Cloud Data file format
VERSION .7
FIELDS x y z
SIZE 4 4 4
TYPE F F F
COUNT 1 1 1
WIDTH 1432
HEIGHT 1
VIEWPOINT 0 0 0 1 0 0 0
POINTS 1432
DATA ascii
-48.529869 -160.559204 -216.120575
-44.876144 -157.110748 -216.229279
48.805729 -62.381474 -216.940842
50.896484 -60.539574 -216.511246
51.373772 -60.322216 -216.534149
52.462986 -58.421097 -216.696060
67.120239 -44.796516 -217.414383
66.620605 -45.415531 -216.035950
67.249146 -44.249168 -215.764435
48.233219 -61.568707 -216.653885
50.519463 -61.641838 -215.669434
63.601978 -48.587135 -217.216476
64.053337 -47.284542 -216.298477
-48.982109 -162.233215 -216.893265
48.662823 -61.332115 -217.458237
49.903301 -61.936131 -217.855209
50.494419 -61.401310 -216.886841
52.555424 -60.754566 -216.792313
51.604263 -60.222832 -218.390717
52.007317 -58.600319 -217.126526
63.998909 -47.328556 -216.865784
66.412102 -43.626629 -217.686066
50.708340 -60.221321 -217.894394
52.318211 -59.058750 -217.215134
52.832142 -57.842422 -217.747849
67.594597 -44.759556 -217.991425
68.043839 -44.775734 -217.505692
-50.335842 -160.923630 -218.408051
50.137962 -60.134354 -218.203293
63.306538 -48.345879 -218.243988
65.163101 -47.741028 -218.275238
49.745296 -61.744179 -218.702148
51.973747 -59.804981 -218.379761
52.546886 -59.232430 -218.003174
53.341125 -57.944828 -218.602615
62.018417 -48.357903 -219.304718
67.476944 -44.157932 -218.550583
49.873745 -61.026508 -218.879913
50.840286 -60.735867 -218.247971
50.968292 -59.963837 -218.601898
53.164146 -58.038734 -218.979340
53.709492 -56.666222 -217.981857
63.640858 -47.603649 -219.017807
67.340385 -43.406776 -219.353180
50.994823 -60.420536 -219.259048
54.488453 -57.085022 -219.105438
61.954475 -48.004509 -218.755890
51.316353 -60.223305 -219.514374
52.030785 -59.431232 -220.034561
52.894508 -58.679947 -218.368027
53.081860 -57.261116 -219.487366
53.491982 -57.051659 -219.624527
62.769249 -48.468388 -219.040558
63.785904 -48.090572 -219.391693
67.486824 -44.561779 -219.975189
50.752102 -60.563782 -220.229767
53.727165 -58.227871 -219.387024
54.120415 -57.230488 -219.153336
54.739433 -56.463776 -220.966187
67.795227 -43.966187 -219.746979
67.751564 -42.753670 -219.703720
-45.181065 -157.799454 -219.723557
50.531258 -60.161385 -220.122025
51.418671 -58.741421 -219.889786
54.552330 -56.605213 -220.306519
62.676472 -48.074368 -219.844543
63.895653 -47.449131 -220.079620
-49.307972 -161.580154 -220.644836
51.019958 -59.972126 -221.123749
52.567165 -60.023052 -221.308731
52.703476 -58.785709 -221.146133
53.805496 -58.315697 -221.452850
54.002472 -57.829845 -219.782547
54.008263 -57.278240 -220.531097
67.049713 -43.742424 -221.259766
67.829735 -43.517292 -221.133453
-44.855888 -157.284042 -221.819107
52.262802 -58.372784 -221.332169
53.757820 -58.987720 -221.446762
54.010063 -57.782043 -221.075912
54.197792 -57.317539 -221.687561
54.658108 -55.406418 -221.630905
63.063824 -48.340324 -221.192551
67.865387 -44.565346 -221.722595
67.150131 -43.507439 -221.103546
50.459438 -59.153656 -222.030701
52.066227 -59.776627 -221.923477
54.519802 -55.269745 -221.529083
62.508781 -48.985912 -221.580795
50.910294 -58.589211 -221.748566
52.559666 -58.693703 -221.678131
52.416695 -58.264187 -221.828369
52.946869 -58.045116 -222.281784
54.857388 -56.637157 -222.465530
55.385303 -56.477070 -221.047440
66.933609 -44.114983 -222.451202
54.456802 -58.032841 -223.267487
53.559982 -57.308571 -221.995880
54.439007 -56.786438 -221.821030
54.595036 -56.643768 -222.961594
62.219002 -48.073246 -222.569107
67.258087 -45.316063 -222.615219
-49.225101 -161.468323 -222.325684
-49.115540 -162.308273 -223.124344
-45.659840 -158.472244 -223.320450
52.549107 -58.912216 -222.686050
-45.093941 -156.628784 -222.813187
53.200779 -58.307644 -222.206482
53.035019 -57.524025 -222.961288
53.690563 -56.769344 -222.913147
56.048382 -56.602715 -223.148270
62.596859 -48.446255 -223.323074
-50.337566 -162.189728 -223.457443
-50.287769 -161.568893 -223.398254
-45.079578 -156.536728 -223.733994
53.075016 -57.619362 -224.236649
55.456421 -56.831379 -223.005585
54.820217 -56.432537 -224.040756
55.919331 -54.597176 -223.047546
62.930595 -48.805519 -222.974258
67.319756 -42.419144 -224.246857
-49.196014 -162.664108 -223.861389
-44.148914 -155.139511 -224.137604
51.681744 -58.472305 -223.750641
52.985512 -57.597401 -223.948624
-50.863411 -161.162506 -224.467743
-44.791653 -155.662872 -224.665115
52.848804 -57.580357 -225.639740
53.369759 -57.656872 -223.869629
54.462898 -56.528728 -224.149261
55.932800 -55.823921 -224.245941
55.502769 -55.455761 -224.317398
62.931694 -49.332310 -224.769104
67.106659 -42.554462 -223.770172
-43.920418 -156.710541 -225.093155
-45.373806 -157.046097 -226.493027
53.896065 -56.221195 -224.419800
55.944317 -55.677414 -224.364792
-51.586948 -162.334030 -224.848816
-44.048336 -157.272415 -225.135071
-43.421616 -155.080597 -225.101364
-42.103409 -153.751297 -226.044403
53.353958 -57.830727 -225.110870
52.753235 -57.477791 -225.308472
-51.232872 -162.985352 -225.538605
-39.756561 -150.975967 -225.619263
54.141792 -58.316551 -226.181198
54.154037 -56.971111 -225.649231
56.147083 -56.360374 -225.638565
61.774345 -48.638599 -225.702362
-51.569965 -163.844345 -226.414490
-47.961830 -159.920227 -225.595795
-48.068756 -159.632141 -226.742920
-47.339893 -159.541748 -226.081329
-47.534515 -159.316544 -226.307526
-39.763374 -150.855652 -226.714401
55.316559 -56.063931 -225.995895
55.841427 -55.600422 -226.408844
63.383446 -48.813858 -225.870178
67.318932 -43.114017 -225.687744
-51.998684 -163.278336 -226.805115
-37.960514 -150.411728 -226.424347
53.629528 -57.029022 -225.989517
54.645988 -56.854870 -225.478683
-52.046097 -163.510773 -226.781448
-52.204266 -163.382233 -227.247223
-46.996246 -158.817825 -226.619446
-38.747444 -150.635117 -227.144440
55.153042 -56.379223 -226.379318
55.658146 -56.565147 -227.208984
55.889996 -55.066677 -226.857407
62.693653 -49.536182 -226.582932
68.400475 -42.413258 -227.499283
-51.945709 -162.959839 -226.792053
-38.497162 -150.077347 -226.977005
62.573872 -48.472866 -226.682175
68.261909 -42.659996 -226.506271
-51.752762 -163.016632 -227.202194
-49.168701 -160.683563 -227.479736
-46.669041 -158.174377 -227.238312
-37.728645 -149.959549 -227.786942
54.912346 -55.013779 -227.653961
55.874779 -55.412846 -227.586655
66.175301 -45.417770 -228.113434
68.545158 -43.187057 -228.271362
-48.578438 -160.183456 -228.325714
-46.874287 -159.090225 -227.673248
-39.121864 -149.632355 -228.309860
55.611370 -55.734566 -227.376282
-51.920815 -163.481644 -228.028061
-51.743916 -163.445984 -227.970032
-46.644432 -158.275497 -228.388702
62.809341 -48.047012 -227.550110
64.277802 -45.353828 -229.166183
65.685066 -44.701260 -228.788010
68.348335 -43.970627 -228.310486
55.335293 -54.915440 -228.850677
65.906578 -45.325836 -228.954895
65.825294 -44.993652 -228.576584
67.831757 -42.847610 -228.499680
-50.753178 -163.617569 -229.699448
-51.483826 -162.409393 -229.593811
-46.729622 -158.973557 -228.579956
-46.616322 -158.623825 -229.162598
64.098015 -46.309311 -228.525787
-46.835464 -158.651031 -229.392639
-47.024502 -159.132294 -229.525803
-38.775066 -150.643631 -229.575760
65.953583 -45.860435 -230.027206
65.661896 -45.006565 -229.826431
68.222931 -42.540768 -229.804459
-52.029472 -163.601944 -230.143570
-43.479496 -155.440155 -229.753098
-40.577332 -151.860626 -230.263000
-39.286793 -151.497162 -230.318588
63.186993 -48.607285 -229.671310
65.997261 -44.183346 -229.853088
-51.110847 -163.421402 -230.375778
-51.317593 -162.080017 -230.560379
-43.371956 -156.043976 -230.663498
-43.973202 -156.320908 -230.666580
-43.860291 -156.327835 -231.249893
-44.891090 -156.720291 -231.152496
62.396778 -48.414314 -231.458481
65.008560 -45.092709 -230.160812
65.924767 -45.410954 -231.099258
65.757751 -44.731121 -230.354294
69.613144 -42.391392 -229.949493
-50.595459 -161.557861 -230.889786
-45.049416 -156.340302 -230.601532
-44.552509 -154.729752 -231.260986
64.521858 -46.303215 -230.997543
66.564072 -44.998184 -231.526260
65.892563 -43.726532 -231.349915
-51.318203 -162.515076 -229.972382
-44.528271 -156.584457 -231.134216
63.353054 -49.259365 -231.579788
69.480118 -42.597565 -231.305038
-49.743881 -162.527512 -232.300125
-44.519104 -156.529816 -231.701584
-45.077976 -156.818542 -230.964325
64.140297 -46.728436 -231.682602
65.076561 -45.971886 -232.180634
66.198608 -45.526653 -230.900665
69.775146 -43.171421 -231.514282
-49.633305 -161.473282 -232.315536
-45.634769 -157.680084 -231.437012
-45.601353 -157.735931 -231.960312
64.298920 -46.375614 -231.966736
65.130585 -46.448029 -232.748840
65.862175 -44.234268 -232.371216
65.750336 -44.547466 -232.412933
66.816376 -42.635082 -231.895096
-49.491695 -161.782227 -232.944687
-46.769409 -157.531555 -232.581360
-44.964130 -157.282898 -233.497650
-50.073711 -160.785370 -232.532471
-46.516609 -157.824875 -233.332932
64.618202 -46.264694 -232.647491
65.722458 -46.077290 -232.794815
65.790047 -45.728806 -232.253555
66.710289 -43.082981 -233.272781
-49.316906 -161.204529 -233.950378
-45.500870 -157.527405 -232.948578
62.734596 -48.876766 -234.371460
65.200943 -46.552963 -233.499542
65.225334 -46.072548 -233.235275
66.516144 -44.736473 -233.297714
66.610252 -43.442886 -233.363068
-46.188629 -157.783478 -234.055099
-49.617920 -160.402359 -234.426575
63.158447 -48.648705 -234.210861
64.756195 -47.229057 -234.028839
64.585381 -46.008957 -233.665894
66.385559 -45.823364 -233.912552
65.959152 -43.534565 -234.330841
69.633980 -42.300354 -234.941345
-45.517536 -157.669800 -234.909622
62.456593 -49.330090 -234.799103
65.918610 -45.801250 -235.578568
67.694809 -43.185120 -235.333450
69.673103 -42.072136 -234.868790
69.578857 -42.639645 -235.237473
-46.190140 -157.028168 -235.536713
63.736561 -48.418201 -235.330704
64.849442 -45.915295 -234.335205
65.707619 -46.131001 -235.310883
67.472382 -44.461380 -234.944168
68.982582 -41.638107 -235.827621
69.844727 -40.434280 -235.533844
-49.942081 -160.751160 -236.023926
62.789356 -49.252712 -235.766769
65.074051 -46.756855 -236.018021
66.680923 -43.866550 -236.109573
68.181839 -43.144852 -235.320099
69.897308 -41.509064 -236.355103
69.642075 -41.119534 -236.135269
67.932800 -44.548782 -236.470139
68.373856 -42.753086 -236.556732
70.265137 -41.815998 -235.738098
-49.343956 -160.447998 -236.382217
-46.220402 -157.282974 -235.777252
64.795952 -46.996964 -236.504105
-49.574596 -160.574753 -237.596619
-45.327488 -157.746338 -237.070358
62.400269 -48.611973 -237.671707
68.091148 -44.588928 -236.410080
68.275887 -43.161499 -236.639954
69.841736 -41.938671 -237.139465
68.723198 -42.992195 -237.671616
64.119072 -45.369614 -237.677185
69.470535 -40.991051 -237.800415
36.439686 -74.423859 -239.125488
63.807518 -48.143768 -238.482010
67.267113 -44.102276 -238.741257
68.565025 -42.251190 -238.535019
71.104980 -41.875847 -238.152237
32.724098 -77.681313 -238.702255
34.290039 -76.520897 -238.043015
35.747864 -74.818718 -238.837601
67.634552 -43.716431 -238.974869
68.450394 -41.862812 -238.340729
70.998039 -41.664402 -237.749115
31.266642 -78.491577 -239.300217
31.539759 -79.120934 -239.680328
32.823986 -77.593864 -239.374390
33.803513 -77.727913 -239.278946
32.996555 -76.873695 -238.512604
35.712994 -74.989479 -239.243088
36.355770 -75.514053 -238.838058
36.900513 -73.878532 -239.011490
63.211868 -48.401226 -238.900909
61.722260 -48.460587 -238.564484
63.989845 -47.162697 -239.408539
-48.998432 -160.103973 -239.861404
28.766081 -81.868416 -240.143616
29.632360 -81.180565 -239.249725
30.871506 -79.064400 -239.115143
32.600182 -78.418228 -239.368164
33.215672 -77.996162 -240.303864
33.966389 -78.075607 -238.913177
35.144817 -75.780762 -238.815231
36.504486 -74.120995 -239.185806
37.327999 -73.472115 -239.340851
62.035931 -48.063404 -239.362335
68.904991 -44.141537 -239.158966
68.514229 -42.536476 -239.655746
71.156380 -41.170567 -239.058853
29.201097 -81.995941 -240.182022
29.970207 -80.899666 -239.812149
30.871527 -81.940910 -240.192001
33.245674 -79.145683 -240.359863
34.714508 -76.150566 -240.486877
36.384899 -74.360023 -240.501862
36.825451 -74.133774 -239.898300
64.597435 -46.597958 -240.503845
68.757515 -42.547394 -240.020950
71.213730 -40.933113 -240.529312
-48.125824 -159.986847 -240.204071
-48.324802 -159.342865 -240.342636
-46.030033 -158.737518 -240.790436
-46.816109 -159.574158 -240.639755
27.592381 -83.436821 -240.467682
27.912609 -83.363701 -240.270233
29.172707 -82.724571 -241.002991
29.618595 -81.484085 -240.413055
30.428679 -81.003250 -240.493164
31.772938 -79.860374 -240.605026
33.382420 -79.191048 -240.092667
34.074215 -77.441284 -240.759338
35.290112 -75.457222 -240.129822
36.443626 -75.265236 -240.675171
62.753796 -48.752678 -240.220261
64.138870 -47.234398 -240.437820
-48.244545 -159.583771 -240.981766
24.637760 -85.397163 -239.795731
27.012701 -84.621117 -240.654953
27.447977 -84.154808 -240.892288
29.186878 -82.599449 -240.262573
29.655436 -82.122360 -241.031036
29.392120 -81.703491 -240.773987
31.048910 -80.036186 -241.553543
35.733379 -76.834267 -240.503998
36.411446 -75.157784 -240.784760
36.137794 -74.464127 -240.013214
36.182140 -73.322952 -240.960953
68.421303 -43.547501 -241.593094
71.002968 -41.045681 -240.524231
26.002344 -86.098068 -240.731110
27.128633 -85.734055 -240.949844
27.116505 -84.278152 -241.236862
29.410410 -82.720749 -241.200714
30.210741 -82.544334 -240.819427
31.254816 -80.376900 -241.195068
32.844337 -79.835548 -241.351807
33.870178 -78.960846 -241.204514
34.148499 -76.745644 -241.151016
34.387989 -75.819481 -241.312134
35.223190 -74.791290 -241.532288
63.349224 -49.334442 -241.497986
64.867828 -47.047676 -241.679688
68.519341 -43.189869 -240.959183
25.023998 -87.151482 -241.515915
25.931870 -85.291893 -242.224518
26.000217 -85.073387 -241.054840
27.394493 -84.372276 -242.184052
32.514133 -78.556717 -241.791748
33.761806 -77.854065 -241.632950
34.764652 -76.565712 -241.239380
63.634941 -47.923553 -241.037811
23.628893 -87.099251 -241.698914
23.843475 -86.460922 -241.743835
25.532219 -85.073471 -241.768997
26.261972 -85.072067 -240.957153
29.807673 -82.341454 -241.882935
30.829319 -79.707512 -241.800644
31.896223 -79.743286 -242.543152
32.664009 -79.247673 -242.244385
33.008842 -77.748329 -241.734909
68.903038 -42.256924 -241.724487
22.760002 -88.277985 -240.925583
24.353388 -86.735413 -241.623779
25.523821 -85.993874 -242.179474
26.062122 -85.711769 -242.409515
28.087502 -83.904732 -241.971085
28.747446 -82.387154 -241.947952
28.850372 -83.496796 -242.491241
29.515141 -81.166618 -242.778809
32.183807 -80.555405 -242.250580
31.574659 -79.081604 -242.103973
31.871750 -78.347183 -242.915207
63.296329 -47.477066 -242.092407
64.844498 -46.826416 -242.193008
70.018639 -41.567757 -242.062317
21.896273 -88.161499 -243.225250
23.240742 -87.876869 -243.231537
28.629217 -83.125008 -242.202927
29.510490 -81.837967 -242.767838
72.297348 -40.879734 -241.567429
23.220612 -87.404968 -243.384277
23.847912 -87.220154 -242.832153
25.854469 -86.847961 -242.696655
26.505749 -85.812752 -243.706863
27.762711 -84.479477 -243.019501
28.687914 -82.585693 -242.065811
29.961620 -81.728378 -243.420807
69.807297 -42.507660 -241.977600
22.159386 -87.706161 -242.551956
23.699949 -87.735764 -243.520203
24.770250 -85.933739 -242.328278
25.948032 -83.992302 -243.484924
27.689558 -83.244583 -244.474426
28.510546 -83.121048 -243.413712
28.291344 -81.493645 -242.956818
65.630226 -46.320366 -243.730774
63.337166 -48.176567 -243.821518
63.937916 -48.315071 -244.049728
66.264046 -45.173676 -243.376907
70.696205 -42.260494 -244.543411
71.497925 -40.226055 -244.988449
-48.208282 -160.342224 -243.867508
63.586548 -48.314617 -245.040024
65.678749 -45.345501 -245.344131
69.910339 -39.833633 -245.187134
71.272095 -39.919548 -244.368271
-48.738663 -161.165405 -245.192001
64.320702 -47.537384 -245.486633
65.757339 -46.204494 -244.763870
65.969368 -45.362820 -245.093124
72.006821 -40.296631 -244.753281
72.780327 -38.411385 -244.992340
64.194527 -47.606945 -245.116013
64.873917 -46.892933 -245.392548
64.517586 -45.994301 -245.481506
65.506081 -46.264847 -246.285782
69.771324 -42.142258 -245.473404
72.505005 -39.693550 -245.434662
-49.643024 -160.962616 -245.978027
-49.809830 -161.767960 -246.038101
57.203037 -53.186424 -246.430756
62.127354 -47.740135 -246.601608
71.520432 -41.093536 -247.114349
71.121002 -41.012413 -246.460449
72.647957 -39.356716 -245.820755
-47.156357 -157.754517 -246.725403
57.301903 -53.900581 -247.332581
58.607105 -53.967861 -246.325607
58.479443 -51.842720 -246.594315
59.068306 -52.733513 -246.041794
59.453659 -51.117451 -246.791611
60.692467 -49.116203 -246.590515
62.992680 -48.587475 -246.965576
64.014297 -47.735168 -246.244125
72.768364 -39.715561 -246.106003
-46.219551 -157.859390 -246.717178
56.288166 -54.569054 -247.528748
56.944462 -54.046951 -246.791946
58.711315 -54.034382 -246.108246
60.763702 -51.396290 -247.319077
61.867912 -49.301003 -247.469559
61.007603 -50.266243 -246.828415
62.459297 -49.743027 -248.601257
63.794342 -49.159088 -247.298233
63.509762 -48.198158 -247.121582
63.358833 -47.593468 -246.735092
56.475334 -53.947762 -248.080521
57.240215 -53.592281 -247.173370
62.533855 -48.924816 -248.141525
63.807316 -47.868546 -247.236221
63.521523 -47.180645 -247.797699
-45.712742 -157.857971 -247.649429
55.825073 -54.623531 -248.648834
58.605358 -55.181828 -247.309860
63.619423 -48.802917 -248.888092
63.936691 -47.205486 -247.846359
64.722816 -47.451046 -247.353439
53.985939 -58.070034 -248.736542
54.995384 -56.156311 -247.802200
56.092739 -55.193581 -248.401306
64.536247 -47.406338 -248.414093
51.992107 -57.914555 -249.158096
54.171085 -57.746239 -249.345688
54.067276 -57.988693 -248.606598
55.993031 -56.391865 -249.060440
65.669350 -46.746037 -248.700500
65.286629 -46.507187 -249.652100
-46.336372 -157.634949 -249.048996
53.633518 -57.736835 -249.469818
65.899124 -44.357681 -250.307922
53.363605 -57.627018 -250.273758
65.864174 -45.420856 -249.514389
65.835800 -43.567886 -249.101685
-50.204544 -160.779831 -250.136963
-46.026657 -158.141479 -250.191467
53.655682 -58.851555 -250.130890
52.748070 -58.025856 -249.742630
66.567253 -44.395489 -250.017380
-46.698895 -158.446396 -251.011032
53.537178 -58.258503 -251.497040
52.330528 -58.595474 -249.918427
67.109413 -44.092632 -250.809174
51.730270 -59.453526 -251.857254
52.375957 -59.008427 -250.803467
66.689186 -43.873753 -250.855637
-45.211769 -158.175583 -251.155655
51.812996 -59.292171 -251.659332
67.403946 -45.024185 -251.955154
67.837044 -44.172886 -251.173874
-49.432293 -161.540176 -250.997147
-45.840157 -157.947983 -251.173370
50.819992 -59.620399 -251.417496
66.598709 -43.722576 -251.723053
-50.067200 -161.970047 -252.147903
-45.367237 -157.955078 -252.205353
51.367458 -60.401440 -251.654175
67.829033 -43.660137 -253.132156
66.747192 -43.261730 -251.773895
-50.694695 -161.386459 -253.510239
-45.101894 -158.326111 -251.988159
49.962830 -59.492126 -252.842651
51.371605 -61.348793 -252.162643
-51.910366 -162.218658 -253.470001
-45.556576 -157.372620 -253.080215
68.177231 -43.089359 -252.750473
-45.253704 -156.847336 -253.058319
50.227322 -60.628899 -253.405014
68.438148 -42.265732 -254.405930
-44.633331 -156.534042 -253.951126
68.670624 -43.039299 -254.498383
69.314880 -42.013081 -253.901443
-44.233051 -156.388092 -255.046417
51.655380 -61.209888 -254.576416
-44.979988 -155.738861 -254.665558
69.078728 -42.287701 -253.987015
-51.955769 -164.069397 -256.287170
-43.734474 -155.766785 -254.887482
-43.205654 -155.782974 -255.687225
68.927162 -41.846928 -255.471130
69.357742 -41.370377 -254.726196
-52.460552 -163.739105 -255.966660
-47.974087 -159.541733 -255.933884
-47.379707 -159.779861 -255.392776
-40.184704 -151.024124 -256.259277
-39.382935 -151.245987 -256.293396
50.573345 -61.272163 -256.347809
68.084969 -42.612663 -255.403259
69.281487 -41.013603 -255.749817
-52.733219 -164.082016 -255.105896
50.459438 -60.606701 -256.257996
68.841576 -42.416882 -255.897369
69.488373 -40.769611 -255.629257
-48.948193 -160.626602 -256.426147
-47.163338 -159.492645 -257.186523
68.857864 -43.268116 -256.721680
68.987717 -41.276176 -256.595306
-53.004189 -163.281326 -257.084015
-46.751675 -158.821426 -256.529388
-46.925674 -159.643250 -256.082794
50.280476 -61.414978 -256.645477
69.354553 -43.164356 -256.321442
-53.043049 -164.020157 -256.941711
-49.587009 -161.103058 -257.675476
-38.620274 -150.003922 -257.007172
50.478989 -61.231781 -257.546997
69.335258 -43.076221 -257.091461
-49.110455 -160.931519 -257.364532
-46.914772 -159.009735 -257.408051
-37.322094 -150.892731 -257.273438
-48.713028 -161.337906 -258.328094
-45.888790 -158.846802 -258.088379
50.170170 -61.502586 -258.209106
69.945511 -42.269234 -258.019379
69.026192 -41.473095 -257.480042
-46.813766 -159.017395 -258.289978
49.263893 -61.292755 -258.558838
-47.222389 -158.435776 -258.715485
-39.718594 -150.235886 -257.966461
69.230576 -41.933079 -258.290131
-52.278103 -164.299011 -258.984009
-48.287647 -160.734299 -258.626831
-47.221569 -158.738129 -259.541718
50.596321 -61.835033 -259.061401
69.207008 -42.311222 -259.388245
-47.590847 -160.340546 -259.025513
-49.433475 -159.522186 -259.802856
-38.500019 -150.470825 -259.955994
50.233170 -61.236259 -259.042908
69.933815 -42.129051 -259.302948
69.932480 -41.856873 -259.671600
-52.042198 -163.446625 -259.769562
-42.872982 -155.525009 -260.301270
-42.507748 -154.487823 -260.736633
-40.994823 -153.235428 -260.260712
-41.559486 -152.976837 -260.030487
-39.380585 -152.122482 -259.352417
69.455383 -41.440907 -260.063324
-52.222092 -163.276672 -260.699951
50.941845 -61.962257 -259.377014
68.556038 -42.106224 -260.345245
-51.851414 -164.368484 -260.767944
-44.679394 -156.962097 -260.015686
69.325310 -42.324707 -260.561951
-51.042393 -163.530731 -261.208038
-44.179901 -155.928528 -261.479645
51.151257 -61.275764 -261.114594
-50.925449 -163.838577 -261.528900
-44.210110 -157.027573 -261.561615
69.765999 -42.680374 -261.638763
-51.324951 -162.364700 -261.566284
-46.085190 -156.586121 -262.095032
50.846340 -61.977886 -262.590424
-51.393703 -162.864029 -262.690216
-45.047398 -157.341660 -262.371429
50.480209 -61.754398 -263.080505
-46.291195 -157.448425 -263.040344
-50.256279 -162.013947 -263.528290
-50.719761 -162.636887 -264.172974
-46.318703 -158.172577 -262.498749
49.536434 -61.553490 -264.081940
-46.156349 -158.033905 -263.270782
50.239151 -60.892811 -263.859497
-50.582890 -161.218430 -263.851929
-46.522675 -158.482651 -264.240387
68.797394 -42.652771 -263.730225
-50.294041 -161.314056 -264.435883
50.117622 -61.371239 -263.834961
-50.115349 -161.992355 -264.582306
-45.888493 -158.076111 -264.249481
50.401321 -61.550045 -265.530792
68.424942 -43.165760 -265.317230
-46.857037 -157.781357 -265.399017
-50.115925 -161.845459 -266.135864
50.136402 -61.435966 -266.260620
-46.215794 -158.265503 -266.389740
68.887886 -42.132202 -266.381989
-51.306572 -161.930466 -266.620697
49.717766 -61.562763 -266.340057
-49.254326 -161.642639 -267.529480
-46.850403 -157.905273 -266.855621
-45.922131 -157.772705 -267.973755
49.786491 -61.312931 -266.726959
50.335503 -60.974724 -268.030945
69.003899 -42.579422 -267.088135
49.853500 -60.971180 -268.152039
-50.286438 -161.897552 -267.806488
-46.130089 -157.739136 -268.502686
-46.732857 -158.409119 -267.576630
51.015129 -60.943470 -267.326599
51.037312 -59.803925 -268.415192
68.727516 -42.904831 -267.890472
-50.758991 -161.795639 -267.352814
50.658634 -60.215912 -268.128357
68.980904 -42.318161 -267.736664
-45.781219 -157.955200 -268.883545
51.982430 -60.518078 -269.479065
69.864403 -43.597336 -268.621857
-50.339497 -162.099152 -269.104797
52.432426 -59.302563 -269.576904
68.384384 -44.227421 -269.193604
69.162140 -42.207798 -269.051483
-50.285442 -161.496170 -268.831635
-49.016483 -161.631317 -269.285736
-46.073296 -158.726654 -268.615784
68.180519 -43.484371 -269.361450
-49.830391 -161.902298 -270.022705
-46.006844 -158.997208 -270.217255
50.404770 -60.001106 -270.687988
53.103653 -60.332539 -269.504639
-49.263664 -160.174377 -269.974762
-48.986927 -161.069153 -270.409058
-46.480679 -158.855530 -270.991577
52.262470 -59.187233 -269.779785
67.868690 -43.440762 -270.673981
68.343422 -43.948120 -270.416229
-47.927166 -161.181732 -271.040558
-48.095524 -160.221756 -269.888062
-47.546673 -158.818100 -270.689209
51.142220 -59.716175 -271.114166
68.584534 -43.743656 -271.176208
67.810364 -43.880154 -270.986755
52.979156 -58.419552 -271.222443
67.493347 -44.126945 -272.006744
52.460552 -59.006424 -271.962982
66.303238 -44.461163 -272.512482
51.012562 -60.489014 -272.493896
67.754456 -45.237061 -272.859070
67.392822 -44.359127 -272.427094
52.826813 -57.766609 -272.298706
54.062336 -58.269733 -272.203033
52.834606 -58.998074 -272.952087
54.628071 -58.419487 -273.954987
66.348526 -45.255268 -273.308807
52.468922 -59.095264 -272.948242
53.879829 -57.515038 -273.093536
67.041344 -45.518364 -273.858368
66.440880 -44.260071 -273.113770
53.386013 -59.655628 -274.860748
65.412979 -44.836529 -274.205170
-48.434223 -161.329971 -274.369873
-47.950016 -159.354065 -274.677734
53.890030 -57.372780 -274.369476
54.280346 -57.248310 -274.541107
65.329979 -46.461216 -274.402435
-49.854385 -160.571823 -273.899475
-47.504681 -158.879089 -275.301971
-47.292572 -158.448151 -275.157593
52.517479 -58.251133 -275.479156
54.967800 -56.431995 -274.470703
65.114487 -46.951302 -274.230133
66.127693 -45.852329 -274.967529
-48.748341 -161.636475 -275.335297
-46.161804 -158.533096 -275.559448
52.770374 -58.119061 -275.182007
53.520298 -56.983955 -274.750793
65.415550 -45.512024 -275.091156
-50.325146 -162.350357 -275.705597
-45.794529 -158.862442 -275.368774
54.214302 -57.032700 -275.090973
53.546009 -56.972530 -275.812469
56.255920 -56.253410 -275.532166
65.650749 -47.326168 -275.193604
-50.492878 -161.084229 -275.436218
-46.039883 -158.450165 -275.987335
54.388573 -56.096306 -276.092010
54.640915 -56.565178 -276.749634
65.230034 -46.693581 -275.988770
65.655769 -45.692764 -276.373230
-49.480408 -162.945770 -276.699585
-46.569435 -158.042938 -276.360596
54.901115 -55.739876 -275.744507
56.154015 -55.842594 -276.151672
-49.747807 -162.582581 -277.871674
-45.709625 -158.651245 -276.489960
56.383263 -55.491577 -275.874481
64.461555 -47.556690 -277.438385
-50.412811 -161.567474 -278.072205
56.217049 -55.626152 -276.971161
57.804436 -54.061501 -277.274902
58.420277 -54.162788 -278.241699
62.795158 -49.807823 -277.245667
63.980049 -47.786263 -277.808990
63.898174 -47.727566 -278.151855
64.851845 -46.026226 -277.548279
-50.447536 -162.055603 -277.355774
-46.351395 -158.558701 -278.542816
56.514782 -55.518909 -277.531128
58.321625 -53.435326 -278.144958
63.184528 -48.702908 -277.245941
63.616947 -48.180267 -278.229187
64.169006 -47.600079 -278.412445
-50.001740 -161.770828 -277.804474
-47.179382 -158.144318 -278.417877
56.102039 -54.051861 -278.843506
62.352158 -49.514248 -278.472992
63.017365 -49.765591 -278.402039
62.667511 -48.156796 -279.023834
-46.173847 -158.629333 -279.141724
56.447098 -54.603107 -279.073029
57.058094 -53.428463 -278.288269
58.979126 -53.666691 -278.604767
59.190693 -52.697182 -279.095184
62.016708 -50.521709 -278.796875
62.520260 -47.591084 -278.929413
-46.559246 -157.283646 -279.964294
57.246311 -53.299339 -279.387970
58.026894 -52.481792 -279.694427
60.951805 -51.428246 -279.168549
61.756878 -50.666557 -279.066559
62.032604 -49.678696 -279.320770
-49.618683 -162.362595 -279.187775
-46.112309 -157.912521 -280.333679
60.907833 -48.626999 -280.124176
60.534622 -52.125057 -279.286407
61.632877 -50.700798 -279.935242
60.733559 -50.978439 -279.547150
-50.589909 -162.375580 -280.599213
-46.875347 -158.653488 -280.192108
59.982281 -51.896961 -280.059387
61.157825 -50.154579 -279.813812
-50.753029 -162.693115 -281.626160
-46.043743 -158.278198 -280.829773
60.339363 -52.307564 -281.002472
59.904228 -49.855705 -280.907440
-50.696655 -161.953751 -280.908203
59.763008 -50.993195 -280.516022
-46.195766 -158.287262 -282.153107
-50.645958 -162.397049 -282.189911
-46.434109 -157.393829 -282.333588
-46.178677 -159.239563 -281.705139
-51.558006 -162.248276 -282.053986
-45.749161 -157.137421 -282.081207
-52.277466 -162.960846 -282.819702
-45.826626 -157.522232 -282.812714
-52.906513 -163.509521 -282.448700
-43.904877 -156.417068 -282.272217
-51.687138 -163.396301 -282.629852
-45.423832 -157.039398 -283.937042
-52.407902 -163.998627 -284.327850
-45.860054 -156.912048 -284.173798
-53.063393 -164.008453 -284.289764
-44.772568 -156.462250 -284.363586
-52.720909 -164.281906 -284.867981
-44.459934 -156.594513 -284.473877
-52.884907 -165.068893 -285.872314
-44.582737 -155.927902 -285.546082
-44.207123 -155.320877 -286.188751
-42.499123 -153.483337 -284.749023
-42.414291 -152.689941 -286.023468
-40.728271 -153.355911 -285.731964
-47.888596 -159.830917 -285.021118
-40.371685 -152.899689 -286.964203
-53.405888 -164.041351 -286.518982
-41.111618 -152.746323 -285.375397
-49.983654 -160.670700 -286.907867
-38.954250 -151.115982 -286.505676
-53.446510 -164.989136 -287.867249
-47.260551 -158.404297 -287.462158
-38.859604 -150.831116 -287.011047
-40.594040 -150.843460 -286.059021
-52.979698 -166.139023 -287.074432
-47.612545 -158.972656 -286.644531
-38.466694 -151.762192 -286.933014
-39.420162 -150.072815 -287.537903
-53.685661 -164.989151 -286.956055
-47.685951 -159.098328 -287.138245
-39.323116 -150.807861 -287.730286
-52.654640 -165.272324 -288.315613
-49.780411 -161.517227 -288.953156
-39.659573 -150.671463 -289.720886
-47.330547 -159.484833 -288.708679
-38.741436 -151.133087 -287.528412
-39.915939 -150.898239 -289.987823
-39.548157 -150.450760 -287.618286
-52.595814 -164.504623 -289.118988
-49.130928 -161.356430 -289.659698
-48.434658 -159.370743 -288.875610
-53.360062 -163.903656 -289.977203
-43.918308 -155.464279 -289.616119
-43.745033 -155.350525 -289.628357
-41.291428 -153.969986 -290.387451
-40.642361 -153.681610 -290.257843
-52.724541 -164.275818 -291.270874
-43.771721 -156.216171 -289.778168
-52.970100 -164.865738 -291.661072
-51.988232 -162.921616 -291.163391
-45.408703 -156.120499 -290.705231
-44.767624 -156.347198 -292.021271
-44.433727 -156.264297 -291.014801
-51.500004 -163.631439 -291.676880
-51.839172 -162.812805 -293.108246
-45.885880 -156.988785 -291.598633
-45.498425 -157.549881 -292.061920
-51.327885 -163.348526 -292.593811
-45.518005 -157.880630 -292.079773
-46.814777 -158.459473 -293.377350
-51.251423 -161.478073 -292.448792
-51.088562 -162.871048 -293.406677
-47.183559 -159.097229 -293.411896
-50.831875 -162.910095 -293.942413
-47.486565 -158.543518 -293.183960
-46.484322 -158.292221 -294.899139
-51.090374 -162.049744 -294.181763
-50.899284 -161.665131 -294.305634
-46.475842 -159.793640 -294.216949
-50.922619 -162.461960 -295.409912
-50.190338 -161.624680 -296.086304
-46.704620 -158.688263 -295.967041
-51.394871 -162.126816 -295.694733
-46.713524 -158.822449 -296.110535
-51.415886 -162.152618 -296.510742
-51.227905 -162.661957 -296.792633
-46.929810 -159.655624 -295.848541
-50.547977 -162.558228 -297.556519
-46.439152 -158.527924 -297.705322
-46.538654 -159.548508 -297.637390
-50.303310 -163.303009 -297.558746
-51.267849 -162.709793 -298.161987
-50.386856 -162.567276 -298.943207
-49.715679 -161.692551 -297.920776
-46.809837 -158.142914 -298.469025
-48.645638 -159.920670 -298.096497
-50.763805 -162.654846 -299.145721
-47.555099 -158.427994 -299.768829
-48.024460 -158.465393 -299.412933
-49.221169 -162.648911 -299.252808
-50.013119 -161.883469 -298.678864
-46.489197 -159.060455 -299.493805
-47.873585 -159.368332 -300.077545
-50.248268 -161.806900 -299.204651
-49.221806 -162.669266 -299.928253
-50.323891 -161.281097 -300.733185
-50.143139 -161.077332 -300.481628
-48.536598 -160.482971 -300.127136
-49.575035 -159.421249 -299.978973
-47.934113 -160.685364 -300.430908
13.939243 -95.709846 -61.121414
15.875250 -94.162651 -61.572548
15.219779 -93.161209 -61.405716
11.649657 -98.656883 -61.723835
12.765176 -95.535400 -61.542458
14.798816 -94.810501 -62.156895
15.584628 -94.037773 -61.318027
17.314789 -92.226440 -61.378567
17.283691 -91.500336 -60.999798
9.541608 -98.630287 -62.006931
10.038227 -98.170387 -62.368820
13.126737 -97.150101 -61.651787
11.876769 -97.119125 -62.375622
14.035728 -96.186127 -60.748829
16.428823 -93.745758 -62.089310
18.554375 -90.019455 -61.276905
8.124202 -101.206924 -62.313602
9.324735 -99.426025 -62.078320
10.548080 -99.471222 -62.502499
12.512633 -96.677193 -61.546185
14.053438 -96.596458 -62.134541
15.831265 -94.719200 -62.385567
16.865740 -91.655792 -62.912575
17.331572 -91.508141 -61.965233
19.859886 -90.160088 -61.561241
19.657709 -88.924835 -61.650566
21.028814 -88.977402 -62.567482
21.815372 -88.424965 -62.680618
6.902204 -102.244316 -63.293400
9.200072 -101.456688 -62.335567
10.194680 -100.069061 -63.868931
18.331999 -93.196014 -62.300407
20.984680 -88.639656 -62.419064
21.590107 -88.066856 -62.612381
8.842222 -100.723259 -62.789265
9.726419 -100.170227 -62.717777
11.606511 -97.727547 -63.628151
13.656137 -96.043274 -63.975323
15.234221 -94.141037 -62.934715
17.588160 -93.027550 -63.227760
17.729359 -91.452980 -62.846405
21.027424 -88.164848 -63.070313
22.128157 -87.014000 -63.586376
5.891084 -103.020782 -63.179104
6.465307 -104.170479 -62.826389
8.324114 -102.585175 -64.266144
8.562653 -100.495750 -63.444542
9.630573 -100.054466 -62.780670
11.222523 -99.822182 -63.628021
11.801273 -97.523026 -64.193794
13.735838 -97.229980 -62.960052
19.062120 -91.269882 -64.150864
19.529011 -89.121368 -62.590237
23.060879 -86.529465 -63.447960
24.311855 -86.137398 -63.570568
24.879890 -85.641075 -63.962299
25.230852 -84.337532 -63.540257
5.208328 -103.485146 -63.441765
5.786034 -103.954674 -63.673153
9.466559 -100.374931 -63.943623
13.810996 -96.094284 -64.139389
15.840358 -95.310226 -64.219467
17.039988 -93.662285 -64.124359
21.946692 -88.068436 -63.686863
22.442289 -86.741936 -64.060089
24.339481 -87.181740 -64.067085
23.992445 -85.031059 -63.597183
26.444504 -84.635162 -64.314644
26.426704 -82.445465 -63.819870
4.108798 -105.139046 -64.067116
5.928766 -103.684113 -64.622917
6.547098 -103.069107 -64.174744
18.755836 -91.561028 -64.301483
27.737766 -82.917343 -64.113762
28.010046 -82.494469 -65.017670
3.821525 -105.967384 -64.258499
4.908751 -104.983040 -64.149750
5.581299 -104.200272 -64.121956
7.945104 -101.086914 -65.195518
9.854474 -100.944008 -64.344666
20.452353 -90.108215 -65.395401
22.750641 -87.971565 -64.554245
23.134277 -87.497276 -64.461647
26.350964 -83.816879 -64.531860
26.997534 -82.092476 -64.831306
4.445236 -105.420509 -65.418198
4.650914 -105.837624 -64.903450
5.630328 -104.515518 -65.338730
6.196688 -103.881386 -65.692390
7.434684 -102.739296 -65.930359
8.655630 -101.841431 -65.954750
21.579014 -90.216141 -64.142342
22.917604 -86.955803 -65.302193
26.992931 -83.261467 -64.287430
28.043791 -82.176247 -65.846413
28.508137 -82.161423 -64.329765
3.909653 -105.788620 -65.510910
4.337680 -105.454605 -65.335060
21.963543 -88.497948 -65.068588
23.054569 -88.120804 -65.716515
24.840599 -85.667336 -65.777794
25.152658 -86.150551 -66.384163
26.814198 -83.616829 -64.285912
27.629286 -82.238129 -65.584084
28.256918 -81.707466 -66.006485
28.610136 -81.487030 -66.060905
1.780918 -106.264626 -65.262032
4.479611 -106.464508 -65.802689
6.620106 -104.243813 -65.820831
7.739436 -103.905090 -65.990662
21.874514 -88.081245 -65.376289
22.733591 -86.663086 -65.970222
24.741587 -85.978867 -66.460587
24.364470 -84.719810 -65.793755
26.279915 -83.998375 -66.567566
28.449200 -82.113998 -66.316399
27.885460 -81.857002 -65.788925
29.308720 -80.895866 -65.682213
28.500395 -80.118584 -65.494293
3.580215 -106.930313 -66.452873
3.453756 -105.957748 -65.940910
4.106009 -105.157982 -66.426270
4.950585 -105.790649 -66.801247
26.722757 -84.489006 -66.102295
29.050959 -81.021561 -66.770340
29.174623 -80.432510 -65.553940
2.389177 -107.217651 -66.821327
29.572666 -81.780052 -67.072624
29.859419 -80.846161 -66.891342
30.665333 -79.385185 -66.156776
1.967222 -107.589706 -67.088997
2.797394 -107.289284 -67.003441
4.772602 -105.089310 -67.498589
5.586280 -105.039169 -67.410736
28.117298 -82.178650 -67.436829
28.974003 -81.885086 -67.836288
30.484619 -79.516037 -67.476067
31.092184 -77.888763 -67.863518
1.169284 -107.553482 -67.265404
3.216239 -107.278725 -67.089737
5.195950 -106.048828 -67.483299
30.787100 -79.494194 -66.597481
30.677683 -78.557159 -67.843140
1.922141 -108.274605 -68.158661
1.517177 -108.322716 -68.042992
4.514900 -107.562645 -68.677620
29.827932 -81.067528 -69.011536
30.255659 -78.228355 -68.188019
31.530249 -78.414970 -68.201813
0.485848 -107.794762 -69.442833
1.330227 -108.174904 -69.299850
2.198173 -107.221886 -69.197495
2.235867 -107.401199 -69.490738
30.432266 -80.596260 -69.662796
31.101494 -78.719360 -69.324272
32.157040 -78.415649 -68.647270
1.076997 -109.885498 -68.951027
32.904972 -78.329063 -68.706955
-0.093773 -109.483688 -69.489174
0.894855 -108.639397 -69.828705
1.776279 -109.247696 -69.749069
30.880093 -79.623825 -68.993080
31.266972 -79.764275 -69.560562
32.241997 -78.228683 -69.711449
32.624359 -76.627136 -69.812668
34.208725 -76.814865 -69.027893
0.419590 -109.760284 -69.049820
1.253988 -109.393265 -70.850487
1.626993 -108.766502 -69.546204
31.307491 -79.211716 -70.334534
32.788818 -76.721588 -69.307304
34.007015 -75.258011 -70.935844
-1.467507 -109.705948 -71.093178
33.641941 -76.129807 -69.985031
34.209820 -75.611732 -70.475037
-0.932992 -110.284180 -69.801323
0.104431 -110.259583 -71.054916
1.300637 -109.133377 -70.953796
32.414352 -78.739159 -70.368698
32.309666 -78.219154 -70.472183
-2.249935 -110.547707 -70.920746
-0.187632 -110.680016 -71.400612
1.291359 -109.199448 -70.373962
33.519257 -77.014397 -71.013580
34.211330 -74.951889 -71.153229
35.007553 -74.373863 -70.811058
-1.709286 -111.589691 -72.198029
-0.791334 -110.277588 -72.038574
1.156896 -109.750069 -70.871078
32.936474 -77.243103 -71.674942
34.919983 -74.056557 -72.110939
36.160572 -74.017303 -71.928078
-0.369934 -111.583687 -72.117325
-0.190892 -111.220787 -72.084709
0.200329 -109.663551 -72.234390
33.612186 -75.851852 -72.890900
35.423931 -75.134644 -72.540535
36.075153 -74.923088 -72.951775
37.365738 -73.615364 -72.643692
-1.575397 -110.687248 -73.684769
-2.338461 -112.069054 -73.128128
-1.209033 -110.899071 -73.264420
-0.008311 -110.380768 -73.238327
34.944988 -75.284569 -73.928413
34.732769 -74.876167 -73.922203
36.654110 -72.364777 -73.752457
-0.396382 -111.453468 -73.974670
-0.531709 -110.686722 -73.632698
36.368046 -74.292435 -74.614426
-3.318553 -111.861237 -73.950867
-1.768402 -111.584480 -74.674240
-1.251502 -111.061333 -74.628143
36.496429 -75.302101 -74.820587
36.732540 -73.758965 -74.655182
-2.580776 -111.420357 -75.815613
-1.057092 -111.235550 -75.164940
35.468887 -75.044136 -75.142143
35.039810 -72.375130 -74.851425
-1.760105 -112.714394 -75.236176
36.177658 -74.602448 -74.801384
-3.266292 -112.071075 -76.454369
-0.703666 -111.305923 -74.853951
36.803814 -74.166206 -76.003311
-3.878528 -113.526047 -76.436455
35.558884 -75.275253 -76.643036
35.181629 -73.863869 -76.856033
-3.955391 -113.160446 -77.626854
-2.568718 -112.765984 -76.797302
-1.833392 -112.019119 -76.696884
34.584915 -75.511131 -76.461807
-2.870321 -112.812920 -76.800652
-2.467113 -112.135483 -76.841209
33.540470 -76.633141 -78.296089
-3.763354 -112.892448 -78.256348
-2.973864 -112.561508 -78.478462
-4.500643 -113.780083 -78.872467
-3.252971 -113.516991 -78.247581
33.376793 -76.413498 -78.718567
33.651863 -76.784500 -79.425964
-3.486635 -114.187996 -78.900909
-3.088715 -112.926064 -80.964912
32.727001 -77.326744 -79.290131
-3.766119 -115.189590 -79.350792
-3.874492 -113.814049 -79.340904
32.957157 -77.480713 -80.539574
31.597694 -79.103188 -80.135963
-4.651679 -113.957047 -80.501480
-3.608109 -113.900291 -80.981705
32.584957 -77.351555 -80.831306
31.928444 -78.842758 -80.711975
-4.959684 -115.051048 -80.915070
-2.773843 -114.547165 -80.397705
31.259361 -79.631912 -81.604057
-5.023356 -115.429588 -82.501945
30.461443 -80.667404 -82.092346
29.069717 -80.846199 -82.573112
-4.493143 -114.655922 -83.165520
29.035250 -81.093521 -81.827362
-3.623236 -114.249336 -83.405014
-4.131309 -114.972351 -83.146088
29.170361 -81.161377 -83.568886
-5.403958 -114.907478 -83.797119
-4.424111 -115.001282 -83.869331
27.309122 -83.857422 -83.879005
28.010632 -82.844498 -83.705704
-6.119686 -114.519913 -83.767204
23.594410 -87.724411 -83.963463
23.825396 -86.931511 -83.695770
23.751333 -86.133133 -84.663132
25.006357 -84.714218 -85.163261
26.569082 -84.746025 -83.711433
26.252811 -83.789085 -84.414299
-4.397282 -114.717941 -84.381065
22.240891 -87.270821 -85.123817
-3.884422 -115.275841 -84.679039
21.854702 -87.914124 -85.694839
-4.873394 -115.362869 -85.522362
-5.493395 -115.622986 -85.082893
-6.104686 -115.568237 -85.569038
-6.070371 -114.189026 -86.646576
22.211201 -88.516579 -85.970428
-4.932185 -114.310387 -86.720688
22.348129 -89.036667 -86.071236
22.145269 -88.247955 -87.227348
-6.218967 -116.048042 -88.091759
21.836567 -89.478470 -87.158379
21.632652 -88.307480 -87.688797
-6.267130 -116.542656 -89.313988
20.755524 -89.868805 -88.447243
19.337448 -90.638664 -89.306419
-5.283574 -116.429131 -89.530373
-5.232463 -115.900902 -89.353111
21.250181 -90.226662 -89.280701
20.210747 -89.515343 -90.793839
-7.373960 -116.328392 -90.639061
20.440525 -90.681801 -90.666771
-6.215769 -115.953316 -90.383484
19.098339 -90.892120 -90.857338
-7.086967 -116.961411 -90.881828
19.115398 -91.693626 -91.924278
18.629404 -91.956345 -91.268822
-6.382118 -116.032402 -91.644730
17.525280 -92.697937 -92.407104
15.835812 -94.028763 -92.097801
-6.418651 -116.736176 -92.088661
17.687620 -93.871353 -92.796280
16.160923 -94.112648 -91.990028
-8.011454 -117.106247 -93.327766
14.223985 -94.853905 -94.712769
14.099739 -94.731789 -93.887939
14.972060 -95.274734 -92.754936
-6.193864 -116.651817 -93.485123
11.889439 -99.441139 -93.356483
12.272118 -97.267395 -94.481262
13.028283 -98.432678 -94.044678
13.973142 -97.153008 -93.628204
-5.858208 -116.525635 -93.573212
10.892700 -99.689514 -94.211197
-6.204662 -116.657143 -95.159470
11.464149 -98.288254 -94.031471
-6.206749 -117.222267 -95.139740
11.112756 -99.870300 -95.158577
-7.561766 -117.389748 -95.499908
10.916609 -98.242714 -95.950226
10.296377 -99.545647 -95.940552
12.192235 -97.927338 -95.554901
11.347755 -98.849831 -96.496506
10.546680 -98.882881 -96.968590
10.757419 -100.200302 -96.302559
11.446234 -100.911499 -97.697372
9.774738 -99.931870 -97.894600
10.866671 -100.418282 -98.503212
8.946598 -100.153076 -97.950157
10.258653 -101.696472 -99.136642
8.472361 -103.144447 -99.375397
7.665323 -102.293587 -99.112274
6.713795 -103.822662 -99.360863
2.847445 -107.547722 -100.948883
1.817477 -106.981606 -100.345665
4.085989 -106.796227 -99.975327
4.348754 -106.063278 -100.442009
5.951404 -106.167267 -101.394958
5.410002 -105.969200 -100.859955
-7.408620 -117.349373 -100.152679
1.969003 -107.277199 -100.475983
-6.441664 -117.238663 -101.323433
1.088933 -107.934464 -101.455040
1.712691 -108.027939 -101.736511
1.838282 -108.342186 -102.127449
-6.473611 -117.140457 -101.551949
1.636522 -109.222984 -101.773300
-7.131246 -118.467415 -101.600250
1.306300 -109.146324 -101.933548
1.902939 -110.061134 -102.880440
-0.224455 -109.614799 -101.926735
-6.827104 -117.063110 -103.334572
-0.064299 -109.546410 -102.118843
89.181221 -20.010931 -103.591568
90.670509 -19.104370 -103.144646
88.557838 -21.970976 -103.448982
88.420761 -20.268000 -103.284950
90.040573 -20.300201 -103.014694
87.048485 -20.818289 -102.981262
0.098736 -111.116966 -105.183563
-0.742869 -110.445015 -105.073502
87.606308 -20.983484 -104.407837
88.570671 -20.582249 -104.339439
88.725464 -20.227793 -104.515625
90.447296 -19.579624 -104.270325
85.777351 -21.922274 -103.871811
87.717453 -22.494083 -105.053902
88.794235 -21.021488 -105.026978
90.071709 -19.561546 -105.297951
-0.698944 -110.847580 -105.222595
91.088730 -20.616283 -105.734985
-0.359987 -111.199448 -105.443962
86.753098 -23.513472 -105.348221
87.483627 -21.664948 -105.738411
88.355522 -21.194313 -105.409737
89.111832 -21.088554 -105.498268
-7.721724 -117.673874 -106.146423
-1.318084 -110.970627 -106.296646
-0.837159 -111.576462 -106.870232
85.877586 -24.408661 -106.081245
86.462715 -23.024298 -105.081032
89.387764 -20.558733 -106.360344
89.485168 -19.428072 -106.376602
89.992050 -19.024719 -105.624969
-7.300917 -117.189438 -106.372261
-0.993797 -111.544975 -106.199097
88.484261 -21.224586 -106.022453
89.190727 -20.150970 -107.062080
90.424263 -19.766325 -106.247787
-2.358176 -112.085060 -106.061302
85.713638 -24.445206 -106.797142
85.958160 -23.288185 -106.221619
88.235123 -22.504707 -106.733925
89.358109 -18.937525 -107.113762
-7.565732 -116.621712 -107.513084
-2.422664 -111.674370 -106.966049
85.651352 -23.558548 -107.773521
87.664818 -22.884501 -107.587921
88.619087 -23.335590 -107.547874
88.877724 -19.143593 -107.062744
-6.464316 -117.033592 -107.247955
-1.892544 -112.466667 -106.399109
87.025307 -24.513212 -107.852478
86.875626 -22.700541 -108.195305
89.874176 -21.207966 -107.115013
90.192093 -20.184275 -108.247002
89.363579 -19.929434 -107.331291
-6.065928 -117.201195 -107.259056
-2.033873 -112.492378 -107.446068
85.681099 -24.186028 -107.981506
89.570969 -20.629330 -108.284637
89.865913 -19.287655 -108.253891
-5.874158 -117.286331 -107.857864
-6.259562 -116.232552 -109.221207
-2.288494 -112.723587 -108.099693
-2.376906 -113.662086 -108.579865
84.780006 -25.251272 -108.279480
86.192345 -24.086861 -108.133202
85.149048 -24.549990 -108.452591
87.813934 -22.128714 -108.302773
88.404846 -21.100210 -108.874184
89.329155 -20.168989 -108.650230
-6.758496 -117.024117 -109.295708
-6.614912 -116.253212 -109.129448
-4.292420 -114.632835 -108.823891
84.412125 -25.260904 -108.918495
-4.658645 -115.101555 -109.306648
-4.505947 -114.236710 -109.998329
-3.987356 -113.709488 -109.769562
84.105453 -24.938242 -109.117012
89.825966 -20.366669 -109.308060
-6.463773 -116.655609 -110.616463
-6.273283 -115.381729 -109.042664
-5.702812 -115.145111 -109.401810
-4.427547 -113.916206 -110.165916
84.174828 -26.125950 -109.418449
85.387009 -25.254219 -110.343224
88.581299 -20.821072 -109.247345
-6.732227 -115.668495 -110.399765
-6.187901 -115.044907 -109.961227
84.359398 -25.229507 -110.982773
89.481125 -19.986116 -109.866631
83.670639 -26.188831 -110.427940
84.646362 -26.156664 -112.039627
89.086029 -19.911272 -110.746872
83.618073 -26.322960 -111.341248
83.782494 -26.322216 -109.741432
89.541771 -20.788792 -110.532425
83.672180 -26.373081 -111.945244
83.033867 -26.421558 -112.887878
88.532257 -22.751314 -112.468086
89.523376 -21.626751 -112.179749
82.655647 -26.695032 -113.091766
83.710350 -27.053621 -112.728722
83.546005 -25.980507 -112.764496
83.221275 -27.298386 -113.355415
88.705910 -21.719444 -113.822807
88.952240 -20.837734 -113.185738
82.002525 -27.912676 -113.364021
82.469292 -26.772991 -113.268936
88.817307 -20.920458 -113.763474
82.661949 -27.251554 -113.911400
88.263458 -21.811623 -113.317741
82.019203 -28.106995 -114.330261
81.555931 -27.792549 -114.649384
82.393951 -28.395449 -115.455513
85.083321 -24.948051 -115.054939
88.027657 -21.321348 -115.000443
83.577911 -27.713140 -116.292427
84.795387 -24.899452 -115.555931
85.781723 -24.334949 -115.836502
81.911087 -27.739527 -116.991646
85.549500 -23.503677 -115.557602
87.588539 -21.069241 -116.467316
81.312973 -27.884583 -116.692856
84.010132 -25.053200 -116.610222
84.693466 -25.142044 -116.781990
88.202789 -22.335340 -116.142952
81.242683 -28.716078 -116.935501
84.235542 -25.321993 -116.592293
85.573402 -24.545712 -116.840195
81.122513 -29.247768 -117.518723
82.543976 -29.404282 -117.049904
83.050819 -25.822571 -117.691628
84.159462 -24.436333 -116.832092
87.314880 -22.928493 -115.966507
83.222252 -24.893707 -117.970795
83.995705 -25.580423 -117.431740
84.289841 -25.346561 -116.961021
81.141747 -28.363510 -118.390747
79.576492 -29.689779 -117.714554
87.107346 -24.151932 -119.108879
81.086769 -29.796188 -118.863121
