# This PCD file was generated using the MATLAB® pcwrite function
# from Computer Vision Toolbox®.
# .PCD v.7 - Point Cloud Data file format
VERSION .7
FIELDS x y z
SIZE 4 4 4
TYPE F F F
COUNT 1 1 1
WIDTH 1438
HEIGHT 1
VIEWPOINT 0 0 0 1 0 0 0
POINTS 1438
DATA ascii
-14.383367 -66.087250 -77.914436
-44.493572 -94.988632 -79.194710
-44.131180 -94.638771 -78.944267
-14.057460 -65.472916 -79.834221
-14.129440 -65.751381 -80.075401
-43.973740 -94.765488 -81.002296
-43.883801 -94.130653 -81.701958
-43.488152 -94.315155 -80.957191
-14.437130 -65.087196 -81.707031
-43.714931 -94.461754 -81.510147
-43.705585 -93.377647 -81.711212
-13.950236 -65.181870 -81.980331
-14.235189 -65.609528 -82.839500
-43.531406 -93.951195 -83.301781
-14.376050 -65.076828 -84.282013
-15.362159 -65.983932 -85.119743
-15.588992 -66.430679 -86.244858
-42.888885 -94.191170 -87.735130
-15.578547 -66.060410 -87.461067
-42.311218 -94.777863 -87.706215
-16.325958 -66.594376 -87.760345
-43.439117 -94.196587 -89.313492
-16.826254 -67.321228 -90.332489
-16.499239 -67.225098 -89.209930
-43.554420 -94.343742 -89.132339
-43.282730 -95.027061 -90.181648
-44.013435 -93.584076 -90.532326
-16.203938 -67.049042 -89.686409
-16.288465 -67.203537 -91.469391
-16.393686 -68.263344 -92.638702
-42.865360 -93.160805 -91.992920
-43.601856 -94.109688 -92.544174
-17.422564 -68.122787 -91.878052
-42.558968 -94.562630 -91.461571
-17.134342 -68.207939 -92.355339
-17.978682 -69.489220 -92.555473
-17.956593 -69.509697 -93.661392
-17.350262 -69.732452 -93.835808
-19.011608 -68.705368 -93.958298
-43.382805 -94.648277 -93.498474
-18.767988 -69.328560 -94.298286
-18.736097 -69.698418 -95.280960
-42.339680 -93.898949 -95.122688
-18.103878 -69.846436 -96.043091
-19.886902 -68.832283 -95.559753
-42.631645 -94.468857 -95.771820
-18.664379 -71.034500 -96.237183
-42.399319 -94.164406 -96.703094
-42.211475 -92.676933 -96.630730
-42.235188 -93.927483 -96.819221
-19.016590 -69.921692 -96.684036
-18.850891 -69.845924 -97.435616
-19.511784 -70.681015 -97.215973
-42.523006 -93.634010 -97.908203
-19.980967 -70.377411 -98.601997
-20.771288 -71.423615 -98.268410
-20.768045 -71.412262 -98.485176
-20.696405 -71.919022 -99.274971
-21.184540 -72.727470 -98.766342
-41.903721 -93.113174 -99.760735
-20.879248 -73.938004 -99.701836
-42.436401 -93.312546 -99.212189
-41.305584 -92.480980 -100.442291
-22.565842 -74.798264 -101.604889
-41.062515 -93.016823 -101.430367
-24.295244 -75.620842 -101.974731
-41.170769 -92.591347 -102.813423
-25.180929 -77.435860 -102.716362
-24.522484 -75.218956 -101.771935
-25.764290 -76.455139 -101.873466
-41.074116 -92.222549 -101.655373
-41.425621 -91.014679 -102.619881
-41.718006 -91.386681 -103.145805
-40.519432 -91.771065 -104.125443
-27.901995 -77.472107 -103.807365
-41.089352 -92.099747 -102.989914
-40.977581 -91.521103 -103.836174
-26.754759 -79.192566 -102.729309
-27.824169 -78.898567 -103.922867
-28.719841 -78.854660 -103.996376
-29.806477 -80.603989 -103.579659
-29.960041 -81.825020 -105.949165
-40.339336 -91.406837 -105.350105
-40.307274 -90.489845 -105.841362
-30.203665 -81.300392 -104.812187
-30.585644 -83.303413 -105.089729
-39.711422 -91.574371 -105.716591
-32.243385 -82.465294 -105.569145
-31.533794 -83.082588 -106.743996
-40.367496 -90.352089 -106.933754
-39.229588 -89.713921 -107.189514
-39.475739 -91.252037 -107.135529
-39.271816 -91.244019 -107.238541
-39.749897 -90.575096 -107.272842
-39.450279 -90.176491 -108.295036
-33.039635 -83.535889 -107.205627
-32.939396 -84.391609 -108.788116
-39.791008 -90.611298 -108.914795
-39.252331 -89.975647 -107.897797
-33.806561 -84.697006 -108.110069
-38.707600 -90.315178 -108.279236
-34.529392 -85.530212 -108.856316
-33.932972 -85.775131 -109.145164
-38.250778 -88.920647 -109.300720
-37.920589 -88.804825 -109.520836
-37.837124 -87.830246 -109.638916
-35.061012 -85.545105 -110.146164
-37.974957 -88.428444 -109.527740
-36.256798 -86.705063 -109.980995
-36.338993 -87.657097 -109.689995
-35.761383 -86.993141 -110.333725
-34.556023 -85.990898 -109.721939
-36.906799 -87.530647 -109.556618
-26.214417 -76.579849 -48.967194
-25.560810 -75.511795 -48.363007
-28.426785 -78.174713 -48.367146
-26.939230 -77.474182 -49.076591
-25.130417 -75.625771 -48.207787
-24.178093 -74.794373 -49.239300
-24.752478 -73.115585 -49.418285
-29.389914 -79.875580 -49.902138
-30.000359 -79.384590 -49.622173
-30.242769 -78.591461 -49.333572
-28.422682 -77.818672 -50.258587
-28.402674 -77.547882 -48.783646
-27.749207 -76.045540 -48.979637
-26.273790 -75.077309 -49.303879
-25.427765 -73.380882 -48.964390
-23.380444 -74.101738 -49.461529
-31.613159 -81.737206 -48.554493
-31.123110 -79.759735 -49.402287
-30.545240 -78.968018 -49.146992
-24.033810 -72.373238 -48.995605
-22.359081 -73.233452 -48.946331
-23.502354 -71.990150 -49.049297
-32.322311 -81.533623 -49.925419
-23.202164 -71.309036 -49.637493
-22.252939 -71.808861 -50.165462
-33.604950 -81.540291 -50.873966
-33.171585 -81.746544 -49.001087
-22.324663 -71.094330 -51.081131
-21.385069 -70.705360 -49.902370
-21.729511 -70.294258 -49.622639
-22.370316 -69.528290 -50.609093
-19.839333 -69.928223 -51.646111
-20.626402 -70.902573 -50.728603
-35.103127 -84.038193 -50.720512
-19.205587 -69.182587 -50.745796
-34.042583 -84.595047 -51.713158
-18.064320 -68.217880 -50.845261
-19.539480 -68.819511 -51.231659
-20.355774 -68.176132 -52.496605
-19.310352 -68.303673 -52.544533
-18.218447 -67.162636 -52.167953
-35.765522 -86.314438 -52.943130
-16.915581 -65.909584 -53.543774
-17.178429 -66.985382 -52.500420
-37.860668 -87.190811 -53.795483
-18.342819 -65.525169 -53.101585
-17.536518 -66.574371 -54.031013
-15.895922 -65.688568 -53.062378
-37.608330 -87.634804 -54.199562
-38.653194 -86.440788 -53.930779
-38.358128 -88.163887 -54.511055
-15.187796 -65.238434 -54.095112
-16.453001 -64.803749 -54.933754
-15.601800 -64.913429 -55.786587
-14.985356 -65.221001 -54.440861
-38.045097 -89.004089 -53.373680
-37.811081 -86.836922 -54.436447
-15.498071 -64.931793 -55.117775
-14.004007 -62.554409 -55.523560
-14.160058 -64.974342 -54.896606
-38.677605 -89.081787 -55.228165
-40.417507 -87.829796 -55.861206
-15.028163 -63.730564 -55.738552
-13.656936 -63.019119 -55.505165
-39.597000 -89.833694 -56.383224
-15.353047 -62.959164 -56.184910
-13.281986 -63.314003 -55.449131
-13.981395 -62.979942 -56.370930
-39.465900 -91.010300 -56.693035
-39.904221 -89.209846 -56.405376
-11.281103 -62.027344 -56.419453
-10.230122 -60.053425 -58.197292
-39.917404 -90.595245 -57.095657
-40.434063 -89.533554 -57.935318
-14.574626 -62.897163 -57.682667
-12.557881 -62.390347 -57.710941
-12.438744 -62.769154 -56.733807
-40.803539 -90.722885 -58.217899
-12.255296 -62.155384 -57.772572
-11.069571 -60.134304 -57.571800
-8.805808 -58.534592 -58.497364
-14.023497 -63.461555 -58.199852
-13.559228 -62.224991 -59.151630
-13.605533 -62.289291 -59.516815
-12.383867 -62.216549 -58.800591
-11.496750 -59.667679 -57.565868
-10.398864 -59.481915 -57.616989
-41.881149 -90.452621 -58.845875
-13.014169 -61.539120 -58.572105
-11.548509 -60.041851 -59.267139
-10.671513 -59.026318 -58.052101
-10.132500 -58.711418 -58.508724
-9.259050 -59.598663 -58.478584
-11.732888 -60.516899 -59.574890
-15.046805 -63.059036 -59.125881
-13.352847 -62.433430 -60.046047
-10.556650 -61.036335 -59.228672
-9.947030 -59.708229 -58.994267
-10.497625 -59.621696 -60.375553
-9.403131 -58.275688 -59.877731
-7.512238 -57.749737 -59.789917
-9.414731 -57.290600 -59.519520
-41.737347 -91.171478 -60.326324
-41.435547 -91.294540 -59.805882
-14.173262 -62.656345 -60.044708
-10.526144 -59.964363 -59.314816
-10.761619 -58.892315 -59.464478
-9.057537 -58.214386 -59.242828
-8.253721 -58.731335 -60.316784
-8.070868 -57.278370 -59.802315
-41.423336 -92.027290 -61.135777
-42.092220 -91.110115 -60.673943
-11.306776 -61.143631 -61.215427
-8.890829 -57.491428 -60.856831
-42.721802 -90.836548 -60.330254
-13.331410 -62.320183 -59.909153
-14.355772 -63.574612 -60.341717
-10.823748 -60.412502 -61.520065
-10.604217 -60.562943 -60.230766
-8.664393 -58.217392 -60.002819
-7.772432 -58.170467 -61.237835
-7.185418 -57.516254 -61.422791
-8.642986 -57.397125 -60.744843
-13.236669 -63.964779 -60.145485
-12.724385 -63.540443 -61.984367
-11.100157 -60.075584 -61.793922
-10.007360 -58.764011 -61.293320
-8.139947 -57.661102 -60.885269
-8.289426 -57.054428 -61.353996
-42.668751 -91.558624 -60.903130
-10.136162 -60.273247 -61.730961
-9.962822 -58.525867 -61.700962
-42.716461 -90.923912 -61.272251
-42.244278 -91.121674 -61.940395
-14.314256 -62.752014 -62.921886
-9.788980 -60.252102 -61.493359
-9.044546 -58.261192 -62.841778
-7.703080 -56.919823 -62.167290
-8.823659 -56.871372 -61.719658
-13.724917 -63.496456 -62.176071
-9.535035 -59.361023 -62.849834
-8.888115 -58.764469 -62.678658
-6.657028 -57.188892 -61.844410
-42.257454 -92.310883 -63.389843
-15.640305 -64.017838 -62.509857
-9.440604 -59.830032 -62.371281
-9.513590 -58.766430 -62.883190
-8.922942 -58.770329 -61.885254
-7.847213 -57.538425 -63.496464
-43.160355 -92.230385 -63.025280
-14.048480 -63.295059 -63.255093
-10.412606 -58.974384 -62.812023
-14.651755 -64.553856 -63.481728
-14.518786 -63.926125 -62.905994
-10.188550 -59.001396 -62.375271
-7.379923 -57.978065 -63.136509
-7.754449 -56.983662 -63.460136
-42.543892 -92.578773 -62.889790
-43.096462 -93.086792 -64.254478
-42.771465 -92.534676 -65.447273
-13.804135 -64.430511 -64.629662
-42.558949 -93.163033 -65.101051
-14.592088 -63.464642 -64.689461
-43.086472 -93.200851 -65.091156
-14.596942 -64.622147 -65.650101
-16.017597 -64.142784 -65.535713
-14.891049 -63.429420 -66.710129
-13.899901 -65.051636 -66.136642
-43.423172 -93.416237 -67.950699
-14.825975 -63.734131 -67.746170
-43.608997 -93.305664 -68.371307
-44.236492 -92.347923 -68.728683
-42.555416 -92.830826 -68.700195
-14.291943 -64.518463 -68.146942
-14.813225 -64.395340 -69.205177
-43.207993 -94.319283 -69.995392
-15.233905 -64.864998 -69.889687
-43.846691 -94.240242 -71.128471
-15.474296 -64.211411 -71.016136
-15.596177 -65.363930 -69.724342
-15.265594 -63.808167 -71.464607
-43.956886 -94.692932 -72.880043
-15.981732 -64.570450 -71.635918
-14.748467 -64.269150 -73.343719
-14.122912 -64.677849 -73.750923
-14.930441 -64.723289 -73.462219
-14.879455 -65.004593 -74.209648
-15.026253 -65.211006 -74.451347
-14.283950 -65.057167 -75.454575
-15.515796 -63.905430 -74.270012
-43.668434 -94.600395 -75.796806
-14.569367 -65.339989 -74.829918
-15.471474 -64.351616 -76.000114
-44.501190 -93.811058 -77.608383
-44.510040 -93.550713 -78.437279
-45.155605 -94.537735 -79.059753
-14.664794 -64.444962 -79.785225
-45.263336 -94.157906 -79.805397
-44.020653 -94.766930 -78.982033
-44.595619 -94.738701 -80.125526
-14.995628 -64.928001 -81.253700
-15.977392 -65.368080 -81.520393
-14.289289 -65.471085 -81.911652
-15.719748 -65.838181 -83.458595
-44.313705 -94.062576 -83.968719
-44.351818 -94.010376 -85.379608
-15.355098 -64.776443 -84.955696
-15.408288 -65.370079 -85.374161
-44.767040 -94.531570 -86.539436
-15.413682 -65.011169 -86.851303
-43.632961 -93.505974 -85.860558
-43.408756 -93.581833 -87.198517
-43.114979 -92.874001 -88.444778
-43.655621 -93.555206 -87.559944
-44.176208 -92.441887 -88.179733
-17.366238 -66.469719 -88.635582
-44.785873 -92.467453 -89.409264
-42.713856 -93.916969 -90.476181
-16.559200 -66.384865 -90.009834
-17.231182 -65.728699 -90.311363
-16.263725 -66.510849 -90.860939
-17.483198 -67.023438 -91.198441
-17.332846 -67.379608 -91.461235
-18.149496 -68.212395 -92.227837
-17.679308 -68.184875 -92.195358
-18.295235 -68.113213 -92.607521
-18.810169 -68.847061 -92.976013
-42.650139 -93.451859 -92.636711
-18.182249 -67.667465 -93.242264
-18.881937 -67.881477 -93.385544
-17.714943 -68.418152 -93.300720
-43.446346 -92.941711 -94.968224
-20.083530 -68.945129 -94.973602
-42.792015 -93.282814 -95.361824
-18.143656 -68.732925 -95.726547
-42.453823 -92.472916 -96.088928
-42.894711 -91.824577 -94.966492
-42.908546 -92.251144 -95.918846
-42.617504 -93.135605 -96.651131
-19.275623 -69.569809 -96.282089
-20.332947 -70.116676 -96.950775
-20.660364 -68.918808 -96.226875
-20.771280 -69.612946 -97.304832
-21.409428 -69.971634 -97.630432
-42.492786 -92.558701 -98.526627
-42.983765 -92.708000 -98.494469
-21.326294 -70.787796 -98.925781
-21.253977 -70.940979 -98.493462
-41.973156 -91.987053 -99.598724
-42.978077 -91.914169 -99.424423
-21.969082 -72.316109 -99.900131
-42.593788 -91.883186 -99.517227
-42.593029 -91.685394 -99.225517
-22.252087 -70.605484 -100.563690
-23.464865 -73.203705 -100.477257
-42.525452 -91.815392 -100.918045
-23.146402 -72.972084 -101.096390
-41.740730 -91.845589 -101.816261
-41.732666 -90.943840 -101.874641
-41.378147 -91.681259 -101.883003
-41.549797 -91.563736 -102.519112
-41.795177 -91.294533 -102.153511
-26.340206 -76.517273 -102.178871
-25.602453 -74.383217 -102.276230
-26.133806 -77.024811 -102.387741
-26.522409 -76.807655 -103.299423
-40.932419 -90.852753 -103.751328
-27.757757 -77.827454 -102.974960
-41.410896 -90.389671 -104.817352
-41.764656 -89.739479 -104.832153
-41.123199 -90.729019 -103.938309
-28.857304 -79.376358 -104.047539
-29.631628 -79.502190 -104.312866
-41.832218 -90.251030 -104.090210
-30.450403 -81.061638 -105.007423
-40.715862 -90.241966 -104.666412
-40.854164 -90.363754 -105.026482
-40.040783 -89.837463 -105.747620
-31.073254 -81.317863 -104.888062
-31.526098 -81.817726 -105.892700
-40.512630 -89.846703 -105.362343
-39.875134 -90.400665 -106.781013
-32.835552 -82.711952 -106.714745
-41.085518 -89.361458 -106.075340
-40.327366 -90.451691 -106.915665
-33.014713 -82.813080 -106.528214
-40.028740 -89.625946 -106.144226
-40.116734 -87.978432 -107.525078
-33.958187 -83.696701 -108.420624
-39.092754 -90.228966 -107.801430
-39.215099 -89.983086 -107.954727
-39.881420 -87.923721 -108.357948
-33.665588 -83.664734 -107.691750
-39.261093 -87.819588 -109.023895
-34.026524 -84.121460 -109.030220
-39.113743 -88.239525 -109.435165
-38.740051 -86.675316 -108.035606
-38.275089 -87.473923 -109.627998
-38.457626 -86.407730 -109.994804
-35.548275 -85.003609 -108.916672
-37.091251 -86.817535 -109.568802
-36.282772 -85.815140 -109.264938
-36.690876 -85.698624 -109.933609
-28.035358 -77.634506 -50.686344
-26.662546 -74.692482 -49.770836
-26.042217 -74.867981 -49.168983
-30.796297 -77.703934 -49.088047
-28.023855 -77.882942 -48.516716
-28.156570 -75.708023 -49.651463
-27.234585 -75.106895 -49.981705
-26.002312 -73.739349 -49.482204
-31.555271 -79.163811 -50.915321
-31.690504 -79.302605 -49.865452
-32.860893 -78.503906 -50.171738
-26.224463 -73.061424 -49.517937
-23.923578 -73.147522 -50.466835
-33.731495 -80.851982 -49.888691
-33.457703 -80.486580 -50.889004
-23.754431 -71.470512 -50.562920
-33.317841 -82.863091 -50.749924
-34.142372 -83.214851 -51.025810
-23.170488 -69.697479 -50.046947
-35.191154 -82.984795 -51.024258
-34.227394 -81.151619 -50.990883
-22.999071 -68.903297 -50.268734
-21.705624 -70.109138 -50.213982
-21.188463 -68.934708 -51.060238
-36.776001 -84.528450 -52.285892
-20.269220 -69.721146 -52.235573
-18.688869 -67.503922 -51.647270
-35.091549 -84.226524 -52.273788
-20.825085 -68.107864 -51.891529
-37.281651 -84.042870 -53.610683
-19.704704 -66.779373 -52.419029
-19.063124 -66.784988 -52.577782
-36.742764 -85.524925 -53.944290
-19.097269 -66.463242 -52.991066
-38.262806 -86.199211 -53.195377
-18.579824 -66.631599 -53.253941
-18.593821 -64.595039 -53.323597
-16.599155 -65.862823 -53.500721
-38.558914 -86.897141 -54.245125
-16.211283 -64.306740 -54.344196
-16.913181 -64.492859 -54.516411
-16.873566 -63.366005 -54.864174
-39.081120 -88.784042 -56.424049
-15.088599 -63.496731 -55.373505
-16.824860 -64.253761 -55.895691
-40.468365 -89.345612 -57.755379
-41.151066 -88.022659 -57.068745
-13.622452 -62.522171 -57.249935
-41.100571 -90.700089 -57.910069
-14.399306 -63.457638 -57.570583
-41.144836 -89.627090 -58.444481
-42.245022 -90.123116 -58.918896
-41.314137 -89.568787 -59.093922
-14.167918 -63.103424 -59.086193
-16.169847 -62.909218 -59.495239
-42.238811 -90.021660 -60.366413
-15.765599 -63.941666 -59.658081
-15.676683 -63.549671 -60.030815
-42.483398 -91.592735 -61.128624
-43.181946 -89.258476 -61.055851
-14.645166 -63.252487 -60.101490
-41.968983 -90.507462 -60.583145
-16.146805 -62.871136 -61.411724
-16.588062 -63.213234 -61.804176
-42.744007 -91.846588 -62.401573
-14.526197 -64.661446 -62.217571
-44.077076 -92.377892 -62.988598
-44.731197 -90.373016 -62.399822
-14.817726 -63.276768 -62.653313
-15.222045 -64.057602 -62.809757
-44.297421 -91.730247 -62.750740
-15.521148 -62.813625 -63.070343
-42.492886 -92.160431 -63.846802
-15.425421 -63.325768 -63.974869
-16.208241 -62.702286 -64.348869
-44.043655 -91.753632 -65.039940
-15.960547 -64.669197 -65.271271
-44.391472 -92.491936 -66.739357
-44.707405 -91.836166 -65.475914
-16.068018 -63.980198 -65.774216
-43.588024 -91.984489 -66.185341
-44.387985 -92.723549 -66.947868
-44.032280 -93.360672 -67.481270
-15.863986 -65.057747 -68.212593
-15.446977 -64.000046 -67.644981
-15.455250 -64.719406 -68.561951
-44.189415 -92.890221 -68.302330
-14.873866 -63.837090 -69.775703
-44.323975 -93.641357 -70.587929
-44.820011 -92.018837 -69.888611
-15.956606 -63.630177 -69.533760
-44.364586 -93.509140 -69.732246
-44.371758 -91.831993 -70.376053
-15.869133 -64.457970 -70.416969
-44.559536 -92.969688 -70.473114
-15.327388 -63.245384 -70.568710
-15.170915 -64.213890 -71.703835
-45.281895 -92.833824 -71.605110
-44.667263 -93.662750 -72.049438
-15.933502 -64.926506 -72.677269
-15.363741 -63.916172 -73.790558
-44.113583 -94.048615 -73.484505
-15.028126 -64.368874 -73.842201
-15.888494 -64.336868 -74.156097
-43.385513 -92.921165 -76.346710
-44.979263 -92.904358 -77.066254
-15.857727 -63.866360 -77.651886
-15.505548 -63.443138 -78.829117
-14.931670 -63.263527 -79.566727
-15.784252 -64.019341 -79.629913
-44.819645 -92.922592 -82.928192
-16.357731 -65.230507 -83.261917
-15.578108 -64.193268 -82.499306
-44.223007 -93.378662 -83.254486
-44.719582 -93.592552 -85.231255
-16.444464 -64.806778 -84.208984
-43.716423 -92.802094 -84.560059
-44.696831 -91.574425 -86.268364
-44.795879 -91.483345 -85.092850
-44.366371 -94.001228 -85.951202
-44.454853 -93.076256 -86.722153
-43.842884 -92.320076 -87.541122
-45.528622 -92.914047 -87.404625
-44.833824 -93.065186 -87.192497
-16.349300 -64.866379 -87.342735
-15.684495 -64.864861 -88.467812
-16.073168 -64.673462 -87.831177
-18.042763 -64.725182 -88.765823
-18.221016 -66.801331 -89.575645
-43.960236 -92.825966 -91.239594
-17.453882 -65.198982 -90.911255
-44.693031 -91.330681 -91.497009
-44.450527 -91.909325 -92.789635
-18.549393 -65.836464 -92.376801
-18.500313 -66.392769 -92.303123
-44.366287 -92.082413 -94.009766
-44.350025 -90.672218 -93.442268
-18.731150 -68.012390 -93.308220
-44.413021 -91.142281 -94.229942
-43.719978 -91.421349 -92.894905
-19.921240 -67.069633 -94.329048
-43.489365 -92.416977 -94.606102
-19.287306 -67.829132 -93.820152
-44.108231 -92.623039 -94.553986
-19.218575 -67.655327 -96.137192
-19.594061 -68.616707 -95.332130
-20.277002 -68.387520 -94.939514
-43.674446 -92.009781 -95.859985
-19.904301 -68.699646 -96.735176
-43.410469 -91.073105 -96.413208
-20.398558 -68.285309 -95.926979
-44.283115 -90.766617 -97.699005
-42.691963 -91.064766 -98.060677
-20.305178 -69.477745 -97.813171
-42.920265 -90.752846 -97.846718
-43.034668 -90.663910 -97.714813
-20.716774 -70.517616 -97.153114
-21.600389 -69.940102 -98.582268
-43.391834 -91.434479 -98.829292
-20.542768 -70.270004 -98.689667
-21.825567 -70.089905 -98.715927
-21.998846 -70.351349 -98.467651
-42.449635 -91.744339 -100.324600
-21.871799 -70.842606 -99.868973
-43.124870 -90.692368 -100.429543
-42.176586 -89.726929 -100.264053
-22.264767 -71.059074 -100.556305
-24.161018 -71.434258 -100.779915
-42.135746 -90.577065 -101.131279
-42.443241 -89.289749 -101.285294
-23.941799 -72.697098 -102.060966
-24.629740 -72.575165 -101.999443
-41.845184 -90.317375 -101.863625
-24.789701 -73.870888 -101.274879
-25.743839 -73.554398 -102.335442
-26.319607 -75.866844 -101.462646
-41.788399 -90.327545 -101.778191
-26.073597 -74.683723 -103.358246
-26.630688 -75.148911 -103.141342
-41.970005 -90.429901 -102.394455
-27.815022 -76.878029 -102.918625
-41.113354 -88.861580 -103.603027
-29.008316 -77.311272 -103.146637
-27.946262 -77.768822 -103.811058
-29.155689 -78.030060 -104.616608
-41.473534 -89.975830 -104.158615
-28.827074 -78.947815 -104.024429
-41.542622 -89.231796 -105.578621
-41.230961 -88.602859 -105.270508
-40.161453 -89.741089 -105.731491
-31.215174 -79.889168 -104.222641
-31.651020 -79.007881 -104.801407
-32.943516 -80.388359 -105.484688
-33.294739 -81.504776 -106.021423
-39.850788 -88.792679 -106.830383
-40.922440 -88.458061 -106.841583
-32.747566 -79.322876 -106.276428
-40.456757 -86.947403 -106.900055
-34.419903 -81.802345 -106.616425
-34.551949 -83.291321 -107.692268
-39.852322 -88.419411 -107.094299
-39.670925 -86.491447 -107.843407
-34.187798 -82.875282 -107.624176
-38.845844 -87.395325 -107.368652
-38.253910 -86.878151 -107.986626
-39.432327 -85.400917 -108.208450
-34.534184 -83.063454 -107.804031
-36.010883 -83.535027 -109.143738
-38.628071 -87.268837 -109.129524
-38.450253 -85.751793 -108.855942
-37.005974 -84.436089 -108.955727
-35.396099 -85.216614 -109.713318
-36.856777 -85.250648 -109.408287
-28.075254 -75.560593 -50.647297
-29.827339 -76.830750 -50.180790
-30.936073 -76.212677 -49.561069
-28.863403 -74.663803 -50.397518
-27.935930 -73.994545 -49.987999
-27.981043 -73.804199 -49.839981
-25.890587 -72.478233 -50.633224
-32.236053 -78.391319 -51.043121
-32.122822 -77.154747 -50.353340
-31.289457 -77.633957 -50.627365
-29.504669 -76.266983 -50.262104
-26.898411 -72.796417 -49.908878
-26.324417 -71.468506 -50.392757
-25.597799 -72.183128 -50.764397
-23.932308 -71.415115 -50.638206
-33.706158 -80.555794 -50.646843
-34.146679 -79.818268 -51.030071
-25.296194 -70.511703 -51.230988
-34.721016 -80.468826 -51.224541
-24.430372 -70.897583 -52.062016
-24.030714 -70.049599 -50.224659
-34.075336 -81.141838 -51.770275
-21.779373 -68.638840 -51.526268
-23.444395 -69.375389 -51.337631
-36.297028 -83.435913 -51.892189
-23.334219 -68.604950 -51.573074
-35.394371 -83.313271 -52.075554
-20.278090 -67.323120 -53.277401
-19.533298 -67.814804 -53.043800
-36.753223 -85.011345 -52.653263
-37.660217 -85.081047 -53.746059
-20.926682 -67.018227 -52.800270
-19.369257 -65.721268 -53.176216
-19.532976 -66.652550 -54.352249
-38.072826 -87.180229 -55.246498
-17.420471 -65.492859 -55.125034
-38.722900 -86.439232 -55.027706
-17.325148 -64.962059 -54.916912
-17.564180 -64.414650 -55.645786
-39.718521 -86.209831 -55.378880
-40.087936 -87.041046 -56.271568
-16.575672 -64.483955 -55.587048
-17.024294 -64.245964 -56.579391
-41.680290 -87.716652 -57.311779
-17.597872 -63.337460 -58.274639
-41.540550 -88.114975 -58.363071
-16.428421 -63.824188 -57.804337
-17.189381 -62.399250 -58.102840
-41.652245 -88.460915 -57.640251
-40.853588 -88.190353 -59.116386
-41.625500 -88.659920 -59.312088
-15.746355 -63.026794 -59.187569
-17.612892 -63.774311 -58.375248
-42.159225 -89.559532 -59.802364
-41.952457 -89.790512 -60.514217
-41.331402 -89.235115 -60.040352
-43.107986 -89.741241 -60.321011
-15.570652 -63.254829 -60.420971
-42.333618 -89.835457 -60.353195
-43.227142 -90.256004 -61.944729
-43.388275 -89.733116 -61.562462
-43.475357 -90.503777 -62.546535
-15.999185 -63.039127 -61.909107
-15.902878 -63.865425 -62.892151
-44.043312 -91.229881 -63.195202
-14.569425 -63.321384 -63.541893
-43.777473 -90.115334 -64.358521
-43.727558 -90.199081 -63.987957
-16.274422 -63.002499 -63.160965
-15.561512 -62.676804 -63.642742
-15.760880 -62.524418 -63.666348
-16.103947 -64.459549 -65.209076
-16.415127 -63.331459 -64.897598
-44.698452 -91.241310 -65.574661
-44.446083 -91.224625 -65.021187
-43.738735 -91.932999 -66.175957
-45.178982 -90.493019 -66.848495
-16.153040 -63.577267 -67.398552
-45.392857 -91.883270 -66.921394
-15.769711 -64.222832 -67.401703
-44.671211 -91.613541 -67.373047
-16.203106 -63.609024 -67.968033
-44.601864 -92.061432 -68.749138
-15.296976 -63.623260 -69.648849
-16.858879 -63.770451 -68.867813
-44.275066 -91.970383 -69.847733
-16.037840 -63.301315 -70.442375
-44.563972 -92.020805 -70.682755
-45.182522 -92.321671 -71.275795
-17.094313 -63.812992 -71.909973
-44.652870 -91.759850 -71.442596
-44.426533 -92.569725 -71.718719
-45.722061 -92.818901 -72.720436
-45.052574 -90.556351 -73.045036
-16.951105 -63.586510 -73.489044
-45.163666 -91.886375 -74.153435
-45.030209 -92.330276 -74.168648
-45.577625 -92.275322 -74.474174
-45.352188 -92.102592 -74.758972
-16.185564 -63.532219 -75.111511
-45.477806 -91.881622 -76.627823
-16.036190 -62.993465 -76.520447
-45.311344 -92.342598 -77.120262
-16.697931 -63.239151 -78.335594
-45.475861 -92.759087 -78.738281
-44.096100 -92.564491 -77.760117
-44.462208 -93.231361 -78.516083
-15.898558 -63.259663 -78.822922
-46.083073 -91.602798 -79.755325
-17.120050 -63.585430 -80.330650
-45.410561 -91.767059 -80.394913
-44.929550 -92.067642 -81.393509
-16.002632 -63.975540 -81.051819
-17.010269 -63.339054 -81.884796
-45.455177 -92.519890 -81.761345
-16.898132 -63.401047 -81.952042
-45.048111 -91.848129 -82.538422
-46.409313 -91.600746 -81.945274
-45.167068 -92.001625 -82.792816
-45.209427 -92.293182 -83.544609
-44.745663 -91.943825 -84.379356
-45.725517 -91.934967 -84.720581
-44.668156 -92.464409 -84.904655
-16.609409 -63.953243 -84.864578
-17.422617 -64.393913 -85.778038
-16.595657 -64.689659 -87.117302
-17.468241 -64.561546 -87.219467
-44.850365 -91.625374 -88.308189
-16.022598 -64.901527 -88.317146
-44.022591 -92.378036 -88.754532
-16.482983 -64.672585 -87.412224
-18.000538 -63.883846 -89.276154
-17.765245 -64.742271 -89.332726
-43.998375 -92.339355 -89.865776
-44.351681 -91.887383 -89.723724
-17.577627 -65.993484 -89.490562
-18.704554 -65.600754 -90.226837
-45.193024 -91.662415 -90.748726
-44.959347 -90.317352 -91.073944
-18.139608 -65.085289 -90.584435
-43.774261 -92.282295 -90.746262
-19.097536 -66.357948 -89.783211
-45.304161 -90.841568 -90.832726
-18.654032 -65.390587 -90.872070
-44.300388 -91.364990 -92.603279
-44.252422 -91.413559 -91.191017
-19.086840 -65.908699 -92.466217
-44.028111 -90.611839 -93.211258
-19.484703 -66.236130 -92.978691
-19.201427 -65.684563 -94.132210
-19.850332 -66.603867 -94.262337
-19.556171 -65.769768 -94.140640
-19.917355 -67.512779 -94.578209
-44.217583 -91.791237 -95.080498
-20.023584 -67.190437 -95.611526
-43.871140 -92.105972 -95.394493
-45.046150 -90.399338 -96.489792
-20.021427 -67.853813 -94.942703
-43.116722 -91.076309 -96.064514
-21.265331 -67.402321 -96.461830
-20.599163 -67.655701 -96.315308
-42.701962 -91.903404 -95.874207
-43.956978 -89.678818 -97.571556
-44.342110 -90.067039 -96.723320
-21.273853 -67.957130 -96.941116
-43.076019 -89.715973 -97.262924
-21.284451 -68.798248 -97.215164
-21.676888 -69.108650 -98.529312
-21.708418 -68.395081 -98.604286
-21.906073 -69.322899 -99.255035
-43.613274 -90.408546 -99.394371
-42.507702 -90.367821 -99.329155
-42.765480 -90.141098 -99.538872
-22.432974 -69.240768 -99.254402
-22.744053 -70.306107 -99.483788
-42.869274 -90.233070 -100.114235
-22.970074 -69.955719 -99.991936
-22.604542 -69.814529 -100.678352
-22.606087 -70.049553 -100.461830
-42.879833 -88.827209 -100.433258
-42.426765 -88.855064 -101.700348
-42.262451 -89.906982 -102.235558
-24.417515 -71.861816 -100.901169
-25.174986 -72.110756 -102.361008
-42.276081 -89.241013 -101.713715
-25.260246 -72.103386 -102.954453
-26.679220 -71.873154 -102.889572
-42.219193 -90.703041 -102.924973
-41.814919 -87.825180 -102.310707
-26.322620 -73.086174 -102.476768
-26.778625 -73.223061 -102.959038
-27.621723 -75.774254 -102.389618
-26.730499 -74.380119 -103.889282
-41.500839 -89.809395 -103.756149
-41.332832 -88.333710 -104.578835
-27.726994 -75.141251 -104.451225
-28.586926 -76.766914 -103.512924
-40.401764 -89.102951 -105.068382
-30.113716 -77.527908 -105.133423
-41.364948 -87.552963 -104.127113
-31.324970 -79.724884 -104.638847
-42.034229 -88.383148 -105.542923
-40.198792 -87.868065 -104.954414
-41.018887 -87.849297 -105.837883
-32.287975 -80.847214 -105.946457
-31.362459 -78.629112 -104.792351
-40.620426 -88.116661 -106.402000
-40.620819 -87.621506 -105.672813
-39.355713 -86.900078 -106.222404
-40.350166 -85.857674 -105.966667
-33.529724 -81.381737 -106.476669
-34.228138 -81.687302 -107.403679
-38.877281 -86.883698 -107.246368
-39.863224 -85.511436 -108.221367
-35.555588 -81.409721 -107.310379
-38.374870 -85.157700 -108.093201
-38.390633 -83.890488 -107.809906
-35.273579 -83.708221 -107.496887
-39.214169 -84.484634 -108.015976
-37.701809 -83.836464 -109.095375
-36.286613 -83.720787 -109.436745
-37.180782 -83.363861 -107.654961
-36.748714 -84.164101 -108.023987
-27.105417 -73.141846 -49.618584
-31.827311 -77.693382 -50.398254
-31.056873 -77.766647 -50.525616
-29.957569 -76.054092 -50.033905
-29.514587 -75.254066 -50.846996
-29.275373 -74.342407 -50.943375
-28.550360 -73.975883 -50.649956
-26.296467 -71.868248 -50.865440
-33.352379 -79.222900 -50.839699
-33.485065 -78.730461 -50.483185
-31.158360 -75.932632 -50.411442
-29.791739 -74.648094 -51.090588
-27.943913 -72.894867 -49.832390
-28.576900 -72.414726 -50.672539
-27.225748 -72.104080 -51.298496
-34.179920 -78.102089 -50.979465
-33.243847 -77.311249 -51.441002
-26.544495 -71.239410 -51.565472
-26.484571 -69.924149 -51.550617
-34.415421 -80.260017 -51.593143
-24.916115 -70.147224 -52.142715
-23.472290 -69.970444 -51.778572
-22.671429 -68.112541 -51.130379
-33.944309 -80.141273 -51.471130
-24.597149 -67.953285 -52.648338
-36.582298 -82.288345 -52.189484
-35.721249 -80.460869 -51.917965
-23.452843 -69.180046 -52.619595
-22.520935 -68.499306 -52.523319
-36.982685 -80.851761 -52.828102
-23.355030 -68.564217 -52.697773
-22.301847 -67.554298 -52.951237
-21.512051 -66.998627 -53.767170
-36.599720 -83.468765 -52.231236
-21.546295 -66.484383 -53.170555
-37.831886 -82.705566 -54.012520
-38.222157 -84.884941 -54.508751
-21.707909 -65.672134 -53.835941
-19.463060 -65.476028 -54.866455
-19.047539 -65.072327 -54.250031
-39.554844 -84.657486 -54.378803
-38.886250 -84.415939 -54.790600
-38.721165 -85.743713 -55.313900
-19.620789 -64.677788 -55.187134
-40.443893 -86.683197 -56.039597
-18.506592 -64.095192 -55.981266
-39.937984 -85.753731 -56.812088
-41.113285 -84.973480 -56.218945
-41.151180 -86.210373 -56.914616
-17.810059 -63.429245 -56.999073
-40.257717 -86.650299 -57.428043
-41.959610 -86.275024 -56.727135
-41.579887 -88.639671 -57.982941
-41.651299 -88.289024 -57.235340
-42.558571 -87.154510 -59.141533
-42.392784 -88.001747 -57.916939
-17.964794 -63.286922 -59.044342
-42.649040 -87.652863 -59.300957
-41.983471 -88.410858 -60.098106
-15.363511 -62.133320 -59.864147
-17.700583 -62.911068 -60.296417
-43.444069 -87.910301 -60.465405
-16.849882 -62.870415 -60.214230
-17.349600 -62.637886 -59.602783
-43.728630 -88.520393 -61.145874
-43.307743 -87.940643 -59.300400
-18.436678 -62.485916 -60.743233
-16.717348 -62.237499 -61.967724
-43.325497 -89.795166 -62.047218
-44.253235 -89.584114 -62.342964
-43.900780 -89.832603 -63.003601
-44.184521 -87.839417 -61.877129
-17.502298 -62.663837 -62.324669
-16.478588 -62.600605 -63.111950
-43.508698 -89.980003 -63.271225
-17.547781 -62.314262 -62.643017
-16.607231 -63.325794 -64.164444
-44.952423 -89.080856 -63.247971
-16.465534 -62.671070 -64.065041
-17.605528 -62.381035 -63.729588
-44.317883 -89.586227 -63.928520
-16.943172 -62.996651 -63.889450
-17.757956 -62.405365 -65.386475
-44.864040 -90.588676 -64.286705
-17.889059 -63.058125 -65.463181
-17.231010 -62.972237 -65.252968
-17.623495 -62.157032 -65.794762
-16.879251 -62.373730 -67.281967
-44.854702 -91.267807 -66.497879
-45.574738 -91.585342 -67.699745
-16.785822 -62.513161 -67.041458
-44.104229 -90.392967 -68.031563
-45.870125 -89.726524 -67.505516
-16.614319 -63.668064 -68.898056
-46.055920 -90.827271 -68.151619
-17.163204 -62.859684 -68.559525
-17.057404 -62.837891 -68.983009
-46.227367 -91.287216 -69.391380
-44.962357 -92.005981 -70.134865
-16.979021 -62.936092 -70.713959
-45.710052 -91.501549 -72.116287
-16.542683 -63.190266 -71.582397
-16.703547 -62.262070 -72.083549
-45.587479 -91.531235 -72.526428
-45.270939 -90.037918 -74.150879
-46.004608 -91.040817 -74.632492
-17.118963 -62.277576 -73.585045
-46.368736 -89.927376 -74.967857
-16.574163 -62.413139 -74.804466
-46.217964 -91.174553 -74.844063
-46.180546 -90.645645 -74.995720
-16.760307 -63.453262 -75.154182
-45.500595 -91.631485 -75.637123
-46.639954 -90.443993 -75.729012
-45.971153 -91.890450 -75.868141
-16.935768 -61.781601 -75.830215
-46.456646 -91.806610 -76.379532
-45.635098 -91.539299 -76.847763
-16.754160 -63.075020 -76.807373
-46.692902 -91.302269 -76.669807
-16.782728 -61.646606 -77.675644
-45.649895 -90.958900 -78.681343
-45.851799 -91.409782 -77.576881
-16.157503 -63.465694 -77.350876
-46.693245 -91.101341 -77.734344
-45.719486 -91.541023 -79.197769
-46.124504 -91.192917 -78.980812
-17.109406 -62.649960 -79.214134
-45.943481 -90.960228 -78.774361
-46.770344 -90.499336 -79.430862
-44.808594 -91.787834 -80.480225
-46.332436 -91.596626 -80.909927
-16.389538 -62.890644 -80.737480
-44.628746 -91.741402 -80.338036
-46.502075 -89.953781 -80.864761
-16.996801 -62.162281 -81.700752
-45.570789 -91.881966 -81.111290
-17.536137 -62.780041 -82.160568
-17.797810 -62.499855 -81.863380
-17.471872 -62.769924 -81.565361
-45.736797 -91.027946 -82.334846
-17.805454 -62.629925 -83.560303
-17.514263 -63.154129 -85.485931
-45.420765 -91.792671 -86.282288
-45.868210 -90.589561 -85.904747
-44.483616 -91.143509 -87.266212
-17.131977 -63.285530 -85.927231
-19.108662 -64.151833 -86.762901
-44.253681 -91.515686 -87.462303
-45.953045 -91.052620 -87.837479
-44.855480 -89.771255 -88.106453
-45.001389 -90.782799 -88.204521
-44.591198 -89.260521 -88.145912
-17.547674 -65.019203 -88.109283
-17.648926 -64.164154 -88.086807
-18.477535 -64.635521 -89.341225
-45.508682 -91.334450 -89.203560
-44.693085 -90.701233 -88.494904
-44.858238 -91.280121 -89.845680
-45.119728 -90.735764 -89.416542
-18.018188 -64.198280 -90.263077
-19.384943 -64.678329 -90.088539
-19.803782 -63.573811 -91.140701
-45.035625 -89.687187 -91.772362
-20.043518 -65.883240 -91.578270
-45.128819 -90.185356 -93.042435
-19.745399 -65.086769 -92.573868
-19.571724 -65.648445 -93.152908
-44.164280 -90.309937 -93.902283
-45.068501 -88.929901 -93.081268
-44.096176 -89.776970 -93.065903
-20.198940 -65.406258 -94.191093
-44.551506 -90.419304 -95.794571
-43.715626 -90.160583 -94.595413
-20.707289 -67.120621 -96.178040
-21.110874 -66.689781 -95.767761
-44.729958 -88.891876 -96.861847
-22.221302 -66.428764 -98.042511
-44.566502 -88.762741 -97.598282
-45.313713 -89.110924 -96.939674
-22.143478 -68.266434 -98.047104
-22.226936 -67.768471 -98.481010
-43.243088 -89.169357 -98.128540
-44.049137 -89.097458 -98.065010
-23.317108 -67.582481 -98.066010
-23.318359 -68.771545 -99.434372
-23.866976 -67.813644 -98.317467
-43.345245 -89.225761 -99.866371
-44.234810 -87.848251 -99.768623
-23.883171 -69.236725 -100.819511
-22.917263 -69.427902 -100.240952
-24.869797 -70.035416 -100.108185
-43.281776 -88.957054 -101.512291
-25.227402 -70.110924 -100.225189
-43.053890 -88.717148 -101.385887
-43.401825 -88.020416 -100.821404
-25.430746 -71.121758 -101.241280
-24.800518 -70.267548 -101.713562
-25.804022 -71.651123 -101.999939
-41.919281 -87.952309 -101.557320
-26.130852 -72.715378 -103.002281
-27.215611 -73.518410 -103.021408
-42.693497 -87.710724 -103.700340
-41.302235 -87.922119 -103.782143
-29.023846 -73.652695 -104.039833
-28.366953 -74.918159 -104.331696
-29.442741 -75.185226 -104.206230
-30.885845 -76.794022 -104.225929
-29.472975 -75.496948 -104.284233
-41.439575 -87.293831 -104.622963
-32.426804 -77.824097 -105.694427
-40.257645 -85.212036 -105.261925
-32.395199 -78.003342 -105.222328
-32.305206 -78.303421 -105.801582
-40.723774 -84.153839 -106.041695
-32.689499 -79.729919 -106.449112
-40.585987 -86.321983 -105.896355
-34.306091 -80.132584 -106.788902
-35.631699 -80.237411 -106.455055
-39.865704 -85.744858 -107.611954
-39.422050 -85.541588 -106.750694
-39.798100 -83.608292 -105.959816
-34.915188 -81.059906 -107.787811
-36.345501 -80.656395 -108.523598
-39.399330 -83.825607 -107.671188
-37.812462 -83.289078 -108.200089
-36.758247 -82.326332 -109.197227
-37.152977 -81.980103 -107.413338
-35.508095 -81.276703 -108.372299
-35.297894 -81.628807 -107.028580
-38.332951 -84.010712 -108.291428
-38.251873 -84.095711 -107.900673
-37.106354 -82.711983 -108.189919
-38.875404 -83.059853 -107.966217
-31.801989 -76.303017 -51.578323
-31.326933 -75.430710 -50.872826
-31.796825 -74.600357 -50.606068
-29.136883 -73.657433 -51.596920
-29.218519 -73.209152 -51.402290
-28.865236 -71.169609 -51.405949
-28.996365 -71.036827 -51.947056
-33.824894 -78.145470 -52.921921
-35.006401 -77.300880 -50.973686
-33.110916 -76.765144 -51.238125
-27.107170 -70.486679 -51.123348
-26.322786 -70.380272 -51.900696
-35.517883 -79.480453 -51.393028
-26.413465 -69.336868 -52.723034
-26.351301 -69.566521 -52.364876
-35.793694 -80.217224 -51.791470
-25.961153 -69.043022 -52.367290
-25.068333 -67.791672 -52.529007
-37.115204 -81.872536 -52.726261
-23.716471 -67.713959 -53.191872
-37.206707 -82.100029 -54.847832
-37.183369 -81.540390 -53.935368
-37.571117 -79.908661 -52.589821
-23.412390 -66.483215 -53.760784
-21.634638 -66.366074 -53.469563
-39.035538 -82.367340 -54.114189
-20.638851 -63.941128 -54.961258
-39.950062 -84.647934 -54.021015
-39.662331 -84.786934 -55.583817
-19.478052 -64.638145 -56.071087
-38.618996 -84.408928 -55.926441
-19.700693 -64.249680 -55.991299
-18.374973 -63.440907 -55.929066
-41.084072 -85.378777 -57.656040
-18.017717 -64.058754 -57.298229
-41.473522 -85.806000 -56.251968
-17.729530 -62.541077 -57.764763
-19.210318 -63.590534 -56.277401
-41.831680 -86.899048 -57.759476
-42.067013 -86.481178 -57.965740
-42.156746 -86.176903 -58.888332
-17.814049 -62.454727 -57.917412
-18.853811 -62.265030 -58.438572
-42.412952 -86.602921 -59.183117
-42.225128 -85.956085 -59.060509
-17.723824 -63.073265 -58.379284
-42.371010 -86.911720 -58.955334
-18.106764 -62.059837 -58.833851
-42.602386 -86.958717 -60.291454
-42.858540 -87.633766 -60.496780
-42.551029 -88.345131 -61.152779
-44.351864 -88.262550 -61.201458
-43.674332 -87.595764 -61.565632
-17.624704 -62.123528 -63.048191
-17.379467 -61.583244 -62.325829
-44.739605 -88.915657 -62.728100
-45.182159 -88.508957 -63.393612
-43.857033 -88.235100 -63.022625
-17.168592 -62.188656 -63.166939
-18.403772 -62.555599 -63.918686
-44.321140 -89.851959 -63.600651
-45.451233 -88.056473 -64.319168
-44.970299 -90.841179 -65.366066
-18.544579 -62.407814 -65.153336
-45.705204 -87.844002 -65.605835
-17.540972 -61.317146 -65.650192
-45.341385 -89.887947 -66.354256
-18.611706 -62.515018 -65.434517
-17.456726 -62.708008 -65.960098
-45.486290 -89.712418 -65.385559
-17.458992 -62.749847 -67.475914
-17.407820 -62.834473 -66.813866
-17.059494 -61.650082 -67.051514
-46.019634 -89.996933 -67.980835
-45.004475 -89.353615 -68.188591
-16.879946 -61.694641 -68.406387
-18.808868 -62.467190 -68.798149
-45.385654 -90.303864 -69.344948
-46.247143 -89.755737 -68.671677
-45.987503 -90.138092 -69.945869
-46.706230 -89.898979 -70.205406
-17.157522 -61.441483 -70.061241
-45.818790 -90.878082 -70.354767
-46.067516 -91.970161 -73.490028
-17.807127 -62.108608 -72.140213
-45.971996 -90.645370 -71.562996
-18.003954 -61.636269 -73.539009
-17.547131 -61.872169 -72.880379
-16.557140 -61.864147 -73.737328
-17.307083 -61.686344 -75.485565
-16.491806 -62.644352 -75.411842
-46.409523 -91.112946 -76.111984
-18.124132 -61.435574 -75.785583
-47.284561 -91.091331 -77.234375
-46.285568 -90.697304 -78.254944
-17.056374 -61.259285 -78.747391
-17.718466 -62.238422 -78.921402
-17.053770 -61.848526 -79.800835
-17.708878 -62.363735 -81.946556
-17.567104 -62.424038 -81.079414
-19.133066 -61.759731 -80.691216
-46.205425 -90.204102 -82.111290
-19.293020 -62.546677 -83.448692
-46.362297 -90.050034 -85.108704
-18.493734 -62.433193 -83.569176
-18.380117 -62.026379 -85.647621
-17.794018 -62.447582 -84.728943
-45.523834 -91.153107 -85.748428
-46.624310 -89.367737 -84.900253
-17.687370 -62.642330 -85.376991
-17.995403 -63.027039 -86.015373
-19.136793 -62.596859 -85.494164
-45.316772 -90.135666 -86.417763
-46.593304 -88.983589 -86.347221
-46.080921 -89.697502 -86.985550
-45.385391 -90.207359 -86.029739
-44.815601 -89.543861 -87.729027
-18.683386 -62.506672 -88.214218
-19.039288 -63.402027 -87.317238
-19.442598 -63.044022 -88.696175
-18.988461 -63.173138 -87.825974
-18.722546 -64.645439 -89.003212
-44.884537 -89.027702 -90.364738
-19.368998 -63.292564 -89.817253
-19.386766 -64.280464 -90.813416
-45.706753 -90.266434 -91.478928
-19.759138 -64.521507 -91.665031
-44.847565 -90.218636 -90.135811
-44.930855 -88.611465 -91.867790
-20.146065 -64.799423 -91.906799
-45.439163 -89.780739 -92.124687
-45.768730 -88.963844 -93.013977
-19.834303 -64.976059 -93.016472
-20.194424 -65.704300 -93.032341
-44.598583 -89.475960 -93.676727
-45.468811 -89.631172 -93.798210
-20.552402 -65.449493 -94.652466
-20.560312 -65.334846 -95.303192
-44.280415 -87.862839 -94.642456
-20.667503 -64.977608 -95.533478
-44.952900 -89.887657 -96.456573
-44.289040 -89.503578 -97.651756
-44.572155 -88.289551 -96.051323
-21.928673 -65.697922 -96.751297
-43.711060 -89.108673 -96.838387
-22.762661 -66.915512 -97.345146
-22.327850 -66.428535 -97.615845
-44.745293 -87.515495 -98.246101
-22.854525 -66.062881 -97.505486
-44.563995 -88.312691 -99.305183
-43.392292 -88.438896 -99.199684
-44.004456 -87.081467 -98.422714
-22.512285 -67.034912 -98.862541
-22.947531 -67.048721 -98.682465
-43.585243 -87.633072 -100.171928
-43.689034 -88.178452 -99.964363
-43.594048 -86.966751 -99.482727
-23.608942 -68.188622 -99.041222
-24.024742 -68.548576 -100.647484
-43.288387 -87.868286 -100.791603
-43.024643 -86.787018 -99.668938
-24.061199 -68.048676 -99.660637
-24.048162 -68.809029 -100.363289
-43.981380 -87.150795 -101.444611
-25.525297 -69.146599 -101.001831
-25.310486 -69.634583 -101.529877
-41.938751 -86.585136 -102.067535
-25.332596 -69.976852 -101.844177
-42.886009 -87.774460 -102.216797
-26.361172 -72.183243 -101.769608
-43.298809 -87.403381 -102.399124
-41.871086 -86.515610 -103.412041
-26.803640 -70.891373 -103.262932
-41.860119 -84.995544 -102.318298
-27.035818 -72.305733 -103.164124
-41.509808 -86.838081 -103.264297
-41.452057 -85.162430 -103.605087
-28.181499 -72.375595 -104.521011
-41.021484 -85.848091 -104.390823
-30.015028 -73.088791 -103.787941
-30.710915 -73.865433 -104.914970
-40.988781 -86.383926 -104.013336
-41.675220 -83.629745 -104.354698
-30.482014 -74.995819 -105.868515
-41.329788 -85.051224 -104.587730
-40.629787 -85.751350 -106.621063
-40.776440 -85.364723 -105.090874
-32.587307 -76.049500 -105.537094
-32.333698 -76.385086 -104.818138
-33.550949 -78.715401 -105.995125
-41.160919 -84.029617 -106.338936
-34.500595 -78.427208 -106.634514
-40.341339 -85.590912 -106.542549
-40.952526 -84.660301 -106.632042
-34.542553 -79.018158 -106.099190
-39.971600 -83.629364 -106.062050
-39.640347 -82.349274 -106.377968
-37.717960 -80.881210 -107.223206
-35.775444 -80.060959 -106.833649
-38.301918 -82.750412 -107.489471
-39.556824 -83.242401 -106.510071
-38.928825 -83.037315 -107.559158
-38.750755 -80.969505 -107.800713
-36.461704 -80.306824 -107.201172
-37.019257 -80.927216 -106.557236
-35.811047 -80.388634 -107.090866
-32.526711 -75.522919 -50.928879
-31.383183 -75.186050 -51.997433
-33.573437 -74.213768 -51.764111
-33.363525 -75.621323 -51.834846
-30.956383 -73.745003 -51.530647
-30.227262 -71.616974 -51.231754
-30.217617 -72.041405 -50.963238
-28.333309 -71.001862 -52.423981
-28.646601 -71.041451 -52.275230
-34.192047 -77.513687 -51.606197
-34.160183 -76.706154 -51.847439
-32.238792 -72.647606 -51.974434
-28.705681 -71.029274 -52.106838
-29.205648 -70.664055 -52.648525
-27.079920 -70.996429 -51.949062
-35.303223 -77.823746 -51.765995
-35.720890 -77.552765 -53.616684
-27.459208 -69.197060 -52.848774
-35.967068 -78.958115 -53.060833
-36.908905 -78.102440 -52.315876
-25.421045 -68.368355 -53.235916
-37.852379 -79.558762 -52.544876
-36.549973 -78.548920 -52.887833
-36.929935 -79.252014 -52.755337
-24.477623 -66.424995 -53.945210
-38.223999 -79.438667 -54.076698
-22.421515 -66.190086 -53.375599
-23.573664 -66.254646 -54.332085
-38.852177 -82.558922 -54.446861
-39.363087 -80.536743 -53.604473
-39.182648 -81.084526 -55.212536
-39.799690 -82.778015 -54.887062
-21.195259 -64.939651 -55.594963
-40.250637 -84.309944 -56.049706
-20.549215 -64.029984 -55.542927
-20.843208 -63.860199 -55.584824
-40.748077 -83.266533 -55.809532
-40.711807 -83.210091 -56.547691
-20.335655 -62.927750 -56.732323
-41.076679 -84.204979 -56.479137
-19.585365 -63.132797 -56.873943
-41.075554 -85.431923 -56.978149
-20.341589 -61.999004 -56.486301
-41.432201 -85.392609 -57.565987
-42.037777 -85.445511 -56.967716
-19.306450 -61.663708 -57.071541
-20.585073 -61.695618 -57.709164
-43.618938 -85.134880 -58.136417
-18.797966 -62.793232 -58.439060
-20.295395 -61.688400 -58.563988
-43.038689 -86.462486 -58.421803
-21.769825 -63.472038 -57.820400
-19.216505 -62.904007 -58.884220
-19.840910 -63.277874 -58.489307
-21.028536 -63.445251 -59.550568
-21.167894 -61.894737 -58.896564
-18.580471 -62.189915 -59.140015
-19.611273 -62.646152 -59.112343
-44.281376 -86.288689 -59.493484
-43.356533 -85.398537 -58.976982
-21.527348 -62.903385 -57.953529
-19.013750 -61.766590 -60.282623
-42.565895 -86.143303 -59.811790
-19.450895 -61.833115 -60.086952
-43.892323 -86.166626 -60.765678
-18.403265 -61.976715 -60.506649
-44.954689 -88.289703 -60.271450
-44.406952 -86.758888 -62.438793
-18.126719 -62.654938 -59.806190
-43.956551 -87.874084 -60.585747
-19.369223 -61.863686 -61.081532
-43.861217 -87.418739 -61.837029
-44.308338 -86.744888 -61.848625
-44.027287 -87.659210 -63.025291
-44.266811 -86.430931 -61.556072
-44.862068 -87.792076 -63.022915
-19.634047 -62.498787 -64.150108
-45.946545 -88.112808 -63.370510
-45.661098 -87.230301 -64.226067
-19.794001 -62.684826 -63.687946
-45.000801 -88.657982 -64.175385
-46.179928 -86.852409 -64.480667
-19.381231 -61.601215 -64.038620
-18.860746 -61.260544 -64.907211
-46.321701 -89.225243 -65.391411
-18.607458 -61.785736 -65.752296
-45.905788 -88.349861 -66.337723
-18.294540 -61.724117 -64.778778
-46.531925 -88.120049 -67.177055
-45.345337 -89.692390 -67.134315
-46.143509 -88.084557 -67.260330
-19.806974 -61.658558 -65.885902
-18.268095 -61.432655 -66.576401
-46.005489 -88.462303 -67.845062
-46.489429 -88.485283 -67.804878
-46.403316 -88.857109 -68.732666
-17.803499 -61.297352 -69.115372
-46.337646 -89.464455 -69.522949
-46.310291 -89.001793 -69.192383
-17.655937 -61.114723 -70.413956
-45.523823 -89.311600 -70.861961
-46.436722 -88.649811 -70.593811
-18.228346 -61.162113 -70.662971
-47.074455 -89.563560 -71.167648
-46.793156 -88.663872 -71.540451
-18.476208 -61.107174 -70.578079
-46.168770 -89.695038 -73.200447
-17.865482 -61.719700 -71.781342
-46.856205 -89.539040 -72.600243
-19.298313 -61.931126 -73.104591
-46.346817 -89.795601 -73.318764
-18.475801 -61.622234 -73.113663
-46.105160 -89.490524 -73.736038
-18.782330 -60.805664 -74.760506
-47.091545 -90.557182 -76.909065
-47.422314 -90.287720 -75.806580
-18.124460 -61.213615 -77.025764
-46.473774 -89.904579 -77.955772
-17.883230 -61.632187 -77.727943
-47.036217 -90.396683 -78.362373
-17.574257 -60.994595 -78.534149
-47.362724 -90.470711 -78.974556
-18.076622 -61.532852 -78.776093
-47.005013 -90.054466 -79.845200
-18.745281 -60.915504 -80.025398
-47.163864 -90.203377 -80.449905
-18.141518 -61.599232 -79.598412
-18.496330 -60.432961 -80.627014
-47.206749 -89.485222 -81.730278
-45.992756 -89.263397 -82.500000
-18.862791 -60.981102 -82.442841
-46.389450 -88.941559 -82.705589
-46.956306 -87.731277 -82.144974
-17.976200 -61.512058 -83.281082
-17.743469 -62.119049 -83.724068
-46.552273 -89.545952 -84.189377
-47.255630 -88.035934 -84.013527
-46.092045 -89.447418 -85.378731
-46.260368 -89.238892 -84.360222
-18.981884 -60.768589 -84.067322
-18.233206 -63.384945 -84.932243
-19.811529 -61.806530 -84.534142
-19.089767 -62.767025 -86.678719
-18.619772 -62.522236 -87.297295
-45.868969 -89.070854 -88.039200
-20.193939 -63.331978 -88.183533
