# This PCD file was generated using the MATLAB® pcwrite function
# from Computer Vision Toolbox®.
# .PCD v.7 - Point Cloud Data file format
VERSION .7
FIELDS x y z
SIZE 4 4 4
TYPE F F F
COUNT 1 1 1
WIDTH 1455
HEIGHT 1
VIEWPOINT 0 0 0 1 0 0 0
POINTS 1455
DATA ascii
-2.800286 -76.574677 -85.359840
104.464424 33.097809 -83.180054
111.307571 38.695564 -84.294968
-33.345375 -105.205917 -83.271744
-1.881873 -76.523949 -83.787788
-3.845932 -75.814819 -84.481567
111.121124 38.573311 -85.285545
-33.854740 -107.567459 -84.749290
106.468559 32.245060 -84.014839
104.925293 33.331654 -85.455757
112.677200 39.165859 -86.038231
110.847900 39.303482 -85.983643
104.562256 31.452452 -85.219528
105.250496 31.907301 -85.952759
106.637489 33.754730 -85.509033
110.795616 38.304146 -84.940208
110.252655 38.105995 -85.336426
-33.002682 -106.410423 -83.752388
-4.265738 -78.474815 -85.038391
104.542595 33.223320 -86.734299
110.310249 37.654583 -84.931343
106.289124 34.208092 -85.873146
105.882454 33.572887 -85.697601
-5.320459 -79.395805 -87.340652
105.352684 33.203201 -86.544861
-6.647552 -78.971985 -86.542137
104.901024 32.744267 -88.534187
-6.212577 -79.269203 -87.676918
111.698166 36.205349 -87.686279
-9.378182 -80.134453 -88.576698
105.985008 32.202450 -88.220787
107.239075 35.243187 -89.032738
-9.291210 -81.095200 -89.285202
-8.992667 -83.275681 -89.545059
105.917305 34.152618 -89.370934
110.982796 38.003899 -89.125473
-8.456203 -81.421570 -90.183006
-7.956349 -82.046936 -89.111496
108.318550 37.691414 -89.364449
-32.640457 -105.849579 -90.199989
106.106888 32.429970 -90.355034
105.362389 34.574215 -92.444458
112.600906 37.855255 -89.556580
-32.635464 -106.274796 -91.191467
-9.743577 -81.821510 -91.634613
106.289551 33.621098 -90.757721
106.603523 35.016014 -89.313530
-34.512402 -107.222885 -90.418892
109.881165 39.112972 -91.418457
-10.772471 -82.360497 -91.535446
105.161407 32.668743 -90.794449
107.709145 33.592983 -92.462036
110.387787 38.127617 -92.147758
109.357811 37.491268 -90.334274
-10.578656 -82.945496 -91.687141
-9.734609 -82.691063 -92.101067
106.037651 34.196098 -92.766418
-34.650173 -107.562851 -93.243942
105.847145 33.281593 -93.670036
-10.770377 -83.802216 -94.085670
108.593971 37.167046 -93.383820
-11.021474 -84.025772 -93.249504
96.351135 23.699755 -95.122505
106.196350 34.795479 -92.383125
-10.904702 -82.737587 -94.509064
93.299965 20.720329 -93.255760
98.922821 26.025562 -93.449509
100.431717 25.909449 -94.165215
107.165298 34.956657 -92.954865
109.868050 38.541561 -92.338692
92.669121 17.658482 -93.390755
92.257530 19.381039 -93.849350
94.426430 21.947752 -95.925041
93.328201 22.211460 -94.485870
96.434578 23.775883 -94.188469
98.227188 25.449108 -93.284348
98.157066 26.801453 -93.869133
-34.250957 -106.985786 -95.034348
-12.288648 -84.684822 -94.981056
89.008583 15.545680 -94.685585
91.626251 18.481197 -94.269402
89.553894 19.078329 -95.075867
92.045792 19.535755 -94.607727
91.721146 21.058174 -94.152626
92.670586 22.095451 -95.595581
94.131096 25.415531 -95.240219
98.333687 26.060400 -95.921242
98.506454 26.016191 -94.257683
100.451294 25.913507 -94.551956
102.015053 28.102213 -94.870956
100.605240 28.830946 -94.322464
106.472641 34.679722 -94.160988
109.199219 36.083321 -94.817268
87.831932 14.027211 -96.354568
89.710854 17.454489 -96.633842
88.002647 17.380449 -95.417374
90.241104 19.057222 -94.721451
91.861572 21.518492 -95.138100
91.957893 21.863556 -94.353333
97.195206 26.347765 -95.370056
98.370430 27.090183 -93.698784
107.860619 34.935562 -94.491508
107.877235 35.983700 -97.584297
109.357376 36.206032 -94.879662
109.221252 36.210289 -93.842522
108.481873 36.788143 -95.602501
-11.422548 -85.646843 -94.245331
87.403519 14.659510 -95.382256
89.171898 16.652361 -95.708191
90.366936 16.139492 -92.599159
92.214813 21.526064 -95.691139
93.108139 21.979540 -96.869072
95.264946 23.322412 -95.747925
96.157806 24.356878 -95.311394
99.487640 25.636986 -93.834106
99.294838 27.477676 -95.277817
99.998703 27.331203 -95.430756
101.669266 28.159603 -94.664032
108.499702 36.332317 -96.950935
87.284622 15.364443 -95.556801
88.025566 16.021233 -96.746399
88.351494 16.647589 -95.871109
88.452820 16.188198 -95.207222
89.779381 18.099609 -94.850220
90.472878 19.423288 -95.910973
92.164658 19.146433 -94.581772
94.085770 20.370123 -96.717842
93.319435 22.363979 -94.652184
95.582863 23.288378 -95.318169
95.760010 24.728571 -95.266960
99.074677 25.476414 -96.274246
107.057465 35.821125 -95.672180
108.571236 36.076511 -96.421440
-13.217044 -87.117523 -97.059708
-12.262609 -87.018005 -97.783752
88.586136 13.831047 -96.586258
87.018219 13.637586 -95.521881
85.778030 15.092428 -96.515762
86.804337 14.990261 -96.549980
88.634941 16.651587 -96.173508
91.327812 20.432491 -94.704742
96.871292 24.793571 -96.326561
97.371017 24.360453 -95.953766
97.726364 27.064657 -96.527344
99.002602 25.655422 -96.703506
100.777672 27.223648 -95.486153
-33.568535 -106.804123 -96.810364
-11.575909 -85.240784 -97.822266
84.739716 11.743113 -97.634186
85.310333 13.020219 -97.234337
89.255898 17.188334 -96.006920
89.981133 16.881403 -96.055061
91.706558 17.955320 -97.410454
92.126068 19.124538 -98.029678
95.447990 22.694439 -95.161682
95.914711 22.417173 -97.794868
97.360001 24.414255 -98.060555
98.060982 25.261852 -97.761047
108.500839 36.326046 -96.080635
-33.827309 -105.481789 -97.070175
-13.797895 -85.348892 -96.128601
84.562416 10.294277 -97.687271
85.354271 12.306097 -97.906784
86.181129 13.390065 -97.561188
85.641190 14.089422 -98.158180
85.555779 14.744074 -97.557556
87.583153 15.726954 -97.586449
89.604904 17.083809 -96.495926
92.186020 19.407772 -96.691658
92.592850 21.572285 -96.262840
95.132294 21.432943 -97.567543
96.538971 22.155048 -97.687469
95.747765 22.869696 -96.419334
-33.370316 -105.013603 -97.683464
-13.745327 -85.735954 -97.141121
83.838005 10.655581 -98.687996
83.664703 12.186519 -97.670418
85.232063 13.406251 -97.508530
87.193138 15.595180 -98.067924
90.887939 17.241968 -97.668091
89.578362 19.175180 -97.277985
92.306412 18.553251 -97.145203
92.164291 21.582630 -97.454735
92.314041 20.623158 -97.465263
91.342674 19.895321 -97.730278
93.251686 20.222136 -97.311890
93.002785 21.093508 -98.566750
-32.529362 -106.200607 -97.798576
83.640945 9.923441 -98.550140
83.527008 11.313861 -98.048477
83.282257 12.453408 -98.178764
85.304771 14.150382 -96.644089
87.643707 15.610603 -98.027275
87.816162 17.979002 -96.983276
89.943199 18.290728 -98.346062
90.343727 17.403996 -98.341751
90.048714 17.266148 -99.368202
91.549751 17.825422 -99.858704
-34.409214 -105.791344 -98.250275
-13.652158 -86.266602 -98.029976
82.391556 9.530015 -96.585709
84.555519 9.938067 -98.512085
81.958992 11.886309 -96.986053
84.883995 11.271613 -98.786232
85.242653 13.222283 -97.533241
88.361252 17.102734 -98.445328
90.289597 15.451248 -98.068962
90.445107 18.406092 -97.701164
90.073616 17.501005 -99.080605
-33.287174 -106.183067 -99.116455
80.957542 9.805964 -98.952675
82.692955 10.979722 -97.997673
85.125313 11.942789 -98.608437
87.355415 14.335646 -99.088837
86.232109 14.172591 -99.222206
88.703773 16.478382 -99.432022
86.236565 15.235108 -98.603127
88.521896 14.115171 -99.588058
87.900970 15.910999 -98.615089
-12.871380 -87.378113 -99.161339
82.252235 8.705851 -100.522820
82.770790 9.649879 -99.784439
84.176315 12.603743 -98.323570
84.484047 12.883136 -98.269417
86.925613 13.033962 -98.768646
84.969627 13.372227 -100.344139
86.276276 14.816233 -98.970757
86.101166 14.294816 -98.759758
81.191589 7.991129 -99.742020
81.546188 10.181455 -99.165024
82.360336 11.109520 -99.786079
82.845673 8.314654 -99.980316
85.889122 12.688360 -98.555069
-32.949005 -105.745735 -100.324936
81.136726 9.052285 -99.797134
81.633423 9.329611 -99.837425
82.981728 11.101770 -101.257690
84.537560 10.135986 -99.881561
85.126572 15.093649 -100.542313
83.703575 11.087729 -100.513313
81.375183 7.957839 -99.990105
80.792389 8.788251 -99.753700
81.338882 10.428289 -101.209053
82.577805 9.898889 -99.530785
83.668823 12.003852 -99.492142
85.469528 11.348056 -99.342155
-33.856007 -105.352707 -99.718239
79.128815 5.887661 -101.405029
79.709648 7.139610 -102.147789
79.487633 9.287941 -101.919548
80.327988 8.054055 -101.204147
81.112831 10.642202 -100.963081
81.508484 9.123219 -101.104340
82.215805 9.883934 -101.519836
-15.128621 -89.280754 -102.138039
78.079407 7.089875 -100.701782
79.115776 8.093451 -100.490578
81.848213 8.223213 -99.403931
79.661644 8.766586 -100.465492
82.057007 10.262759 -100.997459
81.285431 9.558792 -100.501610
82.671486 9.987507 -101.502998
78.787788 6.901465 -101.706650
80.736595 7.083861 -100.947914
79.145607 8.140742 -101.961723
80.147469 8.971599 -102.004021
82.351028 9.269888 -101.312660
82.062027 10.403966 -101.594246
82.244759 11.063663 -101.147812
78.839714 5.633896 -102.075050
78.328903 6.250955 -100.679321
79.620224 6.887369 -101.322693
79.105797 7.556518 -102.655403
81.581749 8.673919 -102.943108
78.700790 5.494946 -103.412086
78.810493 6.296928 -101.092270
80.314720 7.719984 -101.190704
80.450768 8.688821 -103.274307
78.600693 3.640396 -101.830841
80.805634 5.559954 -102.579498
79.413940 7.372297 -102.598434
78.761963 6.568177 -101.824852
80.189201 7.694378 -102.730057
78.342880 6.293980 -103.793671
78.774796 4.063245 -102.723770
77.952873 6.391462 -103.151741
79.074074 7.582257 -102.834618
78.426079 6.218718 -101.738914
-32.421024 -106.624985 -103.588570
-33.086437 -106.011543 -104.183174
-31.403345 -106.161049 -104.474388
-15.466723 -88.165298 -101.774139
-33.019974 -104.752205 -105.311241
-14.685462 -88.725548 -104.670082
-6.769862 -79.604774 -104.331947
-7.707171 -80.958969 -105.134254
-7.164758 -79.064323 -104.852013
-15.067256 -89.013756 -104.536034
-8.458193 -81.089119 -105.665817
-10.395791 -78.917137 -105.717979
-7.708549 -79.397369 -105.842262
-6.196153 -78.874054 -103.604553
-7.628526 -79.098709 -103.770668
-15.964144 -88.953613 -105.251854
-15.706409 -87.824203 -105.107384
-7.390780 -81.497810 -105.064034
-6.713159 -78.247429 -106.555214
-5.664196 -79.959572 -106.990532
-15.243440 -89.245369 -104.204689
-7.863233 -81.460266 -105.462433
-8.343825 -81.937172 -105.517746
-11.046512 -81.567879 -106.922310
-5.544731 -78.391281 -106.077225
-7.970886 -79.113899 -104.171455
-13.032019 -86.035576 -106.802414
-11.606904 -84.758598 -107.099968
-10.858532 -85.206497 -106.639832
-9.806841 -83.148445 -104.746780
-9.861602 -81.213463 -106.126404
-10.736718 -82.196609 -105.361252
-16.718546 -88.639496 -108.243340
-12.905439 -83.371613 -107.162086
-5.441902 -79.595016 -106.422943
-31.475748 -104.767769 -105.874130
-16.540983 -89.819878 -107.972275
-16.070433 -89.544373 -107.193153
-13.507233 -85.283676 -106.250427
-13.876248 -83.355515 -106.674500
-6.488975 -78.111298 -106.665886
-15.832274 -88.705986 -106.402092
-14.056017 -86.021042 -107.835083
-12.740721 -85.821259 -107.849724
-6.816506 -79.512413 -108.192894
-33.463432 -105.317162 -107.736404
-33.186954 -105.636002 -107.755806
-16.459185 -89.690048 -108.388252
-13.536336 -85.692345 -107.293877
-12.535156 -84.099365 -108.485275
-6.818487 -78.285126 -108.664330
-33.046360 -106.298660 -109.142853
-15.517108 -88.224091 -108.955322
-13.242892 -86.188820 -108.543434
-6.528062 -79.449387 -109.558372
-5.684845 -79.401031 -108.324387
-17.471397 -89.174683 -108.483261
-17.104286 -88.595146 -110.791283
-13.281116 -85.972549 -109.754662
-5.155249 -78.833618 -108.229210
-6.555492 -80.378586 -109.112221
-19.459785 -90.027985 -109.986366
-6.848555 -78.898994 -110.195122
-16.925215 -90.006104 -111.040009
-12.412027 -85.913452 -111.398079
-32.183495 -104.020264 -110.987137
-16.296724 -90.460701 -110.706093
-7.809834 -79.038765 -110.605705
-17.492588 -91.698578 -111.484810
-13.118638 -86.375954 -112.018822
-7.209685 -78.444366 -110.457169
-33.131336 -103.536499 -111.060608
-12.651032 -83.790794 -112.402107
-32.086586 -104.443703 -112.386932
-19.526239 -90.314163 -110.736000
-6.532112 -78.241623 -112.070770
-31.292295 -104.940346 -111.355148
-31.964205 -102.941277 -110.007393
-12.425331 -83.759399 -114.069000
-6.895011 -78.541451 -112.506096
-30.605658 -104.845932 -113.456879
-20.245983 -91.597443 -112.474403
-12.050805 -84.586166 -112.655823
-12.217349 -84.550560 -112.295288
-20.477716 -92.253845 -112.109825
-7.434870 -79.351112 -113.814400
-21.112246 -92.733856 -113.624840
-11.721380 -84.031075 -113.681480
-11.806676 -84.952705 -113.239319
-6.920953 -78.112282 -114.141418
-20.502892 -93.241127 -113.677979
-11.752623 -84.337517 -114.160637
-13.090978 -83.603554 -112.978310
-11.090327 -82.324860 -113.528175
-32.515713 -104.155029 -113.680069
-20.445276 -92.520973 -113.923721
-11.828293 -83.342239 -114.094070
-30.824697 -104.275909 -113.942291
-21.077568 -95.430412 -113.532288
-11.757317 -82.629105 -113.604111
-10.174443 -82.962502 -116.136375
-9.746577 -83.455231 -114.679222
-6.737726 -79.218216 -114.570419
-6.936319 -78.524811 -114.543854
-32.074902 -104.004181 -115.103394
-21.984406 -94.265640 -115.631516
-12.221949 -83.082001 -115.279343
-10.269122 -82.203461 -114.871429
-10.951709 -81.821724 -114.767281
-30.476717 -104.116577 -115.485413
-31.601122 -102.679611 -115.346252
-22.859241 -95.194588 -116.882645
-10.916867 -82.175964 -116.094872
-8.684845 -79.928856 -115.573563
-6.107731 -79.864525 -114.963715
-30.344807 -104.677742 -115.127388
-22.694576 -94.537430 -117.314217
-10.668582 -82.174431 -115.511810
-11.064691 -81.984184 -116.045113
-9.174941 -81.453178 -115.906792
-9.005898 -80.580788 -116.082512
-8.056206 -80.573708 -115.837143
-10.822589 -81.083817 -115.729492
-9.892037 -80.884995 -115.643257
-10.107242 -81.898384 -115.553703
-5.346879 -79.387489 -116.317841
-6.053564 -79.603096 -116.168594
-30.542961 -102.139702 -115.870621
-22.563019 -95.345833 -117.638367
-9.991601 -82.881134 -117.522644
-9.564466 -80.400703 -116.994766
-8.033664 -79.384682 -116.557281
-31.118895 -104.073936 -117.459801
-8.879684 -81.581268 -117.337761
-8.891622 -82.107613 -116.125313
-9.092611 -80.117088 -116.820442
-7.443144 -79.615417 -117.647476
-6.776564 -80.252464 -115.157768
-7.237306 -79.067955 -117.118347
-30.866220 -103.471657 -116.055405
-8.948152 -81.015083 -118.086258
-8.839564 -81.010658 -117.674614
-23.414492 -96.881134 -117.261932
-9.270204 -81.056984 -116.287888
-8.071888 -79.733299 -117.932076
-6.228341 -80.247879 -118.058052
-8.098471 -78.686028 -117.052795
-8.723264 -81.600327 -119.110062
-9.239738 -80.232803 -118.150681
-6.134672 -79.971222 -119.073517
-7.375332 -79.701385 -118.747612
-30.520512 -103.106735 -118.985909
-25.791609 -98.765869 -119.220467
-29.223360 -102.521957 -119.352539
-27.232292 -99.622681 -118.072563
-29.422916 -101.143166 -118.790131
-28.117342 -102.575310 -120.332565
-28.725834 -100.691521 -120.216354
-26.642794 -99.740158 -119.398567
-26.356041 -100.091377 -119.754990
-27.299440 -98.158028 -119.075722
-28.724457 -99.747223 -120.283333
-28.550825 -99.752876 -120.142448
-27.999830 -100.403549 -119.950867
-27.862120 -100.057800 -119.487343
31.945442 -39.281570 -235.172867
34.941208 -37.417759 -236.365509
35.292595 -37.315918 -235.329117
34.758125 -37.218449 -235.846329
38.006763 -35.489090 -235.617386
38.157036 -32.587482 -234.534851
39.049797 -31.684574 -236.099945
40.463261 -31.038380 -235.815308
32.524639 -39.275333 -235.918152
34.457306 -37.395966 -235.022522
37.271805 -36.108292 -235.743896
35.488693 -34.805492 -235.926056
36.661007 -36.351677 -235.463028
36.316547 -34.776787 -235.673248
37.867710 -34.626293 -236.222733
36.709953 -33.288803 -234.882690
38.939648 -33.096149 -235.883438
39.940094 -31.291759 -236.001053
41.827072 -31.701216 -235.985962
31.037668 -41.434414 -237.110443
31.261133 -40.651058 -236.502930
32.627460 -40.412224 -235.664703
32.628376 -39.363262 -234.593475
37.314758 -36.225021 -236.374725
37.784904 -34.351200 -235.545242
38.342785 -34.479702 -235.557892
37.398373 -34.732147 -237.572845
37.260921 -33.909107 -236.183502
38.123058 -31.122040 -237.911438
43.799465 -26.917328 -236.247513
44.405758 -28.077351 -237.460083
46.696266 -26.854675 -234.507553
46.200748 -26.419760 -235.560364
46.714401 -26.689409 -235.330704
46.692142 -24.208157 -235.126541
30.133694 -43.751503 -236.514191
32.554974 -40.512100 -235.215164
33.393826 -38.869469 -234.837875
37.925537 -33.837475 -235.125992
38.247070 -33.448044 -235.756760
40.900620 -31.146225 -236.374985
42.876289 -27.915575 -236.664551
48.458920 -24.039648 -236.477295
31.199575 -40.862988 -236.769272
32.610291 -41.829689 -237.991516
32.553131 -38.530388 -236.812302
36.383610 -35.732880 -236.344818
36.329529 -34.921185 -236.535294
37.318455 -35.656822 -237.469879
38.850887 -35.649620 -236.657104
38.743881 -34.432487 -236.123718
39.704819 -33.922588 -237.563705
44.299782 -28.698517 -236.908768
50.322357 -23.335865 -235.847275
31.907839 -42.536819 -237.103317
30.477404 -41.906208 -236.242783
31.389713 -41.596798 -237.427002
33.354065 -40.782166 -236.966888
32.031956 -38.086868 -235.894867
33.434452 -37.671501 -237.399933
34.561089 -37.502430 -237.095383
34.967422 -35.601177 -237.899872
36.494289 -35.278900 -237.251480
37.594814 -34.861263 -236.693832
39.959229 -34.289043 -236.065659
39.417583 -33.084484 -236.428162
42.439438 -29.765551 -238.171158
43.960838 -28.620850 -236.658188
42.227562 -28.247993 -238.035004
45.835400 -27.370344 -237.243134
46.388603 -26.712135 -236.777069
47.695820 -25.918139 -237.270111
51.850712 -22.173487 -237.652985
49.624657 -21.411818 -237.036667
32.588974 -39.470585 -238.173355
32.464725 -39.588135 -237.924973
34.735874 -38.732674 -238.144073
34.873104 -36.921925 -237.663132
36.287598 -36.222527 -237.152359
35.917313 -35.221287 -238.567398
38.729088 -33.704384 -236.326553
40.834904 -31.030649 -237.577072
38.927879 -32.386791 -236.688263
42.273376 -30.738905 -237.974152
45.046436 -27.184591 -238.916061
47.833126 -27.416971 -238.583557
46.385380 -24.933104 -236.885406
47.918114 -24.522541 -239.820297
31.044960 -39.338577 -239.289948
33.982357 -37.689770 -237.732056
33.713024 -38.034073 -238.229065
35.350002 -35.394260 -237.747269
38.033619 -33.382374 -237.745392
40.348118 -32.780151 -237.521576
40.895027 -32.103714 -238.756958
41.169083 -30.933392 -237.826630
42.536152 -30.334902 -237.844284
43.291817 -30.638424 -237.985428
42.496082 -28.989820 -238.395813
48.835381 -23.833347 -238.083633
49.020275 -24.735155 -238.065018
50.989643 -22.320047 -236.921295
52.879990 -21.853039 -237.994232
32.879440 -39.550919 -238.426941
32.941391 -40.018528 -237.582169
32.926159 -39.722614 -237.518997
32.222336 -38.788101 -239.021500
33.166901 -38.002174 -239.032684
39.468384 -33.174885 -238.582184
42.769360 -29.070778 -237.893265
44.006138 -30.035818 -238.319885
47.236927 -25.225515 -238.868729
47.301277 -25.232759 -239.217987
48.550903 -25.485962 -237.546677
48.799129 -23.739466 -237.721176
52.868469 -21.216820 -239.558090
35.199062 -40.246498 -238.637589
33.810574 -38.519619 -238.673721
34.652081 -37.529835 -239.096375
39.821205 -33.294636 -238.167953
40.321945 -31.247536 -239.764435
40.481327 -31.248232 -238.838455
42.098461 -30.156515 -239.875214
42.655907 -29.856239 -238.646378
45.100609 -28.770485 -238.649216
45.223919 -26.674372 -238.315750
47.583782 -25.590494 -237.889587
48.306641 -25.688864 -239.239151
47.830578 -26.922464 -239.054520
49.086231 -25.681383 -239.574982
52.095879 -22.574116 -238.861404
50.803638 -21.438498 -238.054977
53.270294 -19.832207 -239.603638
39.507931 -31.885563 -239.081024
42.027328 -31.746288 -240.472534
41.911427 -31.458820 -239.300446
41.800884 -30.289217 -238.152069
42.998940 -29.800097 -239.405991
42.142044 -29.135805 -238.224609
45.729195 -27.484531 -238.550797
45.387577 -27.027529 -240.298538
47.102486 -23.850746 -239.468567
49.289623 -23.755566 -240.596970
50.204617 -22.164742 -239.135757
50.981796 -23.165304 -240.760880
50.491165 -22.429150 -240.707016
36.140156 -36.130943 -239.942902
40.324615 -32.595791 -238.509064
40.650372 -32.525383 -240.551315
40.323250 -31.648447 -241.002853
41.960667 -30.172483 -238.962921
42.449635 -30.505020 -237.968491
43.383835 -29.262970 -240.254166
43.666100 -28.542103 -238.618820
45.919018 -28.675817 -239.353882
47.879124 -25.688515 -240.251373
49.259430 -23.044296 -239.361984
51.956070 -20.218027 -238.924454
52.915440 -18.091841 -238.528702
27.309906 -47.183334 -239.501511
27.522406 -44.993107 -240.421448
29.748644 -44.594398 -241.675140
34.165356 -38.536560 -240.318222
35.749588 -38.381416 -240.682724
36.622700 -35.813591 -238.946091
36.939884 -33.334835 -239.188202
38.862480 -33.034332 -239.533051
41.512760 -31.103298 -238.771576
43.422466 -30.909193 -240.001938
43.794495 -30.196827 -239.605347
44.018715 -28.839624 -239.135040
45.779247 -26.721132 -240.873337
44.933830 -25.887243 -237.387939
48.794937 -23.473940 -239.636917
47.406792 -23.081089 -240.605728
49.699509 -23.371954 -240.256409
50.707359 -21.654648 -239.411804
51.185516 -21.962225 -239.053101
52.754124 -19.388954 -239.291946
26.941996 -46.063778 -239.691803
25.566418 -45.791084 -239.685913
27.356647 -45.118649 -239.833466
29.376682 -44.855576 -239.833679
28.238503 -43.321453 -238.649658
31.037540 -42.778202 -240.260941
31.140932 -43.292206 -240.765488
34.252861 -38.366127 -240.781235
34.393883 -38.672981 -239.344803
40.087856 -33.101936 -240.138657
39.073143 -33.108135 -240.163010
43.328583 -28.992556 -240.273499
45.068661 -26.630390 -240.678497
51.267761 -21.376053 -240.544952
52.530258 -19.747873 -241.105057
52.949276 -19.217752 -241.668884
52.297588 -17.515221 -240.700943
25.916964 -45.536980 -239.121964
27.046122 -45.854866 -241.570908
26.852194 -43.272781 -242.195786
30.705919 -40.410362 -241.333984
37.297421 -37.398067 -240.240982
37.063423 -35.837971 -241.743210
39.012211 -33.109417 -240.791168
39.989243 -31.799585 -240.948608
41.299660 -30.613375 -239.609924
41.862385 -30.121876 -241.128128
43.570225 -29.563194 -239.994354
43.947037 -28.705769 -240.694931
49.287796 -24.093792 -239.463715
52.150631 -21.490471 -239.747498
49.606129 -21.964128 -240.275192
53.224007 -20.867630 -240.676163
53.276634 -18.383272 -240.359253
27.060949 -45.062424 -240.719086
25.400654 -44.962051 -242.964462
35.261211 -38.416264 -241.422485
38.353519 -34.288933 -240.782974
39.624081 -33.362000 -240.136902
42.048569 -33.859161 -241.079514
39.947334 -31.815321 -239.911850
43.020741 -29.497952 -239.721558
40.798367 -30.113966 -242.392166
48.662399 -22.735826 -240.410889
50.829723 -20.347122 -240.979095
52.073517 -19.541359 -240.708237
50.651833 -21.499928 -241.461105
54.955635 -18.581150 -240.355225
29.416470 -42.507172 -242.172073
29.727350 -40.417503 -242.108795
33.010418 -39.814503 -241.666061
32.832798 -40.537243 -242.855011
33.472839 -40.210991 -241.727661
34.911289 -39.799355 -242.388870
40.240490 -30.747278 -241.181747
41.071774 -30.551565 -242.048248
42.114407 -29.429354 -241.376312
43.065407 -29.472036 -241.265228
50.950119 -23.016266 -241.404053
53.037842 -20.566563 -242.883667
50.467339 -21.820488 -240.479752
52.318069 -19.781942 -242.433914
27.424450 -45.835381 -241.665436
30.359634 -42.729118 -239.287445
31.254711 -42.594906 -241.942764
43.481236 -28.482725 -241.668961
41.959778 -30.721369 -241.656982
51.698048 -23.423832 -241.086548
49.552929 -21.010019 -241.506622
49.807499 -20.857761 -242.495682
52.135639 -19.298437 -241.378036
53.249405 -17.492922 -241.438858
53.638905 -19.262203 -241.881302
26.568808 -47.027256 -242.517212
29.143761 -43.732758 -242.387741
29.513952 -42.953228 -241.891800
40.495441 -33.545696 -242.023544
38.762375 -34.540848 -241.459656
39.242611 -32.282654 -242.846924
38.974689 -32.110889 -244.316116
42.190815 -30.673754 -241.620682
50.596001 -22.310795 -241.580276
49.812309 -23.106888 -242.225662
51.916477 -19.339661 -242.521820
52.955917 -20.135485 -242.186981
40.410000 -31.420240 -241.728317
47.125099 -24.560402 -242.414886
50.955830 -23.531179 -243.105316
53.663136 -18.118378 -242.446991
26.529972 -44.194191 -243.127151
48.181892 -25.949846 -243.399445
47.540527 -25.629187 -243.245895
47.729073 -22.832644 -243.242447
49.080341 -24.027819 -244.254242
53.106007 -19.620052 -243.684341
26.962648 -46.052616 -243.589005
27.773672 -44.462238 -243.596481
47.863136 -23.536943 -244.643784
49.418987 -22.866634 -243.747818
52.932899 -19.795198 -243.667221
51.916328 -19.165745 -244.619507
54.960278 -17.697435 -243.080582
25.842989 -46.822960 -244.522217
29.000532 -45.117573 -244.476563
28.649567 -44.978214 -243.060760
46.080818 -25.553822 -243.284866
46.518951 -25.005764 -244.056152
50.687992 -20.292143 -244.613251
52.857754 -19.222477 -243.680908
54.740780 -18.311983 -243.954193
29.087746 -45.011112 -244.715515
47.816746 -26.198410 -245.301178
46.449387 -24.873535 -243.901505
51.076557 -20.234053 -243.203384
54.941555 -18.404402 -244.636536
26.305935 -45.937164 -244.286636
53.654388 -18.773018 -244.519073
53.993206 -18.201694 -244.537994
55.955711 -17.902639 -244.342255
27.240463 -46.898682 -245.371674
46.660732 -26.018492 -245.373337
54.330753 -17.457529 -246.816315
53.462337 -17.217552 -243.412064
28.509974 -44.074539 -246.091507
46.542709 -25.709789 -245.851196
53.288719 -19.664230 -245.641495
54.883732 -19.137197 -245.632629
56.289780 -17.416250 -244.772842
54.613625 -17.062534 -246.337051
25.291031 -45.888161 -246.062637
28.616114 -42.328476 -245.372177
44.593330 -25.861969 -246.406128
54.401146 -18.097021 -244.999084
54.402805 -15.845490 -246.108627
57.492188 -15.007546 -246.879211
30.032711 -44.931244 -246.758438
46.807594 -23.350283 -245.342163
47.220371 -25.506092 -245.274979
58.534393 -15.822783 -246.484131
55.883652 -16.151573 -248.363632
56.545753 -15.287752 -246.028427
46.862076 -25.914326 -246.724075
52.264595 -19.267717 -246.992157
54.843449 -16.287630 -246.620117
56.367851 -15.423587 -246.095856
57.010376 -15.327027 -245.959396
26.377924 -46.847927 -247.353653
29.337061 -43.416348 -248.248962
45.018875 -26.848873 -248.339264
46.581284 -25.928585 -246.710342
53.053352 -19.537037 -246.308517
52.221691 -17.956726 -247.662567
55.042572 -17.729719 -246.592026
58.132343 -16.208849 -247.963165
58.507881 -12.582405 -247.752029
26.266216 -43.913548 -246.910980
56.528755 -17.887577 -248.136978
56.773560 -16.077021 -247.155640
57.339329 -14.576561 -246.000702
28.526714 -43.334820 -247.825745
47.080780 -25.737595 -246.742889
52.192165 -19.397377 -249.097443
53.404213 -18.656580 -248.990479
56.249329 -15.292112 -249.754196
57.364281 -16.064579 -247.509872
27.819778 -43.772209 -248.833740
46.959202 -25.737686 -248.837479
45.610512 -26.531908 -249.295959
56.333084 -16.728407 -246.838409
57.998924 -14.701743 -248.037369
26.255850 -46.194035 -247.645065
29.360064 -45.189552 -247.609177
47.163788 -26.302267 -247.452866
46.345211 -25.811501 -248.741867
54.152328 -17.824488 -249.673569
57.017941 -16.893639 -249.077209
59.211189 -13.484839 -248.786789
28.258188 -43.845249 -249.261902
56.137535 -16.672718 -249.876968
26.931126 -44.869923 -249.157455
27.949493 -43.993191 -248.705795
57.349514 -15.742688 -250.646530
59.430084 -13.888428 -250.247253
26.456961 -45.529293 -250.069641
27.761099 -44.227928 -250.362137
28.019691 -43.589008 -250.339966
47.695770 -25.566349 -250.323013
55.248634 -17.764849 -248.740051
58.640266 -13.328668 -249.639435
47.086864 -25.859169 -250.553177
54.587292 -16.853195 -250.200928
27.546528 -46.844097 -249.611923
28.241217 -43.464134 -252.659592
28.687813 -44.594395 -251.693329
46.699223 -24.561903 -252.300537
47.037987 -24.109333 -252.562561
55.877743 -17.661232 -250.759445
57.744122 -14.843684 -250.404221
26.792332 -45.873051 -250.960953
29.178034 -44.927834 -250.854874
56.465057 -17.161892 -252.467392
57.070518 -15.536119 -251.773575
59.718388 -14.089631 -251.293411
26.979170 -45.664272 -252.128601
47.500633 -24.572371 -253.609894
48.004539 -24.305019 -251.363968
49.471302 -22.886240 -252.871643
57.814331 -14.764780 -252.740250
28.239202 -45.657608 -252.029007
27.022932 -44.560600 -253.030182
49.074677 -25.354410 -252.858856
28.299767 -46.103519 -252.727554
28.777254 -43.666500 -254.416031
47.346081 -24.128452 -253.270309
49.247154 -22.952143 -252.698547
56.686821 -16.136595 -252.973129
57.841740 -14.862440 -252.318726
26.734634 -45.958946 -253.176270
27.876232 -44.472256 -254.582428
28.304655 -44.276875 -253.799133
47.208191 -24.573133 -252.587616
57.818604 -16.685246 -252.204346
27.489481 -45.259872 -253.143051
47.891945 -24.338728 -252.629562
27.740156 -44.719131 -254.242630
26.128965 -45.294914 -254.725449
28.114195 -44.350143 -254.592743
27.788332 -43.380047 -254.533249
49.010189 -23.840254 -254.291061
57.211914 -15.488212 -254.129028
56.888954 -16.390516 -252.722244
27.405130 -44.929844 -254.658478
26.832777 -43.995052 -254.968399
28.523611 -44.860657 -255.061447
28.562286 -44.794994 -253.358627
55.184002 -17.481487 -254.852692
57.011730 -14.855211 -254.805283
27.261238 -46.197964 -255.833084
27.395212 -44.977081 -254.635803
57.337132 -16.705280 -254.693237
55.801399 -16.339649 -254.873032
58.090206 -15.235358 -254.711548
57.810261 -13.730354 -254.989273
27.315075 -45.926342 -255.325317
27.469648 -46.220058 -255.146515
28.030262 -45.747337 -254.890533
28.456213 -42.423759 -254.653046
48.183506 -24.820517 -255.791077
47.824974 -22.073795 -255.651962
57.338837 -14.900307 -254.500122
27.219349 -44.421955 -256.485748
25.353300 -45.430420 -254.893982
28.602551 -44.784691 -255.553070
27.656048 -43.700253 -255.440659
55.651188 -16.508059 -255.536392
56.989433 -15.193968 -255.219421
57.244488 -15.271479 -255.323730
58.395630 -15.066539 -256.031342
28.187201 -46.711628 -257.025146
27.955713 -45.060940 -256.449554
27.822037 -45.139942 -255.520462
27.971924 -44.467564 -254.709763
28.109966 -42.815998 -255.261124
46.851486 -23.368675 -257.389130
55.904194 -16.571703 -255.181396
57.101364 -15.844050 -256.197174
57.790401 -15.069778 -256.311890
56.616791 -14.938630 -256.298553
56.703823 -15.056194 -255.216324
26.387184 -46.266155 -256.069061
27.779297 -45.083920 -256.277069
27.905724 -42.199120 -256.695251
28.508068 -42.900463 -256.746277
49.784245 -24.262060 -256.852722
56.731709 -16.246407 -256.759674
58.028439 -14.987442 -255.465469
25.954498 -45.883545 -257.372467
29.086248 -43.374866 -258.031982
48.866520 -24.379837 -256.698914
49.307255 -23.452600 -257.228180
55.331612 -16.758799 -257.412384
56.202858 -16.593098 -256.326752
57.040493 -15.075945 -256.877777
26.308472 -45.816910 -257.623657
29.138597 -42.567585 -256.647614
28.837502 -42.446465 -257.243134
49.171806 -23.084387 -258.114136
56.508656 -17.328094 -256.824066
56.474762 -15.937754 -257.437073
56.253147 -14.997428 -256.958527
57.008259 -15.281246 -256.732330
27.193924 -44.850384 -257.671448
27.209263 -44.088505 -257.078094
28.785765 -42.762714 -257.224182
49.542980 -23.871290 -259.321411
48.147709 -22.877792 -258.072205
55.058109 -16.527813 -257.738220
55.011375 -16.805294 -258.125488
57.433418 -14.274299 -258.464447
26.489449 -45.776028 -257.906708
54.040318 -18.623463 -257.965576
55.085354 -17.486622 -258.044739
54.803284 -15.751080 -258.006531
27.548704 -44.769482 -257.693665
27.863691 -46.287655 -257.665466
27.184206 -43.304920 -258.328827
28.649130 -43.707520 -259.882050
30.211571 -40.660393 -257.528992
49.343201 -24.288179 -259.478363
49.505371 -22.813257 -258.955444
54.236412 -18.487875 -259.093781
55.448711 -18.573772 -259.651886
53.884171 -19.790386 -256.903900
52.614677 -18.117512 -257.973450
58.777447 -14.873896 -259.191010
28.901239 -42.626690 -259.852722
29.177862 -41.883938 -259.048492
49.511997 -24.392368 -259.096802
55.958672 -17.736452 -258.703705
55.452694 -16.783857 -259.673340
57.676285 -16.495239 -258.697205
27.325127 -45.567974 -257.662109
26.341642 -46.160767 -259.825897
28.294310 -44.063953 -259.978973
28.598675 -42.749737 -258.877594
28.465225 -42.333187 -259.230194
31.190842 -41.999470 -259.068787
49.879513 -22.207178 -258.961487
57.320347 -15.451378 -259.462250
25.935419 -45.555065 -259.930756
28.717102 -45.247150 -261.004089
28.273336 -43.638611 -259.924255
29.030064 -43.352638 -258.830261
29.242878 -41.273701 -260.269501
48.096920 -22.812286 -259.567352
50.041172 -23.777700 -259.220001
57.894169 -14.676806 -259.151184
25.445694 -45.961285 -259.960327
27.378872 -45.236439 -260.484772
28.660166 -44.359425 -259.664429
30.026199 -43.028679 -259.261353
56.770039 -16.596197 -259.319061
26.748905 -45.828033 -261.225769
27.617872 -45.686913 -260.080963
28.679476 -41.665936 -260.380280
27.944183 -42.811535 -261.054016
29.726219 -40.892334 -260.931061
30.339499 -40.661457 -260.914917
49.258186 -24.044847 -260.058502
55.501534 -17.386948 -258.864502
58.391678 -14.788704 -261.434753
26.918539 -45.207706 -260.988403
27.750225 -44.489273 -261.810425
29.229303 -42.594769 -260.576294
31.998545 -41.261402 -260.948669
49.771465 -22.148573 -261.201935
48.220520 -22.956055 -261.612640
56.026276 -17.073086 -260.768738
58.052547 -16.160643 -259.800598
26.679340 -44.501488 -262.139160
55.604923 -16.084318 -261.331116
56.754692 -14.630076 -261.737091
26.762434 -44.375389 -261.149170
28.593529 -45.003853 -262.055328
27.311756 -43.781879 -262.494751
29.591515 -42.607464 -263.242462
30.324224 -40.698612 -262.120789
48.256889 -23.674334 -261.335785
48.807526 -23.920958 -260.705627
56.198017 -16.124063 -263.007019
27.319338 -45.586102 -262.951630
27.827307 -44.073116 -262.559601
30.811298 -43.209473 -264.361877
28.258646 -41.171238 -263.018066
31.394852 -40.549831 -263.292511
30.611973 -40.619785 -262.030182
49.361904 -24.691828 -262.921448
50.007854 -22.677546 -261.936737
56.655205 -17.098406 -261.473999
56.566696 -13.568679 -261.544464
55.702579 -18.107430 -264.180359
57.666992 -16.008955 -261.780548
57.367962 -15.061246 -261.811157
58.738785 -14.440507 -263.127838
27.750528 -44.440365 -263.807739
28.201008 -43.507698 -262.937012
30.363171 -41.737816 -263.948700
31.684771 -40.006050 -264.804932
48.392982 -24.046299 -263.302185
57.844204 -15.833545 -263.789063
28.347660 -43.160957 -262.415680
28.834621 -42.113731 -264.021667
32.096088 -41.044865 -263.304901
56.170486 -17.034019 -264.442230
57.424175 -14.373949 -262.030975
56.568878 -14.500435 -264.836639
56.217461 -15.796294 -263.527832
26.625463 -43.990623 -264.343628
30.629751 -42.515926 -264.816986
30.439432 -40.593201 -264.501495
32.236305 -39.557320 -262.772583
49.405220 -23.407793 -264.385834
50.085777 -22.784882 -264.409576
55.977474 -16.531906 -265.545074
55.396053 -16.128590 -265.078644
56.967915 -15.624353 -264.578918
56.908550 -15.134462 -264.609589
27.166332 -45.067303 -262.995972
28.425648 -43.354141 -264.038696
29.565926 -41.504704 -264.688812
31.331474 -41.181541 -264.417908
32.143646 -40.211445 -265.008240
56.162205 -15.432729 -265.509125
30.261541 -42.457226 -263.797241
31.620142 -41.345345 -265.350220
57.117878 -18.126583 -264.785492
28.884249 -45.453060 -266.306061
30.608122 -41.022171 -266.037933
31.484037 -38.082260 -265.313446
54.945675 -16.888474 -266.372742
55.932953 -16.443436 -265.827606
57.355099 -14.842773 -265.427368
29.195768 -44.066212 -265.612274
28.552393 -43.667953 -266.719330
49.058556 -23.711494 -265.655762
53.798866 -20.460440 -267.625488
55.718479 -18.132769 -265.468109
56.013226 -16.838516 -264.762756
29.807213 -43.633770 -265.274109
30.855398 -40.375698 -265.743195
32.556332 -39.293438 -265.916138
53.248257 -19.217058 -265.801910
55.718609 -17.912321 -265.703278
56.088074 -16.793377 -264.656128
57.997944 -14.943785 -265.313629
30.399487 -44.088600 -266.214783
29.401651 -43.337112 -267.067688
28.809845 -41.347595 -267.282684
31.610434 -39.836086 -263.952301
31.931190 -38.302841 -265.983459
50.420456 -24.213791 -266.310913
58.442467 -16.658916 -266.252472
57.062775 -15.129126 -266.824310
32.712894 -40.679474 -267.954376
35.044930 -37.584583 -265.857452
54.522125 -19.323418 -267.105286
54.639030 -18.548717 -267.686005
54.506439 -17.953625 -267.050018
56.751804 -16.232998 -266.364807
54.947060 -16.014032 -266.845581
29.346373 -45.026531 -267.505402
29.228931 -43.743435 -267.002045
29.789722 -42.350368 -265.821899
32.503376 -39.310535 -267.029816
35.086830 -39.075237 -267.537537
49.766514 -24.281408 -267.068939
53.787056 -18.046921 -266.008209
52.627647 -17.267929 -267.290009
55.567917 -17.235416 -266.267975
58.882328 -14.613531 -266.245544
31.449579 -40.314735 -266.538177
35.195068 -39.214378 -265.751343
53.812592 -18.515837 -267.307343
54.089470 -18.064320 -267.613647
55.713528 -18.275757 -269.946960
55.952442 -15.906903 -268.330566
33.294006 -38.183922 -267.153412
54.061131 -16.730976 -268.970337
55.082821 -18.267853 -269.099396
53.472759 -18.281633 -268.708710
55.157715 -16.924995 -268.266632
55.228203 -16.618156 -266.526917
29.467756 -43.494785 -267.835297
28.584595 -42.647160 -267.584259
32.567963 -38.255268 -269.099640
32.232967 -38.302948 -268.088562
32.644688 -39.218193 -268.210724
33.699768 -37.913887 -269.759521
49.322857 -22.587408 -269.199799
53.443054 -19.763798 -267.290497
53.623032 -17.261929 -269.113495
52.838245 -18.711691 -267.289703
57.441303 -15.489388 -267.182312
27.865503 -42.920002 -268.364044
30.002567 -42.233906 -269.079590
30.180664 -42.467171 -268.745239
32.490372 -38.262123 -268.393555
48.902424 -24.841961 -269.920685
53.386047 -18.617479 -268.860321
55.062775 -17.859413 -267.741516
55.720116 -17.044817 -268.197784
32.575771 -39.008339 -267.519623
31.378420 -38.522659 -268.305206
52.413322 -18.342159 -268.277893
52.319580 -18.283031 -270.186890
54.791889 -19.058771 -270.523071
53.407902 -17.717705 -269.004913
55.037769 -16.958168 -267.835236
56.149529 -14.580792 -269.603821
29.525818 -42.899605 -269.909271
30.115738 -43.153751 -268.735260
28.520920 -41.554886 -268.876892
32.277649 -39.285889 -269.724060
35.185654 -37.282417 -269.150513
49.307861 -24.013716 -269.616913
48.887230 -22.956579 -269.010498
53.334526 -18.233339 -269.263397
53.201675 -19.448320 -269.525574
54.393848 -16.980841 -269.642242
54.230659 -19.153214 -270.259277
55.622353 -17.026613 -269.964264
57.160168 -15.923379 -271.524841
56.095364 -15.943337 -270.338135
29.974024 -43.266148 -269.591431
29.898354 -43.026119 -268.745789
29.482155 -41.260067 -269.907684
33.349953 -40.276394 -270.841064
34.550331 -37.850437 -269.218872
49.028629 -23.334082 -270.483765
52.981983 -19.221798 -269.992584
53.212463 -18.183567 -269.591431
56.150883 -16.195755 -270.079895
29.339712 -41.856876 -270.281769
30.481686 -39.859917 -270.947571
34.520653 -37.202721 -270.457581
47.812252 -22.680275 -270.009033
53.432491 -19.752272 -269.519165
52.640530 -20.750237 -269.818054
52.481449 -18.778053 -269.036163
54.182182 -18.476158 -270.232697
54.594303 -18.856657 -270.012756
55.138836 -17.579954 -269.710052
29.755112 -41.885990 -271.065155
31.636353 -40.832806 -269.738708
32.977844 -40.583492 -269.715607
33.849697 -37.559807 -269.228241
33.616234 -39.264286 -270.882507
34.387455 -37.194355 -271.279755
50.118202 -24.039726 -270.763184
52.436459 -18.928001 -270.305847
55.306126 -17.409502 -270.516449
52.566833 -19.265625 -272.052948
55.169434 -16.476221 -270.371796
54.810116 -18.377522 -271.114502
29.177879 -42.517033 -270.656219
30.772003 -41.362732 -271.565186
32.775089 -37.957073 -271.765259
35.021828 -37.471066 -272.673096
35.374413 -35.880985 -270.621887
49.588646 -23.901588 -271.592896
53.638035 -20.735790 -270.245850
52.431759 -19.135666 -271.849243
54.672981 -18.791435 -272.193298
54.528553 -18.358599 -270.433594
55.168060 -16.605421 -271.584900
32.050461 -37.371254 -270.666809
54.244026 -19.576462 -271.539551
50.823906 -18.942753 -270.664246
56.016052 -16.853136 -271.869293
54.659237 -17.288818 -271.055878
54.706482 -15.001791 -271.754303
57.998539 -17.187418 -271.218384
31.069651 -42.569557 -272.766266
31.445984 -40.481709 -271.669708
31.894754 -40.079018 -271.292664
34.420074 -37.277054 -271.089081
48.633228 -25.287518 -271.126892
48.292747 -23.126774 -271.014465
51.848660 -20.157131 -272.301361
53.906033 -19.121025 -271.535706
53.297424 -16.966316 -272.805725
57.844521 -15.189173 -271.251068
31.204082 -41.479050 -272.929688
31.212139 -39.376305 -272.304108
33.481609 -37.944271 -272.022552
33.436684 -37.936668 -272.480469
47.784035 -24.447031 -272.315582
50.007343 -23.216612 -272.345306
53.046661 -19.203745 -272.454865
52.704926 -19.814297 -273.430481
55.460930 -16.719210 -273.733002
35.870628 -35.135036 -271.909973
52.104473 -22.117214 -274.606110
52.098137 -19.975952 -272.821594
51.044167 -19.036110 -272.400330
54.626293 -19.345858 -272.002594
52.430466 -18.468102 -270.893402
53.753868 -18.583414 -272.597656
56.223534 -17.442022 -271.251587
32.389355 -41.471470 -273.569946
32.623241 -39.213768 -273.395447
34.109627 -39.061916 -272.815552
35.529644 -34.946053 -274.289612
49.679768 -23.238859 -274.630951
47.674942 -23.371620 -271.778412
51.035572 -21.364990 -271.878662
51.911274 -17.942501 -272.224335
54.801949 -18.127941 -273.571960
52.848461 -19.198658 -274.237152
56.161415 -16.435350 -273.459778
31.335842 -41.216106 -273.097626
31.403687 -42.359535 -273.670380
31.464148 -39.677429 -273.060425
34.689663 -37.006222 -273.627411
38.511166 -34.143311 -272.229828
51.327999 -21.151356 -273.828552
49.891369 -21.383982 -272.720703
53.416683 -19.679119 -273.142883
53.105881 -17.414583 -273.166840
53.861439 -19.988771 -275.462067
55.390743 -17.442911 -275.264618
53.743427 -17.091469 -273.746918
56.257565 -17.048927 -273.482758
35.564487 -36.740822 -275.198151
36.768604 -34.879166 -274.854309
48.576588 -24.360735 -273.750366
52.070671 -19.647287 -273.930054
52.682480 -19.134485 -275.645386
52.101002 -19.128387 -273.438660
54.382641 -18.807137 -273.834686
54.047436 -18.755180 -275.899994
57.280643 -16.198566 -274.683441
31.544430 -42.629139 -275.732971
31.640099 -39.738285 -274.761780
35.224056 -37.733517 -274.624847
35.412251 -36.437664 -274.867096
36.003155 -35.784607 -274.902771
38.346809 -34.245056 -273.456360
47.204765 -24.260366 -274.736298
51.018108 -22.617458 -274.001129
51.232578 -19.616541 -273.983337
52.542515 -19.950474 -274.120483
54.587631 -18.926136 -274.303284
55.693012 -17.317495 -273.615753
55.982216 -15.622978 -274.431885
55.630039 -16.879568 -274.434326
31.511620 -40.375687 -274.985504
33.970798 -39.311153 -275.656860
31.403858 -38.703495 -273.894104
47.510315 -24.948055 -273.984711
51.494755 -22.633411 -275.144196
51.493126 -20.939938 -273.599396
54.039433 -18.607048 -275.478455
53.464890 -19.611616 -276.324402
56.645256 -16.741249 -274.660614
34.567711 -36.925716 -274.601288
35.790340 -36.766003 -274.909790
37.629795 -33.523979 -276.423004
48.223717 -23.675741 -276.269257
51.874763 -21.221691 -274.104553
51.002705 -20.633854 -274.570129
51.955471 -19.733772 -274.370392
52.740986 -17.662407 -273.602570
55.413815 -17.740759 -275.289948
55.760662 -15.633643 -274.289001
32.107395 -41.329277 -274.765686
30.758888 -38.481861 -275.942596
34.175400 -38.376747 -274.480072
35.473122 -34.424992 -276.158844
47.715584 -23.423260 -275.064880
50.330570 -20.937309 -275.285522
50.416779 -21.112785 -275.366974
50.944778 -20.023205 -277.398193
52.761578 -18.953747 -274.270264
52.492489 -17.995239 -275.422668
54.349957 -18.734669 -276.541107
32.045986 -41.024429 -276.622375
31.941408 -38.668808 -276.252106
34.706867 -37.667591 -276.376068
37.655235 -34.736317 -276.441589
37.732716 -34.389671 -277.527771
48.538883 -23.970984 -276.672943
50.330517 -21.598095 -274.310883
49.972305 -22.217812 -276.291656
51.945114 -19.044359 -275.410889
53.627991 -19.796654 -276.409363
53.804688 -19.754465 -275.814270
54.195389 -19.520538 -277.011627
54.444916 -19.101004 -274.973907
55.724327 -18.912420 -277.065125
56.335636 -16.679478 -276.046051
32.775944 -41.434895 -275.843262
35.149570 -37.673702 -277.489166
36.109634 -35.151299 -276.269226
37.312393 -35.600315 -276.072815
37.230194 -32.174686 -275.645264
49.418091 -22.894194 -275.680206
49.152809 -22.255856 -276.474884
50.003880 -22.708719 -276.916565
50.557049 -22.885118 -276.293335
50.296967 -21.254522 -275.951691
53.900894 -19.963970 -276.963165
52.532551 -19.798508 -276.188354
52.339325 -19.872673 -276.028595
53.028149 -18.573780 -275.252899
52.392075 -17.873116 -277.296753
55.073029 -16.724144 -275.689636
32.260746 -40.732197 -276.271332
35.425816 -37.596706 -277.107574
36.446697 -34.294991 -275.980042
38.753830 -32.260925 -276.706085
47.638294 -24.801434 -275.033264
48.866322 -23.756905 -277.589050
49.321724 -22.300890 -276.859772
49.208569 -21.338570 -275.381012
52.642223 -21.062262 -276.776947
51.820118 -20.664114 -276.711670
51.569004 -20.455265 -274.821747
54.995144 -18.789108 -276.666382
54.610149 -18.498825 -277.303375
31.240013 -41.884739 -276.728058
32.051685 -38.434498 -277.072083
32.693584 -38.057190 -277.350739
36.763115 -37.207355 -277.496826
35.890656 -37.004471 -276.179199
36.389954 -36.000511 -276.319580
39.052341 -33.197243 -276.487427
46.919399 -22.435656 -277.275726
48.131775 -22.778379 -277.822693
48.332619 -23.983776 -278.134003
49.467110 -22.623735 -278.214722
49.049877 -21.217228 -276.304138
51.710804 -19.984148 -278.003021
53.849239 -20.610172 -277.048218
53.840618 -19.799654 -277.460846
53.945408 -16.960144 -276.313019
55.436096 -15.871078 -276.837616
33.580246 -37.502502 -277.497498
36.475315 -37.031685 -277.824921
37.053619 -35.172916 -277.262238
39.086266 -35.402008 -277.331665
39.845478 -31.718231 -278.107391
39.294987 -32.831306 -277.814758
40.046711 -31.413063 -277.816376
50.262173 -19.713884 -275.593567
53.431957 -20.920380 -278.304169
52.060463 -19.896246 -277.460022
53.922947 -18.532337 -277.502472
55.978893 -17.928635 -279.064941
32.062828 -40.148376 -278.154999
32.836281 -39.349537 -277.470642
51.387215 -19.372244 -279.354218
52.465458 -20.251791 -278.283844
51.462521 -21.353590 -278.050293
56.139904 -16.334087 -278.013885
32.975731 -40.305691 -279.584991
32.485462 -40.428501 -279.100983
31.860260 -38.002598 -277.763336
36.868465 -36.377632 -277.370117
36.378345 -36.012558 -278.697571
38.199657 -34.389030 -277.402130
40.451954 -32.991756 -278.304626
39.483208 -31.477652 -278.086761
50.794136 -21.461285 -277.878204
52.998501 -21.436949 -278.709869
53.404884 -21.255056 -278.691162
53.962410 -19.002216 -278.808502
32.943375 -39.371212 -278.668396
32.350796 -39.769550 -278.868317
34.252792 -38.233662 -280.351410
33.190636 -36.872921 -279.922760
36.401436 -35.434673 -278.550720
37.949699 -35.822758 -278.131378
38.220856 -32.560547 -277.414886
38.546021 -32.779076 -279.826691
40.196030 -31.153847 -279.116241
49.851810 -21.945099 -280.054871
52.067547 -21.462799 -278.640137
54.448517 -18.330044 -279.532013
32.156200 -39.794640 -279.841583
31.817789 -39.267620 -279.081238
38.336258 -32.942619 -278.862457
48.741329 -23.132103 -279.758362
49.851395 -22.716761 -279.741180
51.269196 -21.057932 -278.247223
53.144066 -20.862612 -280.303467
50.909935 -21.444229 -279.012451
53.483337 -19.315477 -280.250000
53.074425 -19.591463 -278.845306
54.270538 -19.375437 -278.914185
33.801434 -39.949551 -279.551544
37.656208 -35.370190 -280.027985
37.902649 -34.121494 -279.217224
38.959778 -31.051058 -279.219513
40.739895 -31.527905 -278.468475
41.380707 -29.888447 -279.170044
51.126614 -22.554415 -280.132355
51.155315 -21.575676 -280.015900
52.253597 -22.964094 -279.590637
51.801308 -19.469069 -279.757355
54.196304 -17.675486 -280.417145
33.272125 -38.595448 -281.013000
33.604004 -38.045341 -279.803619
37.380417 -38.037998 -280.220673
39.106136 -33.287140 -280.592194
40.866627 -31.288675 -279.273285
40.437744 -31.581652 -279.423004
41.683586 -29.539587 -279.960175
42.426311 -27.359568 -280.502502
49.657303 -23.721033 -280.425323
48.538387 -23.682755 -278.782715
51.632114 -21.863455 -278.028137
51.545532 -20.224840 -280.098633
53.227192 -20.413334 -279.243866
36.945957 -38.179241 -280.549713
37.330826 -34.782394 -280.174896
40.357811 -32.294140 -280.325836
44.060604 -28.459314 -280.798615
43.092735 -27.814156 -280.570618
47.918934 -22.871578 -280.411255
49.108109 -21.849499 -279.851440
50.327599 -21.692278 -281.535339
49.428089 -21.155195 -280.769897
52.320171 -19.856535 -280.222137
52.096729 -19.505541 -279.521118
52.303226 -18.958498 -279.615265
54.264465 -18.743078 -280.974976
33.010254 -39.382412 -281.453461
34.226391 -37.693935 -281.591797
35.234810 -37.695648 -281.532257
35.236206 -35.960022 -280.732758
37.216251 -33.930187 -280.270538
38.454010 -34.831890 -280.345428
