# This PCD file was generated using the MATLAB® pcwrite function
# from Computer Vision Toolbox®.
# .PCD v.7 - Point Cloud Data file format
VERSION .7
FIELDS x y z
SIZE 8 8 8
TYPE F F F
COUNT 1 1 1
WIDTH 784
HEIGHT 1
VIEWPOINT 0 0 0 1 0 0 0
POINTS 784
DATA ascii
-88.563432823345096 -69.921462877142531 -131.735281873742224
-70.170264447235283 -64.838690669638879 -134.742975898162797
-77.134300979602244 -65.718975918576376 -131.741074914251925
-72.979693671076802 -66.342345477298210 -131.786601899553659
-59.809055119219607 -65.186029281273022 -138.621433083891674
-49.422066410496754 -65.505284668911401 -140.385819095698679
-69.940522025472646 -65.894577618650203 -143.394793319326624
20.278132807250568 -67.257100349605594 -141.458566859154161
-73.330986913265775 -66.088738004949818 -150.412865123220200
-46.177397996805126 -67.223879312826199 -150.400859541113277
-92.777426344808546 -68.253449032819901 -149.026386989466829
29.792245913141482 -66.502935326486835 -153.858406415083010
-49.084206789542179 -67.662041326252989 -150.259535362909901
-42.109349902663212 -65.384758619572921 -154.169324493248155
27.964051045168130 -66.536938864183583 -156.795065011517494
27.157183177622763 -65.939765497877033 -159.086387853173704
28.789202180188276 -68.053657337762473 -165.254905101548729
22.177080640637076 -66.755507779990765 -166.369145477585818
27.060803176932822 -66.857164599241543 -172.646823190012128
-145.750767424449208 -66.065094585771135 -179.371272373858858
-111.207262476195012 -64.917277376337921 -177.025767559035302
19.433528400186525 -67.740946312558364 -179.065507965840823
-107.592411995074144 -67.397234020093862 -179.744212116876042
-105.553591347361646 -69.090253563321852 -183.091194209040822
23.958235017198074 -66.124261363915338 -187.942619515321780
-108.390027782993172 -65.477247903005136 -190.911199615342980
-137.805468842117932 -66.601209194355619 -194.818534825700823
17.691771755848656 -67.106926609278219 -193.125787506144604
-124.185303443729822 -67.994502191212931 -197.656276429671919
-140.744702227147457 -63.865548406792861 -196.440532499554593
-135.082105050489986 -66.140059250523962 -197.379277721743108
-157.443040406505446 -65.369063846311064 -194.939092894638577
-120.913090005497338 -66.559406720797682 -199.502629523869643
24.697460262317904 -64.981270002051957 -195.772577101277790
-112.697569458197250 -68.385714244155480 -198.055602051742000
-106.254645153031078 -64.689176536767164 -198.150788110596750
-152.425641114104963 -67.645106038339705 -201.646765944022093
-167.288232152877555 -67.732430935331109 -202.148871389654659
13.378619057148887 -66.504333793251647 -203.007293053980788
-155.244039832625759 -67.585544541410144 -206.902444896645562
18.818044509581316 -64.004031454673537 -204.153438062789434
-19.284569553204879 -68.434232502785619 -200.901985682920156
-117.852601717581507 -64.564808587732330 -200.203702243482837
-164.315206476068397 -64.167804263578674 -204.017672190459336
-122.049547644897814 -68.349823757457841 -204.440752902260812
-11.261943671627574 -63.353856638118117 -208.393836277040293
-142.308987905324017 -67.160800774088329 -205.236345166068162
-147.763972584789229 -66.370679893438279 -206.264752881670347
-12.931392189168218 -62.291998205230250 -209.343053439057343
12.695897276785843 -63.385571677535737 -211.417940000648144
-163.864557408235896 -67.402576143168858 -216.695069335596600
-2.961343249788523 -65.554103612602717 -219.906588638921448
-156.887248553689773 -65.733718167753665 -222.510289974399342
-104.823100730694080 -64.740086685557444 -221.345744648250928
-99.123635266170965 -62.848083061390781 -225.722832491547337
-151.851033310477874 -64.166747895784312 -225.052190132509367
-141.755764193738571 -65.898059762228073 -229.456230497983313
-131.031462452986915 -65.701688509519983 -223.586081429718774
-162.674658794594620 -63.810956418155136 -235.090218517161645
-103.798502492025875 -64.028620160062388 -229.307723692341000
-156.437893591752839 -63.639757065561241 -230.179971178051176
-7.297280820307829 -64.443387379431414 -226.120475177023678
-143.907506064427736 -65.083544157951707 -230.895468875647992
-103.510081122464015 -63.780999566009612 -227.322710344007419
-146.453737078810605 -64.791759656767510 -230.973323230856892
-108.815972499341768 -65.385465759065710 -230.830586490341233
-150.564770248269213 -67.532753777523553 -234.631293351985420
-140.214756411428880 -62.746667244009664 -233.542060808740104
10.263783882526896 -64.869060494354670 -233.451762845889562
5.001477112775998 -68.147207949855044 -235.735708779580222
-160.876637055886363 -67.408376434511794 -233.560939739375016
-124.277720806596392 -62.134217739605134 -237.582038104157959
69.634883470431717 -65.765080951342270 -233.940591663416967
73.218981762807402 -68.308982711850433 -232.529145131038149
-163.611669540256116 -62.907492077488314 -238.379847618867984
65.782893341228643 -65.940458286631269 -236.751043095785718
0.282346978836930 -65.333660913845449 -237.921939373949328
2.417798627504538 -66.908469887992595 -242.144196613490493
6.053647508692752 -67.562669600470628 -238.505069177517811
-159.435037957746943 -64.072720356752029 -241.431413764929317
-11.349253764316916 -65.224777623349354 -240.717839039999632
6.603442738128599 -63.934583507660399 -242.005591373297108
69.817174394080951 -67.949847514481149 -240.459762397654856
-13.940211064243559 -62.394533676040979 -241.467603826290684
57.043010338422867 -65.236671134287121 -242.260315128214785
64.148313933380905 -65.222497116646792 -246.287155774431227
59.050958226554656 -69.590256512390482 -240.514419958921707
54.979580914720984 -64.888511277018864 -252.379399468929563
-163.021075776243009 -62.606338474909208 -249.644657907290281
44.125766129946598 -67.694956356966912 -248.212497578538176
54.101563947626019 -62.923206307789002 -250.269008192687494
56.435365151993388 -66.070190087246218 -251.856607266793361
51.783741333629919 -68.960941788106652 -254.963130803447854
-130.161342946150882 -63.531300453598682 -255.583766199747203
-92.539352476573839 -63.580899187600110 -260.931326235971028
-90.525248939688993 -63.511984810220000 -254.122826504083235
26.370877511640604 -70.121786558034245 -252.492315336749499
41.688055803614091 -67.464548288905917 -254.177777736456022
-132.660015686429460 -63.497377697509876 -259.646852700440547
-120.223309536692881 -63.748400569291910 -255.919979557371533
-144.065432080113936 -67.649696357700137 -261.151034016054382
-148.763411665538143 -64.593615413338426 -258.437868483178647
43.991862858773104 -67.001968362452374 -257.858270353267926
-98.314315838301340 -64.703078253185254 -259.101658281798450
31.560422988369435 -66.249686023648962 -259.943461930226817
-148.187153712418592 -67.451420350980868 -265.609946365390613
-106.647331696975641 -63.816673523784424 -262.235284387702791
28.482937076902214 -69.359130889822467 -260.468187248040863
-139.187601720733824 -64.208021255133048 -262.618817347356696
-110.209792922198659 -66.200555450573290 -259.280826058338789
-132.291006436100957 -63.766218493428703 -263.920476619191390
33.581213078582984 -65.523542581076072 -258.934859095938009
-9.539592352384634 -66.212178424411576 -263.213189437934830
-129.278374613174378 -63.371432990343429 -266.044123888402055
-121.987739638971959 -64.899240816909128 -265.791040874853820
-146.832340247167906 -63.444907439493882 -268.724807388674151
-3.043389798153399 -66.377710266772610 -262.568780466002920
-150.427419882677242 -68.506690790322409 -282.729433120058161
-6.578133421747356 -65.944605723854281 -284.436959694351913
-143.458822624384652 -68.277540679739189 -283.529578061434222
-121.045259713266233 -60.470106931921428 -284.365781328018272
-132.905823911128749 -65.518194213885238 -289.805357683910358
-123.460034312860614 -64.244040200813870 -289.900726695053606
-118.536361802016216 -68.111355898589125 -287.826846317416880
-110.738898469123939 -64.263150138350426 -290.721633271601547
-104.813606757808174 -61.055397357699043 -288.452834224008143
-133.708684879046956 -63.877722176045864 -289.525262193927347
-116.395461990355642 -67.674896148532667 -288.166743193848674
-122.280984465729603 -66.211586867729636 -291.822501313028795
-122.306455971370070 -63.937225874598056 -294.395861664372944
-146.042064311172084 -63.530035725969917 -294.294307621032488
-147.464968373489398 -65.781636721955721 -298.104920102106462
-147.368625590107570 -62.195314496191664 -298.007424889010906
-148.613561546222655 -65.202592833575153 -304.386808238416563
-141.671166689334058 -66.685471383893130 -306.152342825101698
-148.757627661341729 -65.906830865277584 -311.881134959829410
-148.549185826427077 -62.904332586435075 -315.806473441531068
-147.835353388760069 -66.110315536994108 -311.505826845927743
-18.876564779402745 -65.839139073370688 -57.285350511113855
-92.009221968904427 -66.484459552050112 -59.989502620811002
75.929736458014318 -64.895201611712011 -59.762038501862243
-11.797542469872770 -67.747789123245980 -61.662767731852078
-12.032133440386179 -65.940259806486154 -69.938517390086020
96.837084308073585 -66.984575969227080 -64.680726791071805
-22.028646425153095 -60.410136322097358 -71.956799426302013
-93.175127529652556 -63.110742807232747 -77.149959062416798
-40.540428230716344 -63.299942564748605 -77.114766653447333
-40.892687154898795 -65.977268883993261 -78.750572297411281
-31.535110195243117 -66.704093903590561 -81.934229698034216
65.932380336915131 -64.804545677370896 -80.071932690011977
54.170618983631414 -68.934109233968030 -90.325503356171737
103.839172507344088 -67.368684538051738 -86.275096472874196
-67.729985325486680 -68.101061291982887 -94.358460573540498
59.794999678641972 -65.697408787843713 -94.831714733531840
100.106365771315708 -64.727421717342992 -95.961819886435933
107.932945493176959 -66.396589140813433 -95.194092708748315
102.784385139374663 -66.671667265116724 -98.790007847652248
104.995923796198667 -68.319922983065794 -96.375288765122434
47.204276392401113 -68.519819603080620 -102.404522749656934
52.590461670639598 -65.778395020450972 -96.677202971123791
-72.718943875821907 -64.707891598324267 -99.938175886314980
55.124986968153728 -64.681967942194035 -98.844653630055547
-71.608596863835984 -64.329240696447414 -101.388103623795018
-80.080779912246129 -62.783239636565185 -101.403827438396547
45.314059297116017 -65.293887520005370 -103.116479525681086
109.651846168116307 -66.673421363137351 -105.717549048614472
45.998341362559003 -63.565687658786175 -107.809020216547339
107.940924466785475 -65.706651893566004 -110.863763174563132
-95.240272473452094 -61.636065883928211 -115.920224308649580
-93.176458151112797 -62.247237499427129 -120.649620738931446
-86.521342798000049 -69.123331875599433 -126.573405245859760
-59.202486174998242 -66.115192270139545 -129.777637480670592
-73.747582434657829 -69.399722659608415 -126.702585931158382
-84.304473164608751 -67.207600918730520 -131.432784918813525
-52.747747946939157 -64.225474824619184 -132.133956726019960
-84.654918832345743 -65.744205313392257 -137.571868025123450
-51.354323073971130 -64.074934916250584 -133.940737115790000
-77.761436719599800 -66.852899688523806 -136.222365956805390
-72.799338729354290 -63.658861861404375 -138.304524243653077
-75.034131006673192 -64.928856496573914 -142.540701455865019
-92.168426690811998 -65.733955074330112 -141.286036579672555
-57.463691903027694 -63.162025991753275 -143.946204465355265
-55.401943470735333 -66.439332635778158 -144.670520658672530
-96.968048746647909 -66.021119398858801 -149.474683589270825
13.834863377123979 -62.914692860887421 -149.526950204616043
12.572098549299094 -61.626684576245651 -152.926862637551835
15.853795366737579 -63.421627593935952 -154.897839577712375
-99.522201102070653 -65.854752457539306 -158.606916569268805
-98.035507761278566 -69.636943153611242 -156.923299306173817
-101.414813074838136 -67.103126046692509 -166.695433559852717
-99.636021566043695 -66.097910686685651 -168.523651263385204
21.932674889572112 -65.559174202412152 -175.703244205088339
20.658010005648134 -65.872739565554639 -173.312753962789685
-142.442437511209363 -66.565893526838806 -177.015558846827787
26.663963795277287 -61.055567271519969 -178.192813302184135
-100.717067517947115 -67.740215276782237 -179.763572062548462
17.718292079210450 -62.664272980112528 -185.751095080346431
-153.664049589816614 -61.910915422569943 -190.303395894082513
-141.586005504943188 -63.125576584561145 -190.423005569000509
18.496473561992147 -68.232193585032419 -190.613038933625887
-113.860196280331650 -65.337068786517221 -187.155953763122568
-154.913080799155608 -65.051464243123348 -196.957210570623289
-133.644615195904976 -63.857162129723285 -192.114951626950727
17.361637251066803 -63.105158290131122 -192.126234862705218
-154.061266483661058 -65.765340834682775 -195.401176056734670
19.401397620251785 -62.373001559844951 -194.141978869711238
-18.411171649929049 -62.580570323118188 -197.963242969483730
-150.456908975224280 -66.549602607232572 -198.413076554416534
-160.872929183835936 -62.965575386365693 -201.544740485910211
-157.248184722054731 -66.023124364503957 -199.156776231020672
-146.509875443785518 -61.864354687989326 -202.106080841384454
-107.700841745544523 -63.884856310788912 -200.473540955074441
-16.382734808476666 -65.615215604060552 -200.121380234116714
-135.438358007385546 -65.112905781571087 -202.808911672243738
-147.683822673065237 -65.845128372173278 -204.392396911289808
-15.713939335840511 -67.333444198594989 -202.973605162963821
-162.609933159312760 -65.848601897604041 -207.241354163971749
-10.077226832910977 -65.918193847951883 -206.336735816497963
-11.913583972278037 -61.044831639784086 -209.172977388096257
-160.511678772384130 -66.571849657245480 -216.425310728931350
-9.501184336312502 -63.383362146734740 -214.655464861626086
-158.434066117737586 -66.334191061884354 -216.503709872729644
-144.031472542470141 -64.712011092520498 -225.757587361232510
-1.850476301025992 -64.844096046837052 -222.726141143087858
-131.592100211676382 -66.637128811611248 -224.424137786062943
-109.612190105161346 -67.353248435186586 -226.404877838879656
-159.476918337721543 -63.140477951823890 -230.060609761022249
-112.823028541952453 -62.251093443767694 -228.245694192497467
4.805478665614025 -65.684093658899485 -229.741830869106195
-3.038895803884632 -62.799398474005152 -229.783928772686465
-147.689230599107105 -64.294815963911972 -232.977796528903241
-130.935725126085543 -63.813057844647389 -236.037679886977770
-114.262796808321951 -65.548434551788091 -233.378416885179092
1.618558785077091 -69.223436046390219 -234.873160312881140
3.030981650967473 -65.663133795851266 -236.952279898317926
-7.218058328899648 -66.550942315057910 -235.529330071591005
-8.930615314789865 -64.314227534726797 -239.009294186468367
6.066417450553477 -64.457481203353467 -236.402956606414449
67.007411242388756 -65.762018966993935 -238.679629162255054
13.507318818804764 -66.427783006250621 -238.911055475994459
11.536087929330661 -64.586742836789085 -245.780131086453338
-12.523607983458557 -66.374825191933382 -247.733981383963709
59.650124271046295 -65.204271699097802 -244.907124192716964
-8.377467186990618 -63.525708058251915 -249.991359644252924
-142.506137180964032 -64.145683144870048 -255.260120211762370
-142.804229520211351 -63.200916465463138 -252.256111249797499
39.579592077304447 -65.974497579696902 -253.429062923379803
44.617855838277208 -65.300175584757341 -252.251564868540669
-137.517347683500304 -61.864437580124971 -257.993953599332201
-101.448065728509050 -63.270886921145134 -261.293825229905906
-112.282625421045964 -65.021698651152718 -261.467212077237832
-124.000339561432895 -63.011598738179501 -256.298940637781243
-107.483980499760577 -64.015935707870142 -262.778148817403519
-137.811754100862629 -64.317400628669702 -260.041718070571847
31.847946678967624 -66.919833581200947 -259.258871841765142
-113.246801176020710 -64.519620669543116 -264.369877048156354
-5.995140529659142 -64.437148842071409 -263.358173927180758
-145.454602635367138 -66.374796486639127 -268.847726593006996
-2.686510041781290 -64.583959929245310 -274.171809738856894
-3.875168927791663 -63.683539042470102 -284.564065821179383
-131.883907290898264 -63.060148693187941 -286.513436326191481
-1.755267662802630 -64.027358905889514 -284.579377821077003
-133.431081592809193 -63.114386969996403 -292.826755537997201
-125.524760085672057 -67.820607631196197 -295.612200414619792
-147.778384717654575 -62.273602138321920 -304.127282234013535
-147.095281512881115 -61.970516112031888 -302.697471513397090
-145.516078841156627 -59.906687638397941 -313.453881488632362
28.238441722877859 -68.307303450749600 -29.737604849732215
29.977412946285142 -62.986128423147989 -35.154292903944146
47.522457457530763 -66.781824999908054 -32.496983283050028
-62.867731491262120 -64.204167734692362 -43.636879971503546
-59.094553770638996 -66.778537820338443 -46.118058513293803
-71.505016877858580 -65.794335062358215 -48.598366275122594
-36.470231055283080 -64.238392354258707 -47.982408581476989
-79.424811690076126 -65.427744313462227 -48.140048746852045
88.025211357182584 -68.610518907728760 -59.172501885637892
-13.292421257185250 -62.798330990739501 -64.586029632639679
71.941374229729675 -66.637153280941249 -69.349458019784322
104.356085440093480 -64.598372220482190 -69.058956142724497
66.771356682755524 -67.913054607359896 -71.244176956683418
-29.121164151608856 -64.871742647013690 -75.040448309623343
65.197454809284153 -64.103734942883548 -83.336324371168018
-46.725173066274223 -67.174099472612568 -82.273396797220784
64.119736168214189 -65.078685535982942 -86.491782008870047
-50.391404252496102 -64.991924186762787 -86.307131470418170
-61.186627274723023 -66.464778681529168 -91.380760021954615
50.450521126048713 -62.970330014446510 -91.063495599441239
-94.924986695436317 -59.504045678338599 -97.483481681376702
60.764582341823413 -66.819232759279799 -94.550985452648462
101.426716670292294 -63.478418812211558 -97.223898018831761
-72.645825985575499 -64.273960907871697 -102.715142631319395
50.546354534816395 -64.888099087772162 -100.981101134077420
46.037030240277971 -64.408168515774605 -101.158499066861850
-94.677109890575082 -64.758004683515992 -104.324523094907818
79.398488376650292 -67.223693105804585 -107.441830851681175
-75.973687274493230 -63.497101418687308 -112.506957437646378
-76.124671563007865 -63.735868082383618 -116.361718777826837
-88.165053940500172 -64.236617177234564 -119.317901172524444
-64.265133896701997 -63.633247807411053 -119.189737691546497
-56.777034732296627 -65.309217749665251 -120.204822994173867
-62.459012378577185 -63.348977394436211 -122.727846112441057
-92.674848034333451 -61.310190097664822 -120.489059665296764
-71.576286448765856 -61.554262950467567 -122.150101359187659
-78.941907951345939 -65.066374284863443 -123.941580889392469
-53.971021604296979 -64.197762937649628 -119.981674621975117
-88.100177899515501 -64.774881599077759 -131.778377750884687
-76.947411937602382 -63.920474899729989 -131.982300654491695
-51.396020622027663 -63.177424545578887 -134.999989265906635
-47.306212572171290 -63.861696951554222 -131.576744164031339
-89.433634828651819 -64.815711207967865 -138.217823549004009
-70.400700834146846 -61.211612001959388 -134.963652692662436
-53.574808889140613 -67.265051417971591 -137.783883762084201
-57.291648265294640 -66.296062960498432 -137.906397174283001
-86.571932890223451 -63.926287541605205 -143.245996242867278
-47.767156801324177 -62.757009686806960 -145.881722509188165
24.305619411425834 -65.690187009714123 -145.558100354053494
-91.899188830101480 -64.245422214865812 -152.409523472175778
21.881623832637288 -66.596044555253400 -149.666729621206883
18.087554779406673 -66.208019754922333 -151.592848707466743
-92.152713972479432 -63.437557676029243 -163.874079886636537
-109.924983994327334 -62.815776836182906 -175.720330433754583
-151.041417764985511 -64.134705324087619 -176.749554644284927
-103.590471913868811 -63.965902020037632 -183.829458241230299
-138.260984794855858 -62.489373018719981 -192.043040130623893
-147.437142798344610 -62.117807653477158 -189.107766301295243
-102.806353004860995 -62.888137255461494 -193.532097470329546
-148.824487723794931 -62.882086873009676 -196.987258362787856
-107.725120069573506 -66.375434267807691 -198.508965099573459
-146.284291374869355 -65.980223081944189 -196.980986200297025
-147.128603989370987 -63.690443233039296 -202.841808787889505
-142.527744859634055 -61.272058763487941 -206.397806329010905
-130.895969723291955 -60.087978230315677 -203.472685123364784
-132.369408608297675 -64.889459430653432 -208.474138622416973
-111.669845677509556 -63.004348501038393 -206.714404275483048
-143.697329707398893 -63.398184129572485 -223.374653923053899
-136.506976755874462 -61.224378387711454 -227.872226649132813
-135.708798790730270 -62.741612269383992 -229.352027343860954
-122.020656245174109 -59.759341126813865 -229.888082603252059
-107.753428915020095 -61.375588031674120 -232.047149634108848
-107.812555339053944 -63.704560788051964 -234.268540787951338
-117.695031374078326 -63.389308133286619 -232.821292622335505
-131.871401814175471 -64.125887518332533 -232.161191954547064
5.150259860714907 -64.031553292701346 -233.671087965139151
9.351475824977200 -62.020592873887082 -233.658262070172754
-119.340173902988141 -65.305591432686356 -234.644749110077413
-125.144175291392031 -61.787239481543786 -234.477519458316323
-148.563638970962728 -62.050826491927523 -234.156146385664982
-145.662350310047998 -64.864377724382479 -235.240878849339936
1.465441620392525 -62.804430271252599 -237.657822487688804
6.572414586014354 -62.468107928431444 -238.882523838130453
11.558583070343532 -61.082384853569074 -236.819537020977918
20.686917171536486 -65.133733613811614 -246.115736187059184
60.674317006415549 -66.949699928887696 -241.493720060231198
52.056472621997834 -66.073741612619358 -244.115377804572205
20.314293683834343 -63.502548980781256 -248.534857028948380
-146.642502469293220 -61.428818224207447 -251.502438602256262
54.410040334124631 -61.095397281829406 -252.667309137046885
37.620937711695611 -66.830397663084938 -251.415674105515762
-125.092979049611756 -61.011130588606143 -259.071005712900501
-129.207871119338847 -61.427246996615438 -254.322145643470691
28.855412086581246 -65.400037533757796 -258.497493349757178
38.357712644663735 -64.711440528275929 -257.256431687085637
-130.411841457062707 -58.425520128645410 -262.947031558193885
-126.301213495172817 -64.023126449277868 -265.341495852909532
-113.270963270747615 -62.292840945557913 -263.508071874541713
-1.421012028872152 -65.054811298304699 -268.059828347223117
28.032150447693933 -65.476397484547306 -272.303914596218135
-124.366100111239803 -59.460225944803376 -286.558607057135816
-2.735876124696855 -63.119143894549445 -285.140464720392515
18.180254895204637 -63.617822745241064 -285.154523370927507
-131.345284609121933 -64.519322268933493 -288.977740215699498
-124.881296035890216 -62.062914170357040 -290.657538928066174
-125.601525806572141 -65.070683225115147 -287.321186853517759
-4.941972804122340 -66.516648499666317 -290.361006569246172
12.606539370864461 -63.881693124438108 -292.811631908155050
33.815306200741432 -65.679190526701319 -35.872823120581224
25.715131416398950 -62.939106756364140 -34.219409336140409
42.605982986466152 -66.090481575245690 -39.152878760331326
-52.197487513475309 -62.224130241804083 -41.711547760820167
-19.764362390703095 -63.964378541797437 -52.552515531144202
-92.964120666818701 -64.853517861109509 -64.592559530617336
-30.772074976276695 -64.150280913856307 -74.204990751933963
98.940064103137587 -61.833950265264626 -75.912768593523765
-99.220346713955337 -62.280202483491848 -79.835058789040403
-49.141766681885699 -61.888918387119510 -84.264772616508509
-49.343272669293526 -60.840565845308582 -85.023869457217188
104.133863948075572 -60.744606490906563 -80.095643577748092
106.635759479424820 -62.810616702532485 -86.586065441570838
56.054300858251764 -63.918054434673245 -85.628945073403059
65.692118030884544 -65.258370860776239 -86.440919344482779
67.060282007308984 -62.415879964583432 -89.105943104644581
-67.783478771065759 -66.329870011304678 -98.699386737609586
51.565094715462791 -62.237552158256875 -96.762228092819242
74.410396185551789 -62.268404222413480 -106.362590375518380
-70.248349076511502 -63.661478839850702 -104.302620357056270
90.443804082721726 -64.903437476614613 -108.112594470909016
-86.360081255287099 -65.315653611399995 -114.672970069398900
-81.234917595700679 -64.285199347215155 -118.803129888452531
-62.461287120487043 -65.836060049901604 -112.683827767145999
-75.575500836335678 -63.399867279306697 -118.500183371162251
-62.949787603551655 -64.200522583776944 -121.197169230051770
-80.831633976494160 -61.859315159553809 -119.516346544517233
-79.397322901809900 -64.326230302713697 -125.548188227818059
-84.585315600606222 -63.139472050290301 -125.722642283129687
-79.576206486686388 -61.722035826788890 -123.084636555067675
-53.487286306453896 -64.684938207594371 -128.486605447200901
-47.823261833987885 -64.728215758500170 -130.328069493441831
-60.940301452201908 -61.180049093944916 -128.926281461498604
-87.180128312783211 -62.669502005927043 -128.443733388566784
-85.874461172339920 -57.498309805163366 -136.845549422091977
-71.751346213933843 -62.898849748681641 -136.340069306496758
25.993750738474848 -64.408227259047180 -135.804037549024315
-61.611372778271800 -62.371606344539913 -138.063039038703977
-56.029499702957352 -61.762959927093235 -137.198444582313044
-51.903167540259673 -62.851327667876888 -137.093797286625318
27.281148581563414 -63.417978367592390 -136.793936395031267
-60.700622173722820 -62.953363067716992 -140.627833180076180
-91.721453616443696 -62.458289821389378 -145.168057886621938
15.184638931607200 -62.378711462666999 -149.745435813672714
-94.019996235007440 -62.055863574474806 -156.161200611309283
-100.249774466151720 -60.531132996769649 -154.794597410991940
-97.480266437413007 -63.106203212455625 -167.100887537725015
-107.553868667392692 -64.448648562780306 -176.760155204754540
-147.021740247999190 -63.430149780136631 -177.992317853946076
-138.729335988345724 -63.166939488512448 -179.009470700600104
-101.901634287752003 -64.988494173510801 -178.040098744755852
-145.261451066965719 -62.472961394874019 -192.936759223702296
-114.680486934698706 -61.413369829451192 -192.325750947641893
-142.779667275332031 -63.942114509548894 -194.546353075841779
-122.239307100179644 -59.293829057487216 -193.345994170442566
-138.917926121616176 -61.712395614813786 -198.883013709695234
-134.816002556284076 -65.454987111462103 -200.998948417809544
-112.468549069692784 -61.897655700020465 -201.925462622225268
-110.265033527461213 -62.862196087646254 -196.226941261428095
-121.049649859028420 -61.058766169692007 -197.315231632812328
-108.441085542956785 -64.499964584911041 -201.688502886001316
-134.820827475187940 -60.465874846776615 -205.509738972139672
-112.788749311252303 -61.939291861444495 -204.137772993939876
-120.382828674314339 -62.879064056218809 -205.685335171066328
-112.764221907308809 -63.795703392111903 -210.105909747974323
-144.259032121228245 -60.795032450888677 -206.137546446237593
-145.696919853683454 -63.464636178999228 -209.369535802666974
-147.278705989304001 -63.816212819992032 -213.734420239710914
-150.341725736606548 -62.485165165863833 -221.772828347513922
-124.380857245738241 -59.152227431169699 -229.331347561370791
-128.974924849714512 -63.386598370798872 -227.856116661994832
-115.462922401322061 -64.210108084010088 -230.340268191098914
-124.560328743020591 -63.401010932726571 -229.684834172734583
-112.945122398788556 -60.636947358180286 -230.431677578544480
-143.127192469206420 -62.066513147810063 -232.026773032961955
-129.998547424395809 -64.076933809664439 -233.365130234307912
-114.534919445543295 -63.800272243494248 -235.059167991088543
7.214875762747717 -59.226420240139362 -235.275832072633477
12.311542040823980 -61.919271774225628 -244.157213439902733
-8.825087759286983 -62.396346078937128 -247.315790750479636
55.834612060982877 -63.928990569811695 -248.287852638318526
40.012276461693162 -62.552692487960343 -255.000380153121711
53.459943287189112 -64.089173602845975 -252.999767959380023
-2.653852678476913 -61.844667628785800 -256.034075706403996
-132.885488432427650 -61.713618083988436 -259.925489936719657
42.109983045253443 -65.333684307679263 -257.475840687664856
-129.805315617329143 -65.793600083437454 -259.527150653667263
-119.398837766196891 -59.433228164248852 -260.807227640409565
30.960080419743502 -63.412037100516429 -263.146502432859563
29.203259651347274 -63.451711602912198 -263.792398777265817
29.325867518596073 -64.362102945313353 -266.802847321891306
29.129999950852216 -63.557676263574670 -263.929147169821078
-146.418432335261400 -62.280174493595240 -281.601025596421835
-149.617168462263919 -63.719239914751853 -287.157835717587432
-148.060828338317947 -61.234865229768069 -288.041984547021912
-145.559733453903561 -59.189309480380800 -291.754693093690662
-139.043716087556930 -63.944665951326741 -289.096479110417874
-152.959983010735527 -62.306415667371795 -289.880402609428813
-113.098346531349193 -61.705578445587626 -289.615358797844010
-140.915509489283892 -64.313874591286250 -292.039398051105763
3.550830560108839 -66.122243732583954 -294.386321853424590
-142.707757539774974 -62.959771744902980 -293.102893365038767
39.474051921693324 -64.410633389380919 -13.908923867310481
37.944081874539748 -63.014981398950248 -19.351842501016954
33.339620022108569 -68.031532605389629 -37.798366448301394
36.452255684011455 -62.281467139137284 -41.255660651213063
-41.077771152829612 -65.817494493490400 -48.789638394103001
-29.150633677345748 -64.041104251520153 -49.076967314174048
-11.160060967495081 -63.899194453512429 -59.755091720841840
77.688182994650944 -64.938441090255452 -63.011729706544408
76.089563305968127 -65.853983812426179 -59.262269266520967
-9.520216674167461 -61.143201853967234 -63.416183642403190
96.464283972007976 -63.085633643230480 -64.208155601838939
67.707469624527363 -61.924817578066239 -64.596000307885873
63.535482710264418 -62.874295303109321 -67.971485821205704
64.615496138360569 -63.984311081171128 -73.895444118621015
-44.507703790925561 -66.718759057568519 -77.211469924225355
-53.468427238483926 -62.794011266987113 -84.398726592029249
-57.337718908914056 -64.142650958742891 -86.979521685016636
104.972001970719830 -62.406613042827999 -90.764800877515000
52.442799963268669 -63.117194349194129 -93.888981418923919
59.077100507663204 -64.527848450225349 -92.811488309710569
-76.191545718446193 -62.402623046075426 -107.064779622514578
-78.895682086683905 -64.556969720980703 -107.978610812646139
-95.723868749163415 -64.071069034503793 -113.009242131350817
-78.937958937195020 -63.347914193484691 -112.238341868886948
-77.850973376024456 -63.381146338897807 -118.940521801608782
-64.144194781252537 -60.967107289426053 -119.612125767667209
-58.294862502964904 -63.315671151548628 -120.564425074719253
-66.053386553018072 -61.984410076560543 -124.478334795788101
-81.922258099424596 -63.702639639711997 -128.599901431837651
33.947511708590937 -60.226769881848874 -133.036626159851238
-84.681538735410527 -62.808709505154589 -133.955472473959674
-92.443200771321813 -57.315976926587794 -138.859783760070457
-85.849183895428439 -63.387182497984490 -139.626750369780297
18.361288871325286 -63.222510055561173 -136.642928675647539
-88.289182040838440 -61.650340315718495 -152.105067733899176
19.135858143292857 -60.871621236869245 -146.944795161996922
-98.757110745292792 -62.998295693724678 -151.312526900962666
-98.325717079400874 -66.147530479102755 -162.607962939223569
-108.118449108890928 -58.693275459632837 -169.135789695855692
-109.028601025802971 -60.469683007910923 -179.032764038526523
-106.423493690816230 -62.493402777549619 -184.324518746520710
-151.489513984538036 -62.563315952385715 -187.578974072241977
-144.322674367157134 -63.729939882185249 -190.024914125513789
-142.640535673133996 -61.039180540770865 -192.398099221482596
-107.164224202249244 -61.723135700181132 -191.400256525291752
-145.976659698007865 -61.071260332904075 -193.716791487355692
-132.285609701824768 -62.804290610147270 -196.563028120021812
-110.395145558640934 -64.422056418642910 -203.120060591324005
-110.337304990774413 -60.091654978623275 -202.289174833568069
-141.303454947729165 -62.407565281504105 -200.177033983123152
-119.415195288537177 -61.457636061552542 -201.647885780218274
-127.619856477759782 -61.745458228473971 -203.026408745853018
-119.707305715047511 -61.134235426323613 -204.995668923611589
-132.108292629026948 -59.657670465827010 -230.244167793175137
-122.594243151776965 -62.937676166474667 -232.502157651730784
11.558093354608397 -59.646649680216285 -240.639466248793639
-4.779988531286055 -62.505924607739466 -239.876460279987924
17.366925375503307 -65.389355851680591 -239.876468324189574
0.381892309758161 -59.911997894931702 -242.340962283839559
-0.915753890001767 -60.891877608247292 -245.471794488131678
-153.290040150639300 -60.851827922835049 -253.876023215314348
45.955557416132862 -62.932639269215073 -252.229679957498803
-0.769239361888584 -61.584726448990487 -253.340530891950579
-151.725268618553429 -63.767935201313776 -252.942595397175154
35.786322657074770 -63.369768433434366 -254.003447068719282
-145.153905505127000 -58.694859290269328 -258.064581140131224
39.511068602860533 -60.840342832941644 -252.842454346721325
-147.292531826276900 -64.743744382133855 -257.351772289064741
2.595485309149847 -61.155598917157320 -256.820938896646624
29.940268679684110 -62.434463372054985 -260.246805479262434
-153.991285538667313 -60.087630336965070 -263.605787980142281
-153.540307495637023 -61.047291608337567 -264.414432717174748
-147.405131076292690 -59.987109566223104 -269.365906485687844
-140.185284348912319 -57.676453616047816 -262.211582082116706
28.282531169520496 -65.190793498555806 -260.446416237667393
-150.927542025216582 -59.395180589209360 -267.995327682890377
-145.297334016247333 -59.071189376718216 -270.946801759409652
23.698398006124393 -62.557820133534968 -277.057716340133140
24.466345164188184 -65.452302913167756 -280.334389699591952
-148.638243008501007 -63.234677797833413 -285.533070450550895
-152.004395163100241 -59.464823813692725 -285.659950545235290
-145.653508137396159 -63.131105804666717 -288.470180554601257
-148.757342845719705 -60.603891210768978 -289.212321499797497
-152.854597135584470 -60.304938925341681 -288.030338943891934
-149.753195217728660 -60.172329363950382 -289.711466159185193
-143.922823347015253 -57.342059846471145 -292.572535312989032
-142.359695836064390 -60.672847365648472 -290.167299185994864
-147.357492208205969 -59.141947345163956 -292.215808863975781
16.453414374497992 -62.159087954396391 -290.928930996344093
-144.343826986460641 -54.714779810984105 -296.229459807775868
-148.275069096178868 -58.985392289195758 -294.212344206131490
-145.103923458349811 -62.932403300602324 -295.081969593126416
36.629682145491579 -64.821791115395598 -18.548444739846886
43.094234728150411 -60.007012844321032 -24.272172112422041
-55.991369626978965 -58.612806071711383 -44.451003861457636
-74.065478807244233 -60.912506320262530 -44.907066095568766
-77.624547709137389 -61.348719117304960 -46.729771984895066
-19.565883122289282 -64.339361765465497 -53.903191896181063
-84.929302221750234 -60.627026142304850 -50.167360642812902
-93.402342601643880 -62.467960066149196 -59.460438874465162
-27.881614936988978 -61.977848218799082 -72.407829223102794
103.056694800104310 -61.497457889347139 -72.212405766601961
-53.649856317719696 -64.417657596136252 -78.758813643821071
66.599270499081527 -62.523690989328514 -78.140467442005360
-59.227292626911009 -64.061544800340556 -82.482707115487500
67.511365046055161 -61.374892548942498 -84.912657351508557
64.152298310215713 -63.488721543897057 -86.260278336500562
-102.723713890362404 -62.038333627417018 -88.172680863379014
-62.324918806751356 -63.658000388357429 -87.771264387907138
51.914774445166998 -63.316687084234950 -87.202450588191851
59.327671171555380 -64.167285553342765 -88.287179634902628
-66.699243603283350 -61.762995091860411 -96.112343718328646
51.858596673505573 -62.804419767282788 -96.199173726231521
53.571962094527819 -63.238578404738846 -93.248153620198650
66.409291961176550 -61.123856914573729 -96.321573390388835
64.429348573497478 -64.026187746554314 -104.260240954594593
102.622941016457105 -62.339615422956392 -101.619945577643676
-72.909162148916252 -60.940484208357589 -103.302183087383895
-75.641171596245528 -63.875064657643762 -108.661297578304897
-72.084815601452718 -60.966479997670191 -108.348855698396505
78.008219366323843 -61.546444884578861 -109.536707317224597
80.192076147644869 -61.651492781428061 -107.926626339041320
-83.727721457139197 -62.855762125327111 -111.375153965599480
-59.939944626152936 -61.460371692157707 -113.352944984123155
-63.777494998830591 -60.933819544017432 -116.323980095547597
-80.224708453393120 -62.043036662580619 -114.508345615471285
-77.368740878149040 -60.659351780533257 -117.111487931342680
-61.726428425915429 -58.690557287599823 -120.672612755574477
-57.888919971938549 -58.805816367803338 -119.907832099301743
-72.543821256414631 -64.287659268121757 -126.664828072020953
-75.270041942713121 -62.845910346389132 -125.467203772560936
31.774544176447773 -62.061859156854183 -128.738201523847266
-80.046553980224772 -62.646881454165666 -134.135496176279815
30.903679893979906 -61.544664315451477 -131.751824211834219
-58.565128396765502 -59.435626566589690 -131.657706960454533
-61.066700956935023 -62.484335782313089 -134.504315306039103
32.295528328585689 -61.503181438392566 -128.629768432870605
-88.424787709603422 -62.698805978843509 -135.170908726800974
-53.155498874318113 -59.520053369086618 -135.480194478848830
-56.510859902031655 -63.130073852627675 -136.923662382515033
26.673455379171536 -62.296376332199486 -141.428647933348003
-91.201210217891344 -60.280328175796207 -141.972355490389702
-93.001852897698043 -58.908985261402051 -146.052235802760407
16.781182885106691 -61.957285819204301 -140.864189564967916
-95.020388455857969 -62.176335936433773 -150.039656826912648
20.540362690427585 -63.205099903163394 -153.191370025524236
21.492702834432855 -61.036715246013749 -152.779230549993031
-96.149564433745510 -56.975692496058258 -154.545046243929733
-100.662189138909028 -62.151282692077096 -158.357906606669388
-95.580658217398778 -61.386239838673959 -161.884511092464493
-99.546093208229038 -61.885586849744300 -165.520479130970529
-104.375148790038111 -61.191427920874126 -171.455755245976746
-109.135158414616427 -61.429784716078416 -175.526657022064711
-143.936073891907569 -60.120368031320261 -180.307580498011447
-149.112978203230199 -57.703159115516009 -183.907788382561478
-143.678527436457358 -60.373915252330882 -190.371604273184374
-131.281926454256109 -58.686801146133163 -201.390170787082354
-124.249117726087775 -58.282683159446357 -201.230137442023533
-124.743775687573816 -58.860939680171036 -227.718616726815952
-147.667957246925994 -57.662557368750150 -230.670399052845852
-154.781024924839272 -59.857491345494743 -235.697682716389977
-137.122658539917211 -63.008380685169179 -233.525885552275213
-148.427150018825643 -57.698934850863161 -234.581248809489637
-144.110671727164799 -62.629557137603008 -239.153423509361090
3.330592960021789 -62.107621057700165 -239.343280984276475
7.132420523627204 -62.014996447043742 -239.222588800105086
-4.464471214099650 -58.978317860765536 -241.098587842132901
17.065906750765581 -62.979201059928791 -239.991820329175255
23.660412489797608 -60.797855172940970 -245.280135097104875
-142.271105783599495 -58.017986032037449 -247.282280362026398
-3.505357084469491 -62.564752813005292 -241.579425387311545
-6.403556184278283 -62.577402476094292 -247.265671143115668
-151.929299980931944 -60.257619543629218 -253.243238411292424
-144.264498603344009 -60.923819708146524 -255.427437384134720
-141.444387346019823 -61.957859823066315 -256.881591306285259
-142.518230886932997 -59.747443387776414 -257.909263463009154
-155.821183931626507 -59.424954236041955 -260.484449288029282
-150.061368271530938 -57.726743350648889 -259.039048211310728
37.700728787402497 -58.693562828934837 -253.469208558896270
-142.045342884886907 -59.971277592751925 -261.114839267604282
-155.152799356080124 -58.630117514005612 -259.503429699073308
-144.200162357720899 -62.400325777653457 -260.554413104357025
-146.108232058806266 -61.308130593689782 -261.956430337052950
30.384600381064903 -63.893700433077328 -261.493482233878467
-143.331668222417932 -60.456736461464125 -266.272881127331516
5.196468280092969 -59.953721626933017 -260.421195311655197
-154.414835181021459 -58.594963988881752 -264.953275091477678
-146.870347989935112 -58.730995838986473 -266.473050221574226
-145.806269872612546 -56.248654627197915 -268.043035241972518
-147.380076719569502 -60.877212823900017 -270.191932344359486
-147.457469743131753 -61.543169889113635 -268.056772074644641
-147.625662420990437 -64.339687576324593 -276.708628445071781
-144.942417415478985 -59.303783951385590 -278.292143521398373
7.629539384232629 -59.755896908662443 -279.625982764033893
-150.382170125767971 -59.886003152063900 -283.154368380341396
3.414796331382995 -62.244117065387734 -279.565033182700233
19.343467545447957 -58.851866578876354 -282.052557565297661
-149.763335890151836 -61.971244529243798 -288.675738029065826
-146.601265824121128 -55.691120599981126 -286.830288953303580
2.501602458405138 -60.680925650116485 -290.241275272475548
2.299709473683972 -61.120705490954848 -291.024313065913930
-145.522501368984962 -58.152456527945752 -295.899156330796188
35.630675135830685 -61.894605503286726 -12.323770157600617
31.523455850860230 -59.565291515665550 -15.462705691507534
40.827219249952520 -58.961655392870171 -22.100143962986650
27.886356479001648 -64.098147992102952 -32.570428451572788
-40.378636876637813 -59.862124592772432 -45.289943950139971
-13.612477212092006 -60.543615662590156 -54.117992983829573
86.306711267359177 -59.231904015297289 -61.504812693959671
91.481702841368147 -65.189152139639390 -59.656844075119018
68.426311453777714 -59.804937823174598 -70.136447527319490
-98.825043088311560 -59.993887250262667 -76.612957060572001
-38.280145532977016 -58.079687783665172 -77.246631503173063
60.729359613507896 -65.498562654310234 -79.143197388827474
-61.045559868453992 -60.956360041813582 -84.978188472180591
66.305699125647962 -61.908024881301138 -89.032811118583510
-63.990227269733751 -60.484770660456476 -90.859550117542426
65.813324835680049 -56.909208832747304 -92.374738366365762
-70.301675276923504 -59.281539867698100 -92.289473075568964
101.685021567462584 -58.997169795305538 -97.449798572353188
-63.076034684158998 -62.413567075795250 -103.223527108811027
97.906957330725476 -64.233271255916137 -106.699168810864791
75.468817182912190 -62.406504907145127 -106.509763231592956
77.344937848860212 -62.547171225157598 -106.060011261498602
90.072820252335973 -62.583255560046680 -106.181235409375091
-85.327095319159881 -59.431241548671650 -114.048002163672720
-78.233130124637952 -60.722648984249304 -113.702650011907906
-80.630590911062797 -61.982626151146967 -115.229811510257974
-86.349531850940537 -57.160414108910992 -118.815706980424380
-79.788208165570509 -62.127359953464186 -117.806015918186205
-94.924247968321538 -58.279666944459301 -122.151284312564087
-76.065879916537369 -59.531293816659073 -127.679500549441542
-52.315284723702177 -63.190880709884659 -125.392735902826388
-53.891127690842808 -58.239124152633352 -128.950642369623154
28.222483036875349 -59.246061248032753 -134.358546002469637
28.802115646626842 -60.339915022936971 -139.454729816698347
25.455075752959772 -60.887869679925522 -144.984377410704468
-146.264726574594363 -58.519545481775715 -175.418498834655111
-147.537312922290994 -56.450510004559170 -179.138250040564202
-146.629988110305106 -57.648637865618568 -179.679068130811856
-147.505811412359833 -59.038686617971372 -184.521950361827948
-148.458749745769666 -61.571235988569626 -192.268761337433972
-123.704962504576343 -60.955850568524291 -201.009655333926219
-143.188698423645462 -60.422312174677479 -207.152374268117285
-149.178529998213975 -59.923240453771101 -212.016484720605774
-150.454728154181225 -59.273801169042287 -224.461706842003593
-144.436365226646444 -58.012126452974421 -224.271941575724469
-153.869308186537467 -58.194417114048747 -225.616774617925842
-145.518442340234230 -59.175457751856200 -225.687038602704860
-145.515774604007362 -56.753717387642077 -225.367055055873294
-152.666731345844624 -58.466293561574503 -227.578892432022400
-145.007203980381291 -63.333669881348001 -231.339976666584448
-135.700281620802969 -62.625301199632837 -230.642038922229460
-147.320040816091989 -57.477323163343222 -232.975260656523204
-144.862596459262278 -56.911856469438760 -230.304621879468186
-147.569897899291220 -59.075378197767371 -233.310817011256660
-151.363483647455524 -56.505147883100115 -234.450536985241143
-141.276885366479661 -61.524227741509677 -235.921648507982326
-146.760961778003804 -60.582753924399981 -234.685798047200876
-143.194874922128321 -59.325445671698198 -234.830957430679689
16.482717575740153 -61.785441432064161 -239.763407720502414
5.913561845693032 -61.424981054541298 -242.138219416589862
23.948369018739687 -62.090806303932865 -247.008315549266825
20.721535681795544 -59.212269110405224 -247.544863992783945
-146.465414178150070 -59.613578645520995 -251.596579575600998
26.057035139488892 -64.409515175436184 -248.472349219610379
-146.376856235404460 -57.843840209239580 -252.931535490713628
-148.622630959089236 -58.586013791410799 -255.426016032355875
-142.865297192941398 -56.156415261562529 -253.401345800342511
-144.740291893512563 -58.932852526977079 -257.180858748339858
28.533782931514679 -61.720899236623829 -260.824195883004961
25.732672317573140 -58.217595241217495 -270.791308355910587
16.895332641691908 -61.834971346608889 -289.721662842534840
33.639930492075926 -61.805798353367763 -11.223783710776448
26.372336001481699 -61.854449113459005 -11.811254211176959
49.172675252199852 -62.247107118043914 -21.477341989029306
27.374547213549452 -60.189739774370032 -25.495002869732012
50.401228807786794 -60.781466933668753 -28.507093873218750
28.543495529431322 -64.093869307621418 -36.508945933024378
-67.563895871058406 -59.340069868062884 -44.672978610491732
-42.985295857513464 -61.753762810340291 -48.025948344054498
-86.700575569580934 -59.973389983335601 -50.032016185190479
-19.102094085713073 -61.268087786599509 -50.321886470857457
-18.776115082242892 -59.904529194356321 -65.509441683643303
94.098588290818142 -60.251558254620477 -63.022168993651256
-52.451802048951521 -61.434650210146444 -76.601264360285569
51.507573127969252 -59.870853829365757 -88.834466694816570
53.597802103874415 -60.558272913150212 -92.263753401351238
57.594175964996523 -61.050398595085824 -95.116324169780427
-64.576856465777453 -60.006150097174604 -96.646908527412052
103.658221488406866 -59.321551849580665 -96.629439193413987
-67.599203436121996 -58.036960177533935 -102.535524195478700
-68.119255098728459 -60.370489105487287 -109.720798046840429
-64.802861725020037 -59.715975960499378 -114.998701044361525
-81.577082820143815 -58.167826482393686 -113.399222456874952
-79.884630696934380 -60.067006972021844 -113.481445697688486
-81.732520905310082 -57.497693545395549 -118.381294380447599
-81.202453837945356 -61.994430151187267 -123.954985698712875
-60.201348245716886 -58.888180455810286 -123.394200697548428
37.080648982830056 -59.445292095748400 -120.949319983253417
-79.549186233534471 -57.624538986108163 -126.880777796666706
-51.203792093711954 -58.984942107419791 -126.794551949273711
-51.360835172306679 -58.296646385199786 -134.790299204229910
-56.842762682593147 -60.725971127353951 -130.323067187305014
-59.578000046528174 -56.457121005367867 -138.141469061006347
-141.115831083619440 -58.457097930205663 -197.495573779025420
-146.203816641118891 -57.305288428031254 -200.383658034397371
