# This PCD file was generated using the MATLAB® pcwrite function
# from Computer Vision Toolbox®.
# .PCD v.7 - Point Cloud Data file format
VERSION .7
FIELDS x y z
SIZE 8 8 8
TYPE F F F
COUNT 1 1 1
WIDTH 785
HEIGHT 1
VIEWPOINT 0 0 0 1 0 0 0
POINTS 785
DATA ascii
-136.232565918587454 -68.138316624378660 -267.899733438750047
0.472666381988976 -82.110330215096099 -263.839548168138833
-144.563229524275243 -72.613258568333862 -270.664058939848189
-135.699922070183646 -73.936378992428274 -271.673056065274636
-145.240743972475258 -73.797336580403623 -270.140826859316064
-143.705392395385246 -78.847559724705974 -275.385624926996684
-2.762654443327420 -75.589479160222652 -267.310364602624929
11.778167949310003 -83.547653348895352 -270.846992541088468
-142.962809053931664 -78.035955889929468 -308.943638884014490
-143.887793696346307 -80.019471107446776 -306.543280896729016
-143.111196394844058 -68.921616113480809 -305.044731189144670
-59.017534336845451 -77.172218172184273 -86.469325823521700
-69.321551049478870 -79.062058879602716 -89.084484923103361
-46.240813814678056 -79.290489496012214 -84.717485156486973
-54.732323375725521 -77.488654245589913 -93.990321791599953
-90.577777329099860 -81.013755218308418 -95.879381382405100
-59.936466116909607 -81.272054982514845 -103.013086846172641
-71.395648536142772 -80.234395816575557 -101.121534735472409
-28.397239928515482 -74.199971802706699 -186.226618516588218
-67.763507162152450 -77.728376723960238 -217.188345601813666
-62.804773480562424 -77.762503618960949 -211.328972036350535
-144.668550808735205 -70.712430999020029 -223.920827333506026
-58.706819172132832 -78.349912153185045 -218.593332833037294
-65.906336662436388 -73.298666215711208 -223.959425224498176
-146.125617908711092 -72.133696346451359 -228.999977166649842
-150.074464180401208 -71.792072407030560 -236.566429593703504
-145.322580064527045 -75.089000072488886 -240.389876690885870
-147.201042396807395 -67.531885437104791 -238.942807862648493
-138.692291454614889 -70.575998741353203 -236.637286511854171
-141.512887318689707 -74.798445475638403 -243.251979881368783
-142.364334940446810 -67.777153995585792 -244.642087383254989
-150.005516516669417 -78.583230094248847 -249.509608704699701
-148.908062079545516 -77.185314864202468 -252.914103182500867
-147.704280692971793 -78.241929012714991 -259.417727097782688
0.977202270817394 -86.008939260111219 -263.282165272089571
13.922361515589317 -75.368337211691994 -260.160904181264073
-142.478472681090466 -74.761006485561325 -268.840527344340728
-142.059906330397496 -78.030564021726164 -270.743867597317831
-135.036831288634261 -73.952428600964993 -270.349706083768694
-145.466143746314032 -76.207723208348966 -270.851018925962478
-143.952057724087979 -70.193729758116206 -274.408650091808909
20.616628722316197 -75.925959934984235 -270.138966054452112
-156.229340291390088 -68.739231532180497 -278.740758055900756
1.088074580886175 -70.412454009919927 -269.063092655165519
-140.211711154269949 -67.814126633338446 -285.616920633177529
0.991039377675470 -75.611806108440007 -276.652809444331467
7.859832110717949 -79.163069542105234 -277.641725198709992
-141.302431631488588 -78.421709877238186 -290.901917115783476
-141.518733293209920 -74.857636621364918 -298.901565272501898
-147.986996498136762 -78.623918627267173 -295.898628640036407
-144.640786650175585 -73.872747165349352 -298.238199624260915
-133.028920193527426 -73.433109000248905 -298.648564855809013
-141.371840966961855 -70.612144879403544 -294.097731371855673
-137.121179756609223 -72.172577675635537 -301.338275934191529
-140.452752735713887 -76.627841444714790 -302.413503978573488
-148.803069966212348 -69.958692238484943 -311.217470613556429
-35.820718376870914 -85.866509898431332 -91.898967845734489
-77.376120514054293 -79.361944678061519 -86.751986834108678
-58.438946240759670 -75.684912859708817 -95.008107404800057
-44.219411253982919 -75.113408115312353 -91.154314598300658
-49.231280129220885 -84.312139702423934 -97.044138704172283
-87.905870319789898 -78.237751840781584 -100.159498743861562
-64.265576697021402 -81.841731823810250 -100.969846403452578
-63.696219224958220 -74.806379750440854 -108.698216100233836
-95.367858232545188 -70.314777313247532 -111.496156882132624
-15.928125504169742 -80.634841136426900 -186.061267233615581
-25.317486261049254 -81.335277121856748 -186.974671227978348
-18.171720190544896 -80.114991530278473 -185.505996009183860
-26.301683894524210 -72.072045574080619 -199.492909853178674
-149.796660040285957 -74.685163978525537 -207.358845027165870
-41.950096542328339 -77.629033332465809 -200.882198479764895
-152.818664857420174 -77.580747879577444 -210.212411274669620
-136.665526095527042 -70.420262133822519 -212.434895455261000
-149.784282093753461 -68.198003669788989 -208.432317635939398
-143.893422452112191 -72.234081241650301 -218.182931866871542
-146.265543850092570 -79.337590250583162 -217.030513724871980
-50.793393701861326 -81.638307607129548 -211.604229287752474
-58.803565624668543 -78.435019726564846 -218.947891335350732
-150.725587606069325 -71.243870812102770 -222.852785971857259
-152.703917932385508 -77.090859979861960 -225.637706428545982
-146.573622849573781 -75.031082318435665 -238.636609198346861
-151.212271438565296 -75.168494754841873 -241.150953476874236
-139.317570030018487 -73.350831124002369 -236.243078883164799
-135.033578343690579 -77.136182150774914 -238.170245087558385
-133.184353548068202 -68.019343108976670 -237.948731827578371
20.424289340947951 -81.267161678051906 -239.042520448175367
6.760124524898094 -76.163658586981370 -241.050104717189555
20.454588353809509 -75.305336014888212 -256.144218172115472
16.543599751800755 -77.660625496765249 -259.641287137815311
-135.816302243234077 -64.959612455554591 -256.038518881031678
-4.168016685905741 -80.156129291073825 -261.568517782522463
-146.523774742555190 -74.434706400631640 -261.931380483779265
-146.480028419574523 -70.529019373604967 -262.913696627986667
16.966368117284873 -70.701119936959117 -258.651936885931491
-128.100264074493055 -71.909188961497009 -273.288447647870044
-143.511176410325078 -81.598528907514634 -277.228149886158178
16.173272293664709 -74.219461724535890 -267.321849482825996
-143.938062499307790 -72.274685528085428 -282.903813059373761
-145.971676278090769 -69.370837172112914 -281.131877599566621
8.038630248407660 -73.429977368559094 -277.141030308444385
-137.744412232015549 -77.321167986085626 -286.383303255673184
-145.706367409980544 -73.691911290695259 -282.264082971407561
-136.790947308620957 -72.199171101101967 -301.523572895614677
-67.310298816224559 -78.256578947337488 -81.832044917634548
-67.868719111505328 -74.550888958398929 -78.806301028342915
-53.431573724873381 -73.905745791331114 -81.280103636769681
-66.112513666714506 -75.271508693255626 -88.298271207493727
-42.861515699683899 -77.712784905743462 -88.439522668901787
-88.942108208128644 -78.794539713028598 -96.072490095080880
-88.018575571572597 -79.007146535457835 -116.488631734923430
-9.609727298735503 -79.813017107318117 -183.403699083616118
-11.849983265663919 -74.323789952171325 -186.366241747918593
-33.455835314955408 -74.891909110388923 -191.704690985955722
-147.816829444154763 -71.788149139633191 -199.249347125766775
-45.814296223133816 -80.465260794054529 -202.488019542892062
-45.806005139208501 -75.989450277487265 -198.411907280878950
-29.963320887427457 -75.190191629190082 -197.051904592477968
-146.997220098548496 -76.161096735643113 -213.282059809039708
-51.613349078292394 -71.255658049367582 -202.359458199103926
-143.645058396955420 -71.918710892411482 -205.291858312783546
-124.081728637055591 -78.185040005102564 -208.241478737266931
-138.100384171756673 -71.845954405102745 -211.055433843966597
-42.862951182326761 -82.180959723064575 -202.492270754740588
-59.205967787328042 -76.500270652764812 -207.525225532419569
-66.816582068919757 -71.959929837335324 -217.540918589277567
-68.221223799695053 -77.263178582608958 -217.934213544192033
-76.415046722639659 -78.995337349291901 -221.693371180230855
-72.488207079536096 -78.534498215557562 -221.899536061774171
-147.106954317333674 -71.351277344276895 -233.842209081545093
-151.736573420039889 -77.256256352749347 -235.220496045149616
-145.290180337773478 -60.895023654853823 -236.368943380457125
-148.399594338048018 -74.575203913457500 -243.185850113530194
-149.500064346577204 -71.661969299277601 -243.899039786332139
-140.317637716958302 -77.007398650255624 -249.772316743239855
-146.003945799470472 -70.400488343293318 -245.845623347049354
15.301240436356460 -80.071227815261238 -245.387735161012415
-151.042662764638635 -67.200548695731044 -250.285459010447084
14.979733896790997 -77.801509150118051 -246.773560595972469
-142.931741440707384 -72.060452663508897 -252.541346434219520
-148.673072896629520 -67.883608401729859 -261.239477102292653
-139.024923334914376 -72.391636299492092 -260.417438089770428
14.935323079264306 -74.946499613799716 -251.909312025980626
-127.960232200697078 -76.812679657641539 -269.695073473360480
-141.962453213487748 -71.386605449466600 -268.030355137342667
-133.294026970942298 -68.431538788537495 -276.414978366219884
-5.614681257272625 -75.433296522462712 -271.752493744585990
-148.426834987107895 -70.684184804647003 -277.562744638354388
3.243029907050282 -75.702908291043329 -280.527884923179442
-139.124802603824548 -62.455682169238294 -302.111022738314205
-71.805033378206900 -79.613452857949738 -86.842545684808982
-33.833219030475348 -74.367886794427562 -93.261859279026069
-85.258845383238054 -76.668449177367251 -85.438331492560422
-29.794451024129224 -75.856282437241944 -87.159134217403533
-42.019183434644184 -79.703226620898732 -95.811886682042456
-42.998068853040991 -76.536749399147197 -94.928133111405131
-80.836471364815253 -73.759202709986127 -115.114737100869561
30.614932745150000 -81.769724171373127 -125.756155942345842
32.184503044589100 -79.477175839081355 -129.148659247904448
33.740876914387442 -72.847319832968537 -127.875700789526306
34.054659086922427 -73.094659808555946 -133.381145891224378
33.161313555659042 -80.855500733033736 -135.759482219254750
24.804958375862942 -78.731758228805802 -140.910381764463693
24.519388563175905 -73.713380686568300 -155.719040058723010
-34.793974370422134 -75.884286124828733 -173.707964928838436
-55.055207862677939 -80.338269764625778 -184.028423595270681
-49.050380210922960 -74.026530108796720 -190.711336995134616
-51.267427559118438 -73.945345187655775 -191.514232151935005
-58.970144379945189 -72.474397985175159 -193.668503199487759
-45.313728625422932 -78.802063737738607 -199.604582524911422
-41.386667805588765 -77.598247571457193 -199.367500551036812
-34.839302899961758 -75.639509335994461 -193.653895298604908
-44.159428052986101 -73.519804070723580 -200.680759798487259
-148.697810995567949 -76.945770400384049 -207.618061491029835
-37.371486515332968 -72.709090718956801 -207.961255413906486
-160.239822220918882 -70.534395646285219 -207.146292264421078
-148.945901298301976 -66.251010470201265 -209.972986033110089
-151.521977983575681 -58.110972661000687 -212.369037040624221
-143.809450176548353 -72.062622619805992 -212.236082272158313
-149.319885410310974 -74.260098974881757 -218.381661054312332
-57.480177587008377 -78.471829870166800 -211.238552958119442
-26.254934504473297 -76.760960246049734 -215.006578746897219
-143.234390343172009 -65.953748337472504 -218.260219777057813
-150.015560195687669 -74.849921630749520 -228.042025634550299
-67.037238513903645 -63.932133222032817 -221.262469491787101
17.735183649940865 -80.280801153394492 -227.311921686175253
-143.823819148186573 -70.168296058404337 -224.904907395585411
-153.005752051397849 -77.172326079628931 -230.021184720391631
-145.148139255643372 -76.127625512458735 -233.308770041419677
10.901736040381463 -76.141548048023168 -232.039792811004560
18.382522036781708 -80.112179585757929 -231.479064020618722
9.113967680349223 -71.209690084039039 -229.665294231495608
22.670684946114932 -78.790918819123817 -236.440046916398387
9.531213432850858 -72.608599515706402 -247.001980986349395
17.700417247026287 -79.087538277363464 -253.548308933155738
19.680036852649611 -89.930457571568382 -247.859552067639129
23.706335049072738 -72.229470094543203 -257.910457210065829
25.211920047212864 -75.231032626564513 -247.149868872341415
19.885845164990602 -77.414421705458693 -257.929008552906396
20.419387830119010 -77.318071285935929 -267.610655397718062
-5.950363390864055 -71.383829370028820 -271.568551497001351
8.614389801494260 -81.659089778085473 -280.180746271358146
6.757994481904380 -76.240098016810890 -281.332362147755816
11.086948795192761 -72.124159849036204 -290.876270030499086
-143.337395195271228 -73.298315340511394 -298.384899522873184
-134.271753793460903 -69.968814993020516 -302.681608969243371
-134.199198807047964 -71.562034880885307 -299.576018843336271
-144.100852611611998 -68.254991509675790 -310.000641701802238
-61.438553810009786 -80.583997435543338 -73.990516690494587
-57.039548597038070 -72.400718687085202 -71.355870905615831
-51.989415534317565 -81.595127557787961 -78.934749640190816
-76.813081954514132 -71.619272523963247 -87.162579564609999
-35.909911134539541 -75.853586387326359 -84.534929616373532
-86.621579202641414 -73.222768724501734 -94.438330783018486
-91.452800273892507 -79.308385617955949 -101.718088305360794
-56.138249533220566 -74.442835512320698 -98.268205598645409
-64.538428297288675 -75.379874079314817 -99.583814938954021
-63.992208810809252 -76.026420394064303 -99.438643299328206
-63.370312003212526 -80.043658329719065 -102.550615437103318
-65.222458979751167 -69.046077510048349 -114.814985138129941
-62.138511168403717 -71.234659911345474 -104.814456716641956
-84.524670771805972 -70.292836742996883 -119.644422306205072
35.341170282991442 -74.455310187960606 -112.433937684006580
39.753935977648013 -84.583840223785813 -120.333936114766473
25.576726324076645 -80.772921715274776 -136.045048965101813
36.993952982960316 -73.873548154969001 -130.475230133273044
29.917779523862102 -69.807513720936669 -148.898928101838493
24.057025901822279 -75.969906246385904 -142.606264761600983
-47.062542311806560 -74.292598365455419 -155.207423531051660
-51.721848066635566 -71.299251269308456 -160.737810309834572
29.925093039796039 -79.760324709451510 -156.448722942938900
32.053602568132575 -78.662558527776099 -158.893977891258402
-49.910877652255571 -78.741795801567150 -178.878852271290555
19.103134408610060 -76.045761556046031 -170.051648741574695
-42.693235863895687 -75.575999939644788 -168.339689698532908
23.689651935554089 -72.660804934332816 -172.691041797135028
-33.649332006920034 -69.717586805705793 -176.629854558511369
-62.671518738839374 -76.226065675877294 -174.401017878567842
-8.521610782845457 -79.067466423184641 -175.141379010415875
-55.790640996818276 -73.709311225408769 -181.690963162661177
-61.962279115326190 -72.903932258979893 -179.169268577801176
-54.195221789344366 -77.205685987103521 -182.041524113056880
-27.210203039684913 -77.717305733951207 -184.445734123653011
-27.533562953049696 -74.512872814061808 -188.101833588472175
-23.524285629029862 -75.815952742832408 -192.366962714566966
-28.484013879974853 -74.355722927284916 -191.487429074455008
-32.118358722976559 -82.761181549867331 -190.397831873248350
-26.306386687714429 -75.479123094459766 -192.203607198263910
-25.279781990840021 -76.700736991098012 -192.142794447814879
-146.639748092756889 -72.196276402482908 -201.946735586835615
-141.334515399009149 -70.996187651622591 -202.920944524665458
-21.227947041323901 -75.958075556358779 -195.036743900520293
-31.095619964700745 -72.790781633264430 -198.746901536615724
-40.953505180811504 -71.826652610371355 -200.257336105050200
-43.163738553396783 -75.169253592095316 -199.989933401387503
-47.094580599300564 -74.971752709169365 -208.457974475061206
-41.410567452497084 -80.129437616523319 -208.750928304248731
-137.419140972173693 -70.033806325196991 -208.618943734665521
-143.497490502433635 -74.990614978769599 -207.595762536221343
-44.626553596523983 -76.161146532429228 -208.726472216562513
-40.989357727510225 -75.333607756535827 -205.576483823757911
-10.600203768422205 -79.181731989877676 -204.729535790586624
-53.063423628563903 -70.044622959729395 -209.310114464957422
-11.742857303906479 -74.469997391486544 -210.735286115323561
-39.346843790340891 -71.871352107958757 -209.425343840469452
-53.134347931848275 -72.784469366054594 -210.240419258939738
14.411922999724984 -74.704547320061394 -213.342054999775428
-70.760848193403660 -74.540383044970355 -214.101166149645195
-25.238299926291255 -76.270370206997796 -215.459820304960289
-63.566624276233746 -67.941650513610838 -221.026700479376586
-23.693433721482165 -70.221663979322500 -206.963935788407412
-10.399626753968050 -73.291265406286755 -209.278973558914146
9.001972691632172 -76.310353919885301 -221.397177440376282
-73.376991950443028 -76.096566357817835 -220.055277015512502
-29.847259171927966 -79.882291593544878 -221.096684347665587
-82.348506244037907 -67.772936673322675 -229.181703038633998
11.564473339381053 -76.671877504313727 -220.460871234044902
18.015440586969579 -72.952010846857519 -218.546584576128311
-5.577726715391336 -69.586814387499658 -224.385351364703126
-6.652713127737552 -80.558348357999989 -223.026183845554897
8.053707301562376 -78.024169360403761 -230.731925218858521
-4.048439204358012 -76.341716351391071 -217.307259868050721
-1.989487915360698 -77.446548480308294 -230.368715583458311
-138.483052855034543 -74.692155027955621 -244.714040842553544
-140.430343532981254 -70.023620908476289 -244.409397828754976
-36.086934500232324 -75.704830179618796 -242.942281253191197
-34.124921563780994 -76.219247586066928 -253.728711614768827
-44.792256487316941 -73.309076757893564 -245.070574932066421
-36.636130759403891 -72.952351702370947 -249.012541065140056
-42.336854895220014 -76.443465398326111 -254.558389054250938
-38.960350976249053 -73.896810521538015 -255.021633751896388
7.677015786594502 -78.400834296068112 -258.780408204532648
-0.480048188859001 -75.734577945373729 -254.770784312003457
1.995604724837005 -73.785651668163155 -258.835082726775454
18.987250755256660 -75.916054899810760 -256.632869806828239
-7.393503975406077 -76.541164453090403 -262.841960426938726
21.276413529973553 -81.467667547028171 -258.646945150650765
-144.855849441028795 -69.587744069674869 -263.609428999514876
-148.462640062083892 -71.154300865966931 -272.642471824555798
-2.161119933257044 -73.871318501864678 -278.730898789196488
-144.269831183810538 -65.966790242312527 -292.715078958880781
-136.806063590662916 -68.599487019477664 -299.820204695624227
-154.486355986851095 -72.562545604690655 -301.915333773269481
-149.884419177202290 -72.291477710290252 -309.199834369570056
-151.046300672318893 -68.233235609296855 -303.405750332097909
-138.266968334151500 -72.063346122979169 -316.540997669409421
-148.400019018486887 -68.757487389771057 -313.822646593127729
-62.329312470654138 -77.919347093709177 -72.666058967881213
-74.917240370951362 -72.095433780107157 -75.345782266417274
-75.824119216661330 -76.070971757352140 -72.873235071392770
-92.921793350187585 -74.802912419646944 -102.708648668832652
-85.379259936276583 -81.084044143681723 -109.449111121960087
-82.402816479077501 -75.000378253543303 -114.377593215727501
-92.537551893184741 -72.345111619762775 -122.120872411208452
47.427885407153454 -78.095989568783466 -117.510173185254118
32.530380377620624 -76.214257462821934 -118.859780014664878
49.561363780800420 -70.165002790869593 -120.932622302106225
39.009145939919946 -83.400439997484270 -124.888434394121404
28.918453782903690 -78.620802698076290 -139.630606866898177
33.727294154395381 -70.261508813331019 -132.637619775013491
35.992841793653966 -74.398204799303684 -136.776689920616150
26.469154811203719 -72.870844652786445 -132.308805896219638
34.785898337688579 -75.533607367610657 -135.622979199684607
25.248811341153427 -73.230383188586728 -149.843981263665995
-53.303949166859134 -74.293024191968556 -158.206487636211847
25.878178858919679 -72.467580053782271 -154.916112782233938
22.423149293617449 -81.803350910403196 -155.722122405798331
-45.533306483504980 -72.067403159322168 -159.584234917382645
-46.966579184164978 -69.393341268180890 -163.265428810470183
17.353275812661508 -73.785113068706167 -159.486586184126281
-43.159708124858646 -72.537382859386980 -169.157970031641469
29.554756175680623 -73.077018279513482 -169.546375142994378
-60.059839790411736 -72.653882807258952 -173.650924678703433
-2.631924364967659 -76.413559964814482 -173.062237074926486
-35.906444180918974 -69.728989904880223 -176.867417635362642
-41.165501496361472 -81.349490015349488 -177.383747973257698
-8.637639739496162 -76.497797667635069 -170.986293169685212
21.153815280900442 -71.874515370661115 -177.053639607774869
-11.777343279669171 -76.948136730524453 -188.699176925832035
-31.112018353863967 -72.906089300371576 -192.993222431335596
32.215262682658349 -72.497790409338180 -185.361307105149564
-37.930404390363321 -69.881564540300332 -186.866571688950614
16.698475464725277 -75.953796414643719 -185.519984526844979
-52.324881337000299 -82.953320996209101 -198.463470099767164
-52.706918132381553 -71.539146015355982 -194.448458869849276
-18.113514540047404 -74.181744395717402 -185.622805597091201
-147.761673544358388 -75.210315268882027 -200.232066685250686
-23.880843336097819 -70.198369338717782 -194.143764330631399
-36.153258176496230 -76.693606979117106 -190.851307320796508
-25.161693451991404 -68.371591473457073 -193.015186667071333
12.435443324909880 -77.828794587134496 -199.439071419755351
-27.725926368444568 -70.843231885253033 -199.061505092897903
-45.953740260097156 -76.846178419009163 -206.090882807471161
-19.788042057695847 -69.599939281764563 -201.430571745458423
16.023148643040805 -75.954055773816577 -200.716168246362514
-43.444905549089043 -73.408728734786735 -204.522407805405777
-37.437249741274243 -79.745747415056655 -209.860114372493314
-24.194123494637239 -72.111479951517452 -204.974639299722924
-55.812857185811218 -70.564393620768016 -215.659540763553252
18.965835427766869 -75.261678451379055 -208.520427128834797
-65.526418462700747 -71.638724972210227 -216.244467810984133
-56.462441401924757 -68.203676934227758 -210.507331777519397
10.983975939006109 -70.644949013257545 -210.269385678320361
-74.279391622025770 -71.301523611076490 -225.828303863497695
-11.730277550595773 -66.244034240873731 -211.144326020342845
-61.478565601761851 -74.951595367952109 -214.230252661908537
-19.278100429108022 -73.872158770399238 -216.664562779912785
-62.409852486112008 -67.343285965173493 -224.477261876072674
-83.911494192138463 -70.109910707834530 -220.223222008555325
-26.153675763988780 -72.201897051230176 -224.783917570285354
-18.661213194683818 -74.965004149288887 -228.842170080130245
-21.514024652169098 -78.418473621583388 -223.604689930893898
17.642426245248441 -69.067122766882548 -224.150297446067952
-12.099534790847038 -79.943646479602734 -222.882965542122321
-6.056664779016479 -71.334927373213432 -227.973058676059225
18.781984902556545 -70.958365478149346 -230.905914997772669
7.622170948248463 -74.792636137137350 -233.991070533541631
0.301517928490895 -81.379027288630596 -235.740065264102128
1.778053555581934 -77.243138141044255 -235.122189367726179
10.518351604177441 -71.906818072076106 -239.898844462372381
10.758959269659721 -77.831403156423789 -241.881456628144662
30.229412180293462 -71.263674863516755 -240.853465388081588
8.525454413699295 -71.855727308378192 -240.469632181923004
-28.627874799107914 -74.455361751150150 -243.134106493194139
18.340448981618643 -78.116929690190034 -248.702783962764784
-26.263448868684179 -72.497090745709485 -249.497579659024836
25.990796309426244 -75.333167370998979 -248.629465603245478
-46.810638937117524 -72.165209689330212 -256.635821593872265
-48.804964230091066 -67.870964718696683 -249.252484379839018
5.600270010845950 -72.805284467270980 -251.571482778644622
5.894638524529755 -68.486655248910807 -249.794930105079573
24.434028606562499 -80.388307809759525 -258.040329891003921
-145.808751317308833 -72.834317491870451 -260.675627098850669
-148.697175700063042 -64.745815330436216 -267.094343648390520
-148.288449786893409 -73.915734990523475 -272.359384011981774
-154.145441891889192 -71.579903474787216 -264.079837794347497
-141.088008869382236 -72.388515346567729 -262.975337635885865
-152.205236778580996 -67.527383489066139 -275.817348894308850
-148.003753342923176 -68.975395070405881 -278.352039034476775
-142.297240277292701 -64.741416607401291 -278.535851787274908
-144.911089939998789 -64.153374489757738 -288.706350061128717
15.362703700480477 -71.963477506382674 -277.190714186989908
22.843798581350672 -78.197061024500499 -281.576219856656621
-3.087881013627467 -75.832698083009930 -280.993041780952467
-141.434829389289007 -69.810345875505661 -293.232115168452708
-141.515815698309552 -72.393994315436728 -295.545175393006332
9.356392539013843 -79.317316282496307 -286.311797330147726
-134.861081351202216 -72.342612561285108 -299.629036050935724
-131.851300315738342 -71.980554430240787 -299.733013403376731
-131.410928716117752 -66.168843789058684 -304.203181342327639
-151.101276269989512 -66.204308502679481 -302.396396606710823
-144.775476745820697 -70.031070702448062 -304.584870234580364
-146.435299860708710 -70.823106275685618 -316.983373226201536
-64.616781255856012 -73.629847247394039 -60.431192869165777
-74.870174219750282 -73.992882715667150 -73.914617491310992
-58.284122605131493 -77.371231832273196 -73.571365504102658
-48.243281343690789 -75.577414593435520 -70.634655792056435
-55.774565410484634 -70.921070772180599 -69.814980544167781
-37.929930675659911 -76.595057025739649 -76.343793874997360
-90.540346748292535 -66.690295117181208 -81.329454795268845
-33.723895945809637 -71.111458346779557 -71.159136533711120
-85.595538987408048 -69.663809532623361 -84.990977934476319
-46.344147190021708 -73.330746168439958 -96.021634780223337
74.471510902839867 -83.366029281566625 -83.766359833529776
38.389965623819620 -79.732502444516541 -104.242851061840909
-77.122879111289478 -72.687562231976884 -115.000540190956329
-93.603434817540403 -68.824287305168141 -108.616270955949773
44.170609990212398 -74.767302436961558 -102.852371909225582
44.516036219585203 -74.675986068645841 -106.399975890095121
44.551284798535328 -78.719712812499125 -117.297179089509555
40.627642274416530 -80.785137540883383 -119.535675838313963
31.843559636762592 -75.048347570352263 -112.250727052630779
36.310666826796691 -78.399727466448297 -120.258581316641127
43.547830710702833 -79.234836058457290 -129.411437341273512
30.448073612854849 -77.573320923496993 -143.493835353000378
32.842822529316848 -72.066344247237680 -151.496107735614657
27.491311444495519 -72.089025682760550 -153.087298055226569
33.466708134378536 -75.301682707425954 -159.416439707859809
-45.898886890973664 -72.450764120019841 -165.778520213729479
-44.693450286535587 -70.297980546405370 -159.705398089552375
-70.771579482296573 -70.975024599247291 -174.363891918917574
-68.670673943037343 -74.938097529854332 -173.298820220082661
-41.356588198759653 -76.276277491026576 -162.754324508588780
-42.224007305684545 -73.507138102068751 -168.683855091038112
23.542965889753624 -69.686813070429295 -163.085218313692678
31.782480968955777 -75.463758302349419 -161.122164867835238
-62.895303908353277 -70.044063215909006 -177.284694477029689
-10.069085919600635 -75.045394428657630 -173.130778275813640
-34.839641824158448 -69.255114864738346 -170.490086499621668
21.211574306246462 -73.776293764462679 -168.525631529716151
-35.270050801651919 -71.796239374400983 -169.747509486672300
22.284208316856624 -79.266882706503708 -179.263016907619914
17.996552659192094 -72.319674767644756 -182.224516179158826
-61.534671018658265 -73.395967835475858 -186.689747843899738
-17.206220795037744 -69.223440082485553 -186.517126421152142
-30.952216594679918 -72.964431806745480 -182.949133536714925
-5.038990374136215 -74.109034606993106 -184.731058851116416
-55.167520420728572 -74.797583887309429 -185.153952374139067
25.396358729942015 -72.641140819575483 -185.751561257261756
-22.930545233709076 -75.891603154951781 -188.026543756437349
-51.946078967479160 -66.290291941666183 -183.699165135195699
21.287868215333695 -69.017455377585719 -195.754153755797375
-53.566218545264014 -65.072329744497750 -188.773916111788765
-57.213561409950437 -76.058427837618154 -188.601292895745956
-31.519048055430645 -72.777273489490838 -193.629282891884600
-59.231182828141108 -76.818774556271478 -192.261043448311227
-28.408377727526798 -69.917559269571370 -200.590669629639592
21.105445566444963 -76.094456278995963 -194.081739706664678
-44.382179780115358 -74.245712204693987 -196.833660241774737
-28.826011437324745 -72.735556948906989 -192.362174528850005
16.420725576707227 -72.149969614101082 -196.613260385518174
-16.545917620128321 -74.749476216869539 -203.159579000427925
18.449521795294743 -78.593403335622170 -202.055045151263897
-37.964897228283377 -67.890021630580520 -194.504250059715474
-45.486492802733032 -64.769818259767874 -195.078397863884902
-43.591082363306235 -68.951154490554273 -197.049581219218197
-20.892287086610672 -73.455481018086601 -205.853166564072865
-37.775188286037377 -74.668241458961745 -201.765086702550377
15.245093204064080 -74.371632322609429 -206.408906143357541
-36.556409874423949 -78.644663715514113 -207.540455636850339
14.677917861629510 -72.104863303756844 -199.164354429332263
-17.114636576840127 -78.775605514339887 -213.664057747563845
-36.332360071951321 -72.131617034049384 -207.945177180178149
-14.479080698832028 -69.118497845889578 -209.786188353525233
-68.813792972366883 -70.977324141544955 -221.298546056731453
13.632796740042597 -70.971576068544252 -219.942704734180381
19.086725015244177 -76.625144825500612 -207.929476723116466
-0.842475168427274 -69.601236839779460 -212.486163625689613
-28.598455011128301 -68.705621902935249 -217.474098042013821
15.051917389821998 -68.229604175908818 -215.853149753001532
-9.622958478176535 -75.086609092067306 -221.516714390673627
-139.072569315828531 -71.460011164468511 -224.834087205688149
3.606624391047067 -73.904610999803808 -227.440126717134206
-17.388560856555280 -72.219308822561999 -226.376112733847663
-6.164650755286385 -80.760027292186095 -225.832657371455866
-144.735739007959438 -72.097606682045466 -227.557703396520481
-148.809912326215681 -63.552218432781132 -228.700056129999638
-24.647684342619328 -72.576670392540635 -230.780963591315412
-2.640082918771444 -71.992293745393994 -230.485059562236614
16.344177228528601 -73.067545607326622 -230.589857306945532
-136.696173258346505 -68.046443883760631 -236.553273928765776
11.595397232669921 -66.113887990658768 -234.174568092960499
18.721138908888825 -75.706201603237901 -230.632789930894234
-130.572258968739277 -64.442446762224961 -245.092463569541962
-158.018950598105050 -72.400621416947814 -248.691315296468474
-2.744068366936876 -67.432554037069210 -240.788744623451038
-143.163486644860114 -73.914723913523488 -240.541062343161627
6.619204613020289 -76.282748824335357 -242.417866387922572
-148.780902178015424 -63.498611950911759 -247.594899738846777
17.893440048414082 -74.891635710119203 -239.435794543875062
0.440834112618930 -69.174552566082383 -244.387801349619480
1.619191578901752 -75.906131596664878 -242.356998352833500
-21.532893638819971 -68.293987026444142 -248.216460923429622
-148.210446949501403 -67.435428237891429 -251.675681009699360
-146.038960025146821 -69.402532181462618 -250.258607963384236
-34.084896238210753 -69.167378849013247 -254.116897478380054
7.961905531290121 -75.732109715273253 -249.446940009079810
-55.098467928822622 -70.337995706807959 -254.625883417764726
5.697587401003419 -75.606356675025665 -251.874813257664584
11.857146315785089 -72.945397465371258 -246.722827434761768
-157.684388397800120 -66.594305358290967 -260.271433693087261
-47.194118134275094 -69.817176975459716 -253.677625766629035
-55.503333150944989 -72.412654867377825 -256.527591338962623
-9.222687393101285 -75.592731957487871 -259.480364153935739
-151.943803419334216 -67.260439218582775 -264.474970204544832
-131.074960894606733 -67.413723029263025 -265.301518025526491
-143.181923630016996 -68.461195527729473 -272.979206897308018
-11.448527629344593 -73.064980003454906 -268.651386223179486
-8.753494215429832 -70.486884051644481 -284.790246056991634
-146.599573288565693 -66.096341528657248 -286.496837992204860
-144.666680669695268 -63.854091341921013 -294.680094155387621
-147.233257550171970 -62.858789053078084 -284.635997824151843
24.269377261021070 -75.264316275913203 -284.632239954412398
11.310544802468490 -79.212212518341275 -284.219905066941863
-147.039323145964744 -72.943272787676563 -287.374622349650338
4.440289976691790 -75.292227614479103 -288.607123004834307
-130.325512764138722 -66.455223391003514 -297.175053713297871
-132.086618600621676 -72.207028343859179 -289.775865420977937
-36.339532328689685 -68.550640749165225 -292.761094062829784
-26.069263756052223 -73.704944540262090 -295.608347996245982
-6.304524768883773 -67.257277157068927 -295.138299876886038
-5.034553031974479 -75.142012111803069 -296.494042203277388
-141.907747238915675 -64.382376019581187 -303.177121171457941
16.258780565314343 -75.054334523286826 -290.341806906798809
17.133793800751821 -71.245803470731289 -296.597420199385397
-145.667243544014440 -68.930228482538752 -314.813161319581639
-142.212727609308700 -64.386986593837705 -321.406737074954663
-141.675579625987638 -68.894342707836415 -312.527828743350085
-51.026893666106510 -68.880645854762889 -67.028431505672287
-46.442019694345142 -67.160489883882093 -67.827697368805133
-78.025358222734440 -77.755648926569052 -66.684247815147529
-46.535001648807615 -71.790034714480811 -71.431527973737900
-86.924544045393873 -69.762466665181989 -70.950682207620474
-38.363966166633283 -74.477100577763949 -93.189521602293198
84.634636942682391 -83.300627832235421 -85.875815762226622
87.481621021907472 -74.431218160009223 -89.481791523289175
-49.716033333631891 -80.826922586546402 -102.085104392673472
80.326404081349381 -78.180190467202038 -93.023014523695309
85.080559860159241 -72.058281230711316 -97.856427780899182
-56.930954161960010 -70.765010458247573 -89.751853279374686
81.154869969691887 -77.468757566803419 -102.353584933913098
-65.708025052132598 -74.258142979387983 -102.397742538899692
76.456254682553393 -80.099400759831042 -97.880999137903729
37.798831916879614 -75.437314561348174 -107.398268386325825
37.333390190816012 -71.419375793129618 -126.113466684654142
27.346056509280938 -65.966444779396767 -126.757026745068615
40.729230216912796 -76.752113015090814 -132.437442691822810
24.563368740803323 -72.492283355975857 -137.221404452669447
27.913371977470007 -75.771233770917206 -133.416961722748596
-47.979903717470883 -69.858665364463548 -148.616168708157318
24.480917239949910 -71.779793205748476 -147.688604343881110
-50.152988202798333 -76.937021080165124 -151.872764795394602
-55.564637810016158 -69.208916360709878 -150.863492263434750
-49.792069299226007 -73.594146911605833 -154.465874904214502
-46.326744241717400 -69.851805759270349 -158.563071468715691
26.098081568514061 -72.703162089314404 -154.288961412454768
-66.761763775900107 -76.751581932717841 -161.365285318427794
112.032586681382611 -80.741641099746744 -159.904812953149616
-48.504481031908149 -74.581170579684766 -171.353606487061739
24.609126594816615 -73.062403166637864 -170.155111637944259
112.924640480407561 -76.846332195082368 -164.991576560257329
-35.517734893250328 -70.135418194602238 -173.706813991580987
-1.912280364247714 -70.977620715504784 -170.420859509672141
31.801900721990322 -69.697216262590842 -161.023091659841498
-2.402634046989288 -73.681153327278537 -179.801092141143272
-57.051070508920880 -71.419112161010418 -174.625676226981682
-61.210193189591884 -71.923460219276677 -177.309387070187768
-53.652940449727929 -70.419184602978717 -181.971740661725846
3.488504317527482 -77.458353586500294 -179.348422381544054
105.451731371626408 -79.508908406081488 -171.650747302843428
24.591284872569101 -72.145161495049351 -177.962902781984553
-21.847769764710101 -72.361801654219931 -186.652937170293626
-12.137380006424870 -77.175920512474448 -184.318386539957658
103.423669354099843 -72.526192207932496 -179.441858993186912
108.099755660292260 -77.501673816857192 -182.056716890942369
-49.691837654495139 -73.293243387316977 -193.811122190800404
25.862619057361311 -76.578437856182447 -188.837282023937547
-15.723312768850860 -72.666976614036116 -181.674893123064550
-19.354717930264613 -73.002469989940437 -196.514431461708455
-43.461865551311661 -70.817206874679684 -191.346906409674034
15.437775032932564 -73.099924801677361 -189.352302552030778
-143.626000423162935 -69.979127534435008 -202.833807169620059
110.130651171529877 -80.639396591270156 -193.095718240154724
13.664881227054796 -75.005501257490209 -201.079110367372550
-46.965373018610045 -76.444811071821420 -198.846381424951886
-142.642457350955141 -74.368806394362650 -203.172849119641967
-150.980020463272666 -68.410573881736241 -208.168264849019494
-41.446110399953540 -74.588637550566645 -203.511647405860629
95.934803075069595 -70.968028087072767 -191.353179327023298
-46.700200756833162 -80.231629253258518 -204.274795738117206
-13.556744365528864 -67.367911557785845 -204.425414499330515
-15.550216331022256 -68.846641198020478 -204.927091841727417
14.882837972664031 -73.415584833445720 -202.985057099602926
-35.988065644209975 -75.103111870772892 -213.481770047641703
-22.867658203877411 -78.497277216854030 -205.692565517458320
101.517004483788980 -74.011363805236158 -203.845667759429801
16.839847939120098 -73.909027183912514 -202.617955521426950
97.599948231482045 -77.999091552223888 -203.505913399954267
-149.322220247470767 -62.736596657406004 -204.105173809274788
-45.622061461264117 -66.927023254979559 -207.113419470787818
-128.498916999306232 -66.585571428101758 -207.758096666793023
16.001270284360359 -81.354986790681039 -202.583616372709599
-153.511132252509839 -65.663321589621262 -212.191217090703333
-39.669119868390865 -68.631045125652918 -209.693637063331664
-34.945872646918851 -75.782594418778444 -212.435589438711020
-136.225628241625571 -72.464812187586148 -220.012456353709666
-145.921028967047050 -66.793019350187052 -211.832459690578418
8.666376195327695 -80.082675089613133 -216.169155210705014
-145.827203114500236 -67.176880911575466 -222.589357437683304
11.926997326826680 -76.797007586098744 -212.888139286507197
103.100767277665909 -73.499500427724826 -212.875588440089018
104.434594684616116 -81.280031501897781 -211.405840326780009
-66.491615524337988 -66.578605810451563 -224.478310371380132
-139.370490446379591 -71.927912843628221 -216.995985269255584
-30.216449942609636 -68.808479397677218 -219.443017896411646
-20.792690722115545 -76.920257079436510 -217.923418847331533
-9.275084171447585 -78.037232149849103 -214.199252665942879
-31.184456419170097 -72.219549496380580 -217.070997459237987
-145.391131243110948 -67.007817447475787 -223.917490299496791
-71.840412427931682 -65.970357356359756 -211.686237478928376
7.308988456090942 -71.536069319288799 -216.841689714858461
-34.217803830060774 -71.965376885109976 -218.822841227306782
-19.666583644014594 -75.140867865362480 -217.773135559620982
-12.858643209227040 -70.993304752168228 -223.908625002407518
-93.673325030140745 -75.353124891537163 -229.416153632575174
-79.314598582917654 -73.610229084542851 -235.365680569637561
15.201622320112625 -72.692372441794561 -223.014993892330494
-21.774368495059043 -72.173365363697485 -221.196310091766833
89.617979841125560 -72.278893716303216 -224.437641925767252
-150.363287271573512 -62.841795481365750 -229.692880542616422
-82.729026341219253 -69.883689782076118 -221.911218755074344
-81.710768445809862 -62.743071840107888 -225.968415533681735
-143.520316769390405 -71.926573659871892 -232.607714595373636
-2.410393979591717 -78.261282605444137 -222.277174366851511
16.818017407130633 -67.731035519148406 -232.126342707671540
5.357293553519227 -79.243469484568180 -227.163671535846021
-152.183829603584087 -70.914499867318540 -235.171560294618615
-8.410709965777034 -74.663224374599196 -231.918220169357397
-124.621806892897354 -67.135866490597863 -243.424899817230624
10.163975338863915 -72.446743402831061 -233.491247563669305
0.754590295506883 -66.077549209749378 -234.227171209551045
6.187275401994164 -74.259840173045603 -243.940020166187111
-147.613714853064693 -65.221886988102170 -242.340226710242916
-150.676332121136767 -66.183395978290321 -246.380222702093874
3.031911452909565 -71.043554182696255 -248.057356744706908
-22.759185909663508 -67.762374170088975 -243.706054210655736
-29.167171795985659 -72.573188685057488 -241.201569629982174
3.253053899191659 -68.569533621360165 -248.341875954702573
6.029397358910703 -70.289108542207870 -255.030299424943507
-38.131695865202289 -77.340007460964216 -251.292300960543912
-147.970306764725450 -63.993782993786262 -249.525118472827046
-14.219468541153333 -74.936968469480775 -252.849200318573708
-55.662002524439735 -71.724940035120852 -255.432843508779285
-143.962957191903541 -59.611866028099612 -252.597201282438789
-46.687499661880899 -73.169072848657578 -259.661288934947322
-64.862979808478855 -72.457949802061364 -250.861432625368423
20.331484714241054 -69.808343350590732 -253.498857478535399
-144.839436551047044 -68.433838175483757 -261.614450119848186
-156.657876191939039 -67.823418950479351 -270.913072458421766
-11.824283347142153 -75.491865403424441 -260.962514950633647
-137.294202525003357 -65.374039754694124 -270.162807710258448
-145.075794691030694 -66.528802609795406 -277.871335437463472
-144.753627098678123 -70.544472003714816 -282.162811859272779
-2.326078384836539 -73.708630877016873 -288.532279318508756
-27.160086093710149 -73.757662627692881 -292.440959616481450
-47.176768303046451 -73.255656733818313 -296.539160208885278
-12.993900993985932 -70.790145522821575 -298.783515189900129
-131.957195526019746 -64.567340590270732 -298.853913552437973
-1.494204408750104 -65.697919974994377 -295.779714962864944
-121.077300512807739 -64.144770887036231 -296.572142013717951
-52.207196529953499 -69.351438717724960 -299.292598992947944
18.558695628961054 -73.933877898391813 -291.931017914354413
-122.295119581337389 -74.227875667201062 -298.375336103374821
7.683397212806195 -81.949990813567510 -295.329003737619701
-131.663659881830995 -66.963943995333665 -302.270786468604911
-36.078226432756630 -67.804545961042720 -296.486370662138825
-19.181258160690568 -65.013142143032127 -292.271949284573452
-7.545073779975212 -71.860379855366375 -301.408878765295640
1.014663034729434 -74.855128595394419 -298.456306181853449
11.666687181682686 -75.637468762193464 -295.983078751700702
-148.780148186771726 -64.864002106191151 -314.389169538079614
-137.428215517626995 -58.794321502720038 -308.972117476997937
-140.983526594673549 -66.649829153696601 -325.720829665409838
-39.009025026962007 -77.562974600564331 -73.196112831797421
-90.061228319483121 -76.048382091671428 -70.193587372360966
-25.577044479888372 -68.302398155091055 -78.218749675081440
-85.464404009957633 -70.642744584696061 -76.350303097451643
-21.341623093796272 -74.001215131682756 -78.266493531630118
89.144458189676556 -78.550443462642761 -82.430260594673797
79.826812828094802 -76.242915439493288 -77.325881635427152
-38.103150014149769 -73.873592073890876 -91.674264347358957
90.043507896306693 -80.064519674050842 -80.347989805144962
-97.576314351188870 -69.834532530505712 -92.145019304835031
71.346035114112652 -78.350225996580662 -86.319549902241775
88.304688389078592 -73.037410674505765 -79.893591523759355
-53.019716077775534 -69.662809276726335 -94.447068900510018
87.094338145114619 -72.295145305439391 -87.363981537379871
71.953281421784226 -77.981167409144803 -95.387337330303083
79.943979355198451 -77.822493128127377 -94.031502624764002
78.738635177618676 -74.332793838763465 -98.540985563938762
-70.686103785603166 -73.577340234013292 -111.510936043917425
51.612943836770626 -71.822557190660561 -104.068060681305340
44.286496330237554 -72.552981383394609 -100.022350324876797
-82.906916189462692 -70.550448736893372 -116.325568558775828
47.055738482566738 -76.905593645525542 -115.729663384196343
44.428041206432091 -81.233516610515096 -113.066957078028551
49.648653169282447 -80.416588928216939 -106.796837840509937
33.050098824203516 -77.931896638417982 -110.324051319025273
-89.346929068930336 -66.643725688333987 -125.231120713139106
110.090910798462858 -74.418291359522328 -134.906137953423382
23.800079332243229 -72.342570674127543 -136.453025474906980
30.957180228802365 -76.201525734853163 -143.625689464377587
108.735748770757681 -76.704061391057365 -143.971808802463102
-49.762130252608536 -66.389939137121075 -148.925392896415417
39.472506001608906 -74.392674867305630 -152.901505263760811
31.622023313133134 -77.252381885232168 -149.374239425632595
113.935946687605821 -85.277656517743907 -141.594024998697989
-52.356752624001153 -68.991739450884282 -153.253184354278375
117.269736356079392 -78.328310996258963 -155.711681325227318
30.898706181220625 -75.989314781603966 -160.711184935619514
107.090334560093879 -84.970595080158944 -159.223180812485481
-50.583329089061102 -71.668746382887022 -158.607464534487747
-41.312193930514141 -71.146081766997185 -167.638406953910589
-67.852880295296814 -65.095740719642649 -164.868429448137732
105.166002545957468 -71.794198853680058 -164.729442024908167
-39.723372860872352 -71.257868419237312 -172.575829324528854
21.355392057931816 -74.645027900599047 -170.481098413246343
-64.963484866326183 -68.206133630599965 -174.738059202709479
28.897121498749179 -74.661159052105290 -172.005540806817322
-42.735050614028765 -69.203716400556090 -174.290886053247704
-64.493545895842175 -67.698890853960549 -179.008408210020946
-65.541863101499331 -73.693189255683322 -180.986827623556621
19.447655100345159 -73.284503461048132 -178.798347172991612
-29.042979343213140 -70.404107961564648 -179.730836796896938
-28.484779891408621 -73.604485541023791 -184.270787249857307
-15.699131962925136 -78.695179912932986 -175.427641206248865
18.363296387879775 -70.852120412526148 -181.340036108741600
14.571540190503550 -80.985620541524042 -179.496054177255701
-38.906938245305732 -66.672706629165020 -181.857973152842249
-31.974910721831215 -69.439945785423760 -183.545197432815598
-51.903345533017749 -62.945801265228035 -191.665085374568321
-30.898975423333432 -67.905147822809866 -194.859927307095376
-19.210683824342311 -72.162831774254485 -193.136243569245522
-51.616163077019571 -74.094984194203136 -198.651372138226861
-38.930522221236131 -67.932666500085119 -199.364984981101884
-156.128655396868055 -72.405004541799201 -207.091931734444614
-48.136586506350064 -70.351906681936129 -208.029638908433668
-19.360457592914116 -72.433275409372726 -203.672990133453595
-20.086396646891181 -74.697892807449151 -200.589990625603576
-133.011577272586294 -62.844037096900806 -206.043791681827969
-40.616662360401804 -68.558798245356101 -198.768499119304323
-150.054462242213816 -66.545665022878296 -214.810915470634882
-43.461578251250259 -73.926324860237628 -212.367025589783509
24.675163810665268 -66.110300934881252 -203.110047845853813
-133.710010716524181 -69.526039208699771 -218.436185421140834
-15.347815316080705 -71.030761070823019 -208.109488307201701
-37.615608272208355 -75.745234136428991 -214.054036985324956
-12.869800883455923 -74.438916999199989 -209.839870580543163
19.900382904819725 -77.225690883077817 -214.619542604866666
-34.828495971189177 -73.831868754551849 -207.595550754231596
-13.239252943228387 -76.474826777349023 -214.277454339327676
-30.583117020910294 -65.687900790334140 -228.056806469957962
19.637541050219554 -68.997040833024954 -213.200644880054909
98.569858091437084 -76.554955350456709 -212.287512148290915
-70.125519597234756 -62.682390133699201 -213.950321097672315
-145.868291855225095 -73.446879891740423 -228.737099123709157
