# This PCD file was generated using the MATLAB® pcwrite function
# from Computer Vision Toolbox®.
# .PCD v.7 - Point Cloud Data file format
VERSION .7
FIELDS x y z
SIZE 8 8 8
TYPE F F F
COUNT 1 1 1
WIDTH 784
HEIGHT 1
VIEWPOINT 0 0 0 1 0 0 0
POINTS 784
DATA ascii
-28.534482086471169 -64.538709942069431 -186.285489125452557
-22.176923020271467 -72.632968139495645 -182.731267196360307
15.437326537468607 -68.070500861138242 -190.285735082525349
18.440249403331521 -66.749853769129970 -198.243856156544268
15.317226119684314 -68.866332694584642 -187.956949056996450
-141.413393816510478 -67.367585086366603 -188.557831030653347
23.036427282726148 -65.700184279132856 -190.978392150597415
9.010892684982235 -68.890632880850319 -197.749388201615801
-135.641782330397035 -67.012827169395820 -195.524421944853259
-112.885606672462117 -68.215454414536154 -196.483331256480028
16.360343870799799 -67.528567121617272 -202.212015192583209
-114.904233363894463 -67.491983878381532 -197.870677257553609
-106.310337817148977 -63.945199856115913 -193.291041971799586
-163.878217055342617 -69.692861777963131 -201.180316594236956
-22.848380508846361 -67.926894538437608 -201.056975075766132
14.369645741842371 -67.613116242014272 -201.273936942226186
-141.530158865325006 -68.782453089464610 -205.043306079176034
-134.334841203719066 -70.407406846528488 -207.426249686348342
-18.640345691031392 -67.381589145209759 -208.345365117376815
-10.447907748867205 -70.064966719446844 -205.561000049262503
-13.318421515551636 -69.609807388167823 -206.969377195057632
-139.367270483519661 -71.721779168794157 -205.498364178404159
-15.066840408598722 -69.395421225520124 -213.938185790277885
-9.012250068460629 -72.683778522551478 -215.277231963905621
19.028230000146998 -66.721218969169186 -212.051852463036994
-13.399241886176229 -72.335504931180452 -212.491674420151952
11.960619806737963 -69.400912687891420 -211.074263745025206
-8.912772860679411 -70.011589447139997 -216.628173829784259
-19.518462233595393 -66.564817201305246 -213.055925674631112
14.149562772836008 -73.580674074769277 -221.977365192455494
-0.099513578309601 -73.949163422750999 -220.766975484410409
12.703642985622608 -65.968846578268682 -222.266418533074102
-4.548568051019858 -71.242817081851584 -227.913629575703311
-157.302807955637803 -69.363333472788597 -226.462263781908916
82.322676043969182 -71.724168204495413 -221.082968465318658
-133.757955193744976 -67.004430068488730 -225.538418142218575
-133.537042183395471 -70.440816143010650 -224.285253939537569
-6.908563224414508 -69.997844509080949 -226.287754053744607
10.067711332713397 -69.271218992556840 -234.887958884024641
-155.397094269589729 -68.490076393369776 -230.734360100412601
89.545598361515601 -68.245605488030918 -221.026708560967450
-0.646428602263191 -68.165069380809697 -226.823430736099795
2.130496722911346 -69.964096773603103 -224.035044000567211
75.525262768847512 -72.162979567820429 -230.346904738441310
2.147618764425566 -67.289211548463996 -235.957622643436082
-13.215307176971113 -71.140146494906645 -228.204986188811773
-124.985640506180388 -67.452876229234960 -235.507560135383244
-2.743259912226611 -69.174897900706426 -237.968863605703774
3.987944795838574 -67.284918279918500 -233.068031372224823
67.564673384413553 -67.862883016114353 -239.332413991309835
-156.723889680927670 -70.124724500269750 -239.450731589922384
-10.961680468090286 -68.971561752320838 -245.795452497252768
-167.574523312673449 -71.103985556002513 -240.027655357855423
11.394958643333824 -66.907972619001967 -243.181448560295763
-163.057222200689608 -69.632205994412516 -240.215219862708437
-159.241645967900837 -70.327651170124597 -247.322441803790554
58.562325921151945 -69.656910342168445 -246.296825676610837
63.796985765284617 -71.025670395500939 -243.700261507166914
57.682578702258688 -70.238612646537561 -245.539465579995237
53.274506194349740 -69.675945693872663 -250.002522692737784
-153.922021570175957 -69.727304708341180 -245.272632315419742
-154.983888255474710 -66.750728175701681 -249.739230338850689
-11.829318472054283 -72.319879982407642 -250.495822784714676
-149.866574993996636 -68.637448643991064 -247.994598477209706
21.172830482122478 -71.069624556504266 -252.284258830469753
-168.225287444013873 -73.520017144883894 -252.306889652209975
-166.096526066953857 -67.388303813059821 -249.637387022462178
-80.624140297965539 -70.696717702665566 -250.082669169622079
-167.932497408945579 -68.745863433724139 -261.119509734312146
-83.880263595383610 -68.987010827822687 -257.940889776413940
44.049939219800997 -68.947226693793482 -254.324870336998174
23.767219747001700 -72.990951630372663 -257.349019513546864
-157.174688840120268 -69.961863564192086 -263.155828596926540
-99.311864436968747 -64.012265943767758 -260.925097132417307
40.763436762903623 -70.013846410712517 -256.858114825040388
-103.355349030335105 -75.446989314770590 -260.237418913653983
-152.591949321786501 -65.090453807050181 -266.283367494190998
-103.699307295814947 -68.307992286402438 -259.765731659073538
-166.358752367715539 -71.024823237655369 -260.945925519916727
-111.617757957699041 -70.397766396798517 -264.592580973018357
-151.798251097044840 -71.317908688118564 -267.044012716036889
-157.075057118519396 -67.699499566677417 -264.899086309537665
-164.560214485814470 -68.587360701380689 -265.101681790898283
-162.578984172460196 -67.546959183668605 -263.660601034640536
-164.225640414456080 -69.254418218497406 -267.054728542118596
-164.227609287806217 -69.813018129673935 -264.029295896154451
27.284406708812650 -71.105441081013680 -266.384284710852000
-148.356326406825588 -72.480746581550619 -264.954164352555665
-148.293637484324023 -69.099496824595320 -285.533808919181126
26.229350694397411 -70.863760003991302 -277.554472300985196
-10.171652086155040 -71.512389599838045 -275.621880771719930
-124.315114807810346 -68.377440279850163 -285.720026374398287
-134.865361483977125 -70.564656198458778 -287.390611449730841
-132.972507006910092 -68.671815951089044 -289.843897933641529
-125.369774365837372 -70.214525899154083 -287.209331030615374
-112.872786839006480 -68.595737260702762 -291.211321918488693
-103.835237872789506 -66.403749863560819 -286.886127700187785
10.782863756810928 -72.934594199654029 -293.578763496297711
-83.521564923834561 -70.531105573790597 -291.206250575224601
-147.640273148886990 -70.244983557582174 -289.668029232129982
-100.238767187081322 -69.971594405030274 -292.017535336023002
-127.778756463060873 -67.303048152179286 -293.232912054890278
11.077837529065162 -72.586563958461682 -289.302486309376604
-110.553223488387914 -64.767501670134635 -290.449802957656289
4.383214531525672 -70.417658408512764 -294.335976112871379
-141.731954399786702 -69.195641059866773 -290.132308502861918
-151.504037693661900 -70.219697169920877 -297.284761647570292
-156.547837115028898 -69.496214633808250 -315.487529893920680
-153.756975271229607 -69.081354147965314 -313.177768263982216
49.255144663405915 -69.348904852310270 -25.648279738892942
24.715460978639207 -67.469580199841857 -36.526042164436888
32.219737261301454 -68.396454182730380 -37.635037854853138
-43.501643410721229 -69.113190781113204 -48.547566932451957
-11.308006026708933 -65.536024702886820 -63.311367919985187
95.692393300490181 -68.854945269030964 -69.382445365136633
70.055340974773515 -63.634217513557637 -70.654845638046098
-22.829891420266659 -67.323472132573940 -75.479727379151811
-96.673120096626349 -71.049276768336782 -87.455626478285666
-41.141015640578452 -67.447052401293888 -83.638708219046478
62.905251902652125 -66.985044699835214 -82.467122519085564
63.571912830567534 -70.084935656053901 -86.945354550464785
54.836116536127726 -65.522099253020031 -88.615972615956949
-57.553928403680509 -66.263023946646086 -91.400677326451941
68.171203045923718 -64.077946417905480 -90.345398155446745
45.018495888549893 -70.891381863610391 -98.871403107536963
69.822809925544064 -69.379407134530453 -95.665826631223453
-60.916970383022203 -65.586584088895535 -97.119579088031983
51.489969427560588 -69.536365674424786 -94.176493235215105
47.031754512286902 -69.343978947560686 -99.387118204561688
104.687865624146099 -65.243966093738564 -101.543621170606670
-65.152102153916616 -67.262212204947616 -99.946182283976867
111.943697197686944 -67.361027937131908 -101.327553695608216
-77.684997064391695 -69.315022357299895 -102.161221334319691
55.844172652352299 -70.337825885434825 -105.949838383266083
49.351850991408959 -66.016845808777973 -101.725690034140342
93.183775591898751 -66.152377477783332 -104.797300541690205
85.847408245071918 -66.406899946563328 -107.622199276938488
56.152066523663059 -67.670222733038784 -105.538849166097876
-74.953851492379272 -67.973188011127917 -112.122479033205238
-75.467356294811324 -66.638388615352099 -115.992419364688189
-79.032167757510038 -68.606515238528374 -119.378398911206318
-91.840791390679669 -71.979634424318050 -119.467157712214444
106.258532096097923 -63.085165014834693 -117.494653722271735
-87.040974523705827 -69.668647033822580 -120.032680727526966
-75.319725956867373 -63.933801116721590 -122.328776765363571
110.904690819877374 -66.782897229604856 -116.978417197743127
-60.225166957032926 -60.233900625093980 -119.153156953458264
115.083251220913354 -71.391222226062297 -132.313789620270938
111.419044613508788 -69.439159832335704 -130.320321461220203
108.652623676137537 -69.039363517911269 -126.707273522491946
-92.074675842863513 -67.980332064984381 -138.801341842721513
-45.653621883646288 -67.638373050948957 -142.798490898761202
-77.760994274178358 -65.653352929370229 -145.525473630790998
-67.940825998422412 -67.696606408165948 -149.990101179624247
-68.874788281483703 -66.323232744753682 -148.963838326270206
-53.779600656150684 -67.027582838636789 -144.632668841792423
-45.564872442833121 -71.341457493919734 -146.951300891170234
17.778059902542537 -67.984973375920163 -147.346190564424091
-92.758145050343515 -64.618995966581110 -143.937070463000850
-44.321041728877354 -66.358534318585214 -148.278065102690334
-50.756627503968126 -61.972147434689305 -148.719631788502141
-40.700754642199293 -66.067137366348675 -155.853981355765654
28.926837129045474 -70.171452341244304 -162.800688412713896
-48.646153408496652 -68.064063525292312 -151.963741790930783
-99.034573181109110 -63.663971493018941 -150.530401787379873
-43.930837599265757 -65.041936718137194 -157.826774956457911
27.103387942036871 -69.823883255967445 -149.085834655243701
-97.147498845967334 -72.430705058359791 -163.996912852500685
24.114814541198733 -69.994984151766928 -158.579854338722726
-106.247070551404946 -65.158794473653685 -170.906982705031822
-99.672424723000233 -67.984992390731463 -164.696882588152732
23.606627976034758 -67.918861675878716 -165.881805044171927
27.604452433169676 -66.474852816040311 -168.807819628953695
-106.907599211440782 -69.855423244873862 -174.663341138209972
-140.675422656516446 -65.723438132532266 -175.697905329899442
-18.386754511927524 -68.593703899450290 -190.364717723706264
-25.984746469206261 -67.317926416102651 -182.680171217576969
-113.895612794539105 -69.071146163469606 -188.035758147748055
-142.339989464454220 -63.558329923629294 -188.170506063817555
-101.964430765630667 -65.283935891645626 -182.711636258427376
-156.571677516751947 -67.960410285912573 -191.645220040075344
-129.792100942788977 -71.941353274378670 -196.302196292208691
-131.763741581268761 -69.789796509007303 -197.280476909518597
-18.378982790858803 -66.534474885688098 -190.434124366805690
-118.866157243187445 -68.534911095101421 -199.095368412257216
-115.532927924778477 -64.807307259783087 -200.120995504907711
-25.466548830290979 -70.114041794884969 -195.556174234228365
-152.861134562009795 -65.576873323914029 -199.054638669791871
-130.759430444756731 -69.788897098421373 -205.954609442534149
-123.454823226339371 -65.966995088258699 -205.663261655613212
19.588628881588388 -70.368623414013172 -202.785653474989516
-160.523038517476607 -67.341838262661881 -204.354147666801197
12.707532682677359 -67.620995723268322 -216.275890563256468
15.412208499952024 -69.582090302703236 -215.663548419946750
-15.525339715930350 -65.020033971905988 -210.077554480599360
-3.554148532807434 -68.671589144600759 -217.388714080655632
-168.545588564460928 -65.401946564286433 -211.540009444868815
-157.603767961780250 -64.707527888383865 -214.161958173919516
-93.224390677267209 -68.041100651049007 -219.594025984659737
-97.139797412758128 -69.770538141365805 -223.897466997692135
-159.471387156922077 -68.541587311398544 -226.362812412947648
-105.005387815613318 -66.448115139493837 -220.475029390671352
-10.589126348698958 -66.932005475830010 -215.245790441361123
-125.965635520318941 -69.746370713071954 -223.486819741848933
-140.639380357581814 -68.786818657819680 -225.258427107252686
-1.642410424382897 -69.992422352231841 -222.325365750098314
-132.820102972097231 -66.631117555138403 -225.996639717831357
-122.278748245931368 -71.999606984208910 -224.357235611380787
-112.868357172444007 -70.216017516864554 -225.916152065154591
1.833743836041097 -64.094909582386023 -229.220265536554109
-105.774743838285033 -66.878232204313292 -231.882394036466991
-158.958388000534342 -63.042731579334962 -224.231951321592192
-145.185855832452489 -67.257610662727615 -228.017460138648715
-163.935879176534058 -67.495375378340441 -226.408416055000430
-6.457007769673475 -68.114572651933017 -227.748138759526000
-6.925454872841263 -68.832048667250177 -233.625143799551779
79.927178628003574 -71.029370682115129 -226.427722074719156
1.358855621205657 -70.539217153910286 -230.524856704632185
-141.497537205631858 -68.060493323576324 -237.429115359604708
-12.754267878171108 -67.097541819515527 -230.259276493303105
75.559936943668589 -69.218456308695380 -229.016257289414398
76.162835196887201 -69.381557059204496 -234.065748594726102
-133.096651667798881 -66.862459562369693 -233.709364750585252
-155.921084884069643 -70.518560943438601 -229.655035071547871
-112.712576377821989 -67.004866091702851 -234.162838867786604
-123.226718625161752 -64.239776329335058 -236.920145117457309
-162.214909284609547 -66.887047462313831 -236.157633450201928
-158.619055560887830 -68.516969702525074 -236.971800840235460
-145.242475785888303 -64.677110196302209 -235.461447477977003
-11.268118235701985 -67.720108033478937 -236.414380680281397
-3.711352789230360 -68.142524604579023 -241.534620745149738
-159.239299332083846 -66.737508925148006 -241.972385023364211
6.952482809196310 -69.628782222421250 -239.220806849972746
4.328912027022972 -69.468293387890043 -237.686062257590521
-158.611476551763616 -67.878678798822165 -240.113447959990623
18.262541997027810 -72.566290105655767 -243.233813837555886
52.262557637811035 -71.313245045883207 -246.324324858444015
52.062083437765374 -71.250199220570138 -245.359932674306748
-14.507780511222998 -69.850126872239670 -247.999232939485239
49.683349338408640 -67.954516672725660 -250.170959152656962
-160.049376262957679 -65.255253230038477 -251.432104437280373
-157.696625703848071 -68.479940267752710 -248.747546088158970
-159.091732686183917 -71.651146564296980 -250.790235301533301
56.167455439610457 -68.893052873958595 -249.709002064936101
-90.812028724351251 -67.466939634693759 -253.984351068578519
-123.491418989592660 -67.676628988791222 -255.614440042036563
-104.492608726578624 -72.440485784864165 -254.810600924697837
27.948015558608436 -72.714207825632897 -258.420133434584500
42.692639554868350 -67.190327786860848 -252.192510942761601
-99.432332193175426 -66.099157582009923 -256.133216242231924
-92.287022199894466 -64.630841637041186 -252.845341276410352
46.787014245724102 -72.805504722522485 -255.451447238386947
43.579636355323714 -67.626185033289730 -257.724408216284758
-153.590698669247047 -72.936073473040082 -259.144693748150814
31.787014475980101 -69.129210669703937 -260.256256959922496
-141.598027259536906 -71.330013695244219 -265.500246039694048
-112.176804269178987 -68.143566084162686 -263.598071040473314
-135.739929741372464 -67.450336721011269 -263.755530206156095
32.550773664504980 -68.879177839062777 -263.771753677508627
-124.915062268640568 -67.368187344060118 -264.715213458439166
-9.975504909899469 -67.778835287657657 -259.180574191205324
22.816907418283371 -72.286352021994645 -272.004189412631604
-4.453963546417086 -73.094690487951070 -266.312600059965746
20.994862307463169 -71.309004003022892 -280.867470866177428
-152.062657957297603 -70.482916722099390 -283.630803794159306
-9.722322430780395 -68.026519774537249 -281.675406612447659
-151.920570705404032 -72.081158776644600 -283.676102533140806
-122.596291888562291 -70.504421555890445 -286.133362332520221
-159.304683067401442 -74.385789463221130 -287.400551233111401
-113.549470780503512 -68.822820916148785 -288.196924485904219
-103.260922985941050 -69.267692331532587 -290.653885196569490
-5.762496000472312 -67.872871778106216 -286.294677227058287
-107.132781227626026 -70.242730100327947 -290.297368317991015
-115.301615775126223 -66.734873061732671 -286.328384361172766
-119.082504968606187 -66.049206038189794 -292.752618529845847
-136.875154306419915 -68.624437771719343 -290.949943979768250
-125.048028393635363 -66.661681281512259 -292.642735265543081
-156.533819059346513 -73.130098298520053 -291.011255051726835
-145.668255159440861 -67.069507023500378 -293.940350796328630
-155.324422832458993 -66.679279391822291 -302.934038083785254
-152.990811798274336 -67.455259704914084 -312.192068187513541
-157.148983342882673 -67.488025702963043 -302.221917809862589
-140.586948284677931 -70.053431673390804 -311.702480557827414
-148.391805074804040 -70.339306213752494 -314.928252360826434
36.930947646359947 -67.280575876688616 -9.703778733096442
48.305700785014594 -70.450819578663200 -17.122111257235900
25.637161604839800 -63.617423094830961 -24.301504051888539
51.947842800164153 -67.458255095764159 -28.098534534458647
29.676086600544885 -69.132696454750658 -35.047420933722464
34.377969968303674 -68.027832787194825 -35.300495965641232
-56.169787923097957 -62.609928990734907 -48.265242420602590
81.424318148439880 -63.524158469570878 -61.913706227796908
82.695673563037332 -68.148085807941413 -67.532525285292792
-88.812130193682577 -67.300126658815543 -63.169734524527996
-11.064446180443483 -64.244958445675735 -62.249617785438076
-90.911573528263858 -68.270832392937564 -70.895092478832126
98.009342473700514 -69.115643207098358 -69.344221470137853
-12.155675759304016 -63.841547274807425 -68.763437270762537
69.206602113160756 -69.687329380840509 -79.446238088882410
-40.382225805513492 -70.783798670996916 -79.996068995710871
-25.640480539502370 -70.249636554550563 -76.508280326371263
57.805938373880373 -63.995970244172604 -86.923865216413674
-42.519928714232030 -76.651936788548014 -85.071733236933454
66.456173036671743 -60.144053396816282 -87.723444491504495
54.458005974573396 -71.154918742393505 -90.348894866472733
55.240978142233509 -67.339793895627537 -94.339211903549753
61.135671140153818 -71.590763746257721 -91.414012561501963
58.418400009557871 -64.437826417738393 -96.429190337823584
101.315238814043951 -64.634202656953505 -98.365177972176227
107.555305831292088 -63.526569605893876 -99.263783923879842
61.348344291641837 -69.737492076493950 -100.547312978587271
108.488180080685822 -63.567279937202223 -100.162027305813254
-75.366376748610577 -66.291176104498547 -99.995916855493491
-71.116626209866808 -66.246553540044019 -102.756373805813837
101.882569008538283 -64.366795377953522 -99.119547880307081
54.795326727530956 -67.796720290745654 -101.465771659772273
71.982301565461000 -68.611286667404073 -99.282917489277096
-70.931900547374980 -66.840269123312254 -108.092585353656133
-83.588687444447189 -65.408704518223686 -107.956957852811797
90.723576776322176 -70.073183140574187 -104.904646933312875
41.754771721032817 -68.292437782925902 -104.889090530534901
106.412415268824930 -64.121453744415518 -106.448810835345967
48.096354378101438 -69.368273438095784 -114.099557029791413
111.656280527436209 -67.509334766105027 -104.112420854268080
-77.153880851082192 -66.219907666814422 -111.789342932437265
106.087031039980232 -63.360752891279610 -109.186232936452768
-82.748206848321118 -64.440328819053818 -121.950559375959600
-57.041295488456086 -69.132417398824657 -129.188873937669683
-54.376244174680423 -65.908077069114881 -125.566193024793066
-70.964451125452129 -68.178396719940821 -130.630852567967139
-49.454480758623298 -68.245145832887644 -131.609902270843804
-82.538697462531033 -68.386500177667088 -133.605458813963622
-75.997550712938050 -63.934293401926730 -133.777647576206846
-79.093422373353661 -66.908496612834284 -131.667053587461623
-58.736183316299346 -71.341515679538190 -142.171819699612257
-70.126537206989525 -66.714860453449305 -141.368846291646918
-58.543442520159466 -70.058823833082627 -135.760887715019493
-57.116061010116532 -67.299506183878933 -142.539509187326928
18.222904092883510 -63.951588472602282 -144.489590524613419
-89.529836794715763 -67.315531795932145 -142.936550797240926
-46.223600464777640 -70.683723917363636 -147.325352025094816
-95.035114913549322 -65.189334786844270 -150.498905053194107
-99.448606849467623 -64.720825906251022 -150.016589841351873
20.569288817580073 -69.207869931443426 -154.386668339321460
15.470805567344042 -68.675809417501029 -158.765673248670936
-94.431829071346300 -68.685729050541084 -160.467758735362196
-102.084859860609299 -67.114989161295867 -154.968095737110929
-98.978928907105356 -66.010691129239817 -169.168620197397644
23.445347069381775 -66.876766771042512 -170.522052743025398
-109.136709005348251 -66.896095828919371 -173.542762081532516
24.070865227708232 -67.624226268505495 -167.089685887068214
-146.247834961456306 -67.192519141393774 -177.406919151599169
19.195921321532804 -67.355066143395717 -177.072096449252058
25.510422911680262 -68.404007485599010 -186.524710382870268
-150.979514405660240 -65.886622678908395 -187.520824375532328
22.772210119660112 -68.340270449259307 -177.032104254573426
20.484848725349035 -62.285000300789221 -181.130276962689692
-142.335214146219357 -70.574503004267314 -185.645433869068142
-150.528409087840288 -64.909942474650023 -190.184909858496752
21.264498661766002 -67.760363772485604 -188.987090356561907
19.813411082149909 -69.362472934498385 -190.458768419627347
-140.836493239306662 -69.147722596620994 -194.679442758105580
-107.704560863245661 -67.821190799052090 -198.579978799524866
25.214817590594368 -68.352784239313422 -199.151917148571300
-123.525502755296415 -67.179000759668241 -195.730287084675609
11.992098608463849 -69.833519067075869 -200.568003500590038
-128.854427124937132 -62.610137038798783 -195.367778018500388
-158.102088225467128 -65.019468388785327 -191.672273659454504
-160.182134559628366 -66.636905062096730 -197.753523202107544
-157.483758222150016 -68.178014527656046 -196.081756361261938
-18.881482316772480 -67.725892461694542 -205.339404080340898
-166.312942820476366 -69.357739235846410 -200.586422555030481
-25.155528212451831 -64.617040750345325 -193.483822879570340
-14.168431699064216 -68.904431793557578 -196.635574901102558
11.106025636331601 -63.401536023096263 -196.410997648113096
-156.515136377301843 -67.301473967416783 -204.907940262773280
-106.830665635087144 -66.277108919983931 -203.176838037224144
-16.197280145712341 -64.827723991517587 -202.445602349431653
-158.869722475700854 -63.279568587261600 -202.783316882710693
18.032389305738693 -67.977364421852215 -202.217096523269788
-167.535840478320068 -65.312681630328029 -206.114725062093555
-119.461524757196415 -69.622453897191946 -203.738328185846854
-114.123328491965282 -64.907402345145982 -208.284802889761949
-121.709546078077040 -66.505337112696466 -205.259773895640876
-13.533328702872657 -66.889728846510522 -204.383309430944195
-16.085467593286371 -67.950639854860071 -205.260020040359564
-163.040903749530145 -66.642521888315088 -211.836765546125889
-158.815327985381259 -65.452650921087198 -213.536142103399300
-163.577604305226572 -67.770954637125428 -220.637233949860928
-140.093704754934748 -69.316037332713833 -215.171601999254108
-143.514303848571018 -67.624372839656473 -224.948924328031211
-1.688485471503417 -66.300560567908931 -220.749921924642081
-8.289966754434028 -71.191630848109028 -217.671149491823940
-98.720495660448861 -66.059582360454272 -221.846328797793120
-5.513555742921052 -66.612496440275876 -232.951406083538814
-165.817313588224437 -65.145491591691496 -230.166109988648117
-105.510041924318216 -65.663102400873285 -233.346162668409647
2.693791352313146 -67.972683718386989 -227.402906618335749
4.114824324173907 -66.952786560280913 -230.645513756616566
-110.529285927074298 -68.229797306820203 -234.062967382001546
-0.189508611629301 -68.636979231001632 -229.542091528334907
-116.451235869691260 -65.009574787653619 -235.345693844905838
-6.446491342892921 -65.237944999285432 -233.953562487553967
-0.911129487764431 -66.935814394233702 -235.666982678904446
-0.287194727175820 -67.637512643551219 -238.441906396387708
72.965591476560419 -65.489306629503773 -237.070021414273043
-9.463162361813518 -70.773764404143222 -238.352163559773146
8.663961775037256 -68.603359250117748 -237.956164200555975
12.460905078376767 -67.158151314566013 -239.857174278528447
6.746159198604206 -68.664125320905683 -239.575466164240112
3.878607547577385 -69.438293418067886 -241.848711404920380
65.498072999095982 -64.322725529649105 -239.210317367292390
70.289132675415772 -65.419911031378547 -240.858079496788491
9.664910748335560 -67.871740694953914 -247.644849414076106
55.369394421473366 -69.112238706704986 -242.821758701836444
56.890578417539757 -71.688897647691675 -241.251145079264063
48.313685184393137 -65.200417393156357 -250.032289881526083
42.643841780568252 -66.180743744581989 -251.954099881855313
42.039698384638086 -67.208531581768725 -257.067315088866792
-130.575462340654525 -64.115156541363191 -258.942169572387172
-9.073290723580955 -67.583216379054079 -250.791276247967062
29.690658042697219 -67.076601821995183 -258.727005811918275
46.359238818897289 -67.322154540640398 -248.728955661509588
28.685530424543419 -70.469489846239313 -254.522078763277534
-101.616003744204122 -69.393556974707025 -259.707363348223396
32.554044783638219 -68.991864084547132 -256.902225106114940
-145.876778069586834 -69.636044292629919 -261.979481061628462
-115.114709812004492 -69.173167728760490 -257.823275259403943
-107.576329819555156 -67.649356640503143 -258.881191380754444
-2.272632619347073 -70.053990278460617 -259.742358394261714
-149.194964393488647 -68.971208136936625 -258.402248288800479
36.569324620440547 -68.012674519423214 -262.486791236596957
-108.502346948776278 -66.558256397829666 -257.652068587553970
27.446648489464355 -71.399700349408320 -259.834900326589718
-133.707544793036959 -69.380115758987884 -263.797455740797034
-115.260579134786056 -66.933374714787803 -265.043382908068338
-108.309641255403861 -67.168894083703080 -262.303099153760456
-113.766074250547106 -71.822845874957892 -262.427930241650586
-138.776880882451110 -69.138516478099845 -258.891835889955132
30.271265480592909 -68.625436745097105 -260.840123081128354
-116.140045978198202 -66.543855748592264 -264.027416492794828
-143.111956644553857 -69.257798208238356 -264.552300219162191
-3.824195945652141 -66.282518825742301 -271.508074487259819
-149.548635279497972 -70.235860233775554 -282.200042831506323
-7.107846703830385 -68.998863532674463 -286.982533315047249
-4.135553593470495 -66.179172790923403 -283.666968892526029
-133.113797575248697 -67.787559646014230 -288.769153282031482
-126.339307415828614 -68.435398200797920 -291.483698138641387
-134.471417861868815 -68.044335077124330 -295.035760609328463
-125.375858207145271 -66.964511500206413 -292.837687528559286
-153.649722006558392 -68.580693107487349 -295.565045517282726
-154.944463889381467 -68.487749348009856 -301.290043879509938
-146.659882614161802 -71.252474764487303 -302.031394217375180
-148.571587337297331 -68.919244515378779 -304.416197530846830
-143.890502271041157 -68.089097481678664 -300.186180741041539
-148.278287527033768 -67.438988175624601 -305.325488871416439
-145.034021139256993 -66.232314623337942 -315.932227627169482
20.811112266185681 -68.792126979154702 -28.123790767258416
50.722418222417382 -68.859546846222059 -36.463217330565442
26.826030849507006 -71.486384312068026 -38.350669360972105
33.843506680981442 -67.149452017949457 -43.201777287744974
-41.204465324293160 -60.515481008877913 -48.765955702106012
-75.179950051615492 -63.470843610926387 -51.422608493640340
81.771429505508195 -65.089107249378884 -62.122966164810506
75.948332000690442 -66.518651589774791 -62.924940781950582
72.955404504945875 -67.595907010592086 -66.874849014911931
-97.952756793637732 -65.321713311149338 -73.636610504196639
100.674899799022540 -69.373100288926992 -76.352236221700480
-29.141247858036941 -66.823753365224860 -83.394560934399749
64.444605725606337 -64.606202684234660 -77.187403724880525
-41.859708644432686 -62.797500333119785 -83.512100700950555
-52.623689120997987 -63.520395889442632 -83.491689906434814
52.150370366119759 -67.143289536446076 -91.132316187458684
103.671087669329481 -65.762587800688067 -91.049821766598640
65.423347037265501 -64.087817052215485 -94.444356884228725
58.111007925575258 -64.713574361521154 -93.596088402578502
50.013370721044247 -63.800176310186806 -102.143369029812618
57.956681248797395 -62.847003500037879 -101.098217794979789
104.452057825929302 -64.443330141038601 -98.483066717743171
71.116833164540139 -65.617946470874259 -106.961295925802659
51.498583702382504 -65.940157158145837 -106.436347353430676
77.941146565817263 -70.697797628202423 -107.567261758761063
96.970923815017613 -63.056872644043828 -108.528713013096308
-73.928474083788004 -63.866437153205808 -102.483665097243076
-85.499455845196835 -66.352802267573281 -111.093969696463205
-80.903349849560954 -66.577985276598270 -113.658449003622806
-58.853139555483835 -64.997338731313690 -119.508659131502114
-55.871206332067949 -69.317578453979849 -126.806200196962592
-93.322072161080129 -65.425563431762001 -122.661708375346521
-73.801824234847984 -67.173829727434580 -120.308613325448064
-75.414301644022146 -69.294426270603225 -133.174554633763250
-59.566514882915435 -63.755973875092934 -129.190985093264800
-87.269935524281792 -62.572369135883470 -131.334260416316226
-88.477711296275473 -65.280554425949319 -130.991009323461782
-46.865185217446218 -69.559772163093143 -136.111116812806955
-50.166685136962940 -66.720892073262576 -137.470593274554403
-75.976673588272547 -67.613945134924379 -139.340080051420387
-52.658217953464678 -67.794449560204811 -142.350299401343619
-73.089671694426784 -68.931930883738843 -144.662556082067113
22.452522014232571 -64.180632178473275 -139.494854108936835
-56.148299151821057 -69.903577347049051 -145.603191829952777
-53.703608669358715 -63.416363126200309 -146.450339996202445
10.504364189096870 -69.432245185635267 -155.829655384547664
18.050772202166417 -64.852903995181620 -151.816424568960031
-140.990564441235875 -66.658512488733066 -175.130980441387493
-109.004514522552213 -65.616159166580076 -179.055341032073869
-108.318020427677624 -63.505971239316274 -190.679303272309227
-151.203058174745337 -68.105032416674220 -192.427501526393513
-111.688704337244161 -65.805369323608986 -186.665336553809368
-150.705316630080944 -62.907591239933815 -197.267721878257873
-112.766806171263710 -65.330389441408926 -199.493134426629155
-148.923050512916973 -64.258673539714664 -201.382541581150491
-149.179430524827808 -66.720081903045255 -207.269136083596322
-151.554155632021491 -70.209828676058848 -208.904584486639067
-146.439191954202499 -66.620764750051677 -224.900287342637597
-148.914355612953585 -69.522508756281908 -226.250922655202743
-103.658483763203108 -64.929743085122652 -226.986010573823364
-100.502143676859077 -66.734346969366698 -223.374811531374689
-121.896040644423351 -62.898220049683353 -231.504583307862134
-106.670080994084429 -66.366499162761116 -227.069792967961860
-155.071140978868101 -67.954288275645524 -231.625022164931892
-1.523205282886624 -66.751068516591602 -226.781578033504246
-132.453167705865752 -68.634263919277814 -231.730276993229154
-152.005449093245460 -68.154986623399978 -236.147195537927331
-135.545946347800452 -69.237871443491741 -234.202563871519658
-9.834782801221591 -66.487924526899292 -236.834912056643901
10.271296289732240 -67.625343485381848 -243.774291533203922
64.299392600663595 -63.590651999147454 -241.414790613572194
19.671389113680444 -70.359149747914699 -249.272151723397428
57.417962721575464 -67.006112915112368 -244.299240625971294
42.658552160606739 -69.065120448469500 -250.280957527901819
60.268564467857829 -65.267803901880740 -252.240361271740596
-151.055922501870725 -67.090624767020444 -251.281970141077466
-148.047994520994678 -70.641322052344222 -255.351612949370463
44.214395428110187 -66.371252658829221 -257.457274572467043
30.820862354534714 -67.169799537259181 -256.391767527401612
49.147754260778683 -65.325559349680688 -253.378081849132968
-143.378252228467886 -69.940729605022327 -260.498874519979779
-134.981166291077926 -65.668608784813472 -256.304019316936262
-123.513968280466571 -65.049712417035607 -258.901623706026157
-132.607158480711490 -67.429285104803583 -257.019129798185588
-139.439581411803488 -67.864039540832721 -258.901675817352327
-122.275757726676247 -66.525039233236427 -260.430043325529084
-141.363932753773184 -65.643387968553228 -261.290282614954492
-124.877691842563763 -68.885917001673150 -260.430277723002973
-121.022187785011283 -67.415764226884107 -265.343082598608476
-126.186076116094725 -67.813698434794702 -265.768542032968298
-119.040664989759762 -64.333005464238397 -265.031945286731229
-3.858105283720108 -67.945396173307699 -266.743718345780508
29.372955343783001 -65.132398557144910 -262.815084532695266
-144.851999610521858 -63.774432335913950 -267.936344944248219
27.600374605518695 -67.940316359716576 -269.783245185632154
-3.492011485073003 -63.488577681148350 -275.171073991885862
18.438724477754359 -72.993468047455991 -284.193694857245760
-140.260211139170536 -68.023648080316434 -290.149370788601118
-124.095860526741347 -68.643188421699847 -288.231935846787962
-130.888707467678472 -63.949387418090964 -291.330580519312832
-157.159160814232735 -63.626632868867688 -292.997301762454413
-124.703042033304371 -63.226117239576716 -290.318834089754944
-116.753557852110873 -65.524184297195234 -290.192412246940023
-124.259116258289723 -69.295834624386345 -296.617092038249950
-149.543300802136542 -70.071279590113335 -294.582422481495826
29.470024968248104 -68.686566201149446 -13.057608172315213
32.686013682556222 -69.350102930321043 -18.008181704524251
39.192453785343218 -66.009792210239667 -20.516850112949843
49.299057284735838 -60.306495483796638 -24.259239492650277
28.600022161046201 -70.486615369289268 -28.525657666151080
21.623115778220672 -68.836493406529783 -35.108671438096877
-33.112319212734405 -65.447691280910234 -47.104025777035091
-81.149218174273713 -66.312258877928201 -53.947363733130274
-15.202910551009140 -64.875711488614442 -59.346646668540885
73.971991506654305 -63.585408148609012 -65.409696122148361
102.956158681328475 -64.543191164200124 -69.216319079536660
65.936776933698340 -63.861714804236513 -83.580804844644490
62.555125421038504 -60.811073587668737 -83.786138693125096
101.485149892617827 -65.342121477506012 -84.950363772311050
-62.874988543307232 -62.665914885528771 -91.398350927177603
-64.224393787639144 -64.950351495273210 -92.046326375776047
50.847450731781414 -63.282499937903580 -94.011399641740979
-65.999483648997170 -66.446464454486659 -96.776307279955034
-70.341399565233104 -64.798955946010437 -101.663349899947761
-95.488188499362309 -63.889973579026488 -100.722905270930497
-74.560326164073842 -61.884885612598048 -101.005467098270358
48.089669522091647 -62.287300012408565 -102.312729985580333
-66.302481330393931 -66.993565963632022 -104.228694500043886
50.698944319154066 -63.251560552640363 -103.713100318453442
97.404535380681025 -65.011740406429979 -105.263272445859300
92.015701890651528 -65.106788507865630 -111.800431421811624
-71.695889397327832 -64.722944600394285 -115.315210530506519
-83.331747346841283 -65.885539022489525 -113.319044027281890
-60.696160850471010 -64.963787169559339 -119.986102399989093
-95.018626397374604 -61.715381539653713 -120.083428485435334
-75.500104412879935 -66.870880363140870 -128.103655921706206
-92.248972760357915 -59.051427846955264 -126.308601927310505
-62.157086047184904 -63.346514794183207 -118.799237826866857
-59.040752742046223 -59.613742856481231 -121.348310977960764
-87.497216086009516 -65.541744172762094 -130.452054569588483
-62.088680983147242 -68.164063611143021 -128.236009980924734
-82.944465666135528 -64.141396242420939 -133.395096527732250
-78.349347411390369 -65.844253374411920 -134.752871882848581
-60.912794033342557 -68.525117247553453 -135.322452880117567
-59.675211713419102 -61.560144098495513 -135.499269837205617
-53.496415186577565 -60.579730075385207 -136.370205102257671
-95.121309128095163 -62.649461533783764 -133.287952593443038
-95.793649580427868 -62.647465030822616 -145.079494680695660
-87.310112337330523 -65.363474335214818 -135.859090946908083
21.834947982709235 -67.573246703941990 -149.165914118231541
-48.724716596991236 -65.801044714906993 -142.663333222112726
19.226946586025463 -65.135592506367544 -150.947743299965680
-96.912291027457570 -65.919134652788756 -165.440462644463480
-101.637453354892486 -69.372522213219028 -172.294510909874589
-101.193654220564369 -62.334836216269352 -172.287219847067490
-106.585223070354289 -60.840960856470900 -172.344627788424646
-106.217868550121452 -66.101651041731671 -180.515545068920034
-109.290472970582385 -65.087526654306899 -179.300877230513038
-140.827635497723719 -63.965513829798965 -188.100582974043476
-110.616953871367826 -64.281388890144214 -187.468485370567123
-132.376569909045372 -62.816195754980718 -200.720905856147340
-147.958113854945225 -67.473233801982957 -199.419162640320877
-125.122389430023034 -65.806079198436493 -199.051052896298302
-155.512686741854395 -67.210741409671982 -197.554152459105580
-145.891032426106136 -68.653671782544407 -203.035037730656427
-123.848114244796264 -61.193014796946869 -199.892147545993367
-133.204312215150964 -64.562981156090672 -202.502753634663861
-140.157866731253137 -70.274202112020930 -207.465275708937810
-130.713133400423345 -68.085768596977459 -224.530801874845281
-109.182120006137879 -67.496090583737072 -230.565868963107789
-142.675619096752683 -66.851243656622088 -229.414251134614716
-117.331135270634817 -64.461182073299710 -232.153983332584545
-114.364221825459353 -62.129092716185426 -231.987115124037643
-121.375689215994427 -66.822711843701470 -234.186523988764492
-129.316576300992750 -65.950307883816762 -235.493588250818220
-114.305056200287495 -63.287614231840095 -237.585654760816766
5.831878381816337 -65.368655340320146 -236.568086502549647
-150.624956897393020 -67.669443193746631 -238.810973075087190
7.880501222082255 -67.192037113652887 -235.803414861361375
6.893964580547323 -63.096318314021183 -242.967846444286977
3.278680592292424 -68.020783896109549 -242.070434157868874
15.410955917832993 -63.055562604426186 -241.539146038424548
-143.094280333780802 -64.494166630200681 -236.346591344406164
-3.631641491641968 -67.433812542321334 -247.919122494380360
20.839035999272078 -65.868691780697219 -242.022761145445116
51.045402058154508 -64.667750536588557 -250.391907823175018
52.095526690941121 -64.827593609772364 -251.012996510821495
-145.432016609599913 -67.849631282391314 -253.555655318362255
-4.459123403388096 -67.106836481040745 -252.330252453993978
24.222080589596121 -66.992396716721487 -256.585506433794365
-131.036417165782552 -61.457309555862139 -259.617831910446910
-122.789480671174516 -64.675887036528010 -259.750637770064714
-123.466836425496453 -66.956639459974625 -259.189029284653031
27.846731742300150 -66.094519758668085 -259.621775761730987
-132.664615439613868 -64.197065718013562 -266.749512463819713
31.994584098547097 -64.409484603444440 -261.398103404602921
33.920009380914252 -66.550660221953549 -264.218073446539904
-151.728154415375769 -68.349416529941891 -268.228708758901405
-145.423204759489835 -71.671226394951447 -288.106769199844223
-148.315644501741843 -63.498793827076405 -289.243515921882931
-142.705958371546757 -64.431265180327713 -295.484978927101452
13.330822704180241 -69.740063432232617 -293.028150112391586
-153.240696250854512 -64.606745367453598 -301.213453039815192
46.864975515807465 -68.843043323806342 -26.918874069397329
36.487504417871058 -70.325368166461416 -41.007627111131058
-60.306097381470039 -61.768809476427371 -47.110786337262695
-71.197483952514190 -61.805317026258663 -47.678790461345770
-26.031589276911159 -61.925052995583542 -51.661804385453692
-21.112757347655950 -67.051999380732724 -55.492300967867564
-10.413254413540409 -60.770530808212463 -67.776432378960678
-25.403579525467997 -60.828037371751165 -70.895633790114758
65.886782498239029 -64.041241752974130 -74.713229233528111
-95.895908220306126 -59.107868983403712 -79.956787570481026
-45.453684231804559 -64.484393643830430 -87.326580118963491
55.614689105706887 -65.444422374305915 -86.818487075366775
59.634357781794570 -64.362704085077780 -87.432010521866573
63.235204253946769 -64.893857162374132 -89.729560247112104
107.246933549112953 -63.549442618284964 -91.673222010332864
53.204942002992617 -61.759742467914407 -91.834090847563360
99.916636562712995 -60.203789337190351 -101.229545360765201
-81.015781239794222 -66.031381269841077 -104.403661703371725
-93.155726881542009 -64.245482187393961 -103.021950742751898
76.250441935721483 -61.281927729124043 -112.967698331859097
-76.567023803261023 -63.601346735510440 -104.948696906504011
-76.758709748302962 -68.163403943566465 -115.885688160870117
-83.017497701065139 -68.573977120526038 -120.128221932181916
-54.345099562073102 -65.532932051157630 -127.749857777914414
-76.491514571553722 -64.716656641211287 -130.018348586352232
-61.557771695892654 -61.558644156856644 -130.790923659822738
-82.908612016169812 -66.020356202782139 -136.186204896651560
-74.926086911470961 -63.263161404530777 -134.264852917325015
-78.785998392854580 -61.438972364129590 -126.647207698409616
-87.719164706854173 -62.761981363703420 -131.587023796523283
-64.631204351713151 -61.800468812611641 -135.614629518612134
-89.558775594788429 -64.100192317942572 -134.056608541137905
-49.026311308202999 -66.190033315006460 -134.638951696476511
-54.672574133171885 -68.558329057852617 -140.248314438489444
28.825333145673646 -64.535356474451262 -140.639438856131875
-55.895924076821963 -59.264410494578804 -138.258687321884111
16.329120990342989 -68.251037926487626 -145.134623599997298
17.506078354775951 -63.650064351343694 -149.239106408762098
18.841397351647597 -61.375470391436870 -154.564329518978553
-96.920221622436571 -63.055992921136436 -146.502963230586374
-90.275350026820036 -64.718771721913072 -151.340820032378929
-95.163515042283962 -61.234962396863509 -152.565295225914866
-103.748271739309644 -64.827461282924020 -162.572508742765706
-96.518763007733398 -63.402571689262707 -160.509684924228026
-150.862731643722526 -64.729290849862409 -176.888605475020029
-152.698987962107083 -64.832268360475950 -177.262891847232567
-109.300165877483693 -62.803053983123853 -183.028051599869229
-140.791491035160618 -62.628538466616106 -178.996716547830772
-108.884644151815152 -61.691328957908922 -182.642839909517193
-148.633059383743472 -58.983976808204538 -188.575671962417118
-110.412199062581891 -61.883211813840660 -193.605453857865399
-109.201580802668744 -64.942001371072621 -185.181583024531108
-142.888821009139662 -64.466681158327049 -200.299005946038648
-129.143436667716998 -66.009752266549441 -198.070430985517106
-106.077340055988472 -64.947722424435597 -199.048282654515162
-114.861903210948569 -60.155611683568878 -200.308231700264940
-111.781491334169203 -65.413232755307931 -201.701634996227000
-114.921649954376818 -61.057503461860321 -204.025681232233353
-133.118335348885665 -62.365527958144312 -198.924983902095761
-137.244688492012955 -64.527179825142142 -204.190219988993135
-129.856193625428119 -63.409031328533516 -208.409831076483499
-126.373721272444143 -60.218268152936616 -202.673287818671042
-123.304474549639963 -63.523948165060133 -206.237170144445713
-112.626638143841276 -63.776551520520222 -206.023119908392800
-146.906985041637881 -64.086674680454436 -215.349941460388436
-150.884556403185854 -64.659951830498244 -221.458731492214042
-151.894408798094588 -63.640307138558953 -223.965891115805476
-139.212219288810218 -69.301111353214068 -226.593172702411096
-130.897304060977916 -61.333740147764047 -228.566206760446676
-121.215367310048720 -66.587447318988069 -221.783453958068719
-139.674432207347621 -66.613703890054580 -230.337676342758101
-150.033647529879573 -66.816289673918504 -227.570048592989025
-132.927150081646062 -65.805798330052227 -227.699680258001592
-132.348488684254988 -62.174702993672682 -229.849161978856756
-146.523146625717487 -65.201342216231239 -230.818540849106284
-133.710138685764861 -59.726910950721681 -231.230119094872720
-126.519784905584061 -63.498991526088389 -232.027977880769384
-9.403850886331494 -67.342569323628993 -238.062636834689414
6.092930377676612 -63.919144975880762 -241.744900823669724
14.854485558680986 -61.050023024975069 -244.115666572285988
10.654317911867127 -67.520783036112107 -244.770666842472480
-7.232648137390223 -67.303578904277131 -241.119379049632215
-11.173780288000824 -65.564167195407677 -247.917573169769810
39.188855206433722 -63.756051660255004 -251.395803648682147
49.029341590665496 -64.905895855098862 -253.944928684049842
-144.832940253937750 -63.661001064148905 -255.516342008220249
43.167354680864158 -63.569006253367391 -256.024912673925826
39.557040002377647 -66.106133725795416 -254.496199050261282
-157.362746405642383 -68.244097125253532 -258.675937108796745
-149.736017252077517 -64.510553132140430 -258.697938583330426
-149.662310527629444 -68.141889597372895 -260.669560752617031
3.756295507488191 -66.314017695951009 -264.644170800736163
-149.838877505833580 -65.626248230546040 -268.010990138934517
0.712700334829876 -65.707882913703457 -275.382011913959673
-145.314855595650073 -67.494344573055116 -276.059260146017323
-146.758127996204109 -65.496765675207982 -282.895864485578500
-150.017204065233415 -65.216163441749288 -286.354538141973819
-148.787420766406939 -59.343551534627771 -284.926778053514056
-144.158577476034878 -63.854627544529365 -290.675098498474256
-154.265735683329126 -64.478095337833764 -286.587068838186156
-150.106411295845703 -65.201659196866473 -287.458885862122088
-150.597013486264245 -63.003098078530421 -288.865088691211895
-146.489219340291299 -64.669818777963428 -288.739617942555526
-142.929365230606663 -64.751196487540582 -288.502779983790163
12.537276949691146 -66.792023730465999 -286.207761908675081
-145.828464158007449 -64.827055974891323 -294.575657376067625
-156.014484960983737 -62.000039789291705 -292.828249601202401
-154.201407803440532 -60.897027472154186 -289.974466747922861
-149.580742500296623 -63.320147223051379 -294.599835655105892
-147.771889470733072 -59.824669193269450 -290.587786155969695
-145.577585872840444 -66.542159398034670 -293.193682600986904
5.165783065581323 -67.021908294045275 -293.542293773228437
-143.099773657199677 -63.189150625548372 -295.682799085582758
-146.801594451370477 -62.199862880176106 -294.696455037985743
30.009825435622780 -57.155731441153577 -17.717973390422166
43.265634130498697 -67.592124743939308 -21.468589859380277
43.687997091474564 -60.310017091069071 -22.622733311938855
18.866304278797408 -68.084782400240854 -32.530550553868096
27.697154150966295 -55.307087340138708 -36.271697277467510
38.593505465670191 -64.882943822700454 -36.957220253510172
-55.563028324827805 -61.082182866404679 -45.533108746324700
-49.776747845326938 -62.362093315290345 -43.239291545404683
90.964774021996988 -63.444910938356379 -65.292030409549966
-94.709012698599324 -60.994349468552308 -66.559112784739753
