# This PCD file was generated using the MATLAB® pcwrite function
# from Computer Vision Toolbox®.
# .PCD v.7 - Point Cloud Data file format
VERSION .7
FIELDS x y z
SIZE 8 8 8
TYPE F F F
COUNT 1 1 1
WIDTH 785
HEIGHT 1
VIEWPOINT 0 0 0 1 0 0 0
POINTS 785
DATA ascii
66.044841148262606 -72.156815542261100 -234.147094556487417
74.679775484298460 -71.065673509464006 -230.443604612241757
-133.877359946549575 -67.786272713157032 -235.257471173008014
71.566293479389614 -72.661869387523083 -233.298122771463596
67.575173211687940 -69.445171725306651 -236.304834445465559
-164.762425820170961 -69.544644353002056 -231.714435053802760
2.818387345720522 -77.765146814780863 -241.917112143095238
20.756621341160667 -72.732321634003213 -240.491486583668461
-4.623257471366568 -68.909362704936854 -241.744514327629020
17.167233660665392 -66.662593338855189 -240.356118046775151
67.625746475144524 -72.566550730455418 -239.098254558879091
10.319741939870443 -69.730538027373768 -244.433040158416816
-9.529019452952937 -65.559188258869881 -241.901689604174436
0.859128537677612 -68.329842523436596 -238.534143890150176
66.349385662442486 -72.289127458603858 -243.408518153640870
4.452018466643755 -72.000437764751709 -243.603041996433205
-5.600666357857107 -72.203022231022132 -244.184725016532042
15.668299292946699 -73.867463026649290 -243.907168253764581
-166.105825727274606 -72.595232790722406 -242.289928882529352
57.425105211481856 -71.985669346013481 -248.245153593382838
51.363214085628904 -66.211279450421415 -251.890113446516068
59.593652018787914 -72.352251446334691 -243.794520008872666
-10.768147917294032 -69.797857531123768 -248.986672913443613
58.586590110222964 -71.473960570877949 -246.680817004197195
-72.506693230647855 -70.830965040960677 -250.975296994540884
52.172108637600033 -72.055566274960782 -249.651278908520680
-87.366860060311353 -71.086674334614898 -253.609675085051094
-121.838320674277810 -72.283288896169665 -257.797088341909046
-131.027681278209343 -71.107116567287790 -254.079654225207662
47.508576630713733 -73.207861185324617 -252.854575947627552
-131.199219514848465 -73.632108299734767 -254.304564475409620
-107.821584682586362 -69.470533469268759 -256.230702623426055
-114.700250690819530 -69.000199913077111 -258.603746040762360
-82.377580613808746 -71.697279889698351 -255.780594877415979
-109.622629646109900 -69.551618779989084 -260.281008737165394
-122.716627295718126 -74.420394071756220 -263.529341565299774
-145.136104010602622 -68.713011734225702 -268.780570119798881
-13.927295197700206 -70.228453685123540 -266.693929076496204
-169.977932838542841 -73.055748621330380 -265.613549903338992
-13.217388450264805 -71.046219244446220 -274.845596455683108
-157.634307901157001 -67.954746631338125 -268.464384650022055
-151.342887008672420 -71.413150606141031 -274.579850779607455
-168.580479386457313 -71.103282960421296 -278.688391058812556
-12.876375648880886 -71.681799995233746 -280.399877198311628
-128.854829528265071 -73.597126350029384 -284.273465185128146
-156.702931871592455 -70.964498012854918 -287.375673054430706
-142.624585435938968 -70.298068955767420 -282.112244032784588
-133.554885648184694 -74.035158935546320 -281.615407090647352
-6.845878735667156 -66.023044056580915 -285.567492823351188
-124.545776160730412 -74.719339914432240 -284.523452892631155
-139.703269223625313 -69.265952718004968 -286.760635137755969
-114.413999410762528 -74.185326427746048 -286.824357323884840
-77.666874069839409 -69.587252707312160 -289.156149886326091
-59.385922492263191 -72.135635752822765 -288.139684385949806
-5.685233234111576 -72.605433519794460 -288.883214710151549
-52.602988261823931 -70.329866277851124 -286.804532623952468
-55.890479250236361 -69.225909706584815 -289.726263325000843
-69.088512704589476 -69.755416568648783 -291.423662570882925
-86.745498225553433 -70.525235799797102 -294.888694220451100
-93.726738273616675 -69.163536525569853 -290.108063718156416
-159.032200281048773 -70.337401646049443 -292.617694948826852
-159.795531164302020 -72.145377230482936 -294.850984830243249
-123.334178761573497 -74.073657281133450 -294.985180840159387
-143.363993372154852 -71.469723335527235 -296.116569163371423
-151.778926348437977 -73.558171975772197 -304.850633112022990
-149.205623267947431 -73.696184161975680 -313.258370962903712
49.297031878540963 -68.147377836100290 -15.656307924485295
18.109837756714086 -71.260256671236277 -30.788897197329760
43.318233494694141 -66.375512618645089 -35.695979798720053
-14.137857196770257 -72.868754586601156 -67.376746071045474
83.162042081136917 -68.160698001896691 -66.128415847760294
90.039303055043703 -66.050631270100979 -66.982808397903810
79.258994725834370 -72.961517832856728 -66.437265706214632
74.090950811334082 -71.136257421329148 -70.209182437038095
92.556592035542991 -72.316936663482309 -75.902034514927095
-94.777872947288841 -66.561241928229677 -71.350535628048959
69.173741475349729 -70.552285265215474 -76.386883264124521
-35.203163348042921 -70.811890931509026 -78.402074519986598
100.272988853734461 -69.926029259809908 -86.849436440590011
62.823600063629598 -67.390927989791564 -91.407355482935984
108.454677651346287 -74.392791707919415 -94.586646267681374
102.881289297856952 -73.457436482338068 -99.359340052042469
73.643173061121928 -69.833848654555425 -101.632792755390284
-78.868113985594889 -68.643123399249831 -102.583150746529384
55.670654803802940 -69.887701036152222 -105.229703834648603
108.431918167390350 -67.443492459243160 -107.021931917504318
48.371011520608747 -70.616864111183943 -113.390040182920217
81.213975281524043 -68.871704501835609 -106.406712036251761
42.933728033517795 -69.547795303825183 -108.449086930103334
105.555256865647237 -69.583542033151787 -104.209487121561381
48.851010789584819 -69.347644076388661 -108.787069390663916
108.539083761692410 -74.650833907382733 -110.841868505273936
111.430870143388091 -72.797841460299196 -112.276314607741256
-78.158896092539621 -67.852911836004736 -115.227317163289385
-81.699636434529722 -68.068420571903758 -120.420989268785149
45.193280629585303 -72.851290958490324 -121.019256940162336
115.073745385191827 -71.509882972719140 -122.253471512728993
114.953525336860849 -69.663052621558805 -124.554278417704893
-86.009398863226764 -68.914680038136893 -128.025709212213116
107.239044820854744 -71.737075132515670 -126.727174339239241
-58.117393224858510 -73.982090137504770 -132.797276425048437
-84.940726558684290 -70.101337788416458 -128.332184813962044
-71.312586410379609 -69.963045438247335 -128.179883617654696
-57.963106124737415 -66.084919518460097 -127.822620059882155
32.872915678357643 -69.555205652293353 -131.164482371021563
43.625675037026362 -68.375219024157090 -135.701234536458088
-71.906271655824725 -69.486956557312951 -137.642239342239975
29.981256456806321 -67.994334798243074 -131.946116696546795
112.941355944367473 -69.976645145845296 -143.866976526781912
-38.929797238628225 -69.940855869200988 -149.292035759120978
31.639331548399767 -70.762672423686951 -149.821952085573628
115.158030421911107 -68.404400136080000 -148.661748868609635
36.808464255293309 -70.466200358985560 -143.716687719139571
111.638228621804359 -68.760377573102645 -141.771563003445806
-51.084839523237051 -70.115904461868396 -150.402405651722944
-70.022575673203818 -67.372836551040123 -152.016355462514554
-53.864231600484977 -70.361352655989521 -153.560818919736079
-40.825346642335489 -73.313217726088126 -165.941325461349237
5.961878915030860 -71.209095405347355 -156.835238198231792
111.104356426459802 -70.198743787761899 -154.447457517761393
110.244763047308695 -69.895319892580304 -160.558255268852662
11.307929359336971 -69.339240213057082 -158.423402573889746
4.569755652154599 -69.994379658541447 -162.283760462444405
20.492322686005746 -69.201787289422811 -156.226011775517918
26.919834043087487 -68.635900237255143 -156.634073369452096
110.010946683787807 -69.612238459945559 -166.560057567149300
110.844241873307695 -73.072542338011488 -168.625507470591145
25.211630308723098 -67.430939165145134 -175.368843863688994
26.256410672779577 -71.982763466489203 -164.768099276001635
113.502513605153112 -68.116180082528615 -162.928273053210035
-27.835499975245710 -68.848524654267550 -178.175619729956367
111.489965954170245 -70.250126623496911 -168.683279029011118
18.805796132097893 -70.455020186732355 -168.559064669649786
22.901229293874568 -69.852023654043165 -168.685826250268377
109.823657455200646 -70.232370204093954 -173.778217621092779
28.021610756080662 -69.136443505292632 -171.340271547619835
113.586215965349837 -69.429477050364227 -184.632065517535807
-37.001246137969119 -69.316454069605300 -178.698183759685890
26.396165475269903 -69.583205279108910 -172.063834982435310
108.785945841938428 -69.947377659783811 -184.781457138412719
24.392763342400727 -70.978472534902181 -179.513569005551403
-150.574797081242963 -68.441402655794647 -187.529557125523723
-26.922600422063628 -67.074670035756810 -190.331576467261868
25.887576751724065 -67.984372991631687 -185.867635839080577
-112.469651489419746 -71.307228900071394 -192.881735503890155
-109.563657475849425 -67.528410157936193 -192.358616422715187
25.076412059258828 -70.561525664192459 -189.482144022001648
12.967214928496738 -68.146163474811573 -186.000297248499180
-25.595321997046678 -67.444933569968910 -191.215871272485572
-28.346974596848636 -73.720898089575854 -190.164418958027710
-26.714093718566538 -70.290579294959571 -188.163684858904702
16.099964977463134 -67.993710686479929 -180.954888380206938
-149.557947363792607 -69.809939518403198 -196.120447413372716
-144.059676187787062 -69.491938064612285 -193.891284258147493
-143.095568070878983 -72.713673292687460 -199.346507394242764
-21.620525385485880 -69.031694371724214 -192.372621409607945
14.952051680220803 -67.894082405274062 -200.544796483621468
100.161653070796021 -69.269185772841624 -194.288073858030430
-112.426846984102951 -68.771793522007613 -199.382838842054667
22.568419735910378 -73.243374832453512 -199.299687059734822
-14.017961648184942 -68.934640157898073 -196.540713805692548
-16.416577020461908 -69.355498574953089 -199.712210211612359
102.272981016542602 -68.970188607063463 -200.485449750333743
9.234801114963519 -71.857347237898708 -200.242640176312648
-20.666295199277958 -68.271355365794122 -197.487012842858235
-120.048386830947408 -72.780546545175369 -204.105232953626000
-132.881615935307281 -70.000872879016839 -204.337718599069376
-112.779389212248034 -65.546827176319695 -206.004736140209729
-140.876308050238634 -72.584823947894009 -204.416135870302185
18.815349315415620 -69.632977375568686 -198.732472446827131
95.121840664746969 -71.333228252906466 -202.803101253056951
-164.628383303153043 -65.393417838102863 -202.553424363986949
101.308664508667420 -69.764988776787163 -203.145723026731872
-20.334360970513874 -73.563098225320289 -207.036571173992456
95.915894609767548 -68.137092889581666 -211.534357423932846
89.379590094338567 -71.546002583960217 -212.494967085652888
13.440376399336648 -71.690881288973230 -206.964556397708748
21.079197515144163 -69.498650227069675 -213.005438791039722
14.145248337402110 -67.254060961906319 -208.880874886507030
-9.557121206209036 -70.426156901039732 -223.424861557637001
-93.121775572717240 -71.870306945173937 -219.640317863702421
-9.132073997171961 -72.055073421283012 -213.296956320579454
90.370276428045997 -70.402910085388555 -217.310581177311832
-92.242847271600468 -72.069913246012987 -218.716331714530924
-99.836482017328549 -67.748243639006333 -222.286178090649656
-93.144292802156741 -70.599009816981336 -220.551138594611587
89.545169543253479 -71.795113934129844 -222.971570387664144
-133.990951494036892 -70.366326757393679 -226.230313613524203
-131.146880061746856 -73.802544332147889 -227.766989809799469
-115.353263483085883 -69.868598146092623 -225.893002761069909
-111.809144894344143 -67.381327470181830 -224.277602027720576
-132.043821810635848 -68.566204663722345 -228.292590319186957
-110.405222593324140 -76.532236479188256 -228.531939097838631
-110.905258160433974 -69.868209064299378 -229.131208794952130
-5.559133580563940 -73.313597083094237 -225.664053139923737
-14.635643878173363 -72.339668501683406 -224.203299095463194
0.339196763584544 -68.268772915739248 -231.511974782391320
-8.848930957039704 -67.383984376431414 -228.074452612783347
16.705374499047647 -70.990245160742958 -234.564832763473476
-17.544129905342189 -68.525976023935428 -230.203086528444800
-165.544140643847783 -68.336079891985094 -223.382319497946952
-2.793125695683197 -70.209757661736887 -234.528475629662665
82.131690164949518 -67.580461291161768 -232.260900729318053
12.282308863850441 -72.008176846053601 -234.701328292363598
-4.579175247208201 -69.534480837678657 -235.847692606451062
-155.557226053213100 -67.823291679277759 -237.609838147814742
-140.979982633368593 -68.590981773369393 -231.505682415785458
63.914860674406100 -69.115187074742806 -236.958396224554036
-4.341121258080495 -71.163847917169761 -235.176815999493670
10.624953369772848 -72.254409914920203 -231.772347334754528
70.750938870689239 -72.488085347324144 -231.316928267643647
78.282342573647142 -70.778878046183308 -235.356791704216789
72.364154333261567 -71.537971342135535 -242.419268468781496
-0.256211525827300 -73.025014284049604 -236.740704945143335
59.368972451603085 -68.748923280022709 -239.027581663739426
-17.698843391340180 -72.782170624986819 -240.775321332868771
-13.953597508541337 -68.009848924460400 -241.467684055814772
9.548248907574948 -70.211258119664436 -240.418597141489585
66.106444516726128 -73.524084524951022 -238.933113675223211
66.766942619354452 -68.962416403584356 -241.728379699267805
50.943121031813845 -70.643979812702653 -247.183172343547142
62.458977876157967 -73.484934786330697 -243.771168040997082
-14.207856342874601 -74.722924817235821 -250.689488255166054
-82.281527367099372 -67.718488845530999 -255.255014361817700
-75.533915935351800 -68.288132126368339 -254.011494660428355
45.588722636883979 -73.183519519226095 -248.821173749778040
-147.816245227478760 -71.256264717053853 -251.716700005508415
37.337046408368458 -70.481550730191429 -257.287434609556044
-90.726820945115833 -73.676517968548254 -252.935240608233244
-154.937749277021595 -66.509023873659274 -255.777756732237492
-139.013492256749430 -64.141680946168464 -254.413131888833163
46.497316510621076 -70.315480276026065 -254.574442435657261
-123.671252325397063 -66.444488996670515 -258.951320265416427
-115.565267186977522 -70.464705437099397 -256.401293958568658
-91.050484173437141 -66.369759853778461 -258.161932720846778
-12.375813328645133 -67.218555350004252 -251.465186313003414
33.203107452307961 -70.175495476021894 -258.263512829180684
26.275703784574642 -67.961914317197497 -260.536278053547164
-157.651330704308322 -65.844395717402634 -261.391311006100807
-113.436466730660072 -72.852632585632051 -263.705896636508044
-12.602592722231041 -70.099089836365877 -263.003943593247755
-131.482260782729185 -70.011358627125205 -266.431783643792414
-12.820471743145475 -69.237320398197156 -271.367638874402701
-163.592003912256445 -69.435180620116867 -273.569755052496589
-6.008831195905250 -71.453487896810415 -280.523614018775675
-159.600343699386485 -70.591997066863030 -288.841238107030676
-162.581957548182316 -72.018843118650949 -278.919457069405723
-141.334982089906958 -70.506114345223594 -286.251254413885306
-168.908186757533969 -72.164655013960186 -285.686692442175342
15.308782363678501 -72.776913521486620 -289.019226343288665
-101.901606544117186 -71.368279422624454 -287.589514554462312
-85.925628298025813 -66.370028672136797 -287.081052959435965
-166.518707480107651 -67.506833741985687 -285.639947748043028
-90.772044391600332 -74.172626730108846 -285.029137145940695
-152.462642143436540 -70.740847952938665 -289.519070945338171
-74.228452646953698 -71.365079688232100 -294.669712960597394
-69.388291460400708 -69.770585992604865 -289.781783813299171
-81.293105970328227 -71.439188898704657 -292.367115987317902
-2.458921830533866 -68.012698433790220 -290.021237236644538
-86.787389660122898 -70.367688499294857 -289.698457614725328
-97.769012614427396 -71.784661178053057 -291.978937208720993
-115.438864842354917 -70.709382332703356 -293.719437552831209
-115.357889265911695 -67.754300011541773 -293.877296556680335
-132.954738342857837 -69.739805307631386 -293.262856101063335
-141.599645108988625 -70.627893606881656 -301.853488800551418
-143.031878103737341 -71.922686882491419 -312.790369911405264
25.313282119589680 -66.593709188676925 -16.170046494272881
33.753508671278155 -67.820658089390861 -17.414949657357354
30.784299369843225 -70.461035830091944 -19.249136167315392
45.593101927106666 -66.596627848308856 -21.589458735301463
26.340972361763708 -68.460417020497431 -32.658361681289961
-73.467884316244522 -66.628420592924371 -48.068743707113462
91.146754416042157 -64.613347444792126 -66.503708565135398
-16.174507783469327 -66.763062755319652 -68.546146630072386
104.091567701278620 -67.773810843186951 -73.852020193107961
96.545485614589282 -72.585519965656658 -76.533038172619854
69.971883640496984 -70.186423162273215 -79.437688605086549
71.715097849966227 -72.056417262421775 -83.545955707531519
-43.226804635245678 -71.811078672731412 -83.404174797625657
62.618540792960175 -72.100186562263744 -83.327017806490048
-92.978867260797500 -68.895910770523400 -89.313098210961641
-47.764278974700488 -66.385450358694399 -86.253267636573213
-54.453528883099317 -75.202742504669715 -88.504183878026353
102.449207626330931 -74.332092639191487 -98.460623118034022
60.665442442841979 -71.969155901468852 -93.186144599108545
67.338536166506898 -68.184765752786149 -91.960349355618078
-94.270258534109544 -63.288340035469936 -97.950587323527770
109.314632052631296 -70.393830143223155 -93.991779610058373
45.553925473623721 -67.615862746463804 -99.900056167619638
102.874338998105159 -68.736773866176534 -99.030408562036882
108.216389740295938 -67.011955817301157 -106.917477299718200
102.738761201703170 -69.367084293982359 -105.449690241135784
75.325854847327577 -71.158951190710056 -101.618830144693220
88.762536052497964 -71.065206051915027 -107.446149659522192
51.473377164316283 -68.772272344183222 -112.133312044984891
112.105123776301895 -66.920121961079218 -104.515737563558019
47.662096294550601 -71.483225282644042 -106.342346512002962
42.021824900759384 -67.064864934215251 -102.519180111978173
114.219980557583938 -69.485346173577767 -111.252161177986707
-77.081424268701568 -65.914555880106491 -110.639350868943865
47.564381498708649 -68.157631275895852 -113.804760246579136
36.217380203468068 -70.865615326105029 -115.974990182370050
106.935680769176088 -66.818641484220620 -111.012086982023007
40.875152638096630 -66.152712250533355 -112.453493668351598
-86.608137090077904 -68.083996751033084 -113.825288014777698
-94.105579173926202 -65.599511004395026 -115.778390888333192
105.520317179000841 -72.239183516696258 -120.005551397482236
-93.318073337631745 -69.783304229314155 -119.567335231352132
40.436060061692039 -70.971658792955267 -122.175772361349573
38.436315113589352 -68.647570048642052 -121.686577478977114
-81.952524182953596 -68.150196166591599 -125.148839961537533
33.879470069620915 -67.249621814952590 -135.617174898929989
112.342759032719684 -70.538257660161591 -132.101844632511757
-51.153920330289040 -68.382910356955833 -136.969195346961214
-86.766746422560729 -67.359959800015915 -132.573867433714497
39.417725559903992 -72.191898414156867 -132.537199877950798
-87.607487845099456 -64.342791201710867 -136.832927471485561
-87.423289471881347 -70.583006900600125 -140.516378816164462
-48.180456121935407 -69.827433959996583 -137.702622206894858
-69.361285769654557 -66.773196738058914 -140.445614950659404
-49.212619140626380 -67.676546433954996 -134.377270002157843
116.922277513616748 -66.661537338772149 -138.464690760167400
-71.743549496651269 -69.950673600062345 -137.700291715780850
38.008483699718845 -69.284857516134267 -132.199083995650057
-77.198635868558213 -67.464807663850550 -141.056470581129247
-71.841155491850884 -68.211169177418668 -136.668186296893964
-89.889756717306540 -66.479911487419827 -141.064788385685944
-52.367809887460766 -66.569337416896730 -147.965744711690036
32.950333803471750 -65.195791527717589 -146.726863118991218
29.034192332643226 -67.285469152942497 -150.447224776517515
20.658021020931834 -64.378812324447679 -145.289377026323535
114.331130085601401 -68.651732979432637 -147.200231436292796
-91.999118790011337 -67.005705114565529 -153.404000820230891
14.505410942879500 -70.400294805054585 -153.297851412257160
-70.422296595588548 -67.999950790618314 -154.230231617581893
24.981201405684462 -67.989376159280226 -150.690843563273688
-47.649084741210665 -67.619528488735213 -156.339292035579064
11.082285610292026 -67.535493165904782 -154.176263455421747
16.615197786967006 -71.227101421076213 -159.295102700165074
19.303427042656267 -73.090407855613378 -164.774370918182200
-47.399504202288469 -70.568340504783478 -163.449017242257725
-37.669451810094287 -67.692934935836519 -155.764512520808523
-44.861783398933241 -68.990775905982090 -161.945310853060221
-102.169188057202405 -68.986545410144302 -172.842895776671440
23.259254694810675 -70.006521140194906 -174.958609176508389
-33.247230851788913 -68.520432043814083 -176.882036302710503
16.955671755821125 -72.573608065015364 -179.198391311034669
-142.124292063930113 -68.367744586114242 -176.647624403115657
-30.717175835382015 -65.850211248006929 -173.761276999393658
-153.518757476478470 -72.756848346013456 -178.687607672171254
24.953291520666454 -64.896687478652410 -182.775821636623675
-31.415883672942051 -69.708548991688431 -172.391578961693426
-106.164443273451468 -66.872034752229240 -178.614193623489172
-105.621833357603009 -72.536854163346604 -184.409701705517989
-28.481162261332017 -64.556194135581663 -186.179483549327443
-22.117587027044639 -72.662509718749433 -182.663726471220230
15.489714479984128 -68.050444651075495 -190.222637713615029
18.486951382723625 -66.694598432538569 -198.176981624092832
15.371467447720407 -68.856219007384894 -187.897178440703044
-141.360158411875602 -67.428041077349945 -188.392103550166524
23.087271001393063 -65.673663303376003 -190.910045196827070
9.058906963621205 -68.841856217806296 -197.685623210410768
-135.593154267708400 -67.040995931548906 -195.360789709081075
-112.837042509151999 -68.228922802201680 -196.339258859462575
16.404878834589773 -67.457415293388891 -202.147091121255471
-114.856888015998933 -67.500506498862123 -197.722235393598396
-106.261722450722971 -63.969204946393489 -193.133032633543706
-163.831937893811386 -69.710146179093954 -201.010078617393248
-22.802906610434160 -67.878935436408042 -200.968841852095125
14.414818717245836 -67.546877720386348 -201.208115965742849
-141.486774278665990 -68.772909409653124 -204.883363445634615
-134.292225107746560 -70.384367041133871 -207.277761141590275
-18.599771882761559 -67.300706781270918 -208.257521059995270
-10.404318644591649 -69.992066910388672 -205.489788740472278
-13.275939806518089 -69.532267254619768 -206.894395007796163
-139.322813777029353 -71.709265032221822 -205.352280764902275
-15.028898895990961 -69.289090871844621 -213.861117207406721
-8.973639769924086 -72.568903317803404 -215.217970143780320
19.066117889711734 -66.607024669449629 -211.985101925138849
-13.359015707388949 -72.234514196945085 -212.428171197731132
12.000376754321053 -69.294142835923907 -211.014417671222304
-8.876262890777745 -69.890953826122086 -216.557608578203258
-19.481269089054759 -66.464338879583991 -212.964009579230009
14.184308024207791 -73.426519919552533 -221.936568700759153
-0.063819436756733 -73.806794816160689 -220.718702372474695
12.734674600244571 -65.814211807951850 -222.192358032716044
-4.518681888874732 -71.072186289001280 -227.850964167965429
-157.272798115090552 -69.270140422955180 -226.294569280281252
82.357098997647810 -71.542031926398437 -221.077607642391314
-133.728461341071579 -66.904202033056777 -225.375669100155221
-133.505156062931547 -70.345776325698367 -224.137258061921841
-6.878217093657281 -69.835234226658969 -226.218314337428495
10.092231323007015 -69.064157935422443 -234.826138405478844
-155.370213113636822 -68.377852257291721 -230.564126401209023
89.578440625325356 -68.060372410311743 -221.011157142726972
-0.617276737520164 -67.997279766064523 -226.750177422530442
2.162258810834038 -69.806841390115252 -223.971224976955824
75.553987975262572 -71.944650815867632 -230.339003672249561
2.170541468479177 -67.081319291451905 -235.882338463498343
-13.185650338398508 -70.972321490691897 -228.136375182967811
-124.962296559608262 -67.306196852820776 -235.352197911117827
-2.720742315253810 -68.960723942803213 -237.898465511659197
4.012706345859526 -67.088444413300522 -232.993925023131197
67.585681110765179 -67.610132743891199 -239.301100603898703
-156.701805215098489 -69.976071005142373 -239.286519734172032
-10.944241673244191 -68.727971066226758 -245.718896117948930
-167.552347413725101 -70.957932900537287 -239.860704784058214
11.413096176425354 -66.665079211875877 -243.110353124114425
-163.035850479443894 -69.483263433046204 -240.044884157437934
-159.224483276051927 -70.146726227476975 -247.157419528251211
58.579731016076707 -69.378752920277066 -246.267350691793780
63.816678152817104 -70.756089920178326 -243.679952420327140
57.700736677342015 -69.964077748145272 -245.511910291013294
53.289560720520967 -69.384510525057692 -249.969734494957720
-153.903833295490045 -69.552613010568791 -245.108458130968984
-154.969926704736480 -66.557583450743806 -249.561692624518514
-11.813322241938593 -72.056691799116180 -250.432898571701401
-149.850628866356317 -68.449311096088550 -247.828345020430675
21.187091846202232 -70.783455862870156 -252.236974543827671
-168.209816964541488 -73.322075035673507 -252.149677543784946
-166.082198810292311 -67.200769244068766 -249.455498587000193
-80.608601852258744 -70.467390303971456 -249.969141285586375
-167.924857865320888 -68.510389038225910 -260.942116651751974
-83.870524992390074 -68.725832054477749 -257.817955683160960
44.061905185848204 -68.641737360150415 -254.283084686859638
23.779142925169008 -72.682036078302332 -257.311500431899788
-157.167788161658677 -69.712707891325351 -262.990418699026009
-99.306327817209052 -63.745654301114477 -260.771192826336403
40.774284332576762 -69.699117061624634 -256.818749598357897
-103.344069271781095 -75.185075805331564 -260.129537934605594
-152.589303264678961 -64.825919466350740 -266.100141789558108
-103.691037541643198 -68.048311708425047 -259.627302935840362
-166.349946019966836 -70.789330393455003 -260.779217259300765
-111.611591800225867 -70.121251937062240 -264.457955766794328
-151.793202148392709 -71.049712700138187 -266.887744694128344
-157.070316750492452 -67.442912672848507 -264.724110788868529
-164.555188042394064 -68.333396050784998 -264.925721010500865
-162.573522664715028 -67.298202959614713 -263.481491772644290
-164.221549545489097 -68.991993346447899 -266.881796573148222
-164.221331098349140 -69.563442741128952 -263.858764194589412
27.289695206412585 -70.756515558138148 -266.340905135555829
-148.349407795336703 -72.219812906045533 -264.805043507875439
-148.301403451641931 -68.751131186371666 -285.370170325659672
26.227408265326346 -70.467871023123664 -277.509291977106272
-10.172045218741150 -71.141684783615972 -275.556345995615743
-124.323345355519862 -68.017105429243998 -285.568553456251891
-134.873637579722498 -70.202123930006096 -287.241713135860493
-132.983225404715512 -68.297995810364171 -289.688136897398806
-125.378101668206568 -69.848337889876817 -287.064979977262283
-112.884421295943895 -68.206732508868583 -291.067995867376737
-103.845136380873299 -66.028926618279385 -286.739270230546197
10.771675710812652 -72.477809321912900 -293.532419328048775
-83.532312103311767 -70.128412699284254 -291.089797052395113
-147.650143133259320 -69.878737423217430 -289.509634638350406
-100.250283227990863 -69.573257923519975 -291.888075200365108
-127.792272023853940 -66.912419830240026 -293.074603724320582
11.069213433608519 -72.147813115030189 -289.254890399832334
-110.566149046518760 -64.380687062275712 -290.291691602073286
4.370379561525914 -69.960665725627535 -294.274864285128615
-141.742609656176114 -68.824676460356557 -289.973204968844300
-151.518772158842182 -69.822892937375713 -297.123734096386102
-156.574506334683946 -69.024433361323474 -315.320054909154180
-153.782366042552468 -68.618088341134083 -313.010325188789579
49.413041759999572 -70.012544261784157 -25.613626692839340
24.865564854906420 -68.098468850255017 -36.467711131519728
32.369560714028751 -69.017121810802408 -37.585402880496474
-43.358407834828697 -69.722809144987338 -48.452764599798741
-11.175853937942714 -66.067934576828947 -63.221684557218019
95.822165939984330 -69.311118419139646 -69.374793493197700
70.181893270962050 -64.096993389085839 -70.608709917043598
-22.704660596267740 -67.809040566359570 -75.390205390416838
-96.553760263162701 -71.518373141828548 -87.334906133698354
-41.020919214137159 -67.906496584133521 -83.538001254371196
63.025832907759309 -67.400937743235758 -82.430572007075014
63.691076934010702 -70.481461680789110 -86.922357555412134
54.952103820367810 -65.915646093048593 -88.568022139735575
-57.439320631112238 -66.697157737002144 -91.284439120616710
68.285412201063082 -64.457939175888384 -90.299768272116722
45.130441448747000 -71.245885257309268 -98.839933783423177
69.936085954744414 -69.735974148328879 -95.643722736216645
-60.806319717469350 -65.997995626959337 -96.998276906811384
51.604275911011406 -69.907810295896184 -94.143421778447859
47.142652828575514 -69.695367002741676 -99.350348372943969
104.795461535264621 -65.559337158546512 -101.526043822240709
-65.042473985997134 -67.663574011776575 -99.829282744876735
112.052409293314227 -67.673912147551519 -101.323583929447324
-77.575822872799137 -69.712799677488377 -102.045060535480530
55.951345066229358 -70.657211264075485 -105.922829815319318
49.459714752538957 -66.357247836526938 -101.676235697975770
93.289724346698918 -66.459282346398524 -104.776243444586541
85.951677961157856 -66.705222550607516 -107.597536109733170
56.258263608240568 -67.991236214627364 -105.500705399184412
-74.851649665735550 -68.327382608457299 -112.002259806738721
-75.368239770811982 -66.976393625515357 -115.866166457725598
-78.934294909017225 -68.931778456842522 -119.258212195482116
-91.741404896233092 -72.310462872097560 -119.353164232087011
106.354959709668435 -63.332054211918411 -117.468753822310688
-86.943022421559434 -69.994856039435021 -119.911912327635463
-75.225902268136508 -64.244842409222173 -122.191067173555041
111.003160185963381 -67.029777019967469 -116.971185795588895
-60.131042100835245 -60.551428438190911 -119.009346664290746
115.174081814615505 -71.570954482249334 -132.328651860333110
111.510242140267138 -69.629089502595050 -130.324579709669337
108.745939845058260 -69.245937919504783 -126.708108789616659
-91.989466624465649 -68.229164308346938 -138.670027613284560
-45.571140197558684 -67.848572730702841 -142.695181552329359
-77.681156436877004 -65.866962460850246 -145.393304371967588
-67.862890631363612 -67.886647130032031 -149.872811848725604
-68.796835313127872 -66.518082496170919 -148.840129625213734
-53.698567507468425 -67.233786072294478 -144.521584192270524
-45.483320246469958 -71.533936536818359 -146.863743851397231
17.857774663270888 -68.146260065782272 -147.284614858129999
-92.677767637740885 -64.846359482823388 -143.790992087804284
-44.242646607840456 -66.544844035910216 -148.170113651766570
-50.680545092865351 -62.159625099682088 -148.588949478671850
-40.627324842994923 -66.219573955677916 -155.747021821552607
28.997710826443548 -70.261857292952214 -162.755343550151878
-48.569314408022450 -68.236715317112086 -151.860254901529316
-98.958838050459363 -63.866259279099019 -150.376216530285689
-43.859139124526735 -65.187508181263070 -157.713388749100517
27.182842464272714 -69.973411345301542 -149.037981457278619
-97.076281802467420 -72.574814396933021 -163.881051654984986
24.188298766018246 -70.105568133944971 -158.530741316633311
-106.183625893996776 -65.277859840436975 -170.754377504273151
-99.603714395160907 -68.127348230895265 -164.560520808378499
23.674495703480972 -67.998679382042226 -165.823480045459718
27.669783747144898 -66.540388022137307 -168.745872061815447
-106.844370252494599 -69.958792325811402 -174.530237408585066
-140.614753797826211 -65.838202634745784 -175.525779908159024
-18.334158705291852 -68.589084611515048 -190.282351647452913
-25.927841070405034 -67.349512247070976 -182.587627968348073
-113.841267260767864 -69.120968022434099 -187.894758110054937
-142.288273357975555 -63.620900263657703 -187.988007923155806
-101.908453750023526 -65.350848865703369 -182.562174510681558
-156.520127958605656 -68.014814139698032 -191.472351634203477
-129.741685625388612 -71.963441668783645 -196.163214895535219
-131.714946674298574 -69.808668880162287 -197.131091756756888
-18.327386215609419 -66.529576839416109 -190.343012929371895
-118.819106960869235 -68.540068532662715 -198.948829278040506
-115.488261580125425 -64.806588134073209 -199.960726153556209
-25.416553471630625 -70.090653810185117 -195.475721628204752
-152.815414504081645 -65.598089399904651 -198.873931574900240
-130.716164883597003 -69.770447891107153 -205.805778222338603
-123.413147786739003 -65.946413071399547 -205.502835071529262
19.634113860314713 -70.293501316008090 -202.734842657306615
-160.479874058414936 -67.344095751065296 -204.176022601014125
12.743148567602695 -67.491794787706837 -216.208908009695563
15.449122897752098 -69.454210552474137 -215.606622713225619
-15.486966552092241 -64.930361818629038 -209.981639341313212
-3.518747200168471 -68.545235554132915 -217.315852876677496
-168.507899977456219 -65.377434821892621 -211.348477863826815
-157.568077555309088 -64.666779236593953 -213.974403906881889
-93.190646041832878 -67.947210955379035 -219.461490943260628
-97.107991731324816 -69.660174533143078 -223.769752698003941
-159.441694027544116 -68.449836224822548 -226.190249369793747
-104.972938033732561 -66.355993008817364 -220.328232216176303
-10.553162737055461 -66.818054564215501 -215.161087739196461
-125.933566057774684 -69.651198059897780 -223.340691267640466
-140.608878282796269 -68.690972998975099 -225.098881718064632
-1.609543799189508 -69.844190377368534 -222.259285700627828
-132.791074726904441 -66.528508820841665 -225.832896117375469
-122.246190275542986 -71.898994874610878 -224.223015630880639
-112.837624268985081 -70.104409714394649 -225.780318328759876
1.859479350754694 -63.915818860294586 -229.131271769922222
-105.749364725339660 -66.737999229740282 -231.736829911116672
-158.929887159183153 -62.959847163570082 -224.036369351470086
-145.157819326188701 -67.152178318207177 -227.848502860513975
-163.906698251551035 -67.405523070280154 -226.228570600675653
-6.428466013497161 -67.945565175939919 -227.670970406651890
-6.900325878034663 -68.638283642641284 -233.550671910420476
79.957873979604614 -70.825650623465961 -226.417837497243084
1.386748494626613 -70.354743425627575 -230.462930956109261
-141.475128577572804 -67.913346259625001 -237.265825806305145
-12.727795360565995 -66.920812626542826 -230.173762377597171
75.588144666617524 -69.005793042065463 -228.995879314411695
76.187899984230967 -69.147157617208848 -234.046399920551750
-133.072431720454517 -66.727209147281670 -233.546356953028692
-155.892574844879988 -70.411147417306580 -229.493097463019097
-112.688588788559116 -66.858179358756928 -234.013383538498061
-123.205765912715094 -64.086305765058327 -236.752234936596494
-162.192224943566004 -66.754977480187506 -235.976206355720649
-158.596135889230226 -68.379747683899907 -236.799576460993933
-145.220380423108026 -64.540102316236954 -235.281420722475531
-11.245280641047129 -67.516528926775564 -236.332399087433146
-3.691586160678214 -67.913662564873476 -241.459187961006364
-159.220391747785499 -66.579347693825639 -241.792159304585169
6.974408512127440 -69.404762221554776 -239.158486167564263
4.351742679406224 -69.252019262417704 -237.621406919490596
-158.590855230207978 -67.728111692617944 -239.938487194494456
18.283267105907026 -72.319916512812583 -243.191123593988010
52.280716249092052 -71.037893481137289 -246.297884646995669
52.080827559324113 -70.979039111978381 -245.333106139312463
-14.491337221596472 -69.598818834104335 -247.924136050253310
49.697499830971843 -67.664057513895784 -250.128573308500677
-160.037184880442027 -65.057293300620785 -251.244978274232380
-157.681228911860728 -68.292257628462437 -248.575641364322621
-159.076166478401376 -71.455405653205133 -250.630899676528657
56.182332634745507 -68.601522833289806 -249.674728193081876
-90.800470179086645 -67.225818657102721 -253.850590566303879
-123.480787101590067 -67.443823924254247 -255.460791654435184
-104.479263958172481 -72.202188096960185 -254.689273011890464
27.959125794576835 -72.398794003633753 -258.384084930094275
42.705150424375098 -66.894548017207427 -252.142417593674395
-99.422773587861585 -65.852941012667543 -255.988146983161357
-92.276052300471790 -64.395275105052534 -252.698603579388305
46.800050248936444 -72.493915254672132 -255.427784035529328
43.588823190609716 -67.306484391292173 -257.676679149862821
-153.579863814690555 -72.702259294522193 -258.994235605414019
31.795290106416385 -68.804239502820678 -260.207398019249126
-141.591993468957270 -71.063618499366626 -265.350524748038424
-112.171049414269646 -67.871559313065205 -263.453521754088285
-135.734585895125804 -67.188658818265580 -263.593062450075990
32.556692382727960 -68.538916788787475 -263.722285054000054
-124.910373155622295 -67.097383552721112 -264.559265637129158
-9.967150729608948 -67.477927696531466 -259.099452507399121
22.819163780942052 -71.915622217426289 -271.962936908065046
-4.447692220314377 -72.760855059133533 -266.257507612474285
20.991017231052741 -70.901476738400547 -280.820825811977556
-152.068567731304682 -70.144381056184827 -283.470666225916943
-9.728190603253131 -67.629919648355241 -281.595289799224020
-151.925768212625826 -71.742349047458731 -283.522845748599480
-122.603800254838603 -70.141508438956166 -285.992015221774238
-159.311182158850528 -74.034578229878534 -287.252360610261121
-113.559078384343493 -68.446936668966970 -288.054161289831825
-103.271894955437745 -68.876565944431064 -290.519526607348894
-5.771381347406717 -67.454800494459633 -286.216380753249382
-107.143072004216421 -69.854915126287437 -290.164695871503909
-115.310999967104891 -66.367764863640389 -286.175653520387243
-119.096299898836932 -65.656573892973867 -292.594512482080518
-136.886597820319196 -68.247739333196805 -290.791491732058432
-125.061466502434754 -66.272292779888261 -292.483442280820498
-156.543203052560102 -72.762266097944959 -290.859456095037331
-145.682321683539840 -66.684219997697966 -293.769677009578686
-155.344398021557851 -66.260289517659515 -302.755487585542710
-153.016328805446335 -66.995839978493109 -312.018211778561692
-157.168128756462806 -67.072904683393901 -302.045650984235976
-140.610954027173420 -69.590281222572514 -311.547549444364165
-148.417730597407171 -69.866088569739603 -314.769547010455597
37.098053444499655 -68.017726013585204 -9.652654566459118
48.469543505812020 -71.151115770349392 -17.091615979037179
25.793269895341140 -64.297856208572000 -24.227504102063193
52.103300174808922 -68.110246399119404 -28.057536304248451
29.827901884620470 -69.765537336058273 -34.999322044612910
34.529109398070609 -68.657415814246562 -35.250687641774839
-56.029382542202598 -63.226718371206111 -48.134761314136490
81.556385346175588 -64.018770057466668 -61.874407443152400
82.826303416275366 -68.618187771897382 -67.513629284522366
-88.679034052680365 -67.868773766288172 -63.038303752286318
-10.932216243282076 -64.781278067439189 -62.154613276320127
-90.782950009477176 -68.807627359544512 -70.766380719659509
98.139259310917055 -69.570895496755369 -69.339149794456418
-12.027783995743290 -64.350705015389309 -68.665964978177030
69.330358798584484 -70.113091792053567 -79.425201298175580
-40.258260633698086 -71.258333109059336 -79.910055718824978
-25.514546928759636 -70.732118011976723 -76.429396284450362
57.922294997892330 -64.395335550513735 -86.871332858933499
-42.396476120956514 -77.105847511741374 -85.009248383568220
66.570229696877504 -60.536023565296460 -87.660034111701989
54.575501238728926 -71.541225399040513 -90.324621920654820
55.354160505240465 -67.708818566160460 -94.299189021142553
61.252686606367341 -71.969426090172959 -91.395824490337446
58.528903039715551 -64.796517256648826 -96.378836506591398
101.424579275795779 -64.964656764647728 -98.342896296911036
107.663557016945475 -63.850305770621631 -99.240752393580948
61.458679065992634 -70.077269042072572 -100.521300874349265
108.595877220744754 -63.886764267568154 -100.139753159059012
-75.257225908825575 -66.697100449199851 -99.868401005746136
-71.009257399466264 -66.638767842617312 -102.631342976626371
101.991304397648278 -64.693782381382590 -99.096483472481651
54.904179080874535 -68.135670391486556 -101.427341073983769
72.092915019985796 -68.951486081120393 -99.258888434964177
-70.827657518959626 -67.209720014296892 -107.970145152206797
-83.485016055139681 -65.784649226422886 -107.820394356594122
90.831276564978907 -70.380741910485938 -104.898685174603656
41.861678113485809 -68.622921607360169 -104.844448854186794
106.516363481023092 -64.415190844001216 -106.427514231775149
48.197886484547567 -69.656657064511961 -114.063430542956922
111.763286596588046 -67.810519771468691 -104.108872824371701
-77.052278791770220 -66.576560669969055 -111.660279261574303
106.188881919432532 -63.643018790275676 -109.161472014838722
-82.653903776455053 -64.756437229741138 -121.810285632120383
-56.949441580190708 -69.405736749709973 -129.084803395309962
-54.283577898818862 -66.195575614866968 -125.450149149515624
-70.873952295859638 -68.452093362094899 -130.513868574874550
-49.364584868237486 -68.504648727737617 -131.506859777191949
-82.449992665407677 -68.652955741522504 -133.481977476222823
-75.911023432740919 -64.197008931423397 -133.639403331889554
-79.004169158322981 -67.181594829145041 -131.539499227489983
-58.651578826017129 -71.560444796322443 -142.075938431366296
-70.043561365405935 -66.942558594206048 -141.246076646788879
-58.455346968230273 -70.304912978932890 -135.659738152171627
-57.033566141433639 -67.516156173740370 -142.427479419243809
18.302568776503978 -64.124842960897311 -144.411186090810958
-89.447572635407056 -67.545614411560294 -142.803990456557386
-46.142591398783978 -70.874927335026882 -147.234578271421412
-94.958654143576226 -65.389876182703190 -150.353742516830664
-99.372053921256764 -64.925479678789557 -149.866636847141507
20.645082171382231 -69.337930567005728 -154.331996972659766
15.543563554732424 -68.789648642718006 -158.705461127046334
-94.360100743786617 -68.843601605788876 -160.337743321286752
-102.010351245391305 -67.299812591492994 -154.826594643355719
-98.913984569745253 -66.133743690925030 -169.024268821889308
23.509774121108169 -66.936955039659964 -170.459154422627790
-109.074137241202706 -67.005293995535652 -173.395678236470417
24.137826256958103 -67.698698423099387 -167.030392759025830
-146.187571477097833 -67.302607894118111 -177.237479430080924
19.256397468712311 -67.389403336868455 -177.008469747389654
25.565357979864526 -68.395228578025396 -186.469465146579665
-150.926300476077131 -65.955960915500057 -187.342735800278092
22.833167010433797 -68.373099917747979 -176.974936346294186
20.540386492249503 -62.301543210838005 -181.045888928681961
-142.278634852852093 -70.647731906232181 -185.492773848736306
-150.477346270036179 -64.967760962057525 -190.002933313267903
21.317567785996957 -67.743109858541132 -188.926389702436239
19.866285895374816 -69.339627921180096 -190.403939498055649
-140.786334155669806 -69.181883995104371 -194.521588910256696
-107.657518228353567 -67.823338363791692 -198.437503673689918
25.261681077166553 -68.290495470330058 -199.096149457496097
-123.476934410651126 -67.200641551253540 -195.575057425165767
12.038752342766124 -69.771367520656142 -200.510112907171731
-128.807744146706625 -62.635847531928277 -195.189752754036078
-158.051919101868492 -65.074499379766706 -191.485936563495500
-160.135090264110090 -66.667053858394013 -197.572680632959049
-157.434934958504471 -68.213992571742097 -195.909191936456011
-18.838832870760960 -67.657890470666885 -205.252897602732332
-166.266439436788829 -69.378685779772511 -200.413219175805523
-25.106761479992375 -64.602365047331332 -193.380230352429351
-14.119690466366011 -68.871199348267709 -196.557151237100356
11.152346342952807 -63.357521030078800 -196.325253105778557
-156.472345441904451 -67.299509469686868 -204.732185089792438
-106.787269300818480 -66.259333336792224 -203.028314778689492
-16.154131626759860 -64.770792401265652 -202.348513857106525
-158.827441531665869 -63.287767701233967 -202.588996281891724
18.077128396609439 -67.905406761987550 -202.155141723069818
-167.494735943385791 -65.310749726729796 -205.923506029260409
-119.416929035149010 -69.608152432953091 -203.595988718310053
-114.083819586002221 -64.871339801578586 -208.125778835277458
-121.667364615782930 -66.485650101899537 -205.102747372903991
-13.490460130292483 -66.823302272405087 -204.296657052210065
-16.042664608994070 -67.881668758230418 -205.176245774132980
-163.002831501741184 -66.614169739791976 -211.653999968913240
-158.778892597531666 -65.415119121189989 -213.350989861111827
-163.544617473591785 -67.705452142514957 -220.458840538441706
-140.056528652315876 -69.262787179976030 -215.014745418937480
-143.484142286934201 -67.531194320687476 -224.782615916502721
-1.656326858359164 -66.159078959489264 -220.668140489553338
-8.253574554679295 -71.066262186549721 -217.605984285862462
-98.689102955793672 -65.958706184832764 -221.701861324102481
-5.489027333524338 -66.420956568878196 -232.868406656568055
-165.791616553360001 -65.040574405957031 -229.975049652264062
-105.486159398078655 -65.516538607033880 -233.195590085604266
2.722483129643735 -67.800875902488968 -227.330952791122400
4.140975779774278 -66.766549058965708 -230.570099241269531
-110.504667613038706 -68.082504729251937 -233.920104919827310
-0.161870844469309 -68.457421391834600 -229.471108487233522
-116.428925793598893 -64.859625613226328 -235.185374111374784
-6.423238693822528 -65.042595701279751 -233.864120545828541
-0.888184028781987 -66.730587123246892 -235.588256148384659
-0.265692734803569 -67.420197999004174 -238.366532104544518
72.986937882365424 -65.243671874018332 -237.032075292540355
-9.440144476690206 -70.561081166102809 -238.284285816736912
8.686217159883899 -68.383923740781583 -237.890585651733829
12.481276873688781 -66.928881876892547 -239.787849927316159
6.767411583147673 -68.438703999369906 -239.508912279193339
3.898771425915061 -69.204544101787789 -241.783603918278885
65.517517705444249 -64.071491934549869 -239.162649923982457
70.308033807207508 -65.159431366218456 -240.818102856509455
9.680651283295401 -67.610681731808825 -247.576708439295999
55.388763224880947 -68.850340125712734 -242.787972887416828
56.912142508715867 -71.432937731523069 -241.229288556124317
48.326647442530252 -64.911212692148254 -249.977332910964321
42.656036417693798 -65.886009338372972 -251.899688017847438
42.049111035722426 -66.892345002418594 -257.016839060181667
-130.568599799197813 -63.871551773465875 -258.768856629486663
-9.059680751916733 -67.317532782716356 -250.709974350603090
29.698957386088324 -66.759125414472464 -258.668107534211515
46.374016637864791 -67.039378533089447 -248.681784207376040
28.698083735950181 -70.170314897551535 -254.476997175217548
-101.607194304192973 -69.133142197065027 -259.574871410322885
32.564394060482599 -68.680786464235794 -256.853301008071355
-145.869283945493805 -69.386619602754379 -261.819876096706366
-115.104795544051328 -68.927056421804949 -257.681287568424693
-107.567799968943888 -67.395248924937263 -258.737508938894337
-2.263584907198735 -69.747080992606371 -259.675792862980813
-149.185497115509918 -68.738535930470022 -258.237743278112532
