# This PCD file was generated using the MATLAB® pcwrite function
# from Computer Vision Toolbox®.
# .PCD v.7 - Point Cloud Data file format
VERSION .7
FIELDS x y z
SIZE 8 8 8
TYPE F F F
COUNT 1 1 1
WIDTH 795
HEIGHT 1
VIEWPOINT 0 0 0 1 0 0 0
POINTS 795
DATA ascii
-101.271030454061574 -44.328201293945313 -90.205676281535830
-101.704825408954335 -44.799999237060547 -47.769210173089810
-102.090075865918649 -44.799999237060547 -58.753216424884442
-102.208080998884611 -44.799999237060547 81.893531379258249
-103.671790199646097 -44.695999145507813 -89.254485657238604
-104.500204261232724 -44.799999237060547 -53.577235626380762
-105.398441140542985 -44.799999237060547 69.790687137628879
-106.464909294979819 -44.799999237060547 -50.178599205741719
-107.000419492514879 -44.799999237060547 72.276312557179736
-108.110499292355613 -44.095401763916016 -40.648607020289951
-108.606134509795467 -44.589698791503906 79.444732964160892
-109.408582846196595 -44.799999237060547 82.524699482898612
-109.398014235546228 -44.799999237060547 69.253001878188627
-111.312772243933367 -44.076900482177734 -37.791754467078498
-111.308977188697625 -44.014701843261719 -42.557454249971642
-111.811100717265987 -44.799999237060547 85.683683596627688
-111.806130443420486 -44.658199310302734 79.442184721116732
-112.997332064083679 -44.799999237060547 68.396837186542911
-112.912011230076175 -43.853900909423828 -38.746130398218639
-113.407972388476267 -44.799999237060547 81.756515028964188
-113.711254968527413 -44.089199066162109 -39.699968453732950
-115.806129175147831 -43.890899658203125 79.438999414273809
-115.803852239214237 -44.473400115966797 76.579701614811711
-116.599566342389835 -44.799999237060547 71.193469029610441
-116.596842745496744 -44.799999237060547 67.773269766146711
-117.658757486834489 -44.799999237060547 92.781331753054701
-117.716566713792147 -44.400501251220703 -33.031254173142656
-118.201575989214078 -44.578399658203125 73.718393447931291
-119.026434149565375 -44.799999237060547 104.939845794873477
-120.597022800242584 -44.437198638916016 67.997783666892744
-122.202333701611110 -44.289798736572266 74.668309950706430
-124.599298467903523 -44.426200866699219 70.853896159511891
-237.719039330345481 -44.799999237060547 20.248201545778024
-238.141569379099536 -44.225101470947266 -1.674041672563552
-238.549168416249813 -44.368999481201172 7.856911562929978
-238.547650414470439 -44.437999725341797 5.950657160552595
-238.546132424462343 -44.373699188232422 4.044417540122430
-238.961754998157204 -44.799999237060547 23.670213358802265
-238.937018223315533 -44.684700012207031 -7.393377332080032
-239.740815996153344 -44.478401184082031 -2.628415702431159
-239.733985025833164 -44.359500885009766 -11.206513187056437
-240.552962776594342 -44.455398559570313 12.620942398480537
-240.546131790326001 -44.151901245117188 4.042824886700963
-240.537023819520158 -44.162200927734375 -7.394651459677601
-240.942330561707024 -44.038799285888672 -0.723121896465033
-241.349929579111972 -44.240001678466797 8.807806543504134
-241.734743370847667 -44.632301330566406 -10.255005938207862
-242.154471111807055 -44.218700408935547 14.525917678622761
-242.148082867427036 -44.799999237060547 6.503780196095454
-242.476882849267014 -44.799999237060547 4.994407911406054
-242.132460124072850 -44.472801208496094 -13.114723352939343
-242.563529715718346 -44.799999237060547 25.889744631065906
-242.562070129212003 -44.441600799560547 24.056846118591928
-246.164318294381474 -44.799999237060547 26.890078075120762
-246.930184716450043 -44.356498718261719 -15.977845430391181
-247.331711703194969 -44.743400573730469 -14.071964163825985
-248.533036543326574 -44.799999237060547 -12.404921014740008
-248.527913296220817 -44.448398590087891 -18.838518446896323
-250.530948657669171 -43.888301849365234 -15.027612309140174
-252.530436941108206 -44.799999237060547 -15.671004685825125
-252.529429986249795 -44.261699676513672 -16.935503949199177
-252.526773520490678 -44.799999237060547 -20.271402244519034
-252.962060728189414 -44.460098266601563 24.048564325660696
-253.360612159849524 -44.799999237060547 22.217845901128584
-253.764340542725563 -44.736499786376953 26.907326150769492
-254.930182179904733 -44.685398101806641 -15.984216044077048
-256.931428882160503 -44.799999237060547 -14.438608043601516
-256.929437746420433 -44.734298706054688 -16.939007794016995
-257.362003030264304 -44.799999237060547 23.962860456551894
-258.528106211810496 -44.799999237060547 -18.581081853141217
-261.762060989746374 -44.119201660156250 24.041556648176048
-262.138452034129955 -44.799999237060547 -5.598252144212713
-264.927795094720636 -44.799999237060547 -19.004978584747125
-265.760956410852486 -44.799999237060547 22.652871826407409
-268.959793897449117 -44.498401641845703 21.176424197230403
-270.129760298957876 -44.799999237060547 -16.516219411092589
-270.560694626449504 -44.799999237060547 22.337549971041192
-272.159774572289962 -44.281200408935547 21.173875966337235
-272.959800114180950 -44.799999237060547 21.182638301469716
-274.557851442622166 -44.799999237060547 18.765584896697217
-279.356831438124175 -44.799999237060547 17.459793398519366
-279.735252836299480 -44.799999237060547 -9.630366963695572
-280.155072338431921 -44.799999237060547 15.265787176901846
-281.337772914046695 -43.966701507568359 -6.474041689635675
-281.736967729345281 -44.799999237060547 -7.477659610479940
-283.757817747007209 -44.799999237060547 18.704278824695759
-283.738525028720233 -44.563400268554688 -5.522852966611001
-285.752032221670277 -44.799999237060547 11.438218851040675
-286.155216163501166 -44.446300506591797 15.444008769514973
-287.352320537794697 -44.799999237060547 11.791974670688834
-287.333976036902186 -44.638000488281250 -11.244418343347732
-289.354961207650831 -44.799999237060547 15.107240687734190
-290.550654667713331 -44.697200775146484 9.721751981711641
-292.152462888764546 -44.799999237060547 11.984152110816332
-292.149142266125637 -44.323398590087891 7.814228458525265
-293.346877095982677 -44.280101776123047 4.953898763368385
-295.150644552418214 -44.799999237060547 5.905582670121383
-295.533594762764380 -44.799999237060547 2.092776746139204
-12.185389965675295 -43.846900939941406 -23.415914238500370
-12.621377207404224 -43.846900939941406 -30.088161430527272
-13.327738737455675 -43.846900939941406 -18.960722044873510
-33.711646327613018 -43.846900939941406 -39.176660106642537
-44.612931872956096 -43.846900939941406 88.010900560085787
-45.521814214552542 -43.846900939941406 59.479364065938412
-49.420833048067045 -43.846900939941406 97.931971285847553
-49.821871967924224 -43.846900939941406 39.460335170575803
-50.965923565390362 -43.221599578857422 28.975021011638727
-53.423990093232348 -43.846900939941406 101.894887321577400
-58.271096130154980 -43.846900939941406 -79.687033061963419
-58.483650318806291 -43.846900939941406 -74.342001044840899
-58.892298155662118 -43.122501373291016 -63.484420492580043
-60.163644394868605 -43.279701232910156 26.108295916384854
-60.531979605706184 -43.846900939941406 -86.360733468066400
-61.827853052849697 -43.846900939941406 106.740598370848474
-63.000833750805647 -43.583499908447266 72.809252688049312
-63.399233107476611 -43.846900939941406 70.801934826061043
-64.575788507985777 -43.089599609375000 41.354787242353005
-66.498093700465205 -43.846900939941406 -56.212475007096643
-66.977299680791518 -43.412101745605469 43.259175049745181
-67.269013788469223 -43.846900939941406 -92.724597985745007
-69.429272865959064 -43.846900939941406 108.522440924814049
-70.201591208486022 -43.463199615478516 73.756617130046493
-76.066627457561850 -43.846900939941406 -95.728606360925056
-77.781094281428793 -43.480300903320313 48.016171504938697
-78.489068472484021 -43.846900939941406 -67.550823722343509
-79.029666702601247 -43.240299224853516 109.015101206756512
-79.357249686705103 -43.846900939941406 53.733721588904039
-79.293048379323608 -43.268001556396484 -62.547563746038279
-79.679233669121402 -43.846900939941406 -79.897676886731674
-80.498365586976718 -43.162101745605469 -55.876623568999278
-80.875589432279170 -42.901199340820313 -84.470629622910550
-81.293526256906517 -43.846900939941406 -61.948257847309833
-81.277749750858007 -43.846900939941406 -81.759851297127568
-82.866172389105884 -43.846900939941406 -96.297024740441302
-83.275590197193992 -43.325901031494141 -84.472540808231415
-88.074073686702874 -43.323501586914063 -86.382665980206724
-88.466875896653050 -43.846900939941406 -95.423478471824254
-93.673079594227204 -43.846900939941406 -87.631326674231246
-94.083179771047895 -43.649898529052734 -74.949947566938263
-94.487735206004501 -43.498001098632813 -69.231464506326432
-94.479386193844690 -43.471599578857422 -79.715866699633338
-95.291525344893572 -43.589900970458984 -64.466508592646150
-95.674828731776088 -43.435600280761719 -85.435616252375127
-96.494565537631715 -43.266300201416016 -60.654965397166706
-97.274067717918911 -43.479801177978516 -86.389992183515275
-97.674828097639761 -43.356201171875000 -85.437208905796595
-98.229998852398850 -43.846900939941406 109.418810315675714
-98.885426159644652 -43.846900939941406 -72.125172805901940
-98.871135603175290 -43.846900939941406 -90.070761903522779
-99.700633465463824 -43.225101470947266 -53.032512243159566
-100.893775570501532 -43.846900939941406 -61.641066269357424
-101.302908368209927 -43.188499450683594 -50.174488565219555
-102.096839172105163 -43.381900787353516 -57.800127026069617
-104.902146720216422 -43.167800903320313 -51.130457149781165
-105.307461132804960 -43.533599853515625 -44.458876094247323
-106.106704953275326 -43.023101806640625 -45.412611152968118
-107.001052093865781 -43.846900939941406 73.070711566775614
-107.305183480715911 -43.402900695800781 -47.319869543924398
-107.803095801165355 -43.075599670410156 75.632978048271610
-108.207199395806668 -43.846900939941406 80.784055588106128
-108.507464695822108 -43.170101165771484 -44.461424343366964
-110.440141423973770 -43.846900939941406 107.083982552938920
-110.110498658219285 -43.368000030517578 -40.650199673711420
-110.600820947178605 -43.709499359130859 72.771347534795751
-112.207649882792410 -43.349300384521484 81.348168990550946
-113.403851474299401 -43.608600616455078 76.581612800132561
-114.213107032022478 -43.846900939941406 88.200272894508544
-115.001572426196944 -43.706798553466797 73.720941697050932
-117.016156912618740 -43.846900939941406 92.034841588418786
-120.602335734798601 -43.392200469970703 74.669584072228503
-120.598540758544232 -43.405101776123047 69.903983471432824
-121.800814344258313 -43.408199310302734 72.762428678065746
-236.953716809625035 -43.422199249267578 13.576929108923903
-237.438266401892264 -43.846900939941406 19.295324626165890
-237.349171848488453 -42.914501190185547 7.857867152552663
-238.158267394305909 -43.114299774169922 19.294751269962084
-238.153713377386367 -43.068801879882813 13.575973519301220
-238.949921184805049 -43.269199371337891 8.809717734900483
-239.755995974076683 -43.306800842285156 16.434078253456939
-240.549926781009674 -43.066398620605469 8.808443607302918
-240.539300756972636 -43.575599670410156 -4.535351752867479
-240.962064533007378 -43.002498626708984 24.058120246189496
-240.958269558271894 -43.708400726318359 19.292521552741832
-240.954474544045723 -43.197399139404297 14.526873268245446
-240.945366557291692 -42.926101684570313 3.089376894712587
-242.151435116222387 -42.919498443603516 10.713418887445142
-242.149158119533894 -43.092899322509766 7.854044794061928
-242.561311150061186 -43.752300262451172 23.103746216321888
-242.766891302236388 -43.846900939941406 4.994176969855391
-242.963536386681795 -43.846900939941406 25.905627119392289
-242.959786882437214 -42.921798706054688 21.197128703860450
-242.943847925363031 -43.346599578857422 1.181534845702311
-242.931625424902023 -43.846900939941406 -14.167060675318364
-243.337784962636960 -43.774799346923828 -6.443781274627810
-243.333230929769258 -43.129199981689453 -12.162579052442968
-244.138713202828455 -43.846900939941406 -5.263118537559244
-244.562828474226507 -43.260299682617188 25.008353367440499
-246.132458855800195 -43.086700439453125 -13.117908659782277
-247.340937307650819 -43.846900939941406 -2.486767527370771
-248.561309247652190 -43.250301361083984 23.098968256057489
-248.530949291805484 -43.357799530029297 -15.026019655718706
-249.340819055812631 -43.212699890136719 -2.636060443714591
-249.332476020416749 -43.846900939941406 -13.112957222531104
-250.926068111300935 -43.846900939941406 -21.148929184106734
-251.327915460186802 -43.600299835205078 -18.840748164116572
-251.327156402054612 -42.947898864746094 -19.793947248484073
-252.161470081559770 -43.846900939941406 23.311001435836154
-252.526093138443542 -43.846900939941406 -21.125802608381417
-254.527911393811820 -43.362499237060547 -18.843296407160725
-254.938592107212116 -43.846900939941406 -5.423318704431066
-256.961043873494475 -43.846900939941406 22.750879066159484
-258.128660076246717 -43.283699035644531 -17.893063273758735
-259.035935585031154 -43.846900939941406 -15.034385059552292
-259.361119110919503 -43.846900939941406 22.852068630896504
-261.760543031444740 -43.512298583984375 22.135356843635964
-262.128658807974034 -43.395401000976563 -17.896248580601668
-262.127426253440149 -43.846900939941406 -19.444048153930456
-263.727146366895681 -42.942600250244141 -19.803821694836774
-264.959036186570984 -43.399600982666016 20.226509601803293
-266.311288360908009 -43.846900939941406 23.084833469092956
-266.127356421736636 -43.846900939941406 -19.533333058107729
-268.527451964210854 -43.846900939941406 -19.406645111257681
-269.095929953919949 -43.846900939941406 -15.042396104318112
-269.728662501769691 -43.036701202392578 -17.902300668463635
-270.529409020238631 -43.179698944091797 -16.949837817841395
-274.155978963418136 -43.485599517822266 16.406684619468109
-274.558514926451494 -43.846900939941406 19.598765060073497
-277.329245443476168 -43.846900939941406 -17.180953160911123
-277.732235233510266 -43.846900939941406 -13.418972388307729
-279.754480782261737 -43.846900939941406 14.515425970954869
-279.755224296251072 -42.983699798583984 15.449105255603275
-279.731695326672707 -43.408000946044922 -14.097765144393350
-280.553693830182453 -43.489498138427734 13.542209271626522
-281.755258469739829 -43.846900939941406 15.491222820103690
-282.533200190156094 -43.120700836181641 -12.193795044922535
-282.952958488174659 -43.579498291015625 12.587178138654858
-284.135085833273138 -43.846900939941406 -9.834170949528389
-284.932157482241280 -43.846900939941406 -13.534805707917126
-285.753101250576151 -43.846900939941406 12.780668567299209
-286.148385169638459 -42.901798248291016 6.865881720995260
-286.950680223213510 -43.280399322509766 9.724618738428710
-286.934741246393969 -43.216598510742188 -10.290999915253792
-288.937017628691478 -43.181198120117188 -7.433193679767680
-289.349155360943882 -43.217399597167969 7.816458163594532
-289.336252419199695 -43.127998352050781 -8.386612107861620
-290.552931664401854 -43.473598480224609 12.581126075094854
-290.935892263272706 -43.846900939941406 -8.847185177354483
-291.339287701666649 -43.388198852539063 -4.575805152202925
-291.746112504679104 -43.442501068115234 4.002052961541616
-292.539269010643807 -42.902400970458984 -4.576760729674628
-293.338156840966633 -43.846900939941406 -5.996697434955223
-294.150150430616691 -43.846900939941406 9.079450410170029
-294.263606151765600 -43.846900939941406 2.093788072313128
-294.539954013854015 -43.846900939941406 -3.717353595056650
-11.946672220275577 -42.893699645996094 -25.322024336614675
-13.716748681176353 -42.893699645996094 -32.761336797762567
-15.544660852452948 -42.893699645996094 -15.793586898838758
-18.132364782632148 -42.893699645996094 -13.152446798522085
-19.332944334019050 -42.893699645996094 -12.426101977865496
-20.225281826318412 -42.893699645996094 -18.656714905682033
-20.533283717059895 -42.893699645996094 -11.998957118806619
-21.733813496508503 -42.893699645996094 -11.335114185681295
-22.510802857706601 -42.893699645996094 -40.230443088880818
-23.586599058079443 -42.893699645996094 -16.753190599894427
-24.534420717781714 -42.893699645996094 -10.572743388510180
-26.929826119784810 -42.893699645996094 -16.345353198837547
-28.134507871674529 -42.893699645996094 -10.465210953760863
-31.328948145066690 -42.893699645996094 -17.449156522396024
-32.133746029078715 -42.893699645996094 -11.425894508945397
-33.056895070359303 -42.893699645996094 -32.963837393915369
-34.532774644814282 -42.893699645996094 -12.643806816293257
-34.527222654889840 -42.893699645996094 -19.615804727764282
-35.732120367333110 -42.893699645996094 -13.466861833960994
-36.922010507570135 -42.893699645996094 -26.163911728729538
-37.330955617376766 -42.893699645996094 -14.928235666481982
-38.122526987769703 -42.893699645996094 -25.516769534937843
-38.529941081526403 -42.893699645996094 -16.203690748227544
-40.016676460519065 -42.893699645996094 -18.672475326869037
-40.292648549658395 -42.893699645996094 -32.016500820193805
-40.523587990308016 -42.893699645996094 -24.182480426776344
-40.522655253643421 -42.893699645996094 -25.353779036107618
-41.224440251926637 -42.893699645996094 -22.485938310564105
-41.288127462170969 -42.893699645996094 -29.157890937386760
-41.322305364149969 -42.893699645996094 -25.792518680128197
-41.593745360673267 -42.893699645996094 -27.251933295828579
-43.954363534892600 -42.893699645996094 86.168124545635962
-46.835335432393506 -42.893699645996094 93.790832767679234
-50.740299195344271 -42.893699645996094 31.834601384565321
-51.420067738770506 -42.893699645996094 23.255957142234308
-52.395131256059564 -42.893699645996094 19.442679464041870
-54.624811566100391 -42.893699645996094 102.925028814098184
-59.427122214449696 -42.893699645996094 105.825708394221152
-59.674618050593779 -42.893699645996094 -85.685848548842742
-60.289949629126603 -42.893699645996094 21.342593620632854
-60.894837009787913 -42.893699645996094 -60.297011166410186
-63.401740820922619 -42.893699645996094 73.951035084905513
-64.628678457950002 -42.893699645996094 107.772166543617146
-68.098605216351544 -42.893699645996094 -55.568851872157680
-69.000068974049526 -42.805500030517578 71.851273739107128
-69.139064235345813 -42.893699645996094 -93.039090796620997
-69.685869015276268 -42.893699645996094 -55.868013286439478
-71.267488349705729 -42.893699645996094 -94.641784150562756
-72.098682546701454 -42.893699645996094 -55.473335733244923
-73.292291301062903 -41.959098815917969 -63.495887595391963
-74.897602278375061 -42.089500427246094 -56.825265944176863
-74.890012252960446 -42.419399261474609 -66.356558698473577
-74.883181281121409 -42.428199768066406 -74.934658090446888
-75.428495035931292 -42.893699645996094 -68.263192334862566
-75.829670768976229 -42.008701324462891 109.017649449800672
-75.693051046647426 -42.308300018310547 -62.544696971094737
-75.682858779227743 -42.893699645996094 -75.343795696109822
-76.898360624908435 -42.535701751708984 -55.873756787980255
-77.266701269111351 -42.893699645996094 -95.632561859233078
-77.693186345538948 -42.893699645996094 -62.375589605397579
-79.296843349502481 -42.511501312255859 -57.781970774634701
-80.466807556524429 -42.893699645996094 -95.506112346519430
-82.189694980057538 -42.893699645996094 58.812964839909405
-82.074075589111871 -42.399200439453125 -86.377888019942333
-83.391781668490438 -42.893699645996094 61.436710871690416
-85.666671238996685 -42.893699645996094 67.072398051500642
-85.666788523930677 -42.893699645996094 -95.528250978977766
-86.073585936447657 -42.893699645996094 -86.994369641117515
-90.601495164191547 -42.893699645996094 73.625969329209823
-95.282417358139554 -42.421600341796875 -75.904004966179016
-95.830146201870633 -42.893699645996094 109.606718451300182
-95.689249729029754 -42.383300781250000 -67.326224106105101
-96.068408069886544 -42.893699645996094 -93.500537940135416
-96.482421555293030 -42.182498931884766 -75.904960561877189
-96.891523311706081 -42.058498382568359 -64.467782714168223
-96.888487316121413 -41.996200561523438 -68.280281505345840
-97.492337984799534 -42.893699645996094 79.453583179997523
-97.294560706341912 -42.472999572753906 -60.655602454890001
-98.488492912326038 -42.346199035644531 -68.281555632943409
-98.502710643157670 -42.893699645996094 -71.140965749713757
-100.096080831647285 -42.215099334716797 -58.751628552874109
-100.499877282896435 -42.310699462890625 -53.986251116576419
-102.901388376720803 -42.438301086425781 -52.081962491281708
-105.409350258142439 -42.893699645996094 83.489981652659921
-105.800450158140364 -42.893699645996094 72.311466896945404
-107.798926310402976 -42.893699645996094 70.397075014806802
-110.606892935310199 -42.291801452636719 80.396341302454942
-114.605373632792265 -42.443500518798828 78.486860823670526
-115.827104022885408 -42.893699645996094 105.778491490102823
-116.599301004448847 -42.494800567626953 70.860266773197765
-118.202334969883779 -42.425201416015625 74.671495257549367
-118.200057951931058 -42.429401397705078 71.812094461293754
-121.022822492880650 -42.478298187255859 100.403655275029877
-236.334961794652656 -42.893699645996094 12.624301306393360
-236.784447682181622 -42.893699645996094 10.717692764250149
-237.483023933354417 -42.893699645996094 -7.392219477222564
-238.154472380079739 -42.095798492431641 14.529102985465695
-238.141569379099536 -42.355701446533203 -1.674041672563552
-238.583292466027956 -42.893699645996094 -4.533794130725113
-238.952957180389717 -42.390701293945313 12.622216526078102
-238.936259244164717 -42.230400085449219 -8.346477234350072
-238.933619580174962 -42.893699645996094 -11.661276445783606
-239.739297958870310 -42.580600738525391 -4.534714689068696
-240.134737774643042 -42.683898925781250 -10.253731810610297
-240.541577773406459 -42.377799987792969 -1.675952863959900
-241.107647161370465 -42.893699645996094 5.948618566117275
-241.304750831403396 -42.893699645996094 -10.254663523554719
-241.710516282321464 -42.893699645996094 18.338772420646698
-241.352965574696640 -42.572799682617188 12.620305334681754
-242.546131156189659 -42.338798522949219 4.041232233279497
-242.544613150802974 -42.035198211669922 2.134973300950547
-243.059514878034321 -42.893699645996094 18.337698176691582
-243.347297196590802 -42.893699645996094 5.501354822897332
-243.804374439853518 -42.893699645996094 3.087100189647635
-244.536263572096658 -41.953300476074219 -8.350936668790574
-245.731706106990345 -42.655498504638672 -14.070690036228417
-247.359578678660483 -42.893699645996094 20.922424764977865
-248.140430646054483 -42.893699645996094 -3.108005082624265
-248.518707786797108 -42.893699645996094 -14.072909400812595
-250.960008591492425 -42.893699645996094 21.472357999362309
-251.329056915776135 -42.893699645996094 -17.407347510814347
-253.759786509857861 -41.979499816894531 21.188528372954334
-255.360551164194703 -42.729400634765625 22.140453329724266
-256.960602230890231 -42.893699645996094 22.196279480042520
-256.961315739550116 -42.262798309326172 23.092279104396741
-257.040543307303722 -42.893699645996094 22.139115506682707
-257.360416588272585 -42.893699645996094 21.970661190448947
-257.359791471926144 -42.459800720214844 21.185661591935300
-258.127560827090974 -42.893699645996094 -19.273462540057427
-259.361628441324513 -42.893699645996094 23.491668228209633
-261.729413187903731 -42.893699645996094 -16.956429543947745
-262.161219890541417 -42.893699645996094 22.992838529534453
-262.158259784669951 -42.549999237060547 19.275639428904483
-263.927158510509400 -42.893699645996094 -19.803980969899708
-264.127186164471880 -42.893699645996094 -19.746339946018555
-266.129416518852224 -42.141300201416016 -16.946333985174562
-267.730940152339883 -42.068901062011719 -15.041309126134589
-269.359028687957334 -42.746498107910156 20.223005769136464
-269.330553557396456 -42.893699645996094 -15.535083402751766
-270.931945399821984 -42.893699645996094 -13.795557224757921
-271.336258126426685 -41.954601287841797 -8.372278227068421
-271.331704093558983 -42.074199676513672 -14.091076004883583
-271.754467830103067 -42.591499328613281 14.502346403124665
-272.937263431707663 -42.893699645996094 -7.118152095059763
-273.329210798004738 -42.893699645996094 -17.222867098191500
-274.133721552264205 -42.893699645996094 -11.543406463513342
-274.131690998740737 -42.507701873779297 -14.093305709952851
-276.152183338788006 -42.610198974609375 11.639473483863190
-276.130914901128563 -42.893699645996094 -15.068698713792813
-276.537473190592550 -42.893699645996094 -6.825519143834670
-277.335437042829994 -42.893699645996094 -9.405755736042767
-277.332411399881380 -42.893699645996094 -13.205254043061178
-277.399447233046033 -42.893699645996094 -13.142807405685861
-277.332461170300803 -42.827999114990234 -13.142754062877938
-277.331702191149986 -41.957099914550781 -14.095853965147981
-277.733213919110710 -42.159999847412109 -12.189972686431798
-278.955236756933004 -42.747699737548828 15.449742307251075
-279.644231899802605 -42.893699645996094 15.449193641841280
-279.349917530521680 -42.433399200439453 8.777546128496271
-279.330792390215038 -42.893699645996094 -15.239147001201392
-279.755151313280464 -42.893699645996094 15.357455752344308
-280.554452832875825 -42.615100860595703 14.495338737790998
-281.335495897612816 -42.042999267578125 -9.333440578543254
-282.149145436807260 -42.587398529052734 7.822191725632598
-282.534718227439157 -42.589298248291016 -10.287496058284997
-282.939296468552925 -41.940601348876953 -4.569116012693158
-282.932356002702534 -42.893699645996094 -13.284714216660777
-284.148385803774772 -42.551601409912109 6.867474374416727
-285.342325639150999 -42.205398559570313 -0.758478809712178
-285.752186398447293 -42.692100524902344 11.631828742579758
-287.338529990788516 -42.273498535156250 -5.525719747630035
-288.546860307368831 -42.770801544189453 4.957721146161083
-288.538511299765617 -42.697498321533203 -5.526675325101737
-288.940053624276175 -42.225799560546875 -3.620694888590061
-289.740041163594242 -42.454700469970703 -3.621331940237862
-290.549136669920983 -42.525100708007813 7.815502586122831
-290.546100678133485 -42.450099945068359 4.003008563315281
-291.343082739435374 -42.664299011230469 0.189872696187898
-291.747630494687201 -42.344200134277344 5.908292581971782
-293.349154092671199 -42.791301727294922 7.813272856751600
-295.348422562010569 -42.893699645996094 6.893845497169268
-12.218395283292805 -41.940601348876953 -28.181643326522682
-12.925707738555090 -41.138000488281250 -21.510302760173065
-13.717358666513300 -41.086101531982422 -31.995338200304381
-14.529051945526380 -41.940601348876953 -17.311878812949526
-14.915231345492019 -41.940601348876953 -34.666993018653592
-16.931208369127297 -41.940601348876953 -14.605590401483184
-17.085869847696070 -41.940601348876953 -25.326116818254718
-17.718034151197823 -41.940601348876953 -29.139121436557545
-17.313134510984330 -41.940601348876953 -37.301799791747221
-17.731019419381219 -41.169498443603516 -14.842227448451276
-17.725357535981864 -41.940601348876953 -21.952225804447988
-18.132129866191725 -41.940601348876953 -13.447446781280899
-18.512368033216710 -41.940601348876953 -38.263356884953147
-18.918020246123248 -41.940601348876953 -31.167577813284275
-19.727982789660217 -41.456699371337891 -18.656318893050358
-20.111552151247412 -41.940601348876953 -39.289029486900787
-20.516629179583497 -41.940601348876953 -32.913152224029240
-21.199341430704383 -41.940601348876953 -17.704390068943191
-21.329500622122403 -41.053199768066406 -16.751393211551225
-21.733556044554380 -41.940601348876953 -11.658413491132332
-22.100437738428706 -41.940601348876953 -33.908211070836913
-23.315551209762212 -41.940601348876953 -34.269381601973024
-24.131017008675354 -41.003200531005859 -14.847323939096192
-24.910540040497235 -41.940601348876953 -40.563351636293930
-25.333294328585236 -41.163200378417969 -11.988979824946497
-26.514951088794319 -41.940601348876953 -35.022829877004163
-26.934206395138734 -41.940601348876953 -10.844754128083618
-26.930258286142486 -41.715198516845703 -15.802653557067607
-28.840076855942325 -41.940601348876953 -34.866779623363776
-29.733942195117880 -41.940601348876953 -11.176684207699303
-30.131015106266361 -41.005599975585938 -14.852101899360591
-30.510724034262907 -41.940601348876953 -40.332612164623669
-30.929446836002658 -41.940601348876953 -16.823237375554275
-31.315750464563404 -41.940601348876953 -34.022349586043887
-32.132534337779703 -41.147399902343750 -12.947494749760846
-32.928403650708198 -41.940601348876953 -18.134029900735243
-33.333030122532442 -41.940601348876953 -12.321550818915195
-33.728737329856727 -41.127101898193359 -17.714367564730583
-34.112022876060948 -41.940601348876953 -38.705878934397063
-34.918056103613125 -41.940601348876953 -31.128919825996036
-35.555697112486477 -41.940601348876953 -37.731427065496405
-35.726026000131704 -41.940601348876953 -21.119958467465509
-36.119826641026890 -41.940601348876953 -28.906975732842419
-36.113013907810796 -41.940601348876953 -37.462171689694863
-36.524389886738795 -41.940601348876953 -23.173893827386124
-36.929496057328628 -40.992000579833984 -16.763815908542441
-37.330767924206306 -41.940601348876953 -15.163934291700599
-37.323672493853550 -41.940601348876953 -24.074131585578350
-37.313893122854068 -41.940601348876953 -36.354729193255409
-37.724182107697743 -41.133899688720703 -23.436251467291214
-37.722350237907349 -41.940601348876953 -25.736650518181115
-38.114591989920370 -41.940601348876953 -35.481266802758071
-39.727217390164711 -41.080898284912109 -19.625444511632523
-40.123620746953236 -41.940601348876953 -24.144060713706310
-40.924940835169650 -41.366798400878906 -22.485699811103071
-40.919627823151131 -41.236900329589844 -29.157597491188270
-43.040233808981156 -41.940601348876953 77.590747660124237
-43.402355634825703 -41.198200225830078 74.731060497942408
-45.189000855063462 -41.940601348876953 89.979642579470877
-49.779585204073527 -41.535900115966797 46.132272662995206
-50.971995556559705 -41.674598693847656 36.600018593993966
-56.556407185483181 -41.940601348876953 17.024365000244984
-57.756812675581777 -41.476299285888672 17.532129644234729
-58.881835620040782 -41.940601348876953 -76.622912725706868
-60.086259258927129 -41.940601348876953 28.014657735746717
-61.272982269366054 -41.940601348876953 -87.738727244475498
-61.771569713525459 -41.940601348876953 36.061917472709780
-63.352926797428466 -41.940601348876953 40.402660533439814
-63.398507253419695 -41.940601348876953 69.890432276934803
-64.602086162951693 -41.940601348876953 74.378477485700131
-66.201592476758677 -41.533000946044922 73.759802436889416
-66.599182677608326 -41.940601348876953 70.731584169240165
-72.785177912558865 -41.940601348876953 -70.167383770957969
-72.485465160513670 -41.592201232910156 -72.073349929641978
-73.283107425355155 -41.940601348876953 -75.028682705798460
-75.515045232184406 -41.940601348876953 -57.778959226824412
-75.278673323425380 -41.940601348876953 -80.597671665264301
-75.277110689003223 -41.337898254394531 -82.559974204701533
-77.299880061242604 -41.119201660156250 -53.967776333242114
-77.276068059616151 -41.940601348876953 -83.870068640504215
-79.300638407775978 -40.987499237060547 -53.016267177045513
-79.786155736990438 -41.940601348876953 54.371376915323992
-80.872950403178208 -41.940601348876953 -87.784631562868356
-80.868758697384266 -41.456001281738281 -93.048431468591474
-81.699880192021098 -41.269401550292969 -53.971280171984439
-82.100640571741963 -41.206901550292969 -53.018496894265759
-82.071798574196890 -41.589801788330078 -89.237285001501874
-85.267198028538786 -41.940601348876953 -95.011933770353153
-85.668000529636330 -41.038700103759766 -94.006255917120512
-86.597206382703078 -41.940601348876953 68.241857760209257
-88.499122028063354 -40.995899200439453 -54.929896187763148
-88.867556895437190 -41.940601348876953 -94.560798308875306
-89.299876256424625 -41.388801574707031 -53.977332253770911
-90.499121393927012 -41.134700775146484 -54.931488841184610
-92.471037821896701 -41.488899230957031 -90.198668610126674
-93.668757690668599 -41.355899810791016 -93.058624452919062
-94.499879185305431 -41.412700653076172 -53.981473156312020
-94.469519390459226 -41.247798919677734 -92.106258889197235
-95.404789763265967 -41.940601348876953 77.767050740758179
-99.298355048459953 -41.210998535156250 -55.891594507515777
-100.229664558391406 -40.987499237060547 108.998219076843682
-102.096839172105163 -41.324401855468750 -57.800127026069617
-105.029111379122213 -41.940601348876953 108.307392840749117
-106.600063155800200 -41.695800781250000 71.821331849923169
-107.010264317812911 -41.940601348876953 84.639105420777696
-107.471854148604535 -41.940601348876953 76.586336609548781
-107.828638852852578 -41.940601348876953 107.709063459017528
-109.005369304860295 -41.436298370361328 78.491320258111017
-109.800818149076292 -41.370601654052734 72.771984598594543
-110.611942682648916 -41.940601348876953 86.737640256185756
-111.805371468826280 -41.558101654052734 78.489090540890771
-114.202336238156434 -41.451698303222656 74.674680564392304
-114.200818279854786 -41.573101043701172 72.768480759852224
-118.226191483592487 -41.940601348876953 104.629684306121590
-118.219032982052411 -41.543498992919922 95.640284385378948
-120.224345279434345 -41.384601593017578 102.310488322597195
-120.525828631906933 -41.940601348876953 100.404051044641932
-235.914407566965167 -41.940601348876953 6.905884391830218
-236.552205049957877 -41.775299072265625 11.671008014317639
-236.544615053211970 -41.651798248291016 2.139751261214946
-236.541579041679142 -41.733398437500000 -1.672767557116968
-237.350689846280801 -41.797599792480469 9.764116548141473
-237.749165618147515 -41.737499237060547 7.857548626728762
-238.146980331254980 -41.940601348876953 5.120845861485062
-238.144158921810259 -41.940601348876953 1.577816961292262
-238.544614419075629 -41.183700561523438 2.138158607793479
-239.346894217663646 -41.553199768066406 4.996900405747981
-241.340062613207152 -41.523601531982422 -3.582789732298766
-241.336267638471639 -41.016399383544922 -8.348388425746421
-241.332993222407310 -41.940601348876953 -12.460287451583572
-242.157507107391751 -40.998199462890625 18.338416469800382
-242.560552170910370 -41.425800323486328 22.150646314051848
-243.335507946203109 -41.378501892089844 -9.303180163535391
-243.736260773994360 -40.996299743652344 -8.350299604991790
-244.133977527219542 -41.257400512695313 -11.210017019723271
-244.700775863483614 -41.940601348876953 -6.444866661032783
-244.930185350586385 -41.654701232910156 -15.976252776969716
-245.727911132254832 -41.035198211669922 -18.836288729676074
-246.559032865354681 -41.047100067138672 20.241162020571377
-247.760339469901112 -41.940601348876953 21.885305549232545
-248.526029187842937 -41.940601348876953 -21.204516918515051
-248.927931273672357 -41.940601348876953 -18.808437659849119
-249.759648660026699 -41.940601348876953 21.017013951863809
-249.759028798979699 -41.024898529052734 20.238613777527227
-250.160540605921767 -41.455398559570313 22.144594238340865
-250.537787409381224 -41.940601348876953 21.191094137713524
-250.130365000206780 -41.940601348876953 -15.748893121226455
-250.639792381921495 -41.940601348876953 21.191012908403508
-250.559031597082026 -41.005001068115234 20.237976713728443
-250.538188700647595 -41.940601348876953 -5.935815455837487
-250.959755757670621 -41.940601348876953 21.154857985590567
-250.959025366741059 -41.150199890136719 20.237658187904543
-250.943086393718715 -41.065601348876953 0.222044302592110
-250.926388394460503 -41.039299011230469 -20.746728612779233
-251.760028669809003 -41.940601348876953 21.493420834078684
-252.160539971785454 -41.044700622558594 22.143001584919396
-252.125192303916208 -41.940601348876953 -22.245383465077836
-252.560887837936747 -41.940601348876953 22.568183781782711
-252.560549000228718 -41.024200439453125 22.142683046944512
-252.944603749780356 -41.011100769042969 2.126691508019313
-253.359819894604300 -41.940601348876953 21.222946466823764
-253.360551798331016 -41.160800933837891 22.142045983145731
-253.492788303498912 -41.940601348876953 21.188740990825188
-253.336808601636193 -41.940601348876953 -7.673843458445578
-254.161058622745543 -41.940601348876953 22.793509287786918
-254.128816151058942 -41.940601348876953 -17.695477241200585
-254.925902481260806 -41.940601348876953 -21.358514343109363
-255.337022178668150 -41.059398651123047 -7.406437097426647
-257.361026096683531 -41.940601348876953 22.736060880626326
-257.336043735320970 -41.940601348876953 -8.635928912911861
-258.540797828244422 -41.305198669433594 -2.643386634872160
-258.527894866754934 -41.456199645996094 -18.846481701852674
-259.357513860846666 -41.769298553466797 18.324719640654983
-260.126382425676525 -41.022800445556641 -20.754054816087784
-261.755988998577038 -41.633201599121094 16.416559065820806
-261.735931041105573 -41.940601348876953 -8.771533762653615
-262.136248836426432 -41.407199859619141 -8.364952011608889
-262.526595029185842 -41.940601348876953 -20.480365649367663
-263.345368610235312 -41.232398986816406 3.071539169101573
-263.327948445502443 -41.940601348876953 -18.804104300709874
-264.159018129684455 -41.803398132324219 20.227146677753062
-264.126697458079320 -41.940601348876953 -20.360040618132768
-264.538518909401603 -41.379600524902344 -5.507563484044137
-265.353716960159659 -41.538600921630859 13.554313423048491
-265.349921969475986 -41.096599578857422 8.788694702446536
-265.343090983207674 -41.246898651123047 0.210577190666962
-266.527892330209625 -41.833198547363281 -18.852852315538541
-268.546866648732134 -41.282199859619141 4.973647680375747
-269.356751687471672 -41.635398864746094 17.363626907383178
-269.327150694827651 -41.869998931884766 -19.808281129277272
-270.543071023912148 -41.288799285888672 0.206436306352327
-270.536999048690973 -41.358501434326172 -7.418541248848616
-271.330186135257350 -41.791698455810547 -15.997275809423662
-271.327909118823470 -41.181098937988281 -18.856674698331240
-271.750672835622197 -41.683700561523438 9.736722914152640
-272.528649406951445 -41.622898101806641 -17.904530373532900
-274.928134663730873 -41.940601348876953 -18.582541139932193
-275.354472792171350 -41.743198394775391 14.499479622105632
-275.334232834264185 -41.940601348876953 -10.917163091178264
-276.146870342527791 -41.691600799560547 4.967595592513782
-276.537756125432793 -41.540699005126953 -6.470219306842978
-277.334738186734683 -41.834701538085938 -10.283355173970360
-277.329860764612818 -41.940601348876953 -16.408254049830390
-278.552935469219847 -41.782901763916016 12.590681995623655
-278.932466766505456 -41.654701232910156 -13.144028190475503
-279.340809543767705 -41.614799499511719 -2.659950245036589
-280.529674211573422 -41.940601348876953 -16.620801298612189
-280.939297102689295 -41.775901794433594 -4.567523359271693
-282.533959248288340 -41.706798553466797 -11.240595960555037
-283.350675261145170 -41.741100311279297 9.727485519447741
-287.737005802145916 -41.797599792480469 -7.432238077994015
-288.140035567389646 -41.305198669433594 -3.620057812640296
-288.549137304057354 -41.882900238037109 7.817095239544297
-289.746872133914394 -41.572200775146484 4.956765544387418
-289.734235464217932 -41.940601348876953 -10.911929451618796
-290.139275875121086 -41.756999969482422 -4.574849550429260
-291.746112504679104 -41.761901855468750 4.002052961541616
-291.742317506401093 -41.818199157714844 -0.763575295800479
-294.225318428104629 -41.940601348876953 -0.765552576384138
-294.945364694394982 -41.319999694824219 3.046375240182010
-295.986086638379959 -41.940601348876953 0.186175346992817
-12.923430720602370 -40.578998565673828 -24.369703556428668
-14.917358095296699 -40.373001098632813 -31.996293792205378
-14.915840140032799 -40.861801147460938 -33.902489782049400
-15.327984566229750 -40.749198913574219 -18.652815055826906
-15.721153008631335 -40.403701782226563 -27.231330252930164
-16.918876455155154 -40.259201049804688 -30.091583645052687
-16.915081399919409 -40.208801269531250 -34.857283427945831
-17.326465894810394 -40.674999237060547 -20.560706695885912
-17.318875946858281 -40.576499938964844 -30.091902175433205
-17.313625286081450 -40.987499237060547 -36.685501311618800
-18.928742785404783 -40.793598175048828 -17.702581930019281
-20.112802304958866 -40.193801879882813 -37.719129471970952
-21.315079623349874 -40.345901489257813 -34.860787265169279
-24.912042946770793 -40.177501678466797 -38.676053650711857
-24.910708541192722 -40.987499237060547 -40.351754260757787
-27.314318740271187 -40.612701416015625 -35.818667035051746
-27.313559762639237 -40.283500671386719 -36.771765029973764
-30.111281093956443 -40.544200897216797 -39.633395540411875
-32.515074927777604 -40.401199340820313 -34.869706123418169
-32.512797991844010 -40.227401733398438 -37.729003922880267
-34.512434070706398 -40.987499237060547 -38.186799892347501
-36.117353090064817 -40.441299438476563 -32.013175919839910
-37.315072642911197 -40.438899993896484 -34.873528491022142
-37.721146033131696 -40.761798858642578 -27.248849440566296
-38.924941469305985 -40.664798736572266 -22.484107157681606
-39.718109482392073 -40.541801452636719 -31.062841703067924
-40.121146798046524 -40.565799713134766 -27.250760625887153
-43.458430661898483 -40.987499237060547 82.356018261531915
-49.774678855586167 -40.987499237060547 50.897876378191924
-51.661705343272487 -40.987499237060547 27.068265928517278
-53.757190311387092 -40.987499237060547 18.007944348341017
-56.200077610157308 -40.885101318359375 71.861466717359221
-57.026243011855904 -40.987499237060547 104.719717400929426
-57.400833237569742 -40.987499237060547 72.813712119452063
-57.532679654838624 -40.987499237060547 -65.389641801898179
-57.433883494078486 -40.987499237060547 -70.155159121292158
-57.797798641036231 -40.274700164794922 69.000894796375064
-58.142895639797423 -40.987499237060547 -79.686930972456253
-58.876984237471852 -40.987499237060547 -82.715112026973955
-59.398194133277592 -40.987499237060547 69.498819430147108
-59.294263700798219 -40.987499237060547 -61.013441587238248
-59.569648395054962 -40.987499237060547 -73.969361097292676
-60.601656940895296 -40.987499237060547 73.845858216932285
-61.197555866151582 -40.987499237060547 32.779374495782612
-60.895639466668712 -40.987499237060547 -59.289313426837126
-62.896684406247111 -40.987499237060547 -57.977910585923269
-65.270831322386996 -40.987499237060547 -90.441405103598129
-67.029244791713765 -40.987499237060547 108.490057992590522
-67.697607613022697 -40.649299621582031 -56.819532394289780
-69.081445892680065 -40.987499237060547 -57.773835978199799
-69.293810609656333 -40.522201538085938 -61.586399487215431
-69.288497593081203 -40.425899505615234 -68.258302889344705
-70.170779132805762 -40.987499237060547 -65.399705861276374
-70.808505765633313 -40.987499237060547 -73.025216117834788
-70.980315136647178 -40.987499237060547 47.044288102299930
-72.098366724470893 -40.667400360107422 -55.869934423414023
-72.479986592893752 -40.987499237060547 -78.953146637436916
-73.381094150650299 -40.444698333740234 48.019675343681023
-73.278285587897273 -40.987499237060547 -81.083780273223866
-75.298362658095911 -40.503200531005859 -55.872482666458183
-75.271797678503575 -40.047100067138672 -89.231869977438691
-75.268761998844425 -40.213298797607422 -93.043972040226478
-76.899119602540381 -40.865798950195313 -54.920658793058251
-77.672391465985456 -40.987499237060547 -88.489083828078662
-78.169521506913483 -40.987499237060547 -92.093278761382095
-79.625671130285767 -40.987499237060547 50.874105228164609
-84.630159973869908 -40.987499237060547 109.624639990722613
-84.499123296336009 -40.723300933837891 -54.926710880920211
-85.440410318704082 -40.987499237060547 66.119479629855817
-86.870597662567334 -40.987499237060547 -90.741511248247804
-90.068760357992417 -40.578201293945313 -93.055757677975521
-90.900813888998826 -40.987499237060547 -52.798606444257743
-91.269515827442092 -40.563899993896484 -92.103710640077594
-94.203827010226235 -40.987499237060547 76.554704102775801
-96.899872320828152 -40.913200378417969 -53.983384335557389
-97.697598100977743 -40.882701873779297 -56.843422195611780
-99.075196457367866 -40.987499237060547 80.405524303292026
-98.896835609088015 -40.289901733398438 -57.797578776949976
-99.699115425143049 -40.737300872802734 -54.938815044493161
-101.007792754316696 -40.987499237060547 81.537790005534177
-103.297594799517583 -40.781200408935547 -56.847881623976789
-103.295317784602616 -40.559398651123047 -59.707278605536345
-106.493044332704784 -40.558601379394531 -62.569223836215528
-107.295316516329947 -40.435199737548828 -59.710463912379268
-107.293798561066055 -40.913501739501953 -61.616659902223290
-107.802336741514281 -40.770500183105469 74.679777056556091
-108.489248722314088 -40.370800018310547 -67.336417090432676
-110.090764644390489 -40.453201293945313 -65.431495222110740
-119.025251925914915 -40.987499237060547 103.455250013150277
-235.934569346447319 -40.987499237060547 -1.672284178929717
-236.544615053211970 -40.784500122070313 2.139751261214946
-237.613893058158936 -40.987499237060547 4.998280441298592
-237.343099861116315 -40.757701873779297 0.232874338567493
-237.339304823347589 -40.403301239013672 -4.532803509823330
-241.340821592357969 -40.188701629638672 -2.629689830028726
-241.332472584754782 -40.283000946044922 -13.114086301291540
-241.730977222796440 -40.987499237060547 -14.984405073431105
-242.137014156940552 -40.569099426269531 -7.395925575124185
-242.559034133627335 -40.493999481201172 20.244347327414310
-242.551444144665652 -40.583499908447266 10.713100349470260
-242.955232912602725 -40.875400543212891 15.478410080988454
-242.949160917636192 -40.504901885986328 7.853407730263145
-243.356000936144994 -40.240001678466797 16.431211472437909
-243.353723935659303 -40.211700439453125 13.571832610684622
-243.342338956013975 -40.695400238037109 -0.725033087861380
-243.330953992316807 -40.190898895263672 -15.021878759253092
-243.757512703596376 -40.067600250244141 18.337142342202817
-244.136094721796326 -40.987499237060547 -8.551316919719536
-244.136254543653394 -40.860401153564453 -8.350618130815690
-244.135495485521204 -40.093898773193359 -9.303817215183191
-244.545371519360003 -40.711898803710938 3.086510113693555
-245.358277318442504 -40.102500915527344 19.289017707924017
-245.746886084913683 -40.604499816894531 4.991803919659681
-245.743091094230039 -40.606201171875000 0.226185199057726
-245.739296056461313 -40.666198730468750 -4.539492649333097
-245.733983123424167 -40.651599884033203 -11.211291147320836
-246.130181918347716 -40.751899719238281 -15.977208366592400
-246.859035821991085 -40.987499237060547 20.240923120127960
-246.538783869395701 -40.987499237060547 -5.186830367153449
-246.959044313172654 -40.987499237060547 20.263043118445985
-246.959785614164559 -40.431499481201172 21.193943397017517
-248.152951211605739 -40.034400939941406 12.614890322769552
-248.953713004807042 -40.065399169921875 13.567373188395106
-248.938533010935515 -40.794998168945313 -5.495140794647288
-248.925864408460171 -40.987499237060547 -21.403935875595291
-249.359035029320665 -40.806701660156250 20.238932303351127
-249.326398057040109 -40.577598571777344 -20.745454497332648
-250.079036021734311 -40.987499237060547 20.238358947147319
-249.758269819828882 -40.585300445556641 19.285513875257188
-249.733222797019323 -40.360401153564453 -12.167675538531267
-250.159038415796687 -40.987499237060547 20.258195567354015
-250.292033390723049 -40.987499237060547 20.238189331599301
-250.557513599289678 -40.496700286865234 18.331727318139635
-250.540056644423174 -40.798999786376953 -3.590115935607315
-251.330951455771469 -40.261699676513672 -15.028249372938955
-252.159780913653236 -40.498100280761719 21.189802500551899
-252.949157746954540 -40.468700408935547 7.845444463155813
-253.755991535122376 -40.640899658203125 16.422929679506673
-254.552199342730887 -40.401401519775391 11.656674133524440
