# This PCD file was generated using the MATLAB® pcwrite function
# from Computer Vision Toolbox®.
# .PCD v.7 - Point Cloud Data file format
VERSION .7
FIELDS x y z
SIZE 8 8 8
TYPE F F F
COUNT 1 1 1
WIDTH 788
HEIGHT 1
VIEWPOINT 0 0 0 1 0 0 0
POINTS 788
DATA ascii
-228.091478660605929 -60.073600769042969 -64.572260776186241
-229.651971849846461 -61.003097534179688 -66.479799819781832
-229.685143504161260 -61.003097534179688 -72.536033905006960
-230.562360532391097 -61.003097534179688 24.426302399556086
-230.645765426340716 -61.003097534179688 17.394453509515877
-232.237528331511584 -61.003097534179688 125.096098093312236
-232.750512409387170 -61.003097534179688 18.345907513321301
-233.337788133318611 -60.427200317382813 -6.435818007520478
-233.691446675330269 -61.003097534179688 -64.622321087281421
-234.144550183042526 -61.003097534179688 2.070742007721208
-234.094512753781629 -60.863998413085938 -60.764539945273015
-234.493762807630674 -60.365898132324219 -61.717952663473866
-234.948767803231419 -61.003097534179688 7.362933494539996
-235.742335262218319 -60.526603698730469 -0.718980999999415
-236.264874351543227 -61.003097534179688 153.168896310019534
-236.153858584277970 -61.003097534179688 13.759115664261888
-237.071307397603107 -61.003097534179688 23.108118054338171
-237.350689846280801 -60.708503723144531 9.764116548141473
-237.297702642899964 -61.003097534179688 -56.775390247358899
-237.294486363205692 -61.003097534179688 -60.814283620074292
-238.141569379099536 -60.875099182128906 -1.674041672563552
-238.492731409540539 -61.003097534179688 -63.014739549902870
-239.354484206625301 -60.746696472167969 14.528147383692030
-239.493446457033116 -61.003097534179688 10.715535515482397
-239.338545210060431 -60.475097656250000 -5.487496065514838
-239.337786230909614 -60.647903442382813 -6.440595967784878
-240.940995082285980 -61.003097534179688 -2.400171001566802
-240.904685688548511 -61.003097534179688 -47.996258305358722
-240.898207651074671 -61.003097534179688 -56.131154865445467
-241.342661107393894 -61.003097534179688 -0.319690142839621
-242.157507107391751 -60.427299499511719 18.338416469800382
-242.102291286454459 -61.003097534179688 -50.999711569693659
-243.758609603815557 -61.003097534179688 19.714591894776120
-243.701346785279952 -60.067199707031250 -52.194085294583147
-244.503626601334986 -60.787696838378906 -49.335321562126325
-245.825016527631107 -61.003097534179688 -7.398862430852397
-246.283162806379210 -61.003097534179688 176.130926980559195
-246.535993859035983 -61.003097534179688 -8.690429376817821
-246.505143922462565 -60.071296691894531 -47.430718225703757
-246.902441170652594 -61.003097534179688 -50.817235629043331
-247.308941696819232 -60.102996826171875 -42.665754688706855
-248.606849179903378 -60.436798095703125 80.286448216373742
-248.604090469712077 -61.003097534179688 76.822154881197477
-249.009878945147108 -60.307296752929688 84.098628481727459
-249.412923969175040 -60.605400085449219 87.910808734930214
-249.315013053852255 -60.566703796386719 -35.042349759773082
-250.206080457672698 -60.440299987792969 79.331973109211646
-251.865234655347933 -61.003097534179688 153.607477493792999
-251.762323523883424 -61.003097534179688 24.375219618227717
-253.483403672066459 -61.003097534179688 176.415201871490524
-253.319565818447273 -60.578598022460938 -29.326737288800857
-253.311975868976305 -60.683502197265625 -38.857934675696178
-253.863448653226669 -61.003097534179688 151.363881156708487
-254.045873957230498 -61.003097534179688 135.563735454479740
-253.812916470561419 -60.694198608398438 87.907304902263377
-254.313180377920389 -61.003097534179688 142.235529406357472
-254.161463315734494 -61.003097534179688 23.301708818425436
-255.029804833468404 -61.003097534179688 -30.281197797558441
-255.590698741129245 -61.003097534179688 144.140503288953909
-256.056581053590435 -61.003097534179688 132.702132757036736
-255.840464781175370 -61.003097534179688 93.624396347726844
-255.715763980753366 -60.519897460937500 -34.094245254145854
-256.278430527333285 -61.003097534179688 117.451951257027972
-258.524858871170295 -60.427299499511719 -22.658980493030295
-258.521822877104455 -60.400100708007813 -26.471477376859887
-259.475158993527202 -60.074600219726563 166.059429268393359
-261.428670975064506 -61.003097534179688 116.494854379234809
-261.762218184713220 -61.003097534179688 24.238956678665375
-262.240391011906013 -61.003097534179688 122.413208579671277
-263.359009869642193 -61.003097534179688 150.806331617928493
-263.128239252590106 -61.003097534179688 149.852505074541256
-263.091755380300924 -61.003097534179688 124.118532437926348
-263.872874000034813 -60.302497863769531 163.195925732190091
-264.856115470499390 -61.003097534179688 134.601124284828757
-265.475157091118206 -60.241203308105469 166.054651308128967
-267.065492085832489 -61.003097534179688 153.909368579839253
-267.472120060414795 -60.314102172851563 162.240056323650464
-267.876668017866564 -60.412902832031250 167.958730125140562
-270.131143677547243 -61.003097534179688 -14.779020178578143
-271.761134318664801 -61.003097534179688 22.873893355096030
-273.871353025976532 -60.144897460937500 161.281957210041554
-273.732147790506190 -61.003097534179688 -13.527187650391259
-274.683628682573556 -61.003097534179688 176.712315021574341
-275.878183284697855 -60.062896728515625 169.858364766495924
-275.876665481321254 -60.807601928710938 167.952359511454688
-275.865658660718850 -61.003097534179688 154.130372927171152
-276.672098832846643 -60.535202026367188 162.232730132492890
-277.358965232467256 -61.003097534179688 20.140135240741447
-278.676652386503008 -60.980598449707031 167.950129806385434
-279.472116255596802 -60.623001098632813 162.230500403121681
-281.865772216934204 -61.003097534179688 154.270583934607231
-283.883712032804851 -61.003097534179688 176.797991095962686
-283.964171953094421 -61.003097534179688 142.211917522279862
-284.273403726626157 -61.003097534179688 163.860680212087573
-285.405999949553745 -61.003097534179688 150.788775005269940
-285.458246316715872 -61.003097534179688 144.810719419680197
-286.290504967442075 -61.003097534179688 125.053054250574576
-286.674310239262525 -61.003097534179688 165.005756584207887
-286.944902273764001 -61.003097534179688 115.521531884397348
-286.746987054510498 -61.003097534179688 95.506081031494205
-286.539505271307519 -61.003097534179688 -4.277683737051726
-287.078191940561794 -60.210296630859375 169.849445897614942
-287.016713127180083 -60.295600891113281 92.646467446541934
-287.374210738526756 -61.003097534179688 66.911772899111753
-287.409116950405860 -60.149101257324219 83.114955348518777
-287.400767941283789 -60.375503540039063 72.630556969907929
-287.754769971791575 -61.003097534179688 14.875394924647066
-288.669818322963692 -60.232101440429688 159.364166329402281
-288.595436236723572 -60.589401245117188 65.957701805002984
-288.831661939357105 -61.003097534179688 61.191913883967452
-288.941147936336336 -61.003097534179688 -2.246495457056556
-289.880456340622288 -60.155502319335938 172.707215896082062
-289.791413393719836 -61.003097534179688 60.890147010126604
-290.143224834686009 -61.003097534179688 0.384117993450436
-290.606820604256200 -60.288299560546875 80.253002506673937
-290.622534198417839 -61.003097534179688 73.581089989884518
-290.552970254399611 -61.003097534179688 12.629586066443597
-291.480023954705814 -61.003097534179688 172.155938891115170
-291.427331655641240 -60.107002258300781 105.986762788741558
-291.350672724599860 -60.333099365234375 9.721114905761876
-291.407634264598585 -61.003097534179688 5.908563330137196
-291.824289344658723 -60.817497253417969 102.173838660250468
-292.361983291461570 -61.003097534179688 123.142220534366501
-293.013442847806118 -61.003097534179688 145.063705780638458
-292.643251601210409 -60.123298645019531 126.000998618994075
-293.076672234776197 -60.229202270507813 167.938662682309314
-294.276403500860056 -61.003097534179688 167.623711843067412
-296.273535295890895 -61.003097534179688 164.021122406603070
-296.672092491483340 -60.135902404785156 162.216803598278233
-297.872340824729008 -61.003097534179688 162.512844972648764
-311.464845995294297 -61.003097534179688 153.088016444558804
-312.868101760539616 -61.003097534179688 162.203906279400684
-11.825754196436435 -60.050003051757813 -27.228228241823508
-12.238748835069750 -60.050003051757813 -22.462856222941195
-14.115471104744440 -60.050003051757813 -34.365353550130017
-16.000061174978903 -60.050003051757813 -15.793949546394646
-17.712251750312436 -60.050003051757813 -38.410020497702590
-18.979356128349913 -60.050003051757813 -31.999528470763657
-18.911557895566286 -60.050003051757813 -39.282775282937294
-21.159083181240611 -60.050003051757813 -18.657458516879252
-22.528370861910119 -60.050003051757813 -18.169147898758837
-25.709939230202114 -60.050003051757813 -41.317188989244919
-26.114593252501557 -60.050003051757813 -35.472508152186130
-28.909977360435391 -60.050003051757813 -41.271538550657915
-30.408376605876626 -60.050003051757813 -34.868028502741062
-31.310545591721873 -60.050003051757813 -40.558449808575801
-32.510773966435274 -60.050003051757813 -40.270705387495198
-34.279550785810720 -60.050003051757813 -32.011712428311952
-34.511679710447346 -60.050003051757813 -39.134099549264228
-35.433168070212375 -60.050003051757813 -30.106327074670730
-35.312160474186811 -60.050003051757813 -38.529733444918975
-36.921718972113453 -60.050003051757813 -26.530011923930083
-37.990014589355603 -60.050003051757813 -35.827168379507540
-38.121904897017629 -60.050003051757813 -26.297969696179614
-38.514607253953272 -60.050003051757813 -35.459383800573178
-39.288731467643366 -60.050003051757813 -33.921898572585285
-39.716140485739921 -60.050003051757813 -33.535439948626504
-40.523220167952971 -60.050003051757813 -24.644379084033872
-40.522178093720854 -60.050003051757813 -25.952980048512565
-41.093039231578018 -60.050003051757813 -22.485833672388608
-41.156382404953995 -60.050003051757813 -23.438984620931102
-41.272826716289927 -60.050003051757813 -29.157878752990257
-41.072669761109260 -60.050003051757813 -30.110817961926337
-47.399318367930626 -59.365501403808594 70.915372585225811
-47.792488798180493 -59.819297790527344 62.336958476049155
-47.788693824963872 -59.464401245117188 57.571361689949526
-48.605390744595127 -59.844299316406250 78.539418389616671
-48.584897832115757 -59.573402404785156 52.805124028392797
-48.982622216251940 -59.449203491210938 49.945408514933860
-56.567438301213237 -59.613998413085938 30.876860569911258
-58.218292946491260 -59.816802978515625 94.734862996307413
-65.689259241074708 -59.356796264648438 -67.302334304783102
-65.686982226159742 -59.486503601074219 -70.161731286342658
-65.677874239405725 -59.644203186035156 -81.599227659875510
-68.091537020904511 -59.535797119140625 -64.444848508544410
-69.423948147988938 -60.050003051757813 101.835843313476659
-70.162493238964046 -60.050003051757813 24.658732306802698
-71.293809975520006 -59.639396667480469 -61.587992140636899
-73.366638195023427 -60.050003051757813 29.866383675197323
-77.295294970466699 -60.050003051757813 -59.725575563534889
-78.225564556889736 -60.050003051757813 103.858337861153601
-80.896201870923875 -60.050003051757813 -58.586238415967074
-84.501400314288730 -59.200996398925781 -52.067310084664605
-84.496447720121026 -60.050003051757813 -58.286607429129035
-87.703673265866485 -59.197998046875000 -49.210457531453152
-87.700637270281803 -59.138999938964844 -53.022956322630769
-88.869054783355466 -60.050003051757813 -92.679802201177907
-90.098851078470886 -60.050003051757813 -55.268866277651995
-92.101759823656295 -60.050003051757813 -51.616960486210402
-92.601222111129871 -60.050003051757813 73.282282362868884
-92.495857416308070 -60.050003051757813 -59.031075953318734
-93.669426608264871 -60.050003051757813 -92.218620751972423
-95.313069648369961 -60.050003051757813 -37.411913594139520
-97.302358419366726 -60.050003051757813 -50.863502745933374
-97.294560706341912 -59.442199707031250 -60.655602454890001
-97.263922912232204 -60.050003051757813 -99.129490097349759
-98.226629275924452 -59.762001037597656 105.187412121184991
-98.066134722282627 -60.050003051757813 -96.356125965500965
-98.470277017799390 -59.393798828125000 -91.156449197911670
-99.083229704786035 -60.050003051757813 84.218019115023267
-100.137962144254885 -60.050003051757813 88.029680411965515
-99.705793899128977 -60.050003051757813 -46.552217209232424
-100.491347989664774 -60.050003051757813 -64.697044076725035
-101.008407836990301 -59.691398620605469 82.310189662974508
-100.872248071832288 -60.050003051757813 -88.674558369281684
-100.869310584253043 -60.050003051757813 -92.363354196751899
-102.907244208326020 -60.050003051757813 90.886881582193993
-102.465721561734028 -59.133796691894531 -96.878626832068633
-102.864956429704748 -59.749298095703125 -97.831947985413137
-103.688345911672684 -60.050003051757813 -68.464392151461254
-103.666253258712004 -60.050003051757813 -96.207585564447683
-104.117224983550003 -60.050003051757813 -32.201122785641630
-104.115087960090634 -60.050003051757813 -34.884723314151593
-104.074827594281928 -59.516899108886719 -85.442305397960382
-104.468308193518297 -60.050003051757813 -93.631219966328331
-104.906995633098404 -60.050003051757813 -45.041359196407690
-104.887725804981883 -59.465698242187500 -69.239746299257675
-104.880894754161474 -59.703399658203125 -77.817944873328443
-107.017427199781750 -60.050003051757813 93.634006133233257
-108.113535287940294 -59.377502441406250 -36.836108229112334
-109.316567851286322 -59.944099426269531 -33.024565027557394
-109.312772878069694 -59.978897094726563 -37.790161813657029
-109.810685113462256 -59.617401123046875 85.162578967049413
-109.664198423709749 -59.851097106933594 -98.790365636996924
-111.026409291723354 -60.050003051757813 104.911815479525387
-111.412960095189746 -59.672302246093750 88.020701827086896
-111.263296543526323 -60.050003051757813 -99.921636653650822
-112.619795264182258 -59.131301879882813 96.597845623362019
-113.410682446138438 -59.573402404785156 85.159712192105872
-114.059919094307332 -60.050003051757813 -104.167868321131166
-114.913528554241495 -59.667396545410156 -36.841523247100028
-117.026127163383535 -60.050003051757813 104.555139437477322
-117.321119268627314 -59.355003356933594 -27.312237045525563
-119.716566079655820 -59.455001831054688 -33.032846826564118
-121.322636037637679 -59.540397644042969 -25.409123365730963
-122.458655779705708 -60.050003051757813 -105.759556048636327
-125.011436222938997 -59.544700622558594 86.103576613094532
-125.395498663397106 -59.377998352050781 66.087662315688974
-125.663834210140195 -60.050003051757813 -99.254103120297842
-127.718840561063217 -59.587097167968750 -30.179816643994378
-128.124147341221914 -59.249397277832031 -23.508239397081105
-128.596261204046186 -59.319602966308594 67.038212061491350
-128.463304428446662 -60.050003051757813 -99.924331893294919
-128.858001032485674 -60.050003051757813 -106.576648737227330
-130.608829633065255 -60.050003051757813 82.820416435999434
-131.392468394795543 -59.917900085449219 62.270385558171462
-131.325676491932796 -59.681503295898438 -21.604587847736163
-132.218261854054902 -59.732299804687500 94.675934825788644
-132.620547903488642 -59.860900878906250 97.535020898765424
-132.458122255143081 -59.479598999023438 -106.433519470787090
-133.413492378816244 -60.050003051757813 88.670784960762262
-133.411442714836937 -59.109802246093750 86.096887461433781
-134.188371974861099 -60.050003051757813 57.140456673268822
-134.120350383577176 -59.788696289062500 -28.278717140238662
-134.609921321258895 -59.976699829101563 84.189728252574952
-137.006842864897209 -60.050003051757813 80.330617673766525
-137.261919083228122 -59.539596557617188 -101.671336882851165
-138.208412340735435 -60.050003051757813 82.304865925642829
-138.622823015994612 -59.155197143554688 100.389639920060588
-138.596415707535698 -60.050003051757813 67.228250593176199
-138.986600005176797 -60.050003051757813 54.909534636455284
-138.927941943378045 -59.579299926757813 -18.751241034539568
-139.638122351200963 -60.050003051757813 79.420021355520362
-140.208392356161369 -59.447402954101563 82.278973658343958
-140.609160444255707 -59.104896545410156 83.231856112084614
-140.521875549932219 -59.821296691894531 -26.377510837144342
-140.995690796006983 -60.050003051757813 66.324640633668778
-142.457515472314185 -60.050003051757813 -107.199478103026891
-143.005105528960939 -60.050003051757813 78.146542003609369
-143.408403548570618 -59.938697814941406 82.276425403148835
-145.735532788542372 -59.336997985839844 -9.225458671707429
-146.061144388423287 -59.401603698730469 -102.632346626072135
-146.604327700511675 -60.050003051757813 77.160673825284505
-146.530516099806022 -60.050003051757813 -15.529394594474120
-146.523391602787115 -59.729598999023438 -24.476092807564719
-146.937806372737555 -59.468803405761719 -6.367015372422536
-147.260397313280549 -59.134300231933594 -103.586304855366407
-147.783804523389222 -60.050003051757813 51.391728664174380
-147.658114383950135 -59.530700683593750 -106.445623634360032
-148.209661474488911 -60.050003051757813 83.869503478273060
-148.990935700823655 -59.927200317382813 60.350170410813071
-149.786384466058280 -59.907798767089844 54.630735569199132
-150.587905222462240 -59.637802124023438 56.536298309940427
-150.541406271733337 -60.050003051757813 -1.855484056310525
-151.007633002912343 -59.337402343750000 81.317271517819776
-150.992365589565253 -60.050003051757813 62.144979165348786
-152.536722440557469 -60.050003051757813 -7.738074410178758
-152.461151514457555 -59.455299377441406 -102.637443124311417
-152.458874815468107 -59.354797363281250 -105.496443377481128
-153.381746128074724 -60.050003051757813 48.796972352060202
-154.128693051335915 -59.772003173828125 -17.810245295842474
-154.586385995887923 -59.994697570800781 54.626913198557418
-154.938206538698552 -60.050003051757813 -5.867686035060647
-155.332461071241283 -60.050003051757813 -13.094302521368757
-156.138790397560967 -60.050003051757813 -5.131141667786300
-156.588662379704317 -59.625701904296875 57.484721341391555
-156.544640418665210 -59.383903503417969 2.203457398073607
-156.527942466492050 -59.964797973632813 -18.765256389508863
-157.659322152771210 -60.050003051757813 -4.469352191193593
-158.542362791637544 -59.345001220703125 -0.657504580361003
-158.938561547070407 -59.297500610351563 -5.423471390681295
-159.333502831052783 -60.050003051757813 -11.787689049171380
-159.258875711161409 -59.746002197265625 -105.501858401544311
-159.730974395701736 -59.997100830078125 -14.955305841375399
-159.728697379267885 -59.927299499511719 -17.814704730282976
-160.187060623400839 -60.050003051757813 55.483354382209882
-160.926416930595394 -59.403396606445313 -20.675059208813238
-160.859624950270131 -59.461502075195313 -104.550129889470298
-161.260392874326243 -59.313499450683594 -103.597453429316673
-162.185615453267388 -59.440200805664063 53.667763127924410
-162.930211350175938 -59.586601257324219 -15.910953986689588
-164.177265810009004 -59.492103576660156 43.181772095892107
-164.861901176876216 -59.433296203613281 -101.693315492776819
-166.532493249696699 -59.940803527832031 -13.054521060898495
-166.860381943473982 -59.644302368164063 -103.601912851606187
-167.383348993587589 -59.623802185058594 50.804221423052205
-167.329125356472076 -60.050003051757813 -17.287956312640596
-168.530974657258724 -59.127601623535156 -14.962313518860046
-168.974990323404796 -59.680702209472656 40.318550836342808
-171.335849226510163 -60.050003051757813 -8.845944330756925
-171.262667198523303 -59.550300598144531 -100.745416992887584
-172.461904870671844 -59.619003295898438 -101.699367580638778
-172.934003154229771 -59.899803161621094 -11.153318560349259
-173.380311095593925 -59.541297912597656 46.986944671610189
-175.470362270922521 -60.050003051757813 160.069315796641490
-175.330216573801209 -59.884803771972656 -15.920828445193269
-175.263424831938977 -59.696502685546875 -99.795599672209917
-176.662638457541846 -60.050003051757813 150.373371215562457
-176.934001885957116 -59.127601623535156 -11.156503867192193
-178.570439429177782 -59.608703613281250 34.592207499341676
-179.028521499970282 -60.050003051757813 -9.251970776304628
-180.931723601250610 -59.705200195312500 -14.019088062942707
-181.462516545552432 -60.050003051757813 150.214534855984851
-181.776507355491020 -59.599700927734375 42.214658746000786
-181.664934496490162 -59.984298706054688 -97.894698532649116
-182.236461816191905 -59.857803344726563 117.510912873122777
-182.131305282868567 -60.050003051757813 -14.541043395820171
-182.568161144471276 -59.696403503417969 31.729623303591165
-185.265698360246773 -59.695999145507813 -96.944562686147549
-187.037981143322696 -59.921302795410156 119.413088128130170
-187.036463346021549 -59.957199096679688 117.507090502481063
-186.973466657876173 -59.304702758789063 38.398017151009526
-187.462614183982282 -60.050003051757813 150.334756856086898
-188.263902923284263 -60.050003051757813 151.968121971895727
-188.932345464143793 -60.050003051757813 -13.241359346384161
-188.930635353261550 -60.050003051757813 -15.388857749953225
-189.369679998466239 -59.759201049804688 33.630408084068065
-189.667208658934300 -59.835998535156250 -95.042068893165265
-190.540159203471802 -60.050003051757813 -3.437436006116460
-191.038739572627634 -59.983802795410156 120.363904899174543
-191.364058094066706 -60.050003051757813 26.569817653571992
-192.969534485630362 -60.050003051757813 33.457741564350627
-192.965874727014807 -59.973197937011719 28.861942621752352
-192.938550766752797 -59.850997924804688 -5.450546498846226
-193.463956483880025 -60.050003051757813 152.017981900649374
-194.940678412119070 -60.050003051757813 140.375811045234343
-194.863374372591721 -60.050003051757813 133.703865789337385
-194.532039304125988 -60.050003051757813 -13.635718864719252
-195.488096376168073 -60.050003051757813 130.844366240194915
-195.362847125737090 -59.108001708984375 25.047532639178382
-195.959269460871724 -60.050003051757813 149.905993536278345
-196.409191779429818 -60.050003051757813 142.281639913756635
-196.166629718772043 -59.119400024414063 29.812593463075697
-196.640261697860751 -59.113998413085938 122.265443090383158
-196.934754523744630 -59.933502197265625 -10.219330499136817
-197.879906577389278 -60.050003051757813 172.053473179096869
-197.670242512880549 -59.885398864746094 -91.235444805186219
-198.636886231950598 -60.050003051757813 118.025852818293899
-198.941938747386274 -60.050003051757813 -1.198425975158845
-198.932995361622176 -60.050003051757813 -12.429222089217589
-199.367403872816254 -60.050003051757813 30.768146176680162
-201.038287277375019 -60.050003051757813 119.791946449564065
-200.962514478668908 -60.050003051757813 24.639073062696895
-200.935470666115748 -60.050003051757813 -9.321616204541463
-201.481845817718408 -60.050003051757813 174.479606482411185
-202.537794847261267 -59.105003356933594 -6.411291142399698
-203.261502018050635 -60.050003051757813 148.947175339746849
-203.041012466799117 -59.905601501464844 123.213349231815457
-202.871755694727256 -59.825698852539063 -89.333481264513154
-203.456201874148121 -59.473701477050781 142.276028189608098
-203.758796681982460 -60.050003051757813 19.965444756438465
-204.256021389696741 -60.050003051757813 142.064392669704944
-204.073270296733881 -59.745498657226563 -87.428141682194351
-204.876679900400177 -60.050003051757813 140.367898739342621
-205.021887425985597 -60.050003051757813 135.602774576799249
-204.534376379028288 -60.050003051757813 -10.704882251859189
-205.765170483775051 -60.050003051757813 27.968649407784270
-208.149041381834706 -60.050003051757813 20.271748932446876
-207.674034239471865 -59.710403442382813 -86.477906653595326
-208.140744022280501 -60.050003051757813 -2.698551464059248
-208.940063730945155 -59.729400634765625 -3.556988739580419
-209.363610504253614 -60.050003051757813 26.000582825673398
-209.882478889966563 -60.050003051757813 175.278916843203945
-210.559044279808631 -59.129203796386719 20.269829782157775
-210.477072399022518 -59.610801696777344 -82.667637579637955
-211.743101874547648 -59.543998718261719 0.253260307222657
-211.739306836778951 -59.861000061035156 -4.512417541168166
-212.564018219446297 -60.050003051757813 26.515135706514684
-214.960652846519707 -60.050003051757813 22.295725177859019
-214.877064900408925 -59.742996215820313 -82.671141412304792
-215.356009814053607 -59.971801757812500 16.453508620338440
-216.080097463754925 -59.330596923828125 -78.859598210749851
-216.881618302178026 -59.560600280761719 -76.953932473215033
-218.264665849120803 -60.050003051757813 152.914233083720376
-218.479346877392175 -59.470001220703125 -79.814611211764273
-219.024309375464327 -59.395599365234375 102.231811247222041
-219.358348790605447 -60.050003051757813 19.389122239788890
-220.950485715899504 -60.050003051757813 9.525803400198059
-220.937782909693340 -59.734596252441406 -6.425943549016797
-221.434013687831168 -60.050003051757813 114.405700333449403
-222.602544978461964 -60.050003051757813 152.744778294762085
-222.152485083536106 -60.050003051757813 12.039894980567659
-222.481622630109996 -59.434097290039063 -76.958391907655525
-222.886170350617590 -59.333396911621094 -71.240015652457785
-224.475424519397563 -60.050003051757813 141.305279703617771
-224.228962231143697 -60.050003051757813 108.076469155467620
-224.143091839388717 -59.554397583007813 0.243385860869957
-224.554485847477309 -59.121299743652344 14.539933021441080
-225.062363769327590 -60.050003051757813 150.016820685602170
-225.056918489320964 -60.050003051757813 143.178825417190012
-225.056944771893512 -59.505401611328125 143.211830167467440
-225.047836384157137 -59.650299072265625 131.773830254055184
-225.843284988391247 -59.106399536132813 126.054193233550265
-225.838722829554797 -60.050003051757813 120.325191143785020
-225.740061455956834 -59.120796203613281 -3.570367030750933
-226.149049122819378 -60.050003051757813 7.723541085086337
-226.562834181453468 -59.565803527832031 25.022687248233698
-226.559798185868800 -59.518798828125000 21.210188457056084
-226.538546216776126 -59.621398925781250 -5.477303081187255
-226.956337561406770 -60.050003051757813 16.871960654484909
-227.684653840126487 -59.653900146484375 -73.150140824433109
-228.324182100206713 -60.050003051757813 114.615209912620628
-228.946921359688929 -60.050003051757813 5.046622207761689
-229.342343394968282 -59.921401977539063 -0.713884513911115
-230.561314954879180 -59.489997863769531 23.113302136850688
-230.551538706871753 -60.050003051757813 10.836626275137812
-231.073640237651148 -59.137496948242188 164.175032619468737
-230.886547343897803 -60.050003051757813 -70.769785770285893
-231.438700880989700 -60.050003051757813 120.287734588459216
-231.752962515037353 -59.317901611328125 12.627950075965186
-231.740818532698654 -59.669898986816406 -2.622045088745294
-231.739300495415648 -59.744300842285156 -4.528344075382831
-232.095428447942481 -60.050003051757813 -59.613846398870763
-232.750993312328234 -60.050003051757813 16.439656525953939
-232.545173128811342 -60.050003051757813 2.842156050031886
-233.041761856442463 -59.478103637695313 124.142462058014075
-233.456853314731177 -60.050003051757813 143.082139956173592
-233.882978535196116 -60.050003051757813 175.896798208379096
-234.141969325918467 -60.050003051757813 12.626047645426357
-234.256754849403592 -60.050003051757813 142.973501229785342
-234.674404101407760 -59.243103027343750 165.125168465970319
-234.672127408493793 -59.195800781250000 162.266175842192723
-235.010116632937240 -60.050003051757813 134.624891458447451
-234.497987715981026 -60.050003051757813 -56.412458129857498
-234.889697062021384 -60.050003051757813 -66.816070781443386
-235.463846809735344 -60.050003051757813 151.863534019898907
-236.083473891219825 -60.050003051757813 14.530752177403169
-235.879449189831035 -60.050003051757813 10.718413438951284
-236.092032279517866 -60.050003051757813 -58.859925795901248
-236.557221040161778 -60.050003051757813 17.969915919706462
-237.064875557866998 -60.050003051757813 153.166260345487331
-236.957451087930593 -60.050003051757813 18.266307314148527
-236.895234243689799 -60.050003051757813 -59.863464895191598
-237.301041802430433 -60.050003051757813 -52.582188604477963
-237.874400035032778 -59.247802734375000 165.122620222926173
-237.760550641080727 -59.123497009277344 22.154468684693562
-238.943262237446049 -60.050003051757813 0.447640765888398
-239.363290265795882 -60.050003051757813 25.586493486816405
-239.694034748510717 -60.050003051757813 -61.374696819502020
-240.146122761882737 -59.630203247070313 4.043143424675845
-240.501350851654934 -59.799797058105469 -52.191537051538994
-240.499832893353272 -59.215103149414063 -54.097736856079074
-240.898460403636761 -60.050003051757813 -55.813756894793229
-242.942937126535753 -60.050003051757813 0.037785017614222
-242.904212754882110 -60.050003051757813 -48.590948457495372
-243.883181615271099 -60.050003051757813 176.147837544697154
-244.274391902282844 -59.441596984863281 165.117523736837853
-244.499180627144028 -60.050003051757813 -54.918422971833678
-245.760223920151390 -60.050003051757813 21.740998476270143
-246.111575345470214 -60.050003051757813 -39.342702361944326
-246.671364701987500 -59.421798706054688 161.303617294143294
-247.706658530544701 -59.144500732421875 -45.525371013992846
-248.911209049154621 -59.525100708007813 -39.807631822593891
-249.310459099965925 -59.709999084472656 -40.761048355490786
-250.683207991572232 -60.050003051757813 176.174420191152592
-251.075152501629248 -59.513397216796875 166.066118420054096
-251.071357203373879 -59.627502441406250 161.300113461476457
-251.167460921470195 -60.050003051757813 -13.121918167687053
-250.911208415018280 -59.159202575683594 -39.809224476015359
-251.417477291962769 -59.157699584960938 93.627918491922500
-251.411405300793433 -59.539100646972656 86.002920909567251
-251.762105171508807 -60.050003051757813 24.101020219388836
-252.244548168327242 -60.050003051757813 101.252262290728680
-253.025713115182270 -60.050003051757813 103.981041728190732
-253.014431633798495 -59.253799438476563 89.814145585298306
-252.931173286093326 -60.050003051757813 -14.738822668081959
-253.471365597680801 -59.551597595214844 161.298202270080111
-253.874394961942130 -59.898803710937500 165.109878995554425
-254.672879968818791 -60.026000976562500 163.203251935498628
-254.777890671283131 -60.050003051757813 111.735149674438659
-255.017466995246849 -59.420303344726563 93.625051723054455
-254.961466113836821 -60.050003051757813 23.301071754626655
-255.542243122712506 -60.050003051757813 149.858546007802403
-255.834902101468970 -60.050003051757813 115.515307376551391
-255.730943957157848 -59.649101257324219 -15.031753205605792
-256.283293418001676 -60.050003051757813 176.290962927762763
-256.124865735647575 -59.381401062011719 -22.657069313784930
-257.021197596544141 -60.050003051757813 98.289854672642605
-257.474181728839142 -60.050003051757813 164.833010226217397
-258.127142038963711 -59.718299865722656 -19.799362260396276
-259.428022262851016 -60.050003051757813 106.866744789444866
-259.329430881943097 -59.307998657226563 -16.940918973262360
-259.913379110227481 -60.050003051757813 109.824054231815950
-260.128659442110404 -59.704399108886719 -17.894655927180203
-260.122587450941069 -59.616302490234375 -25.519653509535445
-260.850653867241988 -60.050003051757813 112.683309371821991
-261.361308240936523 -59.520500183105469 23.088775271729908
-261.330189305938973 -59.709197998046875 -15.989312542316330
-261.325635273071327 -59.751899719238281 -21.708110320131489
-261.761828303011043 -60.050003051757813 23.749356652322415
-261.727906059164184 -59.656303405761719 -18.849029957047808
-262.906600243971411 -60.050003051757813 132.696677902056848
-263.062260269603712 -59.856796264648438 149.852557615384427
-263.342679925800155 -60.050003051757813 144.134330177318134
-264.283333093965439 -60.050003051757813 176.337601330472523
-264.282735046967616 -59.319297790527344 175.586594488514862
-264.726171461056992 -60.050003051757813 142.227237260790162
-265.071378375839856 -60.050003051757813 161.301965359534449
-265.477433784032144 -59.135398864746094 168.913643931906563
-265.866042473040864 -59.154098510742188 154.616332868892783
-267.077396377913942 -60.050003051757813 168.858368966938741
-267.481987337688565 -59.100303649902344 174.631043605799107
-267.330531098592814 -60.050003051757813 -15.562490068748819
-268.683215701876918 -60.050003051757813 176.196097053279999
-269.079715439014421 -59.132896423339844 171.769769774665122
-269.065627627743595 -60.050003051757813 154.078781121220914
-270.560528034217498 -59.514396667480469 22.128349178302297
-274.278936590181559 -59.365097045898438 170.812641521614097
-274.681966744256670 -59.290100097656250 174.625310068063015
-276.559015580289440 -60.050003051757813 20.226672596156618
-277.082749299036152 -59.726898193359375 175.576401492036297
-278.533475314207635 -60.050003051757813 -11.846711073925597
-279.078953378795461 -59.498703002929688 170.808819138821406
-279.881977302529606 -59.368499755859375 174.621169159446424
-280.557959019795305 -60.050003051757813 18.898287628620864
-282.135310235324539 -60.050003051757813 -9.551578247874016
-283.082747396627155 -59.647796630859375 175.571623531771905
-283.471845830937298 -60.050003051757813 161.889317766923511
-283.931850809460627 -60.050003051757813 135.539936445290039
-284.279692309037273 -59.589202880859375 171.757665623243156
-285.073362851253364 -60.050003051757813 163.786038032649344
-284.956398646654691 -60.050003051757813 16.906414460389449
-285.849363436078477 -60.050003051757813 133.663408883780107
-286.154578712618957 -60.050003051757813 132.678164909961822
-286.281969169779643 -59.682800292968750 174.616072673358104
-286.674092056242216 -60.050003051757813 164.731769854674155
-286.642494601931105 -59.145500183105469 125.052773951737848
-287.041290157627145 -60.050003051757813 123.509456623269827
-287.060433706790036 -60.050003051757813 117.427438717914143
-287.089568355882193 -60.050003051757813 105.037015470442029
-287.468319222760897 -59.772598266601563 157.459131910616975
-287.821254702403621 -59.168800354003906 98.364631987405346
-288.548326903853251 -60.050003051757813 78.348345359918113
-288.612134169910803 -59.321899414062500 86.926391750735121
-288.607580219062243 -59.634101867675781 81.207696969713481
-289.079709097651119 -59.835601806640625 171.753843240450436
-289.412911286448434 -59.356796264648438 87.878955666500886
-290.626554539103608 -59.107200622558594 105.034198872975793
-290.615928591010231 -59.525299072265625 91.690498880206803
-290.619152576517706 -60.050003051757813 86.924793507862248
-291.022783850076735 -59.744102478027344 100.268279722054245
-291.874382913351837 -59.669898986816406 165.079618580546565
-291.834915371733530 -59.110000610351563 115.517637835116915
-291.829602282252495 -59.758499145507813 108.845642880282284
-292.263751293862640 -59.816596984863281 151.736301966027980
-292.308711735594102 -60.050003051757813 120.283260889776315
-292.146106274338138 -59.339500427246094 4.001734435717716
-293.073635838209100 -59.458602905273438 164.125660351252293
-294.265377554613110 -60.050003051757813 153.777707932414614
-294.437919477489743 -60.050003051757813 143.156580226574675
-295.866285397632453 -60.050003051757813 154.909444309833191
-299.866404375470779 -60.050003051757813 155.057259931675134
-301.073570396033574 -60.050003051757813 164.040295011636573
-301.064897608825959 -60.050003051757813 153.149307253885695
-306.673924848037416 -60.050003051757813 164.513832276112339
-310.673848729719964 -60.050003051757813 164.416652858446952
-311.873350907656686 -60.050003051757813 163.775698069948305
-312.265699936032320 -60.050003051757813 154.175376484465090
-313.232070444103158 -60.050003051757813 158.391618772700127
-12.153536060482079 -59.096900939941406 -29.134690276691103
-13.316641048777365 -59.096900939941406 -32.896817632283366
-14.914607265016759 -59.096900939941406 -35.450691805812113
-19.919784615273549 -59.096900939941406 -39.625279776970309
-20.916117983412857 -59.096900939941406 -33.557170197828057
-21.310654673394314 -59.096900939941406 -40.417487163472330
-22.252725077753276 -59.096900939941406 -40.580236159680538
-23.710046173273874 -59.096900939941406 -41.182097232643969
-30.110158434416320 -59.096900939941406 -41.043192761866941
-36.523446955400885 -59.096900939941406 -24.357994556681689
-37.322909372736980 -59.096900939941406 -25.032432825920893
-47.404631381468015 -58.705200195312500 77.587272172659027
-48.609185799830868 -58.456298828125000 83.305118172509822
-48.581102776880016 -58.397499084472656 48.039424245499653
-51.012981534924570 -58.620300292968750 88.068799958592535
-52.571993523372214 -58.751701354980469 36.598744472471893
-53.015257921778705 -58.430999755859375 90.926611916122724
-64.482431701474326 -58.406898498535156 -75.879478107133735
-64.880148456218393 -58.562301635742188 -78.739193614517177
-66.128370202811482 -59.096900939941406 -76.833883596960035
-69.693290172664419 -59.096900939941406 -62.242021766416926
-70.724717911800809 -59.096900939941406 -87.321952634423454
-72.071042764208855 -58.771400451660156 -90.182423544012607
-73.425544314548887 -59.096900939941406 103.838661704089702
-73.295327296647571 -58.736602783203125 -59.683388804214346
-76.470283993299034 -58.650299072265625 -91.138930010275544
-77.632610843431365 -59.096900939941406 49.922593756493995
-79.668922194499629 -59.096900939941406 -92.846471914380459
-81.785361245830330 -59.096900939941406 53.372885926864306
-82.896840682178663 -58.301200866699219 -57.784837549578242
-84.897599107693409 -58.760498046875000 -56.833229211284191
-85.304431478583609 -58.541603088378906 -48.255448351210276
-85.268377390633162 -59.096900939941406 -93.530931432314802
-86.896831376031869 -59.096900939941406 -57.798116542185639
-88.908679206293428 -59.096900939941406 -42.920815292626727
-89.306707228263662 -58.656997680664063 -45.399232861797600
-89.297599238471904 -58.574897766113281 -56.836733050026524
-90.896838145633339 -58.230400085449219 -57.791208163264116
-91.298871055097720 -59.096900939941406 -55.240425819466324
-95.303132685218458 -59.096900939941406 -49.890410003815241
-95.669172741602679 -59.096900939941406 -92.538214098022991
-96.095628588844747 -59.096900939941406 -59.317946849639355
-97.712089576960707 -59.096900939941406 -38.645525286144029
-98.068109615198452 -59.096900939941406 -93.876123394897490
-98.067239228256668 -58.751602172851563 -94.969125367677194
-99.694152080394645 -59.096900939941406 -61.171612598300158
-101.262903938520424 -59.096900939941406 -100.410674876909312
-103.712776179529840 -58.143798828125000 -37.785702385292026
-103.691524207399411 -58.727096557617188 -64.473197738231406
-104.626917759354967 -59.096900939941406 105.545215294230658
-104.512019996962465 -58.286003112792969 -38.739441258708872
-105.317182130490266 -59.096900939941406 -32.251581685984398
-106.111258904123900 -59.015602111816406 -39.693916371946479
-106.076344994390880 -58.629699707031250 -83.537602879440371
-107.010682949496271 -58.641601562500000 85.164808684269659
-108.467080581382049 -59.096900939941406 -95.174405700413331
-108.918084489518179 -58.762298583984375 -31.117947509020468
-110.111257635851231 -58.856697082519531 -39.697101678789409
-112.614354838492659 -59.096900939941406 89.765946239247540
-113.719603977649484 -58.873001098632813 -29.215570075122102
-115.410855012089613 -59.096900939941406 85.375618249019340
-115.315806971245379 -58.429199218750000 -33.982440982743810
-116.859882577048481 -59.096900939941406 -104.209091855361436
-118.217218712958427 -59.096900939941406 93.361987683438130
-118.119604108427978 -58.516899108886719 -29.219073913864428
-118.060401994035715 -58.204803466796875 -103.563052111767703
-119.422493253864843 -59.096900939941406 99.988929162241490
-119.318082717887691 -58.623001098632813 -31.126229308027192
-119.264559367645546 -59.096900939941406 -98.339010883949967
-119.812603401756149 -59.096900939941406 87.567517766918655
-121.025099507795616 -58.850402832031250 103.263052256589418
-121.259270328746709 -59.096900939941406 -104.981600272054152
-122.613720102331257 -58.958099365234375 88.964884773899456
-122.463438521381264 -58.631301879882813 -99.753553619453001
-123.018859095664610 -59.096900939941406 95.425761098849762
-122.919598008865520 -58.603897094726563 -29.222896278430653
-123.397776315486155 -58.469703674316406 68.948655765366055
-125.419786628074462 -58.158203125000000 96.587652645109927
-125.414473617574828 -58.620300292968750 89.915756872372768
-125.799295035664883 -58.557601928710938 70.852940569889213
-125.722636168416173 -58.733001708984375 -25.412627204473289
-127.409625580315947 -59.096900939941406 83.826962169517699
-127.259637129638918 -58.362396240234375 -104.523373313204758
-128.120352285986172 -58.712097167968750 -28.273939179974256
-128.461918821671134 -58.384902954101563 -101.664329205366514
-129.416437428876435 -59.096900939941406 92.370670145303663
-129.322641130484470 -58.504402160644531 -25.415493985492319
-130.210672541757987 -58.355003356933594 85.146333907010842
-131.389800540529194 -59.096900939941406 58.920185967337268
-131.821288557101923 -59.096900939941406 98.469259045943474
-134.059630395940133 -58.415496826171875 -104.528788331192445
-134.597388097422879 -59.096900939941406 68.450937008715357
-135.813457725044714 -59.096900939941406 88.633976941995627
-135.798844250171697 -59.096900939941406 70.282878024218618
-135.724910014168358 -58.550903320312500 -22.561191582673036
-136.523394773468766 -58.563903808593750 -24.468129540457383
-137.023576400459689 -58.310302734375000 101.344015857276204
-137.358680529257754 -59.096900939941406 85.140641755517066
-138.460397051723561 -58.612396240234375 -103.579297177881756
-138.922628931359526 -59.034500122070313 -25.423138714624770
-139.258882052524712 -58.824600219726563 -105.485931867329654
-139.797955635225094 -59.096900939941406 69.165393296514736
-141.021298196253440 -58.550399780273438 98.481532750971184
-142.196856449170269 -59.096900939941406 67.791782265326646
-142.988660588317686 -58.804298400878906 57.495551389517921
-143.411207654828075 -59.096900939941406 85.797725556187558
-144.124142268131266 -58.692901611328125 -23.520980624452839
-144.527946271310014 -58.459999084472656 -18.755700468980066
-145.392722841611146 -59.096900939941406 62.584336826210716
-145.390945997539603 -58.453498840332031 60.353037179681117
-145.388668982624608 -58.836898803710938 57.493640198121568
-145.326431032129307 -58.159103393554688 -20.662636519416388
-145.825853676931672 -58.718498229980469 104.196405161351123
-145.823576662016677 -58.571403503417969 101.337008179791567
-145.733255772108521 -58.174797058105469 -12.084857560615006
-146.859629389224438 -58.954696655273438 -104.538981315520033
-147.729460163236695 -58.557296752929688 -16.852048907484136
-148.205353824031363 -58.779197692871094 78.460104253480480
-149.325670784705835 -58.377296447753906 -21.618921728529362
-150.135122667163245 -59.096900939941406 -9.734562319650546
-150.584110246207871 -58.670303344726563 51.770697709144734
-151.390944095130607 -58.686500549316406 60.348259219416718
-152.930973500008406 -58.715599060058594 -14.949890817312216
-153.428134385642267 -58.720497131347656 107.049750055048690
-153.426616351396973 -58.648696899414063 105.143454883107211
-153.383353432541895 -58.651702880859375 50.815369997002470
-153.325669516433152 -59.028198242187500 -21.622107035372295
-154.143553264035290 -59.096900939941406 0.850698494395685
-156.140077420387456 -58.182502746582031 -3.514942686823506
-156.587144339383542 -58.495697021484375 55.578418540057960
-156.543122428467228 -58.407699584960938 0.297217539224937
-158.981065483736927 -58.615501403808594 47.951509778457350
-159.428891463902971 -58.718803405761719 107.998073904402375
-159.332498584344336 -58.594299316406250 -13.048787511011412
-159.727179341984851 -58.511199951171875 -19.721003716920517
-161.031158500312841 -58.652099609375000 110.855800042125495
-161.380314900411918 -58.499198913574219 46.996500592138993
-163.431166894619764 -58.923797607421875 110.853888850729149
-165.334132018716389 -59.096900939941406 -10.999965811127801
-166.631162828244783 -58.817398071289063 110.851340607685003
-167.033434092782585 -58.669601440429688 113.711021785397520
-166.980303969559657 -58.218803405761719 46.992041169849472
-167.381830956304555 -58.590698242187500 48.897922436414667
-169.433442487089508 -58.953300476074219 113.709110594001160
-169.331736434511868 -59.055000305175781 -14.009850680388791
-171.031915027208782 -58.556800842285156 111.801838852905476
-171.730970590883743 -58.942199707031250 -14.964861761904196
-172.234947189572409 -58.869697570800781 115.612878514580999
-172.576513324274998 -58.323799133300781 42.221984949309338
-172.574995285473108 -58.638397216796875 40.315684055323771
-174.978024415061611 -58.660202026367188 44.126269759907998
-175.466836141204993 -58.677001953125000 155.641323426203286
-176.634196048054690 -59.054000854492188 114.656372042242580
-176.528983533641622 -59.096900939941406 -17.465883352970316
-177.071726276779344 -59.096900939941406 161.793047237766018
-176.933242827824898 -58.879402160644531 -12.109702951559690
-178.174225375470002 -58.271697998046875 39.358124730764217
-179.071603002788720 -59.096900939941406 161.637447675167437
-178.937242699994528 -59.096900939941406 -7.087597437399413
-179.862354080179159 -59.096900939941406 150.018818079245079
-180.237221352016547 -58.983001708984375 118.465508154064850
-180.171188745749021 -58.555297851562500 35.544033286165131
-180.933241559552243 -58.848701477050781 -12.112888258402624
-181.735228883260817 -59.096900939941406 -9.621426350404015
-182.529878454153135 -59.096900939941406 -16.344461948026755
-182.932481946265085 -59.001098632812500 -13.067580814094129
-184.173464493910188 -58.495399475097656 38.400246868229779
-184.635124422489042 -59.096900939941406 115.819007405558267
-184.571196505919630 -58.151802062988281 35.540529441347317
-185.871669197855567 -59.096900939941406 161.714033357526318
-186.138741307491586 -59.096900939941406 -5.204732190349288
-186.662143949780187 -59.096900939941406 149.748403749556331
-187.336284760152580 -58.889701843261719 -8.305386783366824
-187.839502540690916 -58.188598632812500 121.319455769739307
-187.767397464809136 -58.447303771972656 30.772382504855504
-188.134754262187641 -58.549201965332031 -10.212322821652169
-188.670384499995578 -59.096900939941406 160.095806838234239
-191.035763700098443 -59.096900939941406 116.626906572339379
-191.839861208786431 -59.096900939941406 121.768266169192259
-191.736277261538959 -58.590499877929688 -8.308890616033661
-193.146620695861003 -59.096900939941406 160.393237259140506
-192.934755792017285 -58.836898803710938 -10.216145192293883
-193.875090066631827 -59.096900939941406 166.006657352445359
-193.835705346102060 -58.173103332519531 116.548680480289377
-194.140506696197548 -59.096900939941406 -2.991003105126284
-194.570434356087134 -58.796699523925781 34.579466271969942
-195.773287198414550 -59.096900939941406 126.078138783574488
-197.329112777264953 -59.096900939941406 27.905367550980372
-197.736275359129962 -58.918701171875000 -8.313668576298060
-198.538561226373702 -59.096900939941406 -5.447305969297474
-199.768803795041350 -59.096900939941406 32.533625659703333
-200.160793605475533 -59.096900939941406 22.482210543541520
-201.765116009420979 -58.914703369140625 27.901835041997661
-203.399089351241685 -59.096900939941406 130.838066503183001
-203.039606154751425 -59.096900939941406 121.447350951425449
-203.334747714122216 -59.096900939941406 -10.241926915533487
-204.162073149359031 -58.985496520996094 24.087425071574675
-204.141580159417146 -58.543296813964844 -1.646966564398621
-204.675932206643154 -58.178901672363281 167.056055343308117
