# This PCD file was generated using the MATLAB® pcwrite function
# from Computer Vision Toolbox®.
# .PCD v.7 - Point Cloud Data file format
VERSION .7
FIELDS x y z
SIZE 8 8 8
TYPE F F F
COUNT 1 1 1
WIDTH 788
HEIGHT 1
VIEWPOINT 0 0 0 1 0 0 0
POINTS 788
DATA ascii
-17.969840656204653 -81.196230744496091 -179.793986970328518
-17.039747023744507 -81.178656282733613 -173.525161922587586
-64.042036692708081 -37.984998953854877 -93.072715001997267
-63.208944693633633 -76.250207742675471 -58.287192425532119
-96.469467218757032 -29.935046214816538 -65.555046807004175
-140.916488470107311 -76.563322752383542 -255.361570859920334
-97.664464727501752 -66.614665711460461 -101.681576493506356
-81.973271058659165 -84.064869603904441 -99.357164954772713
-60.971652212643193 -47.830782016578524 -86.537819282766208
-93.902100814508159 -46.544619746545557 -52.443089256303374
-135.077753699464552 -74.507145380289501 -258.810373330040306
-36.624667800281586 -83.391661158101982 -186.704262396544806
67.323260717286686 -47.550738471452192 -99.756258504597753
86.665248144470951 -67.470350624598922 -65.120455760968696
-89.645897103742683 -77.822791627228796 -95.252614752310251
-41.244811316688697 -84.862404428396985 -194.004352128952945
45.006241557903870 -76.711743969411899 -101.757612920052281
-98.508730924074754 -50.784742862313500 -61.548074526894716
41.917444804860196 -66.877950038199103 -110.985826565138268
-7.686140674465188 -80.008615837075141 -168.677455031230721
-50.439502587350439 -84.891350732110084 -199.026860910020986
44.813308758872388 -70.721216328840100 -246.462646415551944
-19.307373242104802 -78.320102318730889 -174.446527840881629
-13.370133314506033 -80.030257340198247 -176.636628992199093
-80.817866666781413 -23.234255589850893 -56.117863070883232
56.401860678456799 -69.871373829470642 -87.358741200886527
58.904209625777312 -70.037702926551091 -90.673667115288879
0.940664038623256 -51.724493300938349 -286.344702084901940
-61.138686359518545 -73.477012590697854 -52.411576004190024
-40.949262430871592 -79.670495464910587 -204.298185032174985
-0.018949733814118 -83.198746836332575 -251.147635422399361
92.287992091310301 -77.077580519516971 -204.398953751927536
115.273185962803524 -73.800887235075550 -150.732905766855765
-15.936334037980913 -72.172903304814469 -289.524030971597540
92.055735158100163 -55.254634250897304 -109.244379330103982
-6.113960972129236 -55.505840373125935 -286.010927490027143
-42.853112566571340 -81.611195647530693 -76.191738909285846
18.143987360019604 -67.320732270127991 -250.097539358595355
-57.996988690028800 -42.129288768351799 -82.877479146664371
55.554027618021067 -62.643262786119045 -93.873006021627418
51.987258815858816 -62.405554465733310 -89.600284319200711
-5.585464231148358 -84.446992864745255 -255.100222442332722
-57.308654753581074 -41.474790870625100 -78.473963832339976
-81.599932992711615 -83.613955719949445 -94.878015424556054
60.913264314741824 -63.615864038664562 -82.346149378973806
63.978958341545251 -62.366639885824931 -87.009214759708073
5.542522896058253 -85.217293777055360 -262.481243989345444
22.287641966065785 -66.509640862801234 -264.353812881420254
-45.312597526703570 -65.010258680446256 -44.788121420151853
74.969720867711743 -75.696084610423341 -88.063383197202114
-100.335592458926783 -54.503918387251012 -82.108348067975513
-79.905859938995832 -68.778486495596823 -52.052445195663111
-123.440521113182797 -71.934756414115952 -283.162139889433604
-124.057337292480327 -66.503814478591949 -287.635336152527714
-148.027889762383666 -66.754334195298881 -260.321421775795784
-153.438724420180336 -61.728575547131385 -261.878121139618770
-150.768564446571759 -84.291946774623668 -277.201699754714014
-141.113170176673009 -84.798394318801073 -286.383081246089262
-98.279176388405475 -62.283586004970722 -75.087230588184923
-72.706141020146305 -52.304673045042527 -111.336895539989712
-75.848305374254906 -52.930178842733952 -105.027559419603051
63.751170709708674 -73.741473055741224 -234.868582787674910
-155.576585604987429 -79.434231313702995 -274.382089031266389
-165.029646169458488 -69.435388082818292 -273.746596822026447
97.917749836868666 -41.880097845941570 -67.089553096710290
87.018351210411197 -42.962073009547787 -78.379143829136609
-171.640042564916996 -70.212987741313015 -267.936462370384675
-66.838413726179510 -70.282865993363032 -95.714495009011529
-153.008502995437539 -84.835918677790630 -264.087108080365454
24.809406668261580 -76.512493861299774 -169.515787781323070
18.535474273319263 -78.961815935678274 -177.964774689395426
-93.744418061841671 -68.450566517923846 -70.456813493557419
14.444677135719274 -76.948971134304713 -180.687796928684406
69.513213960879654 -70.982166033700139 -238.156737962719035
-158.910405400481807 -73.977817096648181 -277.776533906850887
-63.837462042996655 -77.949764063607233 -92.787925238173443
-171.734537015743115 -71.359756895837521 -282.595709774931208
-149.408490460257610 -82.539778657215436 -288.544414553579145
-156.099386897298302 -85.363030521551607 -282.093868885575944
-153.463693134752475 -84.931217017080769 -286.706312183489501
-77.383339380085630 -67.261261997209886 -105.484448626567882
-74.813480163677568 -65.546376571795562 -108.849440121949584
15.647048881548159 -63.202708077663978 -144.632981193044685
-134.552021898977159 -63.982639792806403 -256.638057782446424
96.759937075329518 -61.024634952610164 -64.583900912335366
28.305178061456594 -63.325879858876853 -132.937188102823256
22.803955300132532 -63.808026536536467 -136.273634923284760
-84.702872895220210 -47.707457353453414 -44.972710415818071
94.875328217750166 -73.233340237900578 -78.587167387261388
-69.223384262530431 -76.944990301399159 -61.566892399760803
73.426187192583328 -49.381587545033597 -107.997982725093209
-68.908866815682302 -44.698880215437605 -94.911047610569142
-158.622129753708862 -71.710379080549671 -308.653749127426750
-160.265918033397156 -74.078457246208600 -306.701569119042119
75.944450067440826 -73.805539264913861 -76.495741626358097
-146.689911644850952 -83.618514747215713 -282.765190789381904
-56.920466047308942 -83.232312105302910 -198.772323658459328
-147.874198287437650 -84.763781783810970 -284.965359264043514
-152.031231960144737 -85.557404147466656 -291.389109905467024
-155.717857169644731 -84.813870150600380 -293.338410897436461
-61.642372806216287 -84.148038673682706 -202.749550942326863
-153.997618774625892 -66.424269415163764 -306.998787934932636
29.115559274149696 -68.889200938089573 -132.316435639359270
22.051626127175577 -64.938297318668447 -137.747871635358990
-75.282011351092976 -62.187823786985000 -107.573127552244358
-77.642378020480848 -61.896351541773242 -106.230355072650980
96.179690862382870 -64.789463650489012 -67.048273414185374
98.064544392318680 -50.830827344891226 -82.748865313925975
-80.122643406417595 -69.017582484775360 -110.904831410286647
-59.792807014452180 -80.728027337491142 -71.780065864598356
-65.426387875887656 -79.575023008754158 -68.779654210284235
-31.866963263374807 -84.178542609889732 -184.614239960225490
-44.669965410757293 -70.956435055089315 -148.508929654353864
-27.328352491911449 -83.362216502636798 -185.620209473961523
-19.737015860260740 -67.202667861894398 -195.566931865178674
-44.714313800401733 -67.272816820046202 -152.323693945494256
-16.900985902420643 -70.292087417776585 -195.514426837056959
-36.090984324911638 -83.703561037013969 -191.788375399876486
-108.892897311289346 -67.933374175126687 -219.050522336699089
-45.922557007632214 -84.499089494815706 -197.400270838588455
8.542326150498120 -84.192958621414220 -264.816049972245139
27.633487988052188 -67.998874132703648 -262.327086765411821
6.662357696669616 -84.750174847616847 -259.395627125163230
21.464136155478016 -69.134675922261565 -261.743629828774431
4.862523641518100 -51.059424890097297 -294.418858232196612
62.589174060656134 -48.588806074241894 -79.144268098777360
-94.461576280436333 -25.312587732971544 -66.561834085006211
-0.118124966414227 -84.650760433608511 -254.495775765175267
-41.066838765995115 -76.146784028208927 -201.686568642236438
-94.560240730135320 -75.635309154769416 -214.999047472263243
-96.951880460993891 -27.940566501389288 -71.126352079212666
-43.292098116048997 -78.469768657448839 -66.341098597721896
109.772614740242574 -76.440562195782263 -152.346316270079541
88.810653928040907 -57.510481353685613 -60.028759510540915
-5.408554843091412 -52.310219795704413 -284.126711493829760
-2.159456111769967 -83.795071064664626 -251.714767856582597
-52.869827595497988 -84.778096155456552 -198.099926890032663
-18.807081467917410 -55.342903117341507 -264.034746820913426
-150.082884074510332 -69.169430577675342 -171.473647399372908
-55.177317248273582 -80.219505898850187 -70.363026974922590
-153.579765390496050 -70.103179611523856 -174.532226145768419
-154.685007321986461 -65.066739484605890 -172.593192262858224
58.900360544116211 -57.342916540432370 -105.756446135263445
71.766109648418535 -49.210277512866156 -110.864497452945614
-3.010393991745446 -63.308303439013820 -256.045563787147955
49.009787358978159 -68.001302536430330 -108.693176822372436
-57.036976273716157 -84.337046608476513 -203.133163215272901
-72.593845906476503 -63.765645624456802 -105.058935218979002
-78.618859578673153 -62.428677004380994 -110.118715663149800
30.629906870970089 -78.485589620166252 -151.664279925193711
-152.358762115228842 -83.606510150461645 -243.921708941332014
-89.840696843979842 -49.321100095413222 -116.932383835537536
-153.307254953436882 -83.289462902106365 -248.356193696432967
-170.079052320287360 -68.245202186547573 -247.836504568517654
89.189194530992566 -58.679779200471152 -110.051028415722442
94.853767482547497 -50.118370797124228 -61.173837257161104
76.471475397124905 -72.940060552468665 -231.928832248933531
-149.596164112628344 -72.219975275368498 -275.392110075135292
-87.153412554495659 -72.029799213799890 -64.605880671438655
-145.134851495704595 -84.098385495504331 -256.208547617274633
-136.744460359764048 -66.659742530300235 -282.527102140551904
-155.299410443778413 -63.654074497273122 -274.474356194361803
-72.943184238679024 -21.421695306568992 -57.040848188885001
-72.916230073056354 -31.540188682459092 -49.572687161971380
-164.676686683899163 -74.009455606601691 -288.333898274512649
-153.666743679508841 -79.653330638906993 -297.556444928046119
-109.108070386294585 -68.519884216203636 -252.765605256038043
83.420594454941536 -44.323551376384394 -103.452048186987014
93.566291212482454 -74.568238930291386 -212.352588517652350
-130.420654016600338 -75.583797757834219 -255.953554946154412
-58.190316289352765 -74.331737914427038 -53.690612681835788
-119.331042028591227 -66.701316696886622 -259.480969011992386
-124.218827484440908 -65.852454695868815 -256.959130462785879
-92.885958182005453 -73.154302357427738 -87.794397977849883
-97.951257988971463 -29.955420092560558 -76.288171228333482
-141.114030942472766 -83.993852238762315 -255.732229649867719
95.730250022519058 -54.377386029276316 -99.979141540174851
81.538983537498396 -54.489205312021582 -82.766312427081942
65.518546443971019 -52.811923565236782 -66.591370734224725
-97.631268239468696 -47.455564426873501 -58.770040937350046
71.225231214242982 -54.951180506926462 -91.390739577057673
84.931020249106297 -48.433770717479938 -109.507839121209400
12.591316158502263 -79.967034025480643 -271.358258379609651
53.046187044932545 -74.736567035798387 -104.193027125972407
-72.058992133410570 -25.939175763736745 -53.004379982117264
68.710641113899868 -68.398458946551827 -74.415605255906542
-3.472065452341771 -85.243823068541673 -260.739775261022544
-169.199196245507380 -72.777653087900362 -248.971266977237633
12.346848839437218 -64.773102647305308 -149.666411359504053
88.033949247297357 -62.937167128483217 -109.806523774597309
-78.898688112452803 -31.721867256368821 -104.087795460657446
-134.282534586870383 -71.184425138619844 -280.537654148901254
-147.568409219980936 -83.653944433672336 -257.170988661043225
77.864872322164331 -70.005356004100676 -229.483841674362424
-149.943487260206950 -69.013955054422823 -271.517431534314085
-138.056584927350059 -65.444199174380017 -285.475463324331599
-163.289440345061792 -73.898176330502707 -273.180865075413863
-153.728749251401837 -84.277392625530339 -257.566011351781754
-156.484814820153247 -69.299551445711316 -273.361666180831151
-167.883374065519206 -67.646561398887599 -257.204362065102259
-136.012359115514499 -68.552362786191537 -290.754661541065104
85.777174186949466 -50.783866982194645 -60.020559632489785
68.150268131144458 -51.530507598774506 -78.437887522626042
89.334055840569320 -48.001351367109862 -59.044313196945595
72.389241437407023 -50.530544712226501 -72.532733184703176
63.576522693296837 -50.054143771867928 -81.903737639874478
60.907107745233603 -49.755519803864594 -86.055228791873134
75.496355536431608 -49.146840085588273 -68.551753678336851
26.984425970011557 -73.055358766269791 -171.973185036576297
11.177212454943916 -72.331073895674663 -152.591775388400293
-67.640269454867607 -79.530049342504370 -97.756284993180486
11.901851161391154 -68.427810870867049 -147.345393252567362
26.934132152485581 -69.106624686383228 -165.479303102963797
89.823217810941443 -66.935433114495950 -108.141588856903326
89.252615545980362 -44.859665670614994 -94.198466136697760
88.468089688099639 -71.020422760417731 -69.071164306587946
38.984484580474479 -78.097531679064303 -110.736542833193994
-58.450335611753005 -79.859752593882519 -204.690984021244986
52.721353330841119 -70.181359831015641 -102.636383280713943
1.435590871183196 -85.443802457980055 -266.136162720150651
-95.591865612008348 -70.037844547769168 -91.173955885797881
-1.347351545188959 -83.765712767975216 -271.986107971925946
-90.633082440610721 -34.751819930235982 -53.429104977286300
-60.219550751593403 -79.083671260753391 -66.582574998084283
-0.220669262243227 -82.006100282761295 -276.911263415129554
-78.351881121832761 -81.161921192079475 -82.511037038623527
-2.492361264665001 -80.311659886400747 -278.956797345305233
18.491439792887704 -73.841659951331579 -268.563903710136799
-65.800553391482779 -83.557312904547260 -204.115591409452037
-61.793810778874693 -82.875415030306470 -205.863700788790624
-59.583765913755052 -27.420972027236729 -82.633949993127416
55.579409696657848 -74.135813237398537 -93.905030644976762
38.032193753587258 -75.429967355021915 -112.117229319803215
-62.130747106314139 -36.849774191319916 -91.111667190686433
-2.898431800469007 -85.106866669710385 -267.374214212780203
-82.869378237991185 -43.899779198363724 -45.155642431034977
-74.935002215962072 -71.604686930181472 -99.377367352278981
-131.552787757456599 -63.843029982544898 -255.326761446570288
-84.046599782524467 -78.078537740654511 -78.813268571970056
-154.362039254480521 -80.560680597060028 -286.252573513277298
-158.531875993272195 -80.088180229448582 -281.300349157181984
-82.842762432156263 -79.455383872454519 -82.141153470938548
-148.924464536340963 -80.023273021762961 -289.450408223086072
-164.718449494615925 -70.092909812206145 -280.326805205025266
-150.559054617861364 -68.045203920910595 -304.549564690424461
-64.212590347114514 -82.142725064852925 -75.962331991793221
-130.485329734214133 -71.365606116871945 -261.453058134343394
-128.224485460028063 -67.053367662165712 -260.460466997429990
-56.064559986224722 -82.503068064653590 -76.231678592719305
115.480886838279176 -72.206093300632261 -142.819398721012362
113.841832416881218 -75.498061164392553 -140.587657677194727
-87.889902533050218 -33.088958124922080 -107.401466569971348
-40.843444519148349 -81.896491837371073 -79.872437156950198
-23.136163888635611 -56.793766660245815 -258.179410627513676
-38.329901947975827 -49.440092145464369 -48.552916369565743
27.186114235961696 -51.457521712970156 -250.526720051773253
22.009288271824737 -51.058960943648849 -254.085756472819384
9.196522807281831 -73.171297694701408 -289.231503142110796
9.814370837146488 -69.146599389232207 -286.428920380926684
-107.529267357750172 -67.262881300441791 -165.333270179237246
-62.988874070044567 -79.981547359491827 -206.932056638608714
-65.364484136940135 -79.854622730312443 -202.177468547907552
76.835633505912725 -45.362712589154164 -107.160845262074758
49.681192905641630 -71.693805901166229 -107.576874465291922
-72.896383992490982 -58.315975387907891 -107.352477121074571
-79.283690922478286 -57.360185759591999 -109.128509426866771
72.254139148443798 -45.504418726630064 -103.844124153585312
42.522832569146495 -78.909229662777435 -109.080214287522296
104.912034904548491 -74.271589072085490 -169.605006179600707
-0.826038776519971 -59.036792378642346 -249.691105165234575
-80.469375696784226 -81.841013473151392 -87.486850872830388
-75.318796220293621 -82.762939726686909 -85.605313237157446
-154.316631085537608 -68.862503449929591 -173.246761754739396
-149.930528815908474 -66.577997759059684 -171.521075001230997
-80.441448929920995 -66.016959730490726 -107.135788966725642
-155.124907140353514 -67.127090698492438 -175.182330379661522
-4.920504468488848 -65.634513467988711 -264.847553189422001
-147.997606778589841 -61.390525811750919 -172.441367267042239
-62.151044203089647 -81.351047542336346 -73.424000411473429
-15.905200691122534 -51.715088679787925 -260.018363425536279
-65.980254503372976 -49.594567864848287 -106.106790008779370
-121.630251157645219 -72.813593848994003 -252.452467721785723
-55.067017130716174 -72.860569086168383 -51.390523964443759
91.072093090411528 -74.479207435083296 -203.278873130414553
-41.517086771204312 -80.798647070188039 -199.269825078659636
-56.851269366525777 -79.910561675188021 -181.387452056624198
-89.941231378163664 -75.658684460082313 -85.029075805069226
75.189338670451392 -45.905196441016564 -87.451496908673477
58.821386166613777 -72.368834248018103 -95.191020641619929
-87.822456110959820 -37.985393112767326 -49.817218913110906
-144.644383418063626 -70.397799917010701 -289.146037345113996
-127.937269566205373 -73.954351988884056 -252.567785779624188
-84.651272354110475 -82.356069423067396 -97.576190506498847
-161.533457342461702 -74.250824466732297 -284.928927337430025
-149.489554163119749 -75.550509210441518 -300.106437606258794
-152.545977462934275 -67.518915740451362 -284.308605927601604
-148.177409589544311 -67.117736193432918 -289.023585102295556
-157.509614371368514 -67.956889970063955 -279.769335601694991
58.889134161416308 -62.000126572478486 -85.673800675166376
55.098101340512912 -61.737461574210542 -92.123669923265936
52.435604147452324 -63.883070650754540 -92.922264147682966
-148.606221885258606 -63.038558082448326 -285.555276944190666
-153.010211104091923 -63.843733209514518 -291.551717048056048
63.772427746759988 -61.006044514418015 -83.210636762180570
47.257292263782134 -64.495634812438070 -97.127795482199673
86.069226320160382 -60.350142705665974 -61.226338637198388
-110.483184361531258 -70.913257794198017 -257.939771870976017
7.605253256500617 -57.729330008035973 -267.961909037757380
-85.029279441170758 -82.290178564023563 -99.244475306427290
-86.990370912857543 -80.907758760225548 -99.681791531651925
27.223428788190333 -62.983918805258106 -258.978925099271407
8.572164539127556 -51.712724570608998 -288.662359302499397
-12.580325538403734 -71.648701272352071 -288.311681061736749
-10.439457646858774 -71.845917997463019 -285.526683843430305
-8.587800947464794 -66.959549367430185 -288.987878332390949
19.973455801496936 -71.577031147928523 -256.455523949978613
-11.381506745422259 -68.026787149089856 -284.844140915113258
64.533182437373853 -58.263961830072496 -93.470541593178780
44.109457735987078 -57.267538313353519 -111.624544879817279
112.461857903987422 -75.591844783889769 -164.056902183520293
-23.197838812910689 -83.112895254377690 -179.130494491852573
27.384061700745953 -70.504837121721508 -140.126932711890618
-73.533356226119025 -16.651508763396336 -69.344752724256352
30.997591585874403 -62.204337852176316 -131.504010422394913
-40.462635982316691 -71.947231047880223 -150.686315971207932
-24.439097495123640 -83.656810044685074 -180.564620747976846
-116.097070690286003 -70.275915126538692 -228.531859024878031
31.612260909718344 -58.495711559543160 -133.214660682732841
48.665999996555925 -57.046624067559378 -114.525942621195753
-25.927527592290868 -83.038871410803850 -180.273099594138358
-41.899031415941863 -68.564471086319301 -152.870779799437230
-117.085742484212233 -65.446264517980012 -229.130919744319812
-43.673699196246126 -83.677414150614339 -191.105855988156208
-50.611001022502819 -83.698468036060447 -195.354716408939424
-93.461435276360277 -27.478152336560989 -61.561341902554318
-54.023216904265944 -82.806314379296680 -202.712502190982065
-41.054814572494330 -77.623087372887881 -64.222915673541564
-51.390446543155015 -80.291070602567487 -70.998248267280815
-155.700037675905321 -81.870464134471291 -223.644836990678925
-136.278633496602339 -77.726373995650931 -195.822352902506992
-148.967579261491039 -82.076386602835782 -213.644264959788103
-53.853215105465551 -61.560070620030274 -134.687929519711105
-48.921724092342053 -65.867578775374412 -137.960933282101536
-5.372960839898123 -53.656205240288187 -241.098698920774638
-69.237562240372739 -17.230317598084643 -71.785619207386929
-20.660912906677652 -70.985810055257375 -240.567338979122724
-149.001929906519081 -82.448689420255576 -219.368439932774123
3.800117898307718 -76.144593898875826 -212.945507118182206
11.315898633389384 -79.999028222867580 -211.256400490751673
-34.919764711595256 -78.815426040354197 -237.571725478345797
-151.120124054603366 -82.745652995422560 -221.815727726082144
-148.671818364925514 -82.433868875905944 -221.342209736536205
-144.619516417641989 -82.338028249571025 -224.179287679623940
-24.492506381227365 -73.065689829729976 -214.860401781173067
-153.397186195353981 -82.986874243528902 -227.616815889966233
-168.084577766102313 -66.653362069384258 -225.555700794125215
11.762859281278956 -70.520403981725394 -182.493882709805320
32.822182887611483 -72.732068390227710 -149.912053631438710
-147.744535337521654 -82.241094110842127 -225.561262830420986
-150.075231096757648 -83.235802141511257 -230.833791604831504
-149.568301906721956 -83.149661390250415 -234.275013361383628
-153.275945114790773 -82.313429963629375 -228.839315013623406
-169.519777496697372 -67.636080750759930 -232.649848602227934
6.821101052646144 -68.441554022082499 -213.050501793736629
-28.551674409170943 -78.925410061914093 -216.043343744435646
-149.326577732731550 -82.631569697333092 -244.166381951039227
-82.332792815524883 -71.935406967746061 -208.494869375417125
-62.841722699521398 -55.718687120347560 -85.462513448799513
3.839330623270484 -69.595160540346996 -158.413489249130492
-50.533983646211233 -73.764369023019768 -241.098351402248113
-56.760196271764194 -78.526130134438262 -242.235265546322296
18.666069261425015 -68.505922271416537 -178.190788864050035
-170.615546718209430 -72.485848319352485 -257.635281001611418
97.097667948848965 -70.643857645411771 -100.198367949379389
-137.644234576906285 -72.305004915197514 -291.000355378719121
-155.380407483452586 -66.518075175103178 -271.612895762876519
-86.304311287149673 -24.303436124026017 -98.411615296985815
10.641958386497599 -69.840557402763650 -149.288933707516918
27.963148439778351 -71.714169013352020 -167.656857236855018
69.871134043366126 -72.195054908020936 -91.470106495898420
-149.963764578003349 -83.619384188417584 -248.766729524102487
25.882007453163887 -69.349299167052536 -170.858955330182567
11.371003653599143 -66.286070043923132 -153.501337759931147
65.909402664628004 -68.107304687804728 -85.763332446427512
-77.343609702787973 -33.628525956934958 -103.283564886182006
-149.208251458765289 -83.293205410724369 -259.217115660757486
-170.838777482811565 -71.513435261716538 -251.566567299679150
-156.013707099308476 -83.716133737013166 -252.840139231603985
22.430648546914874 -59.384315559704255 -260.047159389584692
3.004998834294062 -60.353721428455025 -277.519634497997401
68.258673791888640 -58.508124627551872 -65.163521262137806
5.748273319545858 -52.523232250987874 -284.347480034211799
-49.636840959028540 -78.635974431368524 -66.175218468679162
7.425289902571947 -83.836919956029462 -254.396081582188827
-76.167452520683256 -75.822236223272256 -246.188378988497675
27.503534496095540 -68.783408522439643 -255.310569850739427
107.990252065357112 -76.180835853153809 -160.514835209518537
14.676714590519879 -71.883998081436104 -173.130056752095470
-169.969632457681314 -73.151679157161368 -260.226026869970383
-155.298594930033119 -82.756030912820705 -258.814748780054856
15.027858442860257 -67.194141457415043 -179.683614155544319
63.865613749643089 -48.457471478699823 -103.465405850385054
-6.322963503967382 -83.158553653159643 -269.913976173266349
3.959431736612613 -76.916067601681206 -292.063800770542684
86.129666444998591 -74.580246279672451 -99.443479771905629
79.623076375418833 -69.026355036718499 -105.247178154980162
-8.852236415638830 -80.099474120820219 -275.012825716893701
6.493548499661037 -83.616359471537990 -269.519222028912282
46.538162286067603 -74.326100979364767 -112.589144727978265
-87.207044873879468 -76.683389235618648 -214.202631208057682
20.234564095038099 -69.186314474838568 -269.699229023943644
62.090857883912491 -72.703668331765357 -235.457924155953521
-99.677074409256207 -53.624021979744029 -69.881984460065539
10.798198315738855 -51.855354708134108 -293.223924898188784
66.910487089498602 -47.849765078242172 -108.488309872515828
39.525377218949281 -73.859554594910094 -104.790803198458377
-89.524943581777336 -78.460555654820084 -103.460555917225065
-5.863603194761099 -82.942363434049241 -271.149828004257415
40.830807831153109 -75.399285563424868 -108.141989418358833
-2.571400737498848 -59.514454389611750 -248.724104984830973
-60.244291894109125 -44.690770390713134 -54.125514048643282
-56.202222970452283 -78.976604365087681 -91.451421788095814
-165.146460174723643 -73.460913461366388 -260.000743970078588
-47.820788955146512 -35.027384992910576 -59.764499760037786
68.982640025907614 -47.650545643210933 -61.683178985484219
73.674368101071707 -48.036038048498106 -58.401904502322303
-159.099378983017175 -73.867227878654674 -254.087959710564093
-152.195306946934579 -83.792892019970509 -272.129139054601353
-170.828272635321298 -68.864155276297325 -274.309220678189263
75.164698043939879 -68.267593632776126 -105.500734001461439
-154.045838559360050 -65.927702134297149 -255.516617918225677
-84.203507840007887 -61.115619844293512 -47.593471658452017
-148.779694422677039 -62.118411263414238 -255.478843834628151
98.999250332035004 -48.888025832787214 -66.304567426702292
89.087018211286392 -50.280215588069360 -74.210049174593408
63.202724369152776 -50.140813952197924 -99.517277872137470
27.168133977128662 -70.013394051728355 -154.545804920625756
-155.178875734831308 -78.955634522544258 -263.058900326649280
-151.646083131429123 -78.636156453569086 -267.761374119197797
-148.409998891676366 -70.464498473054391 -246.689871414136576
17.960161940473302 -71.107067553140126 -160.194087544321491
29.275016387851338 -68.068987298771418 -148.949100446862076
-166.221875415900683 -68.497711070042413 -267.070288962124664
-164.673743009149916 -69.028709756780813 -265.231364855106051
97.701644975167270 -43.335090227402972 -84.620581407559825
79.829229609161871 -44.588883435026538 -100.985270301148830
75.057612047745351 -46.455893935441431 -104.081120803868856
-126.845752732652244 -73.194797329932399 -254.977902118947384
51.253398491977059 -69.744567598971784 -104.497524227238330
-70.804972480740091 -50.713165002747594 -95.299185852614016
-90.964676263988522 -29.365559729188448 -56.893824323517428
86.877177467704641 -43.597663106457588 -92.047482697919747
72.551052721329796 -46.142777611290143 -107.245077877276458
-160.064726037497223 -73.749037893294656 -301.916955393103876
30.191302963408155 -74.553886430588534 -121.858091965443663
-35.294854570752385 -79.111949244218735 -176.753930198453588
-91.571193248866692 -76.314399100053009 -100.618614758688381
-152.793160787628835 -78.284374110379403 -291.354021365975711
-33.014279522000621 -79.604086822523740 -174.276201273196023
-144.464022065752374 -81.552139365774153 -282.906404690786019
-70.326915891862924 -80.295807804002095 -209.615788049193867
-148.202282504730135 -81.005561381186354 -288.026734317018111
-60.859147351465403 -78.191422146040736 -203.062458221028834
-57.357869475294883 -80.005110804004843 -198.926532259321334
-48.623619142353810 -78.439214051834398 -189.948043630741381
-156.753148827235748 -79.993311391213581 -295.559963669442880
-65.501411622421784 -81.550672680798371 -207.832984641068492
-155.519447012038199 -66.106134220311048 -304.208728846729571
-61.281495337258796 -31.940813490198313 -90.775757513317842
-81.882107321159168 -66.351357135877663 -100.393985597619775
-61.959440358055275 -81.281697042268632 -73.171493860720602
-45.144599422406266 -76.133329040147487 -58.846525355754963
22.928252250742791 -50.225564633939676 -33.661660166055313
-88.078437277496519 -78.504396750435077 -107.030063383753372
9.902200248525180 -80.550040225149331 -250.652052888380751
-50.207856503167243 -81.292532985550096 -74.143156030170871
-47.433848465253952 -81.280141398595021 -74.590316471279635
-138.892019327480682 -81.999907916734102 -255.698776222462925
-98.840131744843333 -37.174309839824893 -66.751676154616860
-94.263881367011734 -51.825792682042533 -53.266481247346540
-36.950413383869247 -74.143869994629796 -160.751196492107937
-18.799518196351563 -76.613224068595514 -177.414324571469734
-14.029603926291971 -75.818597245787259 -175.090378110024659
89.046277192147343 -73.806765659259000 -73.790606358926709
-135.769713838101040 -74.887743675373372 -258.165982214632265
27.168424663294601 -79.244580296944520 -137.708171339985171
-155.225127418061106 -84.088062456638141 -297.139723323389774
-11.547956575385399 -74.868888303596307 -170.765091210632903
-154.638694531217766 -76.942368512556143 -308.413983293022625
28.073216210312921 -75.695054208166226 -133.572900469351254
24.455612954067341 -74.151988822562316 -136.721364312792502
84.168756218992769 -74.943218610688703 -78.301297931995322
-7.000946229520540 -75.030085003118430 -165.175832669623105
68.206607773528646 -66.090551120273616 -71.641689227067246
92.911080687098362 -74.117462968799643 -79.381805865632955
-49.901470205904417 -77.821843431740291 -63.608065329249264
-37.562424307706266 -80.582728790202665 -75.606938419989859
-169.057901541141689 -74.376029489488047 -281.303203211971265
-140.668726492579140 -73.779666497061413 -254.117204578695322
-101.573780288596808 -73.620794747848279 -216.419152105644457
-43.985673634058678 -80.343396094398784 -72.419529070704868
-90.234734674150417 -53.162790012940015 -48.770113972344461
-57.266121454119983 -53.904530653045711 -82.627848210618467
-40.847353522403182 -74.965516750530185 -206.090222366520720
73.572420554718718 -71.813784338634747 -228.897892509527423
-9.076330111760756 -80.026276174871001 -250.180322412007683
108.531880271844059 -67.981167347330654 -125.310105550095273
-68.293697425924634 -60.678088577953773 -92.371463808941314
64.955438492125566 -58.831842599538909 -71.724584603940258
94.369331451323504 -73.673347050259409 -81.106260469976434
-38.764136452572927 -78.901456678710915 -82.161948658485883
-42.550000799404167 -75.740129452312274 -243.246100096186808
-73.991292855636857 -53.478136723819858 -100.759351137748524
-140.488548270358251 -79.787081030577397 -283.990664979282371
-75.711972322239419 -76.936812423791295 -206.224475211445451
-136.314909156824655 -75.356310455502495 -282.278501309810167
68.673235382693449 -58.460570197539795 -102.760766886417088
95.376721355256535 -47.707925916578944 -72.070205505481226
-73.239013918395131 -80.603932217181466 -75.523441901353010
21.934490667251371 -61.768647988203149 -143.668392250552984
-76.484085073292277 -81.208113705493247 -80.695538047139678
-84.946934819823568 -66.047152277833220 -103.894134945447519
56.027269092091601 -63.517200105956881 -97.907508885613169
-6.294675416972833 -50.393419420297846 -251.868025690712727
-25.610263367151511 -72.578990032495099 -289.675207528080705
-73.992130814503298 -81.725475466037224 -80.681100069588609
-74.663902214138048 -65.767459699144439 -97.514404066965881
-87.166988908550508 -65.692332798393622 -107.540837791633066
50.485536373267287 -63.756327352891383 -100.496718275161044
23.045207073849859 -49.660244948354645 -20.887425366968504
-149.057041102015717 -69.670629380478360 -264.707615025871803
-131.736942634657282 -71.000037577412314 -280.568779031484837
-160.742828229302518 -72.828501765593728 -251.108305835689265
-164.349897171720272 -72.913439595879439 -248.003193517702840
-48.280007681497402 -77.972326890010336 -84.876335832348758
-157.459583025208076 -74.032036529426989 -250.873798416799048
-128.458793635867607 -67.846820182961920 -283.868569689386106
-131.360565829043935 -65.058418628964787 -286.192502334508731
-152.151826109817591 -62.553741374549197 -269.532783372777146
-154.975745390262546 -63.427586707049919 -264.254394131378774
-91.360847006270049 -24.967835837990776 -94.493898366193747
95.440777851802196 -42.471530395964834 -62.949227125744130
-150.438664452292699 -80.789404032363635 -254.848012039825846
91.783180593319059 -75.387789892082694 -95.654381206082007
-66.252912399127638 -80.136532182012857 -97.446328645738646
-59.908445692858741 -42.454363777699342 -86.846578375804540
-47.655544296536178 -78.753785099291647 -67.072666983738912
-81.237780390634825 -28.304225293332486 -52.283301465499761
-93.493821839672350 -42.415732989633447 -52.816346396273445
-79.676332068503868 -78.091001003206543 -102.027662177618708
46.092097690787753 -68.262082227660116 -99.455236447023708
53.118726296336462 -66.679810722207137 -90.100492981762329
-34.714061214400722 -69.707820305206369 -173.928240594883476
-160.130960784340573 -73.776706139710257 -291.114880601726838
-153.296258621641527 -78.114909822269922 -302.446473941961983
-153.996791060056978 -77.689822089075463 -296.739298773797088
74.436601024622206 -68.858219821221908 -68.192794031136060
67.088129778432446 -67.769853920101255 -77.997328257081080
58.426833687675156 -68.659550548395814 -88.145589801008498
39.395948516505264 -68.191011724303365 -107.993741567716029
-36.055917154289176 -68.612721137747442 -178.016038635731718
-123.682345905856934 -68.836497410343767 -260.117427394771539
-157.180152370036865 -69.053619061277999 -293.645501677989103
80.234004979019787 -68.042395848562947 -65.848312871903431
-32.708804867067229 -67.745146389017663 -174.748491623160930
-115.375689001046339 -68.800226138403218 -253.714984249359048
-118.293389460604146 -66.054592432443414 -257.122883307513916
50.099220787091262 -66.331218821409408 -94.497937988952032
62.175227758180213 -65.778208767993547 -82.708450849428800
83.782575869905628 -65.014523267936198 -63.358365619819352
-156.612419855635949 -63.469925770544855 -282.332650810815835
-154.426609632819805 -64.342770668818162 -287.619203558804088
-150.507348754877796 -63.252651273606126 -290.149575932375967
-97.214974123554029 -54.403105423648064 -59.766141972708802
95.311938375033733 -57.692375064467221 -62.139178319722106
-17.015401972627146 -82.223933157073702 -175.278896896519683
-39.553048504828709 -79.744586167421900 -162.712680596945034
-19.376093946598282 -81.271961736081082 -180.974558763149389
46.671806796556588 -52.681294019510055 -36.673460674507027
12.593668667999442 -79.696211584595076 -216.901485105876873
-151.462129563236886 -79.895679244147544 -184.409764245280115
-39.600747231170004 -74.852513446886590 -156.367583236677149
45.648792433363276 -49.004909986962687 -31.947935040733643
-58.361903396565488 -73.121715530340211 -171.681017508876664
-14.820957626243013 -79.643901424421941 -209.364644607681072
16.745443015137781 -81.031463130956567 -243.817858875829415
-32.120339073914835 -81.985308684986606 -189.839681091715192
-4.684219773876344 -67.454058190251445 -234.454009931602712
-92.476372672893831 -66.393546756503724 -142.250236988346444
-43.642862370324259 -73.430749074316950 -198.742485205564691
-50.059534464655080 -80.622047594997198 -185.385997720573727
-44.003165436467114 -79.621242502999664 -191.653842429875994
29.491930693002935 -51.346266370113881 -19.205493659357977
26.290307591793287 -52.660798508129034 -14.962161515155646
94.077322229741881 -44.132760786978018 -91.595150221846609
-94.268617698509260 -73.219749740451519 -217.195217500858547
-40.177985781207312 -74.289864162712831 -55.937365896336729
11.674961753490958 -79.499554882843213 -251.050387051888606
-127.046538024123834 -71.916115346810756 -223.274661658120692
-150.022592408650439 -71.568833652159356 -197.363955459391661
-30.564189349848085 -77.722366571787347 -70.632894634382893
-151.952415694750528 -78.448711862006604 -189.442522498847637
-156.929407560361881 -66.488519418370174 -196.142088805288012
-131.986327043047652 -66.591773947143125 -221.175384185414714
-142.586391118508345 -63.068493039787320 -195.778453064055327
-147.606731602688228 -59.035691255702936 -195.195916814727298
-70.655872368786476 -71.167123332579607 -149.805183630870573
10.435601500802118 -83.234919465348980 -244.747633214908802
-70.461133817053536 -68.231340895551369 -148.999034669603617
-8.494398254160750 -69.066648799909117 -213.151127894474598
-75.234595700252669 -72.465047579790678 -250.055532226691952
-12.060087776487705 -79.841259000340600 -213.146241511378236
-86.698959165743304 -58.355580151367455 -114.342529269753584
-43.577192793776746 -72.628281866058344 -285.148127854726511
-21.412357259508049 -72.380657137311076 -62.468495336978798
-143.476958783048076 -68.535407942654217 -182.219204665306279
-149.768219053576104 -60.687091411778013 -180.303988546707984
-21.596672548834910 -78.794776780499760 -202.079751429321050
-151.178718774552522 -70.998452940042796 -187.350282215314650
-153.376984407818497 -80.921692189531129 -197.779270430836959
-156.239836093224596 -66.904294235954495 -189.373108526501028
-164.057990133982116 -65.162770725266057 -196.358978554410470
-149.064581249893479 -58.495938914887695 -190.758562424276960
-118.337731664394497 -71.069549426890546 -224.795438609358115
35.031574323817914 -71.528639070469282 -141.757655613122267
-52.279083302771468 -79.257766952536656 -190.279584953913314
-49.374713925060611 -79.684136606987977 -193.972212301120948
-148.278418350150616 -81.686150834477317 -198.957746738628657
-149.568807427372747 -82.109746811623893 -201.845343947680448
-33.075292195608434 -56.958410963123050 -68.504265675685261
-148.963815549655578 -81.973588573154629 -205.960735197210340
-13.096583885897381 -62.722173138987323 -55.678321633154574
-69.796658246329315 -19.166620213251218 -84.719545688022691
-52.290847226268120 -72.200877221902900 -284.753618194662920
-85.600293258070181 -69.813053625762976 -247.681132909281132
-109.047628586906328 -71.337388749649435 -223.682883300225342
-143.763620982353302 -80.008994772663257 -197.640841618777699
-146.394251455407925 -64.630949159609443 -187.622778294436102
-30.265883137180186 -62.970267490023652 -72.212683679965892
-151.984322500558221 -63.390636042958285 -188.389053752361662
-33.850646889383441 -58.093381772267549 -70.773384297740748
95.936569783150148 -42.594315396048323 -96.003118950803639
-40.172115551197464 -75.986198443127492 -196.306900361846886
-53.631345393942709 -75.989235244804178 -182.152180201325507
79.931839364388480 -74.913948613185113 -76.324708223547788
97.645901156365881 -66.630021202369264 -70.756213873971674
45.803488205269311 -71.965172975811910 -247.088405629169500
-66.882846341756533 -79.181905080738360 -67.797359512106738
2.776540228574559 -80.778049231708749 -278.910122437783286
8.433059495875643 -77.754977534353714 -279.862607137437294
-70.772968793681244 -82.368136865146596 -205.417318324409422
-47.801408167768059 -44.642134877157012 -79.653307315129723
-85.463453490784900 -78.703992391369965 -83.994076752937957
-81.128041412250951 -79.654398418761005 -80.271799680258113
-104.226395395226731 -68.768950473820198 -222.502179250578081
-79.102076100737307 -43.202083882479819 -44.159976514024478
-54.450979869696305 -68.653552267229273 -46.569160613577424
96.638544618421108 -70.104522493359468 -200.791261399065718
-117.186588854098616 -63.193006437263982 -198.767422550535088
-143.827177941395746 -79.485676579314543 -222.891947237189868
-74.564738129491133 -17.036610185312124 -81.171344301883920
-83.997774668563508 -20.158176116780492 -91.428349593105708
-151.477061867340922 -78.460372637212203 -212.268451325157599
17.723653063124871 -76.581252902722454 -187.751396283215570
-164.927971928973705 -66.009525873010332 -212.198947004477418
-11.874872045134223 -63.795989410551122 -246.692962072233456
-69.627897501287180 -58.156767042004887 -113.043343913045902
-148.076750382593275 -80.221817020311576 -217.334090743789318
-66.936801332123679 -44.606221152982116 -43.057310407759516
19.144858402178112 -71.739199087030883 -199.055420731029187
-32.728516910242746 -79.939648490067341 -239.965538536661541
102.590159973297276 -66.158399186397062 -84.059593425831679
100.091658580219232 -49.582618730080107 -67.467121436660619
-7.937343408336813 -73.651919121534490 -245.044728917646665
-148.002858528971103 -77.607537621789248 -215.083302856307796
-115.799317664865399 -64.736278318234980 -199.487286569626690
-166.358156354180608 -71.727151958264344 -222.740384665209831
-155.978859719384786 -79.613638581295419 -222.890732767513327
-106.461201632130226 -71.619219156446789 -289.301371903871484
-154.033607644448921 -73.254197412259430 -244.364117128517250
-143.400835930780772 -81.096472954867181 -227.442182458358275
-155.399460016069554 -68.148094179527106 -243.029829099499068
-0.192629989622494 -79.857163655376993 -246.557465868142117
10.164869069805444 -80.715853777234827 -237.387854944119255
3.908239760733045 -76.816092186244290 -238.064772937364808
-30.253618997038814 -65.337711123907297 -48.425914987267426
-32.714673776014251 -79.840631746912564 -210.764857131164973
-61.780394175194090 -78.399362864378375 -164.762814115346316
8.878013276183303 -82.825850620397716 -238.538048071213296
-12.402160043218689 -72.231981704650664 -203.823249879911430
37.338457560680531 -79.893550930018833 -118.895455060965759
37.014102757340851 -76.080968424373907 -114.663751371465395
-78.538658616921410 -52.597103291242682 -42.432999410013998
11.869745899089757 -83.349354657180726 -244.916931106027135
11.648842365537497 -82.845630702448105 -238.607460952324629
-96.635215274407642 -67.541489874353942 -144.357934750526937
-2.088704767432595 -66.397772092227797 -237.822768868207589
-62.382789515661074 -52.766061382536677 -121.084648660534981
-151.781107444724114 -74.821458624987699 -203.902034858760487
-162.237553710639475 -66.469235287438252 -206.610711799070629
46.875492677471321 -75.748502567423387 -115.604049990896101
-136.149534059714313 -65.699875300680858 -230.737115247582608
37.679935887509068 -79.814632288513849 -127.001963645011273
-138.268762108394526 -79.604946683792420 -223.823379967724662
13.559518254388045 -82.868523635995786 -242.663136250003163
-91.069672248651230 -67.043585063728585 -138.653406885710780
0.974478998206411 -67.720080069049885 -232.740004035699712
-4.461678690911580 -79.794745529073694 -226.008974884760477
-69.338654935705648 -73.616390392409386 -156.346370653995280
-17.595304328005227 -75.435878593148132 -212.033609285480793
98.909903098206357 -77.368917873527025 -192.846085988899262
18.399315765944898 -77.303413715547507 -247.482726254846796
35.029874960625939 -69.010360582022003 -135.228983172222797
-77.649462813209468 -60.610965849230155 -116.895242760523587
14.663777921722890 -81.182079368309417 -246.739498949680183
-86.036856095245156 -63.147284794341140 -125.013372859970957
21.273606286429249 -50.544569462691456 -252.761974201860312
26.382337226753918 -51.764584021017129 -255.397062535564942
6.169978213996131 -72.538708613694396 -289.039997917043024
-6.942953139724474 -82.925385705560274 -253.123339143504239
63.590668561086673 -56.167571114847362 -77.020169800932933
86.324297934226323 -56.844376891765812 -101.875905777840757
-72.679654057041020 -27.830131872347980 -102.113921799319769
-57.534663758050449 -34.833482687950401 -53.590554490482972
-47.900744479081091 -36.624330353530418 -68.079442586318748
-169.430571535158890 -73.981986968831094 -272.489481041413342
96.077595384736128 -73.781112102882318 -84.000269420147475
-151.027691125335423 -74.511664371546601 -255.840603849501889
80.406973329201278 -74.430497663610055 -98.547377859871489
82.329571541353090 -67.529001855001979 -105.175165902833186
-161.348646336472370 -68.925311191480390 -255.912323487342775
-100.253809578750776 -52.965502791221198 -101.330439700862968
68.306409840848289 -50.263889672750381 -71.540674244572131
-38.896333286897999 -42.877289855115734 -52.469318664436109
23.407277851865665 -78.693804569032665 -149.975454790307992
-143.090442221121691 -82.005461323548275 -252.932597097434439
29.915650083217692 -76.477426862035273 -151.409018555598976
88.979503193468403 -76.634957648433002 -92.780330371108363
-67.021430767595945 -73.848684482647059 -242.934171309724718
19.537121495149272 -76.218136660720688 -157.503426941146415
-61.852771157599811 -53.778456054308343 -66.308281327741469
-154.930070135571441 -81.759074061642451 -259.836287308206181
-165.190269760686817 -68.191081299569348 -260.634058979271629
-46.932020345174195 -41.548036275701911 -50.438072751550699
-149.593595615481718 -80.074259779581453 -260.583088765489492
-88.892647277169473 -22.489526956120535 -92.626904723167996
-38.715051186615511 -38.161371330892337 -59.263147743471158
-119.581027895745095 -74.293229354592128 -286.884732367184199
-159.544279867075261 -64.294622236929726 -254.369282122954530
-161.146354414879795 -72.767470529717585 -247.784071324700676
85.086593113329542 -76.289047570033844 -221.277174758608027
-157.132282844839381 -80.454214091581164 -252.104611434903944
-45.949718665686760 -76.709671341891081 -83.543629214619699
-83.865297178195519 -24.554178816475332 -100.208724814581302
-49.607116904189390 -40.432410269939780 -50.415266267595726
-11.762100656320509 -81.717719056768004 -257.482338275645361
9.867337179657827 -50.158055303206467 -267.502011424456043
22.919081913508457 -63.334341527515186 -34.488839514220423
-13.039645694848909 -68.378610014276816 -271.079744645671326
-9.549382847357686 -67.300074458981015 -267.016341800349323
9.012589142601623 -55.642067685998057 -275.821108326742660
24.441353304402838 -54.082211645800079 -260.303286954833425
9.072934853401915 -50.774129495946276 -279.647429365113226
-13.003445907649544 -72.562060447613447 -279.688194906294029
-8.039444537421186 -66.243443915723972 -279.502747895214270
-68.176622526252714 -76.794288239398668 -244.590549227695277
24.385764188431757 -52.662835678801933 -264.436883249197876
-10.127409027315117 -83.247627405663422 -261.654677169338186
-12.244387514054777 -81.560214385091356 -262.482387178033832
78.840196432293382 -44.864192354706134 -103.268998323480844
75.646044700771313 -46.248038629547089 -100.529971964338813
46.965499070339618 -72.033705967260559 -95.003115468222916
7.781263158947517 -82.546746686700175 -271.245844445360831
-51.120184557975598 -57.506103676649111 -76.118419059845209
-71.649702793308876 -58.954708592266563 -97.968001315207289
4.258101343402684 -58.775756963577379 -255.708862519590213
-7.037757020656000 -49.593108056089982 -259.429298814102651
46.989038954042933 -78.195315510084910 -105.052795293323840
-90.655486848886653 -76.775960437194058 -95.089678198734617
104.818395023324541 -76.922243922641186 -176.447671917995990
-64.193285979034059 -66.062815829117568 -44.296665795962781
-71.572355567291098 -80.242758310606447 -204.811458214456820
-55.360742091289445 -80.415213713318465 -183.015666230160122
4.984641356281958 -82.019343991081982 -276.218162566398348
10.651130314429622 -78.259412342766964 -277.615326233554924
61.909994310426356 -68.728491869828858 -236.006428816419316
-100.737716669258006 -47.289631250821628 -76.253985869115624
83.242026773530696 -43.518871590669214 -82.227535733026869
