# This PCD file was generated using the MATLAB® pcwrite function
# from Computer Vision Toolbox®.
# .PCD v.7 - Point Cloud Data file format
VERSION .7
FIELDS x y z
SIZE 8 8 8
TYPE F F F
COUNT 1 1 1
WIDTH 806
HEIGHT 1
VIEWPOINT 0 0 0 1 0 0 0
POINTS 806
DATA ascii
107.691377722792893 35.159161844742322 -94.550003051757813
-11.985807299806998 -85.402139669887347 -95.349998474121094
82.044825509597587 9.585047434283352 -99.349998474121094
-34.754756891796553 -106.805611379907887 -100.150001525878906
83.473478498724731 10.852250505828977 -102.150001525878906
-33.595101685320067 -106.994232843246493 -104.949996948242188
-7.959214477567961 -81.032689534557122 -106.550003051757813
-16.853554129290110 -90.266011724728031 -106.949996948242188
-11.157381763240108 -84.574373568244795 -107.417999267578125
-33.173427641690829 -106.572894456328427 -107.750000000000000
-12.862262313796210 -85.564988702729835 -108.949996948242188
-8.863356823036382 -81.476394164057126 -109.750000000000000
-18.340061452883766 -91.751335773783183 -110.550003051757813
-12.776168685741805 -85.651150916759178 -111.750000000000000
-10.154459477262538 -82.881111431617697 -114.150001525878906
-8.720225155274399 -81.619639856807950 -114.150001525878906
-31.000968711261613 -104.402164824704215 -118.150001525878906
-24.922652588906551 -97.767323034803169 -118.150001525878906
-29.754517411277682 -102.370716206816724 -120.150001525878906
-28.013101673657211 -101.416676158826576 -120.453002929687500
38.061383843241543 -35.394786586203487 -235.916000366210938
34.573393269644050 -38.646320987492622 -236.550003051757813
41.228401132706153 -31.822023536639513 -236.550003051757813
43.983010144400481 -29.184961394582114 -236.550003051757813
35.937618410093286 -37.314707214959114 -237.350006103515625
37.243596712224040 -35.924807285602526 -237.750000000000000
39.322841123835772 -34.134333438086678 -238.149993896484375
41.829138999819790 -31.630030600011647 -238.149993896484375
40.897537900481659 -31.490896724195824 -238.550003051757813
39.136017538824596 -33.773357750999175 -239.350006103515625
45.183144216625394 -27.689203075442411 -241.350006103515625
48.195770646380339 -23.961967997942619 -241.350006103515625
51.757729925040685 -21.709342931410212 -241.350006103515625
29.304517130905371 -42.812455556108333 -242.149993896484375
26.909803330299539 -45.809741443956860 -242.550003051757813
49.125995881817175 -23.544369735662588 -243.350006103515625
48.181563714773120 -23.947749748468123 -243.750000000000000
50.388822185357249 -22.111353591229943 -244.149993896484375
47.500596059941365 -25.963088075828757 -244.712997436523438
54.040774019057707 -19.023953232442899 -244.949996948242188
55.625599556092851 -16.564628284174205 -245.750000000000000
27.990622421259182 -44.194432771390694 -246.550003051757813
27.458447439670525 -45.989282947481655 -247.750000000000000
57.939241386883864 -15.532752013856456 -248.550003051757813
56.244057168388537 -17.226586848940084 -248.949996948242188
28.071540299910652 -45.376678115224806 -249.750000000000000
27.974929815080774 -44.178727663791236 -249.750000000000000
26.930724108880000 -45.830678888950708 -250.149993896484375
27.947959722560359 -45.500160321212711 -250.527999877929688
54.079094593442356 -19.389826092254395 -250.149993896484375
27.947959722560359 -45.500160321212711 -250.630004882812500
27.960865788650089 -44.164652433337835 -250.550003051757813
47.137211037442547 -26.326183840253986 -250.550003051757813
27.973355043457012 -45.474785215242775 -250.949996948242188
28.063495972321711 -44.267364376732729 -250.949996948242188
42.162514545034135 -30.059975965899930 -250.949996948242188
56.976992072722133 -15.220108587982326 -250.949996948242188
27.733408928523442 -45.714540330694597 -251.750000000000000
26.640432465172093 -45.540155986137449 -252.149993896484375
58.673510485836637 -14.799067400372014 -252.149993896484375
26.972683334522216 -46.474660379595655 -252.550003051757813
26.625942419535875 -45.525654397092858 -252.550003051757813
40.775540020902902 -31.368801655734448 -252.949996948242188
27.923838080493077 -45.524262762214221 -253.350006103515625
26.722495088718471 -45.622283984383081 -253.350006103515625
27.947959722560359 -45.500160321212711 -253.483001708984375
48.365094771489289 -25.099277513809405 -253.350006103515625
26.812389369686084 -46.634826748849676 -254.149993896484375
55.453832552050471 -18.016182438664309 -254.149993896484375
58.044572197448048 -15.427505047659725 -254.949996948242188
47.551951707492286 -24.666060400044660 -255.350006103515625
26.851225105475525 -46.596021926690199 -257.350006103515625
49.043409702292813 -24.421502528402698 -257.350006103515625
44.354559669769031 -28.208382677157328 -258.549987792968750
55.923173971156061 -16.862439760119106 -258.549987792968750
29.849549385252057 -43.357922007147415 -259.350006103515625
56.965330471051750 -15.208437696166575 -260.149993896484375
31.101811518948740 -41.914263116691778 -261.750000000000000
49.136856441745657 -24.328130173479114 -261.750000000000000
48.471998263657561 -24.238415670302476 -262.149993896484375
57.419098747230890 -16.052480614821476 -262.549987792968750
40.257726356618797 -32.199041540121144 -263.350006103515625
56.232880096966376 -17.237755023302796 -263.350006103515625
28.525192938153594 -44.729429150696802 -264.149993896484375
57.333080901458686 -16.138429989537300 -264.149993896484375
46.429854646953892 -26.239917898590480 -264.549987792968750
33.057637083189100 -39.826262084551651 -265.350006103515625
36.116363251194265 -36.145135136417423 -265.350006103515625
42.290660043528149 -30.188223550740478 -265.350006103515625
56.189646287891449 -17.129124360435174 -266.549987792968750
38.944467979456824 -33.581655594818194 -268.549987792968750
30.429138530662200 -42.589506816955094 -269.350006103515625
56.889939790601460 -16.481411191685794 -269.350006103515625
42.320276467284792 -30.217863568244340 -270.549987792968750
47.763365086398956 -24.877642200157812 -270.549987792968750
54.137607105945214 -19.120863460831117 -271.350006103515625
55.728725863396228 -16.667836746434787 -271.350006103515625
35.857111565544322 -37.234136235112949 -271.750000000000000
55.366788733392973 -17.654035516882271 -272.549987792968750
56.069614439734387 -17.400890719456122 -274.950012207031250
32.528018912058073 -40.644688058101508 -275.350006103515625
50.646988888540903 -22.819199807054208 -275.350006103515625
39.233842872975615 -33.871261017118769 -276.149993896484375
47.217935013395810 -25.680201849047538 -276.549987792968750
50.122661183199931 -23.193404789003960 -277.350006103515625
54.530196824515912 -18.939082943020409 -277.350006103515625
33.904541141241360 -39.325388254195893 -278.549987792968750
52.018138307113624 -21.044978906346383 -278.950012207031250
44.573393332559370 -28.427390672479021 -279.350006103515625
54.678747713407724 -18.790650302106062 -280.549987792968750
46.035758459581238 -27.193931992347451 -280.950012207031250
50.706468036913954 -22.429252493458414 -282.549987792968750
35.897683154060907 -37.274740144743376 -283.350006103515625
48.073730862924435 -25.188255227726739 -287.750000000000000
45.028771573750390 -27.534707452522831 -288.149993896484375
37.346369801072200 -36.027662248018515 -288.549987792968750
39.149447929095160 -33.786798840509981 -289.750000000000000
50.635174977704061 -22.831004313901129 -289.750000000000000
46.022398173736903 -27.180561063111142 -290.149993896484375
39.957759500509695 -33.247301779042353 -291.750000000000000
43.368702444705590 -29.918658706126632 -291.750000000000000
43.455219395641443 -30.005244580275068 -294.233001708984375
40.319644742921376 -32.261009253336610 -294.950012207031250
42.780986578501334 -30.678940701421229 -295.993011474609375
59.348559252364680 -12.199725101376874 -12.949999809265137
64.596790607816061 -6.664462903785487 -14.949999809265137
66.290707900343946 -5.662886571349951 -14.949999809265137
55.423448050420347 -16.362315735711253 -15.350000381469727
61.247359594639910 -10.054627782975864 -15.750000000000000
63.167857200984002 -7.931385334233116 -16.950000762939453
66.503434556856419 -4.527215440712110 -16.950000762939453
56.719495818867834 -14.962407201274264 -17.350000381469727
63.392132045779164 -8.155838846244794 -17.350000381469727
68.346872858499310 -3.786051547079481 -17.350000381469727
54.780618662471717 -17.067398477072576 -18.950000762939453
68.515466973259734 -2.495580722688698 -20.149999618530273
66.600340444494236 -4.624198527846926 -21.350000381469727
69.178158833659211 -1.810373578625408 -24.950000762939453
70.936056834733478 -1.198928586910270 -24.950000762939453
67.463134604261128 -4.139253093453533 -27.350000381469727
67.904657783064096 -3.232706472029485 -27.350000381469727
70.111634488855287 -1.396025627059169 -30.149999618530273
66.639426358439636 -4.663315579352387 -32.549999237060547
68.539216195806020 -2.519348864911387 -32.549999237060547
69.399185227937693 -2.734576828699758 -34.549999237060547
64.645065594245310 -6.712776348194550 -36.150001525878906
66.666074129377989 -4.689984579078414 -37.349998474121094
61.500471625530963 -10.307941454055623 -37.750000000000000
58.060709656225562 -13.607841037620229 -38.950000762939453
64.041819535113618 -7.457616971261883 -39.750000000000000
61.361934494010910 -10.169293957756601 -40.150001525878906
-15.876402618671413 -87.942284463584656 -43.400001525878906
6.373152844145591 -65.710439867074456 -49.741298675537109
23.228871405326647 -48.868138624654719 -51.647300720214844
29.636854161691378 -42.465256685970772 -53.750000000000000
-8.532237272247650 -80.459210244688151 -56.150001525878906
-31.703858942970818 -103.757141976037914 -56.950000762939453
-9.134143258308789 -81.205392008387250 -57.349998474121094
88.629182796853385 16.480113471871071 -57.591899871826172
92.000308429326552 19.848555654983649 -57.496898651123047
-6.941049815454730 -78.006395303429088 -57.750000000000000
98.742570488161277 26.585450806505136 -58.213500976562500
100.884256042806257 28.725431558256737 -58.950000762939453
-6.790352937552256 -78.863467367917750 -59.349998474121094
85.532518761277331 13.385914411508686 -59.349998474121094
94.697226205526505 22.543326657947851 -59.635700225830078
-9.866074131190267 -81.936740257051497 -60.549999237060547
19.183529821163972 -52.910260076887916 -61.178600311279297
84.311989038310557 12.166356242278489 -60.950000762939453
83.383191133656112 11.238297669946562 -62.950000762939453
106.346141664526300 34.182969464976757 -65.349998474121094
-34.376587615301084 -106.427743129898474 -66.949996948242188
82.322015826501200 10.656063229346254 -67.750000000000000
83.235347244453493 11.090571465942652 -69.134597778320313
85.603305333089097 14.114413105757594 -69.349998474121094
90.254864327673872 18.898406859604378 -69.349998474121094
88.629182796853385 16.480113471871071 -70.230003356933594
94.023018349253277 21.869655477799483 -70.873802185058594
9.087189727323370 -62.998563384110973 -70.949996948242188
81.660596631070149 9.969582406453592 -72.150001525878906
98.215423964182804 26.058723896375845 -72.550003051757813
8.012194718806690 -63.305371749080564 -73.349998474121094
99.722159034609021 27.564259590776935 -73.349998474121094
81.544536057127971 10.085735439359295 -75.349998474121094
104.820199496734929 33.987638010941993 -75.349998474121094
107.634310079599942 36.564561563917223 -75.349998474121094
81.126619195694758 9.155563694733649 -76.949996948242188
104.958106984664525 32.796039674454697 -77.750000000000000
107.507391352485342 35.343294786693669 -78.250000000000000
6.373152844145591 -65.710439867074456 -79.592300415039063
-35.189092166500821 -107.239600919435759 -84.550003051757813
81.025898009475767 9.256365119884485 -84.550003051757813
-4.414518260654204 -76.489523878931294 -85.394897460937500
106.546265752119297 34.382934251815804 -86.949996948242188
107.892232352659775 36.306433818617975 -90.150001525878906
79.703638236011884 7.561673732817880 -90.949996948242188
107.207980740719805 35.642943922136034 -91.349998474121094
-11.801207837709285 -83.870333577992056 -94.150001525878906
80.485840305290978 8.448285803244405 -96.949996948242188
82.486990415680935 10.490957214144704 -97.750000000000000
-14.527976112236594 -86.594931317991580 -99.018302917480469
82.742267762588867 11.584043756633552 -98.949996948242188
81.035793518870051 9.246461727291697 -99.750000000000000
-15.330015988647553 -87.396332762724768 -100.949996948242188
82.415246624410301 10.562758159678458 -103.349998474121094
84.281176079757529 12.740752551403350 -103.349998474121094
86.303317071006163 14.762410962239112 -106.550003051757813
84.193389160177347 12.828609405909063 -107.349998474121094
85.879886168821542 13.837611933553141 -107.349998474121094
-10.635947461883005 -82.399239872468044 -107.750000000000000
89.541705369363498 18.263707017764304 -108.550003051757813
88.251527556446732 16.858069569070953 -110.150001525878906
-30.844314626191384 -102.898281865039792 -118.949996948242188
43.455789806963516 -28.657321050210051 -235.942993164062500
40.615372977567858 -31.208507016280294 -236.550003051757813
38.736166158544982 -33.373187831503969 -237.617004394531250
41.944883442785994 -29.842171489133108 -237.350006103515625
45.065569823411231 -26.222970461191018 -237.350006103515625
43.565391447412374 -27.418585768646494 -241.350006103515625
51.048586003427822 -20.074654214604635 -241.350006103515625
52.869359792569888 -19.251244359459093 -241.750000000000000
47.205395869089379 -24.319228480001513 -242.149993896484375
27.599676999434426 -43.803175905229004 -242.550003051757813
34.405232595631524 -37.129559950137825 -242.550003051757813
31.240404721324452 -40.704514159043853 -242.949996948242188
36.372365866321012 -35.052882378846057 -242.949996948242188
30.117062732716285 -40.928729836216256 -243.350006103515625
32.119750409565022 -38.887628249106825 -243.350006103515625
42.575079894959465 -29.124403921713000 -243.350006103515625
52.331909762666911 -18.662151855046748 -243.350006103515625
28.646746173890008 -42.154160589785981 -243.750000000000000
48.317315309028999 -23.799665370548794 -244.149993896484375
48.085507169222282 -23.851616680043588 -244.149993896484375
48.218006049654647 -22.635656558819619 -244.149993896484375
39.889823720429895 -31.830845816492957 -244.550003051757813
27.997167858830895 -42.852559187841059 -245.350006103515625
38.465452524022886 -33.102258534580692 -245.750000000000000
41.837798931724897 -29.735001669835412 -245.750000000000000
45.251392390421110 -26.408941062639823 -245.750000000000000
49.960627046289410 -21.682817333060250 -245.750000000000000
53.402651175654391 -18.385322032285021 -246.149993896484375
27.948495053745184 -44.152271843360801 -246.850006103515625
45.935964280548447 -26.179120820047313 -246.550003051757813
27.932791295381769 -44.167963101377168 -246.949996948242188
26.881288521633980 -44.432639363040551 -246.949996948242188
32.668656729672627 -38.088519282687074 -248.149993896484375
32.016340988232649 -38.784136447276147 -248.949996948242188
46.016642980829936 -25.826377049858969 -248.949996948242188
57.406406168200498 -14.717809517637367 -248.949996948242188
27.820702773706390 -44.024377758364849 -249.350006103515625
56.650650575989253 -14.893507113243844 -249.350006103515625
27.948495053745184 -44.152271843360801 -250.070007324218750
28.338422724081436 -43.194085911743223 -249.750000000000000
50.429082515144046 -20.803081438069555 -249.750000000000000
27.934417799437711 -44.166337892034548 -250.149993896484375
27.948495053745184 -44.152271843360801 -250.283004760742188
28.950044884987033 -42.457700921990956 -250.550003051757813
44.670977456558546 -27.176628300783026 -250.550003051757813
52.381953537696347 -18.712235497150871 -251.350006103515625
26.928363643845124 -44.479751987366832 -252.149993896484375
36.346777750748309 -35.027273878653808 -252.949996948242188
30.400427519848190 -41.212320364214563 -253.750000000000000
33.602287883284923 -37.674441975823505 -254.550003051757813
56.739076524377737 -14.982003505636341 -254.949996948242188
27.009012548826121 -45.091006510909807 -255.350006103515625
53.082459994160850 -18.064875772397809 -255.350006103515625
38.538396179511636 -33.175260300197223 -256.549987792968750
53.941901258076889 -18.179556647571385 -257.750000000000000
56.048605786159975 -15.639406943531187 -258.549987792968750
53.377618361111516 -18.743390369767223 -259.350006103515625
28.538525023448855 -43.394347621413118 -260.549987792968750
36.502207352664890 -35.182827302635069 -260.549987792968750
51.717637143109272 -19.395814114378151 -260.950012207031250
33.942623302022263 -38.015048520740883 -261.750000000000000
53.417868770897350 -18.703171999705852 -264.950012207031250
56.193153024066923 -15.784069334132475 -265.350006103515625
50.253576084085815 -20.627435190860531 -268.950012207031250
32.541158900909316 -39.309372453010560 -270.549987792968750
52.840328632254725 -19.170975753492513 -270.549987792968750
35.552386623821889 -35.580709220430947 -270.950012207031250
48.946362837599700 -22.016169352347458 -271.350006103515625
52.074301500509236 -19.752762606309680 -272.549987792968750
34.576001585271293 -37.300464981873951 -274.950012207031250
54.851885415277138 -17.270296846764523 -276.549987792968750
45.029379761533804 -26.186751568716794 -276.950012207031250
37.789034510235901 -33.773753888582227 -277.750000000000000
39.823383598635701 -31.764352765572283 -280.149993896484375
47.175286018025062 -24.289094642104057 -280.149993896484375
50.154015498683592 -21.876359847210789 -280.149993896484375
38.331631966397808 -33.777400010431343 -281.750000000000000
52.776080621942157 -19.106676560385992 -281.750000000000000
53.111074081344441 -19.009722477650154 -283.750000000000000
43.222042775655510 -28.423387805724676 -284.149993896484375
48.115193697405147 -23.881326857821950 -284.149993896484375
51.311876657742154 -20.338154617847273 -285.750000000000000
51.546543135563361 -20.573008041317426 -286.928985595703125
43.410483473352549 -28.611978623578825 -287.350006103515625
49.931010622532767 -21.653177315556388 -287.750000000000000
47.890492833404458 -23.656446987219084 -290.549987792968750
47.660137777796187 -23.425908420630638 -291.750000000000000
48.430285494097326 -23.686785110865621 -292.149993896484375
46.273105312676378 -25.842248155516952 -294.149993896484375
43.218014467471569 -28.419356288413063 -294.549987792968750
40.758857863785060 -31.352106208875707 -295.872009277343750
42.781542822844905 -29.331031327057659 -295.863006591796875
-13.178945465726509 -83.899626333078601 -43.442298889160156
-17.898567764908993 -88.615491766210482 -43.959300994873047
-8.459320468071924 -79.183758203622645 -44.416698455810547
-2.391274360926711 -73.120542321221777 -46.421199798583984
-0.660557467353932 -70.807222254496196 -47.349998474121094
-25.732259244687565 -96.442947550057099 -47.750000000000000
3.314946624518631 -66.695213071297388 -48.950000762939453
10.184507591932743 -60.085577919677533 -50.950000762939453
-29.579460118247891 -100.287086013654203 -51.750000000000000
19.858279752654244 -50.888699072873614 -52.134998321533203
15.319642980700099 -54.437132356648227 -52.150001525878906
-8.455745032554550 -77.838914950457209 -52.549999237060547
-9.796465442604607 -79.193974934504837 -53.750000000000000
90.665258610536242 21.184669033243839 -58.150001525878906
27.991830174080647 -42.761623038063803 -58.950000762939453
25.538916668087019 -44.437762673067034 -59.349998474121094
-9.992652847175780 -80.346198492980321 -63.750000000000000
105.019054357753376 34.204286712977627 -64.150001525878906
-9.202662078196910 -79.788251348818662 -64.550003051757813
85.267534958804845 15.799018224078038 -64.949996948242188
9.544294929586949 -60.793422490306966 -66.949996948242188
84.584307730689076 13.785806346429410 -67.055297851562500
87.649594774920843 17.460481876754606 -66.949996948242188
83.397309221988777 12.599752700287347 -67.750000000000000
8.552363024062522 -61.149127302128434 -68.150001525878906
81.088037756285900 10.292319437521314 -68.150001525878906
95.709120542234828 24.901763696897625 -69.750000000000000
82.301348670160905 12.025314104624867 -70.550003051757813
98.611251724401058 27.801584753926399 -70.949996948242188
106.884580989643908 37.314887921078004 -72.550003051757813
108.022613722679083 37.525649194269704 -72.550003051757813
80.006798054392291 10.276276934864670 -75.349998474121094
79.058047358643819 8.263944932322424 -75.750000000000000
79.221258916478803 9.713874613272310 -75.750000000000000
79.397398983697158 9.537594225120696 -77.349998474121094
81.026566561936122 10.230897174850490 -79.750000000000000
-2.391274360926711 -73.120542321221777 -83.689002990722656
78.369972054268601 7.576417342697964 -83.349998474121094
79.570573094421320 9.364282156274824 -87.349998474121094
79.505756159726673 9.429150726993628 -93.349998474121094
80.142083419065060 10.140883795913577 -94.550003051757813
80.600712077867314 11.030311310359798 -96.550003051757813
79.889321910305142 10.393846665620842 -98.150001525878906
80.829934677359617 10.800906102051727 -99.750000000000000
-35.255825699112314 -105.958933151348859 -102.150001525878906
82.090574320062530 12.236256366851235 -102.150001525878906
82.055020590669315 12.271838419910770 -103.349998474121094
-17.618795574926704 -88.335942277659754 -104.550003051757813
84.050300745528560 14.320238745067424 -106.150001525878906
84.697084289526757 15.021356084905504 -107.349998474121094
88.906340865499786 18.899577680967841 -107.349998474121094
92.110591004608878 22.435039091702102 -107.349998474121094
-34.722438583298718 -104.141241887230649 -107.750000000000000
91.850436063278309 21.346974349935866 -108.550003051757813
93.758703199418207 23.482597332807369 -108.550003051757813
85.830522035237792 15.235582647350846 -109.750000000000000
90.926640267397943 20.923079148245257 -110.150001525878906
93.465159788863033 23.776374592968555 -110.150001525878906
-24.494192822742569 -94.150713802246685 -114.150001525878906
-28.850151107198791 -99.230532960871642 -119.750000000000000
44.130539738453784 -26.635760046195745 -236.182006835937500
46.827457514653737 -23.940989043231539 -236.453994750976563
46.974376280447821 -22.739600615478384 -237.350006103515625
47.730791072676290 -22.148053444937798 -238.149993896484375
50.103654946493286 -20.667399496965565 -238.550003051757813
49.708686734915666 -20.082111758842544 -239.350006103515625
51.294459863164803 -18.972299712779353 -241.350006103515625
45.759937905717628 -25.007658895995878 -241.750000000000000
32.371578438241173 -37.791204325607858 -242.149993896484375
35.890098644039796 -34.570230961260634 -242.149993896484375
41.879776106672026 -28.428546223812550 -242.949996948242188
47.501669418635096 -23.267313818597042 -243.483001708984375
39.862322016338325 -30.454856141497086 -243.750000000000000
30.340687211456665 -39.804079894591801 -244.149993896484375
44.547678767310572 -25.704666830271552 -244.550003051757813
47.694361914075358 -23.074774708289837 -244.550003051757813
28.623280065372704 -42.130675787133384 -246.389999389648438
41.776013466884436 -28.324700922137282 -246.149993896484375
48.057062464982941 -22.474584759401779 -246.149993896484375
26.942065836919031 -43.810551752425667 -246.550003051757813
37.664406994069004 -32.300574856486421 -246.550003051757813
44.411047936919061 -25.567927153744495 -248.550003051757813
27.010961598576326 -43.213991507760568 -249.350006103515625
26.797687460505859 -43.954815202222598 -249.750000000000000
47.825507545156562 -22.242845372730557 -249.750000000000000
26.801649492160998 -43.950856324383857 -250.149993896484375
39.791497671580885 -30.383975374948111 -250.949996948242188
36.207167607058068 -33.539093199722366 -251.350006103515625
49.885109916163017 -20.258675486564250 -251.750000000000000
47.882265167159233 -22.299648210354036 -253.750000000000000
42.579964424818563 -27.780797947001783 -254.550003051757813
35.537602803676229 -34.217454307189712 -255.750000000000000
29.102994670326748 -41.262306492028408 -256.549987792968750
32.839198507484554 -36.910744689426416 -257.750000000000000
41.255797377840032 -29.152536467886332 -258.549987792968750
50.001806822589408 -20.375465358884639 -260.149993896484375
37.753186160912705 -32.389424748723506 -261.350006103515625
48.082507675379105 -22.500050240572932 -261.750000000000000
43.392147232261998 -27.245203539526123 -262.149993896484375
31.834263615377722 -38.601914023568860 -262.950012207031250
33.778774050222673 -36.502602340267792 -264.950012207031250
38.487348819972205 -31.775719704612378 -267.350006103515625
45.426797820179956 -25.236061992582254 -269.750000000000000
39.357019295811583 -31.297616936409813 -272.950012207031250
25.926862596068602 -43.477453099758073 -52.630001068115234
-7.629303092646297 -77.006907748547931 -54.950000762939453
-10.565459309472608 -79.940726755972506 -55.750000000000000
90.141853571680457 21.708491039599885 -55.750000000000000
87.955970099431383 18.502278620256664 -57.357498168945313
92.188525723756243 23.705609540897434 -57.349998474121094
97.395149934466048 27.933944774742361 -57.987201690673828
-33.628439502474130 -102.985348588533199 -58.150001525878906
85.609000978545609 16.157177710014270 -58.549999237060547
93.386745403732348 25.203278380429207 -59.750000000000000
102.459199815054035 32.993963621516833 -61.349998474121094
-9.100528968759583 -78.476962514306109 -62.549999237060547
12.693537896591611 -56.700243941831104 -62.549999237060547
82.260645053619569 12.811487109536305 -62.950000762939453
85.938822812317170 17.824049461059950 -62.950000762939453
85.566069377170379 16.848672914027993 -64.150001525878906
82.120228599988181 13.554994603106742 -64.550003051757813
-35.591156990759764 -104.946503734277144 -65.750000000000000
90.652887875631336 21.197049623220874 -66.550003051757813
91.643943587755757 22.902058260434664 -66.550003051757813
81.528223576113788 12.799055104163742 -68.150001525878906
96.805188377033929 27.344452832547599 -68.550003051757813
80.438708837829950 11.192443609311416 -70.150001525878906
103.734446410254492 35.074256056138445 -72.550003051757813
6.557722361224253 -62.831175307318674 -76.550003051757813
-36.414838613381669 -105.769529698177138 -76.949996948242188
79.637935260063117 10.190865018927131 -78.550003051757813
1.254644520833408 -68.130031845274843 -81.750000000000000
78.324103165900652 8.878078748111928 -84.550003051757813
77.521782648391692 8.076396885673834 -86.949996948242188
79.622443331759243 10.175385422351486 -90.150001525878906
80.767423931450736 11.319454606156096 -90.150001525878906
80.780225483074773 11.332245967618359 -90.550003051757813
80.561739521461334 12.417741847998300 -90.550003051757813
77.744185321610303 8.298622524163907 -92.150001525878906
78.857189026962700 9.410740267553710 -93.349998474121094
81.023001620619155 11.574828852954997 -93.349998474121094
81.728905730133476 12.280171055813259 -96.949996948242188
82.780084741291489 13.330513318077021 -100.550003051757813
-18.889012524277454 -88.257654340057158 -105.349998474121094
-35.088841807009850 -104.444588398383885 -106.550003051757813
93.618656238338033 24.971182795441297 -107.349998474121094
86.995852126089417 18.114745325765348 -108.150001525878906
90.711667852626064 22.486649753486375 -108.150001525878906
86.566130699813002 17.196241832479643 -108.949996948242188
90.827871331744788 22.370353701559576 -108.949996948242188
-34.522011552385727 -103.878209346251211 -109.750000000000000
97.156101930005690 28.173183215368720 -109.750000000000000
99.743179551929018 30.977881876112868 -109.750000000000000
87.984570120935572 19.822082748694118 -110.150001525878906
100.814523757903714 32.602667584828637 -110.150001525878906
96.646154132733486 27.335110325531915 -111.349998474121094
-24.100871827470534 -93.195921200363983 -112.150001525878906
-31.279315537314758 -99.496287219367062 -118.949996948242188
29.799683265293922 -39.262644960864336 -243.350006103515625
27.893352548344616 -41.512528492942401 -243.750000000000000
32.517734661022594 -36.589024750709825 -244.149993896484375
34.944663954495809 -34.466830000442933 -245.350006103515625
27.327137545358415 -42.078292783183556 -246.550003051757813
31.002328996698772 -37.769316649141352 -247.350006103515625
34.575554245104868 -34.603098654029658 -247.750000000000000
29.853965661785978 -39.316970601103570 -251.750000000000000
33.973845133662188 -35.349369510268147 -253.350006103515625
-24.639823871004108 -92.656539803901666 -46.380100250244141
-7.598097877911204 -74.651829619005611 -46.549999237060547
5.026268968723236 -63.014061467619470 -51.506000518798828
-31.591751814763736 -99.602933944229022 -52.950000762939453
18.735952488968003 -48.417053478366256 -53.349998474121094
21.909665464419465 -44.850892954604674 -53.349998474121094
26.601612527558874 -41.455892095743771 -53.730201721191406
87.653350973931765 20.153565759454494 -55.750000000000000
-33.782393050176665 -101.791831407542261 -56.950000762939453
87.289336437074354 20.517870286320068 -56.950000762939453
88.835384620421792 21.667433526979320 -56.950000762939453
93.554165670785579 26.384151672997550 -58.549999237060547
85.572686268404368 18.190477685465176 -58.950000762939453
100.092601690466765 31.976597512600247 -59.456798553466797
-11.170729616780324 -79.198167081980358 -59.750000000000000
-9.125951592051468 -77.155016720792176 -59.750000000000000
18.510859198959029 -49.540205104636392 -60.539100646972656
82.744615706385730 14.642420697020123 -60.950000762939453
13.117023646559129 -54.929747110564804 -62.063201904296875
83.989124052398694 15.885938402075299 -64.550003051757813
93.070935748877957 25.519339623160217 -65.750000000000000
104.643655834748373 36.524028972750521 -66.150001525878906
95.373049551558779 27.260802183894601 -66.550003051757813
82.656158288077421 15.715491837786344 -66.949996948242188
97.640992951030142 30.384889303464281 -66.949996948242188
105.605137633431113 37.484745422407691 -69.349998474121094
100.991624654012540 32.874904844971248 -70.150001525878906
78.243148685342561 10.144536888267526 -70.550003051757813
81.483905733907633 13.382714262154780 -71.349998474121094
-36.846589069492111 -104.853588296506246 -74.150001525878906
80.862253097554003 13.465556124130419 -74.550003051757813
77.168838371376552 9.071081735941684 -75.250000000000000
77.552118253605656 10.035918053114175 -75.750000000000000
5.387391996987474 -62.653225896859027 -77.750000000000000
4.828908116556675 -63.211265218594832 -78.550003051757813
76.741843096526821 9.498417174028599 -78.550003051757813
3.360866437516818 -64.678138321931968 -79.349998474121094
80.315408745645669 12.664268861756300 -79.349998474121094
76.494627816631237 8.397407859469228 -80.404502868652344
79.191545592831176 11.092178862433437 -80.949996948242188
-3.606407752552558 -70.556019363799848 -82.550003051757813
77.025140475556583 9.214894107832693 -83.349998474121094
76.101633188501395 8.790715564423977 -84.949996948242188
80.822600955550627 13.505239854776068 -85.750000000000000
79.152992521993809 11.053656480221933 -87.750000000000000
80.321772070487768 12.657900467609439 -87.750000000000000
79.335992105664786 11.236510394413530 -89.750000000000000
80.529925687652124 12.429493593455684 -89.750000000000000
79.221342780081386 12.410779474464034 -89.750000000000000
83.304780725102020 16.414768819654864 -89.750000000000000
76.782627694646166 9.457600085102577 -90.150001525878906
79.332316786669850 11.232838001008888 -90.150001525878906
80.530773007890303 12.430340239218575 -90.150001525878906
79.219010459747309 12.413113652827185 -90.150001525878906
80.539969400793908 12.439529311702431 -90.250000000000000
80.847266928286032 13.480554232040696 -90.150001525878906
80.874340718429920 13.453458873723481 -91.349998474121094
76.537422885603718 8.440168863143358 -92.150001525878906
83.967399840599455 17.100189087165475 -94.949996948242188
81.525716102345967 14.149980715581854 -95.750000000000000
-37.021315137716357 -105.028175281051276 -96.150001525878906
82.155046344833849 14.868576054890529 -98.150001525878906
77.613220057694704 9.515109690040385 -98.550003051757813
77.986506961026038 10.949610226500758 -98.550003051757813
-16.595549025787957 -84.618668281060067 -99.349998474121094
105.510795779039327 38.689767549471156 -99.750000000000000
82.403582802877168 14.301659259077249 -100.150001525878906
82.524123551411165 14.422104055982681 -100.550003051757813
81.234575116551085 14.441353637105395 -100.550003051757813
82.506549937933897 14.516792438550986 -100.550003051757813
82.843892548864019 15.527608019621383 -100.550003051757813
78.282762255713706 10.184118925844688 -100.949996948242188
-17.517697895197546 -85.540083110844989 -101.349998474121094
83.097500703386828 15.273797829675935 -102.150001525878906
103.673843942033542 36.483333736932082 -102.949996948242188
82.313730409921789 14.709765575089243 -103.349998474121094
104.236378092099642 37.268638060777391 -104.150001525878906
79.774218577131663 11.674388033272892 -104.550003051757813
84.406480040001014 16.660759097143721 -104.550003051757813
102.264987424487430 35.196469537549767 -104.550003051757813
80.992167384648198 13.335538341594814 -104.949996948242188
85.465178434461833 18.298071164881964 -105.349998474121094
102.530119668152253 34.931126077865471 -105.750000000000000
-20.926035457876313 -88.945707603098498 -106.550003051757813
87.037310912861983 19.421669651184011 -106.550003051757813
101.223184140898951 33.542108578956466 -106.949996948242188
92.334097672447541 24.908337763268332 -108.150001525878906
81.975680685650062 13.874097756169535 -108.550003051757813
-24.010885582615526 -92.028102156613954 -110.150001525878906
93.692772906731861 26.245434016424028 -110.150001525878906
90.748960822982340 23.797754007885917 -110.550003051757813
96.191710390619789 29.138343031518481 -110.550003051757813
100.888500217445113 33.877059126360365 -110.550003051757813
85.933804953193800 17.829071317630845 -111.386001586914063
96.062006416804294 29.268150333230590 -111.349998474121094
99.344104712986066 31.377274635644383 -111.750000000000000
96.651781473028038 28.677905436228375 -112.550003051757813
-34.108784044091635 -102.117962590996456 -113.349998474121094
-26.755052699137025 -94.584895899390006 -115.349998474121094
-33.023723017294657 -101.033765283513432 -116.949996948242188
-19.245457035127533 -85.919113364607483 -44.599998474121094
-11.569182586975604 -77.419845565601250 -45.750000000000000
-4.315635358418227 -69.846226755995005 -48.150001525878906
-2.465929792726085 -69.000411690036415 -48.549999237060547
-10.620268609417570 -77.300790674230257 -50.150001525878906
-30.309430094793992 -96.974279392240902 -50.549999237060547
3.004171286436068 -63.687195967346966 -51.480800628662109
26.851707280519722 -39.858642847884951 -55.349998474121094
90.762364417788149 25.132906989757863 -55.349998474121094
-11.761498332895448 -78.441111967555827 -55.750000000000000
92.216368482566494 25.453987437064459 -56.549999237060547
90.788022637787080 25.107228329291118 -56.950000762939453
98.070504008179597 31.303463012872758 -57.970199584960938
84.906148207771480 18.149586169942499 -58.549999237060547
91.612146113221741 25.630864460894806 -58.549999237060547
101.089848330467916 35.023977544543129 -58.549999237060547
86.499612171367232 19.741781720455972 -58.950000762939453
23.154046214889693 -43.399416562562422 -59.349998474121094
92.344602663013006 26.246251337942898 -59.750000000000000
100.593543933069043 34.172250385899922 -60.150001525878906
-35.752145770743141 -102.412662612656561 -60.549999237060547
86.255422034444479 19.497785961298458 -61.349998474121094
84.107648726750639 17.351722302409666 -61.750000000000000
103.789524390359190 37.715847745852280 -61.750000000000000
-36.360500113982468 -103.020532699819029 -62.950000762939453
80.196925820047468 13.444112369836663 -62.950000762939453
103.648512033328529 37.856972439535546 -62.950000762939453
101.624138102402242 34.854268379193343 -63.349998474121094
84.101315584564560 18.314593594000296 -63.750000000000000
90.653963932797168 23.892826576776674 -63.863201141357422
95.039964660215546 28.942579359306574 -64.150001525878906
103.562774320053421 37.942778455248209 -64.150001525878906
96.335804813856456 30.342701070891149 -64.550003051757813
79.694323974139493 13.285848416738746 -65.750000000000000
78.345690309469148 11.594350461042662 -67.349998474121094
81.214784097762504 14.461160422290970 -67.715698242187500
82.883159224154952 16.836726202854198 -67.349998474121094
101.655987577533082 35.805954540597376 -68.949996948242188
103.856954063092815 37.648364355672328 -68.949996948242188
78.538452965183907 11.786959675776092 -69.349998474121094
81.888997350979906 15.134836995087507 -70.105598449707031
82.279562703036419 16.092387435452448 -69.750000000000000
80.580126030809225 15.096324085805321 -70.150001525878906
77.317429421823547 10.566908079238221 -72.150001525878906
84.088451422351980 18.327468004370917 -72.150001525878906
106.907114896748979 41.338599108558981 -72.949996948242188
79.760270668626006 13.219849186211665 -73.349998474121094
106.362319862842270 40.535541536793232 -74.949996948242188
82.277936819612776 16.094014614126412 -75.750000000000000
107.116406268600244 41.129141005985481 -78.550003051757813
79.099344900502629 12.532874542925411 -78.949996948242188
107.629244465147963 41.964170079442141 -80.949996948242188
86.749038927822056 21.058598220358348 -81.349998474121094
82.387140641405182 15.984723795761159 -81.750000000000000
-5.922728430992324 -72.283123410359011 -82.949996948242188
107.028689453446290 41.216927700216694 -84.150001525878906
83.058239636007656 16.661506314236362 -85.750000000000000
-37.967332308342449 -104.626085839852763 -86.949996948242188
79.054955317080768 12.577299489043956 -86.949996948242188
84.385106390901996 18.030576707410798 -88.550003051757813
106.271140967562346 40.626793069195877 -88.550003051757813
107.672291279175170 41.921088972427469 -88.550003051757813
-9.436030637671619 -76.117495367627797 -88.949996948242188
79.161451916488915 12.409462713751314 -89.349998474121094
79.192079574779953 12.440065992123305 -89.578598022460938
86.881568649279302 20.925962919889496 -89.349998474121094
79.596781754017471 13.383468343288248 -89.750000000000000
107.198962319454296 41.046519187346256 -89.750000000000000
-37.910032951853282 -104.568832094218337 -90.550003051757813
90.122362068721046 24.424851938304943 -92.949996948242188
79.691355321321197 13.288819434516583 -94.550003051757813
104.909289016718958 39.291753498563622 -94.550003051757813
106.628864980327961 40.268784077730572 -94.949996948242188
106.932419898292679 41.313273947936821 -94.949996948242188
77.127244985811330 10.461129793661437 -95.349998474121094
84.446881872028044 17.968752013216424 -95.750000000000000
89.591986920176055 23.607222673068396 -96.150001525878906
90.226971354271512 24.320159316391493 -97.349998474121094
80.540576241489276 13.787489242142602 -98.038902282714844
105.471779969520156 38.728814440702124 -97.750000000000000
87.738212493806870 21.417063569134157 -98.550003051757813
91.476154311638524 25.766964599535083 -99.750000000000000
86.386536916848854 20.072962082416915 -100.150001525878906
-18.930102792085709 -85.604010146663541 -102.550003051757813
82.274472043162731 16.097482150769935 -102.550003051757813
91.522026873307482 25.721055493763672 -103.349998474121094
87.125917626892033 20.681419283122153 -103.750000000000000
88.975310526622053 22.875963404212598 -105.349998474121094
79.685205006081858 13.294974649367848 -105.750000000000000
90.653963932797168 23.892826576776674 -106.169998168945313
84.931244250051620 18.832430704773383 -106.550003051757813
80.295393066835146 13.542501235721577 -107.349998474121094
86.419545316305232 20.039927387016125 -107.349998474121094
102.472440584429208 35.701895604050691 -108.150001525878906
82.319921281950243 16.051996705117613 -108.550003051757813
99.626067687001353 33.792070432166575 -108.550003051757813
100.177153300848133 34.588972733232765 -108.949996948242188
81.596563929922596 14.842636353926974 -109.750000000000000
90.302177225668117 24.244893532686309 -109.750000000000000
83.943553662313917 18.472481196344706 -110.550003051757813
87.472023291100484 21.683464829880133 -110.550003051757813
83.276477578951187 17.791661767909719 -110.949996948242188
85.315516437540538 19.796419643711413 -111.349998474121094
97.634888585228083 31.739425466250992 -111.349998474121094
93.753882503440565 27.532691877206116 -112.550003051757813
-29.579091263046635 -95.804028704541480 -117.349998474121094
-17.222137578181339 -82.550056309823560 -44.812301635742188
-14.890229342570699 -79.490136098083397 -45.349998474121094
-25.279561537126817 -89.319309099927708 -46.549999237060547
-10.202229725376085 -75.535736373130817 -47.349998474121094
-8.457173694836179 -73.792069424458489 -47.720401763916016
-9.062346539474177 -74.396760545523989 -48.950000762939453
-11.977562612834532 -77.309656078044014 -52.150001525878906
-9.173264536513393 -74.507590250740023 -52.950000762939453
-9.860945005301073 -75.084173996507175 -54.950000762939453
-10.661251852235312 -75.631651126932141 -55.750000000000000
26.255025535275951 -39.107501448409252 -56.549999237060547
82.867570954245252 17.459979824227833 -57.750000000000000
96.048409022216518 30.630325814673167 -57.819400787353516
97.498090694671106 33.224759270009088 -58.150001525878906
93.786367983800432 28.848747772053777 -58.549999237060547
81.575952682378102 16.169389693285598 -59.349998474121094
99.736730332051920 35.029746562358397 -59.349998474121094
93.534738931156483 29.100577283480668 -59.750000000000000
97.614151268613284 33.108606237103380 -59.750000000000000
18.741833449354704 -45.725950332181213 -60.150001525878906
87.283372280124766 21.872266128557779 -60.331001281738281
99.696441857564324 35.070067132418728 -60.150001525878906
81.679468814536932 16.692959385166542 -60.549999237060547
89.189450001107133 24.010080270771340 -60.549999237060547
84.419643718042764 19.344438800292583 -60.950000762939453
85.633909278500767 20.826189297081029 -61.349998474121094
83.630076327793603 18.786208260712563 -62.150001525878906
83.937659609790543 19.826806878307917 -62.150001525878906
100.120700247203217 34.699375455549628 -62.150001525878906
83.943383905824348 19.821078022047839 -62.549999237060547
92.677207832524658 27.261808134486191 -62.792400360107422
96.048409022216518 30.630325814673167 -62.859100341796875
97.029633932428681 32.345162291557074 -62.549999237060547
79.655915005315691 14.672855238409879 -62.950000762939453
101.956355491980830 36.853763479929611 -62.950000762939453
8.321781866714812 -56.872946728096139 -63.349998474121094
99.636785687169592 35.129770827545549 -63.750000000000000
7.355157661206195 -57.253974004215678 -64.150001525878906
82.372831357114507 17.347460619544023 -64.550003051757813
87.495316942508111 23.008568761810405 -65.750000000000000
101.003870812125299 36.458590810934147 -65.750000000000000
105.918575022772558 40.979639883541296 -67.349998474121094
81.020452043866172 16.004074223636231 -69.349998474121094
80.597276219498838 15.191492266554741 -70.150001525878906
80.541110221290040 15.135370977036283 -70.349998474121094
104.730037391505775 39.471147923514167 -70.150001525878906
85.069328566901405 20.042803638448316 -70.550003051757813
89.425149282980968 25.122620154449450 -71.750000000000000
107.173484804952651 42.420292817850545 -73.750000000000000
79.920094646975684 14.514849737264003 -75.750000000000000
87.657533192148236 22.846223283563194 -76.150001525878906
90.241504708869201 25.654181638455164 -76.150001525878906
-38.495995691313212 -103.806980221393459 -76.949996948242188
0.213424619307410 -65.128372992368156 -80.550003051757813
90.300947869661172 25.594691122623942 -80.550003051757813
106.025376419804658 40.872753403813689 -80.949996948242188
-6.965577608622096 -71.239443453156142 -81.750000000000000
-2.389127587690972 -67.728853542057621 -81.996696472167969
79.842163591531104 14.486458278369884 -81.750000000000000
92.888586266850027 28.398677446879006 -83.349998474121094
-8.024839588517064 -72.876326410130829 -84.150001525878906
105.940841267071747 40.957355900971471 -84.949996948242188
80.974013254139237 16.050550008547830 -85.349998474121094
107.769876696562122 43.171712427584779 -85.349998474121094
-8.457173694836179 -73.792069424458489 -86.069999694824219
91.066760640419844 26.176684411778478 -86.150001525878906
-9.131457108328092 -74.465816101681241 -87.575897216796875
90.619089844849626 25.276295701529783 -88.550003051757813
94.255741496231963 29.727427269993107 -88.550003051757813
81.685406120173511 16.687017349610869 -90.949996948242188
107.334994617682341 42.258654339292512 -91.750000000000000
92.462825800799706 27.476360952377178 -93.349998474121094
81.150296226534138 15.874126601375124 -94.150001525878906
86.737984110998781 22.418088777913546 -94.949996948242188
91.948356268035894 26.642813400245576 -94.949996948242188
95.595688119265716 31.083407375029232 -94.949996948242188
-16.547929721908126 -81.876385129675185 -97.797302246093750
96.232646258295858 31.794357947185599 -97.750000000000000
84.267322977796923 19.496880885947007 -98.550003051757813
103.623263058534562 38.199150192225432 -98.550003051757813
82.481681960451695 17.238523301023363 -99.349998474121094
104.146765868976587 40.054884105820527 -99.750000000000000
103.640986644589049 39.212779642823818 -100.150001525878906
87.515248170149135 22.988621656075832 -100.949996948242188
93.191671968344281 28.095350293969620 -102.550003051757813
-37.268039773137900 -102.580001768279587 -103.349998474121094
85.626346089440545 20.833758511310666 -103.349998474121094
101.140005518885062 36.322347653272779 -105.349998474121094
92.854621578956639 27.439080657820522 -105.750000000000000
97.397296707701798 33.325633553906520 -105.750000000000000
103.346599508407010 37.922706869021354 -105.750000000000000
86.455778631295857 21.352092140949441 -106.150001525878906
99.244524347263209 34.173917726129069 -106.150001525878906
101.692781723637495 37.117547222742346 -106.150001525878906
89.652888904226174 24.894699105794249 -106.550003051757813
94.402691158899202 29.580360540754167 -107.750000000000000
95.241595887267351 30.089214437919249 -108.150001525878906
-36.383579033050147 -101.130361959768194 -108.550003051757813
97.403657336219823 33.319267858231754 -108.550003051757813
93.715190420587774 28.919982038447348 -108.949996948242188
90.222703241020056 25.672998084381458 -110.550003051757813
92.302944567817732 27.636369553789141 -111.349998474121094
88.088527283393077 23.763453098019529 -111.750000000000000
-28.620577318535666 -92.717885120937723 -112.150001525878906
88.631863549889886 23.219683985928913 -112.357002258300781
95.414314486997142 31.264925497519428 -112.150001525878906
-35.159383516949504 -100.473024023336180 -113.349998474121094
-31.864479655496414 -96.213803065727063 -117.349998474121094
-23.289719807804005 -87.265314902260073 -45.831001281738281
-8.301449974034629 -71.251074127568430 -48.549999237060547
-29.656003749485308 -93.626531218929685 -49.349998474121094
-11.054702049355805 -73.889465953028250 -52.150001525878906
-12.017772805216913 -76.002340481022472 -53.349998474121094
6.581466339101103 -56.479666325536613 -54.150001525878906
87.958116872667134 23.893967399420823 -54.236999511718750
88.086165415421888 25.114243781536814 -54.950000762939453
84.773666142859852 20.712051523904478 -55.349998474121094
89.694846571098878 26.201275268168210 -55.750000000000000
91.636054642744753 28.303790752740600 -55.750000000000000
85.047172979521520 21.413393016030909 -56.150001525878906
96.290930111658824 33.084454596316789 -56.549999237060547
91.972828100066664 27.905482876957947 -56.950000762939453
92.900150968629433 29.735670786720519 -57.750000000000000
94.026165678284443 29.957185978145773 -58.072601318359375
82.501656497054213 18.567100106397056 -58.150001525878906
93.323872124434729 29.255451456914088 -58.150001525878906
93.448228512512657 29.379708856076611 -58.150001525878906
86.502330778562225 22.653929842170882 -59.349998474121094
