# This PCD file was generated using the MATLAB® pcwrite function
# from Computer Vision Toolbox®.
# .PCD v.7 - Point Cloud Data file format
VERSION .7
FIELDS x y z
SIZE 8 8 8
TYPE F F F
COUNT 1 1 1
WIDTH 789
HEIGHT 1
VIEWPOINT 0 0 0 1 0 0 0
POINTS 789
DATA ascii
112.916687439631474 8.354621006836204 -218.550003051757813
36.255730551275342 -68.647637038310194 -218.949996948242188
-17.536451851393068 -122.689346666869611 -219.350006103515625
-15.863150936632692 -121.613653798849015 -219.350006103515625
-13.314827236839209 -118.823502962312190 -220.149993896484375
51.009713979278622 -54.794020345114909 -220.149993896484375
56.992068418466253 -48.816427919256014 -220.550003051757813
34.219937980710625 -71.570431515853926 -220.949996948242188
40.028728381220411 -65.766264969980682 -221.350006103515625
-17.641554564251219 -122.584160224562567 -221.750000000000000
115.133907122658371 9.279129306016554 -222.149993896484375
64.177124450099555 -41.637091263319704 -222.949996948242188
-48.716379485902962 -154.440730853112768 -223.750000000000000
41.527683756593497 -64.268502777918485 -223.750000000000000
65.766837537481706 -40.048643603285264 -223.750000000000000
110.918088109822804 6.309542500829882 -224.149993896484375
-47.805267367366540 -153.530343988838098 -224.949996948242188
53.640880025439053 -52.164948733162490 -224.949996948242188
109.535596193337781 4.996152376590921 -225.750000000000000
41.937743829300004 -63.546502333071672 -226.149993896484375
45.591911946956969 -60.207509753409909 -226.149993896484375
58.592668828829233 -47.217101602657557 -226.949996948242188
-41.119512187018103 -146.283035380265943 -227.350006103515625
-36.340937402178973 -141.626029076343059 -227.350006103515625
64.506555272830838 -41.307922670783029 -228.149993896484375
42.774351399327010 -61.686927910515791 -228.550003051757813
56.660031997609906 -48.614413980003810 -228.550003051757813
-46.912548034637311 -152.638335269531154 -228.949996948242188
47.600937240266212 -58.200083664113357 -228.949996948242188
49.424888499480588 -56.377584288149237 -228.949996948242188
-40.863215797381912 -146.539535946891220 -230.550003051757813
-35.505996330360993 -141.113359479489759 -230.550003051757813
48.456148485477293 -57.345553175515747 -230.949996948242188
55.585168562529432 -48.887160323218986 -231.350006103515625
66.181084036666348 -39.634726848412917 -231.350006103515625
-37.674804209633557 -142.989086878453406 -231.750000000000000
58.898246507466780 -46.911767166875876 -231.750000000000000
47.487712724202829 -58.313218052341604 -232.436996459960938
49.780467697910225 -55.213962273000490 -234.149993896484375
52.175811767503745 -53.628850782267698 -234.550003051757813
105.652398055916905 0.791752910060923 -234.550003051757813
101.364149861899236 -4.355830279841983 -236.149993896484375
40.071171299584350 -65.723855836599725 -237.184997558593750
103.146326098498392 -2.094015947867178 -236.949996948242188
37.374253523384397 -68.418626839563942 -237.432998657226563
35.351617811440313 -70.439652513467422 -237.882003784179688
-61.652633358932810 -166.187703081848099 -238.149993896484375
98.336155843872021 -6.719261291066905 -238.149993896484375
60.257698296268359 -45.553397515149904 -239.350006103515625
57.328487946617479 -48.480276184378049 -239.750000000000000
54.135754762674665 -51.670467921114486 -240.149993896484375
98.356869005497884 -6.739990953709355 -240.149993896484375
24.417778977958100 -81.072452352993196 -241.350006103515625
27.503843839745521 -77.418711513341478 -241.750000000000000
33.338992257669702 -71.122412405165520 -241.750000000000000
35.354277846004614 -69.093890431627273 -242.149993896484375
18.135911616501460 -86.921822359195971 -242.550003051757813
20.673374178924981 -84.067469113410993 -242.550003051757813
28.377873579829259 -76.945016006968828 -242.550003051757813
13.776275601840716 -91.997820537181084 -243.220993041992188
24.112781582687123 -80.767211983367659 -242.949996948242188
58.949609899962496 -46.860444660148829 -243.095001220703125
67.804116508255419 -38.012986326731060 -243.750000000000000
61.709895221777778 -44.102356552762615 -245.350006103515625
66.249726061529159 -39.333317197313946 -246.149993896484375
67.099766773999093 -37.487046298040248 -246.149993896484375
67.040349061583839 -38.776145806957651 -246.809005737304688
-54.310015923779282 -158.703635603975130 -246.949996948242188
15.235572365984677 -89.413009833339956 -247.350006103515625
15.124699409803441 -90.650470087912097 -248.119995117187500
47.524723280928256 -58.276236956385553 -248.550003051757813
-3.163691008332397 -108.755944237023925 -249.350006103515625
46.380310372303981 -59.419738901010639 -249.350006103515625
-61.318375454684499 -166.522227270660807 -250.149993896484375
-50.681504011298330 -156.404291119941092 -250.550003051757813
-6.593208239500148 -112.065959098015114 -251.350006103515625
-8.642703438597586 -114.060241509435670 -251.750000000000000
2.988607195513019 -102.776901852713834 -251.893997192382813
-53.646876585509418 -159.367303228240871 -252.373001098632813
-10.641448430051167 -116.105325352241891 -253.350006103515625
-2.663714161680608 -107.907752132674915 -253.750000000000000
-64.413448906851585 -168.819237806174272 -254.149993896484375
-12.885391681060170 -117.904864485277400 -254.550003051757813
-10.731920888420648 -116.014780819528440 -254.550003051757813
-6.597236547684091 -112.061927580703511 -254.550003051757813
-11.640444700383949 -116.453949377579150 -255.750000000000000
-30.438432170267760 -135.397286159097376 -256.549987792968750
-52.298601193511971 -158.020101076796578 -257.049987792968750
-51.623745703935683 -157.345782778867658 -257.283996582031250
-47.033261094662457 -152.500536458463159 -257.350006103515625
-43.194520343999500 -148.252637226509648 -257.350006103515625
-57.107418789359855 -162.825090806255133 -258.149993896484375
-51.205687612915256 -156.928057466224374 -258.950012207031250
-63.558290792743477 -168.326790563505369 -259.350006103515625
-35.261744364335790 -140.009519414001318 -259.750000000000000
68.790498458205178 -37.027389546573673 -259.750000000000000
-61.956608903454892 -167.231771990407339 -260.149993896484375
-51.623745703935683 -157.345782778867658 -260.295013427734375
-52.298601193511971 -158.020101076796578 -260.717010498046875
-42.994771263087301 -148.452545436334958 -260.549987792968750
-64.885642709836375 -169.694932858415598 -261.350006103515625
-62.512065194204162 -168.024138224320268 -262.149993896484375
42.486548711961021 -63.310401088543365 -262.149993896484375
-56.128402318996478 -161.846853642689496 -262.950012207031250
-41.311059050061793 -146.091335922557050 -263.350006103515625
-62.070835977018838 -167.117453918527019 -263.750000000000000
-56.148884851505976 -160.908161592446220 -263.750000000000000
-37.235543300438700 -142.080411108845254 -263.750000000000000
-54.751121118648719 -159.610465618669537 -265.350006103515625
-50.921311829536975 -156.643908048783544 -266.149993896484375
-61.456136044867890 -166.384356934325467 -266.549987792968750
-63.949772839140834 -169.283283258656894 -266.950012207031250
-55.510575905661184 -160.198692429918367 -268.149993896484375
-60.085513510256646 -165.059498140429156 -268.549987792968750
42.826589982162155 -61.739208108906162 -268.950012207031250
-50.949613404881163 -156.672187095793703 -272.877014160156250
-64.547286392977895 -170.033558724814441 -274.149993896484375
66.603394919710283 -39.212752129010639 -274.549987792968750
-62.491147111947782 -168.045072970842028 -276.950012207031250
-54.388168933481047 -159.973706947529223 -276.950012207031250
-55.258097510930256 -160.451371960055553 -277.750000000000000
-54.284234106837914 -160.004153406675783 -278.149993896484375
-55.128258720910466 -160.581314185372463 -282.149993896484375
-65.223262986299019 -170.705330232159383 -283.750000000000000
-36.356489799504928 -141.610464289292594 -284.549987792968750
48.414622912106061 -56.543948026406760 -284.549987792968750
-62.170907387751853 -167.884548817619788 -285.350006103515625
32.654629874965863 -73.134493620857853 -285.528991699218750
-48.253041033109511 -153.977761222312466 -286.092010498046875
-43.263368283202169 -148.183734440007129 -285.750000000000000
11.079287665366266 -94.692661644571515 -285.890991210937500
15.124699409803441 -90.650470087912097 -285.778015136718750
21.866958770166065 -83.913577632714691 -285.851989746093750
49.175299879431705 -55.956764920662444 -285.750000000000000
-57.790539234368943 -163.310037647787510 -286.149993896484375
60.134600786612666 -45.349419105078475 -286.149993896484375
34.537414572056058 -71.253207639016622 -286.549987792968750
45.465006851984242 -60.334313830671313 -286.683013916015625
-10.113052327536764 -115.285575143786062 -286.950012207031250
47.487712724202829 -58.313218052341604 -286.960998535156250
-17.014769651700167 -121.863017527595147 -287.350006103515625
-53.718614984131889 -159.295507679651308 -287.750000000000000
-34.802058923594942 -140.537486227653943 -287.750000000000000
-28.965678276236751 -134.174650880850521 -287.750000000000000
-27.981552228708960 -132.462987699751153 -287.750000000000000
-16.756722986544304 -122.506514556567026 -288.149993896484375
-26.312301020613045 -131.437006273981694 -288.549987792968750
-18.080814671616238 -123.829552251555825 -288.950012207031250
-53.803155529512971 -159.210899785549316 -289.350006103515625
-52.413955330543715 -157.904655043580078 -289.750000000000000
-13.867182875178585 -119.619274547721844 -290.091003417968750
64.774301721916729 -41.040389350519945 -289.750000000000000
-30.723258983912388 -136.461933053082930 -290.877014160156250
-29.195297731978016 -134.935188073424229 -290.549987792968750
-26.364113584242656 -131.385152434182515 -290.549987792968750
2.314323782021106 -103.450648529936601 -290.868011474609375
10.405074412148856 -95.366338217368053 -290.851013183593750
-18.809030645306333 -124.112316513532917 -290.950012207031250
-9.938610944492359 -115.460155494517110 -290.950012207031250
-57.641500386625381 -163.358747269284521 -291.750000000000000
35.351617811440313 -70.439652513467422 -291.824005126953125
42.093877171802930 -63.702760058270016 -292.045013427734375
-48.425859229054360 -153.804805351783273 -292.149993896484375
-43.108998336651254 -148.338227364454610 -292.149993896484375
-35.820463215820730 -140.798642075862631 -292.149993896484375
-59.804691356737493 -165.340544009240830 -292.549987792968750
-49.575908915760472 -154.002126098242911 -292.950012207031250
-55.669305864338142 -161.388122633351799 -294.490997314453125
-57.200791085306491 -162.551969002808420 -294.950012207031250
-50.372377841854373 -156.095411017986805 -294.950012207031250
-55.283780552908624 -161.002904203884952 -296.950012207031250
-50.496172947736312 -156.219107581739507 -299.350006103515625
-49.107571588734345 -154.831611563159470 -300.950012207031250
-49.093420801062251 -154.817472039654376 -305.350006103515625
-49.118883583761317 -154.842914553726445 -310.149993896484375
-50.275470311938250 -155.998580627423394 -312.488006591796875
9.290554243998752 -94.250930173378023 -51.349998474121094
14.666647983915157 -88.843632221057092 -51.349998474121094
4.720914969931842 -99.116903511653163 -52.150001525878906
2.908917444793806 -101.348732477544075 -53.349998474121094
24.865986456097197 -78.824168421934374 -53.750000000000000
29.571735822674061 -74.867590871482690 -57.349998474121094
-8.010010716494820 -111.996454867761429 -63.349998474121094
37.749946117412627 -66.097629935251135 -63.750000000000000
115.948545457849505 12.062752194209187 -70.949996948242188
105.745105878881219 2.047398165940855 -71.750000000000000
105.983730560460131 1.808583385433587 -72.949996948242188
37.099548744176360 -67.345770163553297 -74.150001525878906
106.155072815040256 1.654785026848737 -74.949996948242188
119.378833837705756 15.371995292180895 -75.750000000000000
103.268790554071785 -0.868151030040107 -76.949996948242188
25.912909889200183 -78.523504343309597 -77.536102294921875
120.103586989584343 15.995091704007622 -77.349998474121094
23.230662980126290 -79.884390646287031 -78.550003051757813
118.943736536337155 14.433268845280191 -79.349998474121094
121.326332489291687 17.468355506053758 -80.949996948242188
101.858019586280577 -2.153250368527255 -82.150001525878906
121.349731189706844 17.444938165203563 -82.949996948242188
-13.468173618507000 -117.873240118870498 -86.550003051757813
92.871256083650877 -10.689260939264893 -89.750000000000000
93.680474339684437 -10.150556599620728 -90.949996948242188
102.351854206665294 -1.298911144743264 -92.150001525878906
94.147372626605346 -9.269399904297154 -92.949996948242188
7.708768869292450 -96.713154686836276 -93.457702636718750
91.338848603852682 -11.852475750258455 -93.349998474121094
6.360274901055228 -98.060575240531506 -93.750000000000000
86.597982649464598 -17.886737501438557 -94.550003051757813
91.561144346768984 -12.074948583751574 -95.349998474121094
120.437534984338924 17.009444926147772 -96.150001525878906
103.838251616562175 -0.089638816309023 -96.550003051757813
106.146232620453347 1.645951869144186 -98.094299316406250
126.068226541414106 22.162222878665435 -97.750000000000000
108.843150396653300 4.340722872108396 -98.449996948242188
83.359559779262682 -21.122582554991737 -99.349998474121094
105.867810195370410 1.924596097790293 -99.750000000000000
107.224077607950250 3.264091296935468 -100.150001525878906
84.608310123410746 -19.874826228473939 -100.550003051757813
91.887052721204441 -12.601877581810937 -101.349998474121094
114.030943647725110 9.936471321734473 -101.349998474121094
127.935503935411063 24.338306975539368 -101.349998474121094
115.110848686967728 11.552700171137404 -102.150001525878906
125.425252954901154 21.457422072863881 -102.150001525878906
-14.271130975430642 -118.675558313792806 -105.750000000000000
-6.450100726727107 -110.860753682555995 -105.750000000000000
80.204678906684777 -24.274952111177662 -105.750000000000000
129.391643080426348 25.577570238842522 -106.150001525878906
87.122298476214226 -17.362839035275098 -109.349998474121094
-9.390010518239128 -113.798323276783691 -114.150001525878906
77.665508412280232 -26.812101400743671 -116.550003051757813
75.511439569186123 -28.964455583724259 -118.150001525878906
84.924231045592762 -19.559156782472012 -118.949996948242188
130.504761830693781 27.161541161870439 -122.550003051757813
128.652499130719121 24.134303168569257 -123.349998474121094
133.399780768886927 28.877805923578915 -124.949996948242188
73.413114413417759 -31.061110451905794 -125.349998474121094
75.060975526763301 -29.414561052311992 -125.750000000000000
130.649311764924818 27.016876072797054 -127.349998474121094
131.323805379998845 27.690131739794868 -127.349998474121094
82.177159467014192 -22.304041664891876 -127.750000000000000
129.212750510372899 24.694108582581148 -129.750000000000000
79.872842396079804 -24.606524476636679 -130.149993896484375
73.058500099849383 -31.415442488971678 -132.949996948242188
11.325416494431444 -92.241997759095611 -133.350006103515625
71.152230600106591 -33.320194579330220 -134.949996948242188
131.623782219822374 27.389915925212318 -134.949996948242188
13.850788739654959 -89.375544564431593 -136.149993896484375
132.338068181456237 28.023336751423127 -136.149993896484375
15.235898733126868 -88.064909526502504 -136.550003051757813
-0.092711916324038 -103.738549148924932 -137.350006103515625
-2.242504978759014 -105.632453795313737 -138.550003051757813
77.851551872475639 -26.626206032983475 -138.550003051757813
69.988293233939800 -34.483205439836432 -139.350006103515625
1.398560447519687 -102.534155658040490 -140.149993896484375
18.578001293197694 -85.852574279491051 -140.949996948242188
134.888123053505950 30.364963473012306 -141.350006103515625
76.835598716060474 -27.641350480633324 -142.149993896484375
129.089546929871517 25.879907052492630 -142.550003051757813
13.470306324926947 -90.956203472026644 -143.350006103515625
19.966818529967348 -84.464862554984151 -143.750000000000000
12.187174747802120 -92.238313663719538 -144.949996948242188
68.696815282621657 -35.773655361926210 -145.350006103515625
131.815939556785963 27.295225464754818 -145.750000000000000
-0.539308080983715 -104.954666086245666 -146.949996948242188
77.291300492821875 -27.186011446995369 -147.350006103515625
2.351727465144981 -100.791098615823557 -148.149993896484375
69.737807561616776 -34.733491723085734 -148.149993896484375
132.787891427201657 28.266403651864263 -148.149993896484375
2.007463394583062 -101.794976429430832 -149.350006103515625
2.989143871637866 -101.429022816292246 -149.794006347656250
0.041672961312494 -104.374147510607898 -150.949996948242188
15.579877363155918 -88.848311673218205 -150.949996948242188
5.873308626588092 -98.547153885025651 -151.350006103515625
22.554330360329299 -80.556086484716730 -152.550003051757813
25.190809550164897 -79.245029883329863 -152.949996948242188
60.037103166691885 -43.903419578755575 -153.350006103515625
58.672105026650605 -45.234252652400031 -153.750000000000000
131.541472562944648 27.020976949356463 -153.750000000000000
134.802532915560988 30.279441465664046 -153.750000000000000
129.350691006982743 24.831939277190767 -154.949996948242188
24.541427637176053 -79.893894881890361 -155.350006103515625
68.633857230146901 -35.836563299168219 -155.350006103515625
60.660494754307145 -43.178883552053271 -155.750000000000000
60.208155377997230 -44.255558209271619 -156.149993896484375
74.346725043055642 -30.128242985567134 -156.149993896484375
4.644582035067443 -99.040509766611805 -157.350006103515625
55.055652617879296 -49.403959526208709 -157.350006103515625
75.494107282912694 -28.981774073326310 -157.750000000000000
4.337570378072685 -100.081669670699171 -158.270996093750000
28.363516529409825 -76.074848410234210 -160.149993896484375
52.576877006930822 -51.880762007243490 -160.550003051757813
58.275938719814128 -46.186236803875609 -160.636993408203125
66.097869583579751 -38.370532274475217 -160.550003051757813
73.250767585934497 -31.223328049707963 -162.550003051757813
74.774482792025609 -29.700825735997999 -162.550003051757813
21.420855138828305 -83.011983373651489 -164.149993896484375
50.622486818301248 -53.359733551591177 -164.149993896484375
55.352501076594891 -49.107347361803555 -164.550003051757813
130.166309594981414 25.646908624722879 -166.149993896484375
9.211179855565755 -94.171492551812221 -166.550003051757813
49.890223545535541 -53.975353324804736 -166.550003051757813
133.439394339258087 28.917387961156077 -167.350006103515625
50.859418208354384 -53.596853691622073 -167.953002929687500
5.993919535396601 -98.426638983693991 -168.149993896484375
29.931088653243240 -74.508524089322421 -168.149993896484375
66.279456517108400 -38.189089885942451 -169.350006103515625
131.037813540090866 26.517718844068551 -170.149993896484375
7.966092670333098 -95.622256549369112 -172.149993896484375
64.354865741068949 -40.112148668680426 -172.149993896484375
31.911209937312840 -72.529979001388156 -172.949996948242188
11.375675975387729 -92.292297278967425 -173.750000000000000
126.908077241121831 22.391269856057047 -173.750000000000000
25.497674399992306 -78.938409300959322 -174.149993896484375
71.221129338900965 -33.251350684613676 -174.149993896484375
128.718994880111893 24.200745986687533 -174.949996948242188
-51.867496050113893 -155.753573224830035 -176.149993896484375
35.088303282950022 -69.355414653491309 -176.550003051757813
71.981005588809936 -32.492079303718576 -177.350006103515625
-50.541400611452865 -154.384151862738292 -177.750000000000000
26.955602205615875 -77.481642020295169 -177.750000000000000
25.649266466936449 -78.786937902800474 -178.550003051757813
-52.358914643829273 -156.610028171025988 -179.350006103515625
12.838181311262048 -91.058978919384856 -179.350006103515625
125.433880347230698 20.918246437480573 -180.149993896484375
129.128568974862105 24.609994056405608 -180.149993896484375
131.076007714139450 26.555882615176667 -180.149993896484375
-53.245037910811604 -157.072910386334939 -181.350006103515625
-50.520266823269637 -154.405302487027740 -181.750000000000000
127.158495451642438 22.641488731204202 -182.149993896484375
37.753812193187102 -66.692027514721872 -182.550003051757813
128.172181891496848 23.654368266622111 -184.149993896484375
130.173384988817446 25.653978386475426 -184.550003051757813
36.899287034506457 -67.545872462920713 -185.350006103515625
-54.884241279001166 -158.128952795551271 -185.750000000000000
62.865388748933505 -41.600440022391822 -186.949996948242188
123.769397995009058 19.255089029681283 -187.350006103515625
31.284180817932267 -73.156508999385281 -188.149993896484375
126.944518439409407 22.633508707452521 -188.550003051757813
62.123196935906506 -42.342041043391696 -190.550003051757813
122.687094806694319 18.173647365413782 -190.550003051757813
124.724371078995944 20.209301945643897 -190.949996948242188
38.950077255065494 -65.496714691669723 -191.350006103515625
31.899255705926997 -72.541923717087528 -192.949996948242188
59.963540906337357 -44.499977965391601 -192.949996948242188
121.653526024435635 17.140901314132901 -194.082000732421875
34.068390118733788 -70.374515956736829 -194.550003051757813
42.439694146515656 -62.009875569794765 -196.149993896484375
33.451759561575642 -70.990655669869952 -196.949996948242188
-41.077986052287692 -144.976329570942767 -197.750000000000000
120.019601170230544 15.508277080279365 -198.149993896484375
-36.207806348667077 -140.410990368421352 -198.550003051757813
41.547536095982430 -62.901323453691909 -198.949996948242188
58.657411600773287 -45.805067579104353 -199.350006103515625
121.714786737961916 17.202113263525032 -199.350006103515625
125.468544919777557 20.952883416684667 -199.750000000000000
-40.905663979974591 -145.148788922606258 -200.550003051757813
-35.519243314514171 -139.751815328821152 -200.550003051757813
65.975421015273781 -38.492883372509191 -200.550003051757813
123.001882370595951 18.488184355299747 -200.895004272460938
-36.374401428622278 -140.244262571490054 -202.149993896484375
42.590721558173691 -61.858968377450829 -202.149993896484375
59.624418521072847 -44.838830405881843 -202.875000000000000
37.490522270767954 -66.955107855757532 -203.350006103515625
25.724609400355600 -78.335053846004442 -204.149993896484375
117.608116978470562 13.098712453797555 -204.488998413085938
45.854398754105233 -58.597889100861188 -205.750000000000000
119.127372959422814 14.616759091955993 -205.750000000000000
28.936846107254613 -74.807445044918197 -207.750000000000000
57.226719136706919 -47.234621197812686 -208.149993896484375
121.884558411417672 17.371749797048832 -208.550003051757813
-1.730478427544617 -106.144888249424127 -209.003005981445313
64.532066308205344 -39.935089154948869 -209.750000000000000
118.336793445373829 15.066438885793854 -209.750000000000000
31.625140983180422 -72.104184592891301 -210.550003051757813
118.780684058400766 14.270346158729632 -210.550003051757813
39.303134550234404 -65.143938433601264 -212.149993896484375
-7.450801078178023 -111.207683063120868 -212.550003051757813
-4.825021464053122 -109.236967999055196 -212.550003051757813
65.584872498037313 -38.883121009261473 -212.550003051757813
29.419791565897192 -73.942351003672812 -212.949996948242188
58.227163836676624 -46.234972861723506 -212.949996948242188
41.294220401048598 -63.154437506826021 -213.350006103515625
34.264664860741767 -69.351833648188190 -213.750000000000000
56.499601663426908 -47.961159878389168 -214.149993896484375
118.956608248235682 14.446130311168682 -214.496994018554688
49.924314649029313 -54.531212899261114 -214.949996948242188
-6.024342957000871 -109.938434489582079 -215.350006103515625
40.702489320539435 -63.745697563539942 -215.750000000000000
-54.295140256311299 -157.370258096453853 -216.149993896484375
48.819869147929801 -55.634779250813317 -216.949996948242188
43.357459348005086 -61.092840918486971 -218.149993896484375
-50.932162705657781 -155.307407500003336 -218.550003051757813
-11.169728422853785 -115.576624508336053 -219.289993286132813
39.602218355772628 -64.845092701731659 -218.949996948242188
116.634254589810780 12.125625269235480 -218.949996948242188
-19.918816068362055 -123.001646986543676 -219.350006103515625
57.857843862111388 -46.603998853934584 -219.350006103515625
109.877280461107972 5.374029758799091 -219.350006103515625
32.994645134671913 -71.447406229166731 -219.750000000000000
38.049076311473250 -66.396998429595499 -220.464004516601563
36.700582343236029 -67.744418983290714 -220.817001342773438
-50.949141492086618 -155.324372771150166 -222.345001220703125
43.478860715598742 -59.695009678325718 -223.350006103515625
62.321871628457622 -40.796170925065731 -223.350006103515625
110.232458755344439 5.728925327598875 -223.350006103515625
54.439807316101117 -50.019314609032904 -224.149993896484375
-21.799451614658004 -125.165776289253017 -224.550003051757813
-62.815188596748108 -166.372508314725906 -224.949996948242188
106.419706576563271 1.919208137279037 -224.949996948242188
-41.987987389705609 -145.413868311991706 -225.750000000000000
-38.407077297459168 -142.256230429642955 -225.750000000000000
37.063047861368091 -67.382241991297676 -225.750000000000000
42.532715201995337 -61.916928559995689 -225.750000000000000
45.465582655954492 -58.986395697550492 -225.891006469726563
-61.414884926602163 -165.077354301663775 -226.149993896484375
-36.287676860731828 -140.331056227989876 -226.149993896484375
57.636332898163708 -45.546121444064866 -226.550003051757813
-43.211450515445698 -146.887428542142430 -227.750000000000000
-35.601646208692806 -139.989094245864749 -227.750000000000000
-54.286447307459206 -157.378957970491768 -228.550003051757813
-46.988262085917690 -151.197284702015082 -228.550003051757813
102.964399408579325 -1.533348572009087 -230.149993896484375
-47.642811571585661 -152.020674721981919 -230.550003051757813
-43.025981166891036 -147.073045643746667 -230.550003051757813
-64.350147250213510 -167.534303278314695 -230.949996948242188
104.165766182048429 0.931152960252485 -230.949996948242188
108.268607908778449 3.766637725738962 -231.350006103515625
-56.753263535870097 -161.123874676355257 -232.149993896484375
104.805692973896839 1.639132514631016 -232.149993896484375
-41.719606075517589 -145.682463430551849 -232.949996948242188
-37.035041326248297 -140.931372198525395 -233.350006103515625
58.947377269098695 -45.515332726320125 -234.149993896484375
45.197341550618923 -58.717940899539357 -234.550003051757813
-61.704254427472783 -164.787754276307396 -234.949996948242188
-54.462034054601922 -158.834469036425816 -234.949996948242188
56.433913769117915 -48.026795484484310 -234.949996948242188
-50.845153171390258 -155.220467226186059 -235.350006103515625
-61.451069595831420 -165.041140806133740 -235.750000000000000
-54.671841045479155 -158.341522236451596 -235.750000000000000
63.735829496037098 -40.730692154735891 -235.750000000000000
-64.056668551436374 -167.828015775145587 -236.149993896484375
48.809516553974120 -55.590690196101811 -236.149993896484375
50.789437813035754 -53.526817546839183 -236.550003051757813
42.094417895635928 -62.354876977362302 -237.214996337890625
-60.289811233821752 -163.506751050917359 -237.350006103515625
48.560505632017325 -55.341480901080260 -237.350006103515625
-51.082834593617143 -155.457959451649003 -237.750000000000000
34.253286373100373 -69.340446095942539 -238.949996948242188
94.746587623232742 -8.520670724943011 -239.350006103515625
101.073478148423078 -2.716500070502093 -239.350006103515625
-65.681241665137279 -168.898700093955512 -239.750000000000000
32.776982327690142 -71.664895774400378 -239.750000000000000
60.278045130668900 -44.185724089534631 -240.149993896484375
64.142861630072758 -40.323984022306497 -240.149993896484375
99.915681754842836 -4.254635193291369 -240.149993896484375
-55.662926249392420 -158.697934103810553 -240.550003051757813
-61.430431931279948 -165.061794911557513 -240.949996948242188
49.139168584734023 -54.572152272713375 -240.949996948242188
-64.657514770435313 -168.574977508977014 -241.350006103515625
-51.131644556891906 -155.506730561710015 -241.750000000000000
61.216381227962664 -42.386648313251598 -241.750000000000000
47.949037846942687 -56.077992055680070 -242.149993896484375
66.322324444827473 -38.146256081518018 -242.149993896484375
38.723288215454616 -65.723323204961005 -242.652999877929688
93.005128574502777 -10.823240078837614 -243.350006103515625
10.405616485217900 -94.018453788298302 -244.302001953125000
12.717666409930391 -90.938368010576355 -244.149993896484375
17.513411274850323 -86.298826106363066 -244.149993896484375
49.092446680978099 -54.525393148231679 -244.149993896484375
58.992310877207359 -45.470434885808132 -244.149993896484375
94.930223471409164 -8.704452865521858 -244.149993896484375
-63.238897100024957 -167.296727292199790 -244.550003051757813
12.432460033447997 -90.652934426136383 -244.949996948242188
18.330062978533419 -86.100315232803524 -245.350006103515625
50.545549980164999 -53.910472077596111 -245.350006103515625
-54.294383380213738 -158.666951813633318 -245.750000000000000
4.337570378072685 -100.081669670699171 -245.850006103515625
64.251660657820992 -40.030648838331132 -245.750000000000000
-55.400902867398337 -158.960166225167995 -246.149993896484375
-62.616927886731176 -166.570926967954165 -246.550003051757813
13.886062051343270 -89.410845976393119 -246.550003051757813
63.200761607220450 -41.265334124218576 -246.550003051757813
47.517935291857178 -56.935676754653919 -246.949996948242188
-0.382057318053994 -104.797540496479215 -247.492996215820313
-60.576330776213418 -164.568289867826905 -248.149993896484375
11.517955604738649 -92.434690254535866 -248.550003051757813
-64.477346395033024 -168.755289414440256 -250.149993896484375
-8.472203805958465 -111.533893574931668 -250.149993896484375
7.249885593929712 -97.171672686571199 -250.550003051757813
-59.895263523018585 -163.901613075799474 -250.949996948242188
-55.936088202263818 -159.772841151484329 -251.350006103515625
4.357161285490570 -100.062094357837438 -251.350006103515625
-51.087788988385633 -155.462909902670248 -252.149993896484375
-65.205761090579600 -169.374559457274984 -252.550003051757813
-55.124890956047963 -159.236398019760173 -252.550003051757813
-11.169728422853785 -115.576624508336053 -252.809005737304688
0.292226095437919 -104.123793819256449 -252.889007568359375
-62.508007178967766 -166.679934446749314 -252.949996948242188
-14.269250466080498 -117.868319397501821 -252.949996948242188
-57.158838931370532 -161.245689552076442 -253.350006103515625
-55.747348695652526 -160.118760554304004 -253.350006103515625
-37.259386275469680 -140.706848526239213 -254.550003051757813
-42.473339829895131 -146.277840625780669 -254.949996948242188
42.406163606867203 -62.043379418801877 -254.949996948242188
-57.894393493095890 -161.857814040800633 -255.350006103515625
-8.738150447128962 -112.616151209043053 -255.350006103515625
-30.545233004136854 -134.936705996252613 -255.750000000000000
-18.060843744864201 -122.164537019726382 -255.750000000000000
-14.582841213988500 -118.903046083967723 -255.750000000000000
-44.201182156075937 -147.245173463308902 -256.149993896484375
-65.135009546572476 -169.445367365077374 -256.950012207031250
-34.767634834886927 -139.155746753364923 -257.316986083984375
-22.333288787480683 -125.979800451617422 -256.950012207031250
-16.705002351489895 -120.824615461990007 -256.950012207031250
-13.495100661249044 -117.294669784068518 -256.950012207031250
-53.646415466603251 -158.019499688893688 -257.488006591796875
-30.816090106998494 -135.019327363425390 -257.350006103515625
-52.487626370381264 -156.481213907045259 -257.750000000000000
-18.842564776175863 -122.730479848405395 -258.149993896484375
-23.113521443601073 -126.547222047301133 -258.549987792968750
-61.092215823273918 -165.400280457407348 -258.950012207031250
-28.875375630205106 -132.916738852561593 -258.950012207031250
-25.075159395298993 -128.628870414699009 -258.950012207031250
-53.933608454849896 -158.306464068679929 -259.350006103515625
-66.140439194621322 -169.787423360884901 -259.750000000000000
-58.429648932387614 -162.670418806842463 -259.750000000000000
-53.646415466603251 -158.019499688893688 -260.140014648437500
-52.500557940695984 -156.468272034872228 -259.750000000000000
-29.455368478725727 -133.684570569584452 -260.549987792968750
41.669701999336326 -62.779254795605901 -260.549987792968750
-35.607666566578573 -139.663321634900740 -260.950012207031250
-57.562513729721907 -161.932480699045271 -262.149993896484375
-48.439041510021539 -152.443347543629699 -262.149993896484375
-42.933718710522264 -147.315330345432216 -262.950012207031250
41.915590149825569 -62.533562374517501 -263.750000000000000
-56.390971613210858 -160.665881973767512 -264.950012207031250
-50.843739172011887 -155.219054352365163 -264.950012207031250
-65.898072015211525 -170.029983620661596 -266.149993896484375
44.371076302203029 -60.080030813414268 -275.750000000000000
-66.174255668976855 -170.537367606503778 -278.149993896484375
45.835185632780806 -58.617086928350929 -279.350006103515625
-51.036151026354140 -155.411313044967471 -280.149993896484375
-66.329180348959724 -170.692168964908404 -282.149993896484375
-50.688112889284035 -155.063551949698279 -283.350006103515625
-49.600855306200792 -153.977159834409548 -284.734008789062500
-48.791537350385106 -152.090570889558762 -285.350006103515625
-44.207019753800900 -148.587617828481143 -285.834991455078125
6.360274901055228 -98.060575240531506 -285.881988525390625
-36.122278621031221 -140.509312229651329 -286.149993896484375
0.292226095437919 -104.123793819256449 -286.302001953125000
23.890275526492143 -80.544528669051033 -286.183013916015625
28.609827665400132 -75.828733340345380 -286.532012939453125
33.329452663054717 -71.112865210889424 -286.420989990234375
-35.441772530885636 -139.829347829087084 -286.876007080078125
-8.472735089435146 -112.881778008297445 -286.610992431640625
29.454493256879349 -73.977080339549971 -286.549987792968750
43.442911863873150 -61.007456423667087 -286.799011230468750
-29.554959905152835 -133.584899804241900 -286.950012207031250
48.625815994019632 -55.406843292192661 -286.950012207031250
58.584034747535391 -45.878386023641006 -287.750000000000000
58.486641492641965 -45.975701752539841 -288.149993896484375
61.647124393291435 -42.817734627552127 -288.792999267578125
-64.823853880967675 -169.188040751680006 -289.350006103515625
19.844863782054972 -84.586720225710465 -290.911987304687500
-23.979963730087128 -128.376662741508113 -291.003997802734375
-9.821231756144469 -114.229201258316749 -291.273986816406250
-1.730478427544617 -106.144888249424127 -291.250000000000000
5.011778234345905 -99.407998490550796 -291.045989990234375
-17.329446850438583 -121.548089643144507 -291.350006103515625
29.232189777290458 -75.206866634854379 -291.350006103515625
-29.533119680059169 -133.606757428220533 -291.750000000000000
-28.683567167645549 -131.760413504803438 -291.750000000000000
-23.149921818757178 -126.510792674003412 -291.750000000000000
38.723288215454616 -65.723323204961005 -291.750000000000000
40.876513810378441 -62.484426891589493 -291.750000000000000
42.768629799617287 -61.681201752727809 -291.993011474609375
46.149554043741780 -56.973993335754578 -291.750000000000000
-33.818992412326125 -137.408571679480502 -292.149993896484375
53.127276728761515 -51.330800409037550 -292.549987792968750
56.927486577894392 -47.533615564547496 -292.920013427734375
63.461080511861752 -41.005222436001205 -292.950012207031250
59.392507686467162 -44.606734820893934 -293.350006103515625
61.736999726729771 -41.559257324133306 -293.350006103515625
-59.334524798030024 -163.703081229009058 -294.549987792968750
-49.970114227834863 -154.346124822288203 -311.750000000000000
69.433561259305748 -33.080438488675256 -16.950000762939453
72.882016121614981 -29.789379043849291 -16.950000762939453
70.027616840869285 -32.326543085567089 -20.549999237060547
69.551455333626166 -33.198426482606322 -22.149999618530273
68.890040127906971 -33.885048920509767 -23.350000381469727
66.826689922269750 -35.865327665761725 -24.549999237060547
68.775392427785661 -33.770309886982432 -26.950000762939453
66.840969654627287 -35.879618773982820 -29.750000000000000
66.656487160687973 -35.694989313165784 -32.150001525878906
69.557538240763364 -33.204514235655189 -32.549999237060547
71.999216586368703 -30.254300467127376 -35.750000000000000
80.640986771477131 -21.373019043528203 -35.750000000000000
69.421330733253299 -33.068198219247222 -36.950000762939453
74.138128578181821 -28.349643703897282 -37.750000000000000
77.392276946667977 -24.863979953073233 -37.750000000000000
72.060007909203478 -30.315140219006665 -39.750000000000000
78.726984551859061 -23.502907771047422 -39.750000000000000
74.010123288540257 -28.221536439605735 -40.150001525878906
77.307811898361294 -24.779447616189948 -40.950000762939453
11.328921825522594 -90.897084345655685 -50.150001525878906
20.354569019939287 -82.399983046220115 -51.750000000000000
26.312704926377940 -76.226623686267899 -53.750000000000000
-4.692695507574874 -107.225721665473003 -56.150001525878906
30.315847689364336 -72.142272493892349 -56.150001525878906
-6.707844934765473 -109.254388004046376 -58.549999237060547
34.960831694444252 -67.351706608033425 -59.750000000000000
-11.605796660475587 -113.791641624983868 -65.750000000000000
39.825496008077401 -62.780996037734390 -66.150001525878906
109.159256926861019 6.721358706069689 -68.550003051757813
113.679200193709278 11.636921924051647 -68.949996948242188
108.104584088411798 5.079877554791207 -69.349998474121094
39.773092039553397 -63.327001462297972 -69.750000000000000
112.054289751432989 9.217705719005759 -70.550003051757813
-13.584540315565889 -115.856731944206800 -72.150001525878906
116.858172182587680 13.849254688726022 -72.150001525878906
103.277599556787393 0.471459883582922 -73.349998474121094
118.617019823197893 16.134416201276515 -73.349998474121094
-14.110461136721414 -116.678819085346149 -76.949996948242188
33.745861672098158 -69.349434094741540 -76.949996948242188
31.307282122020954 -71.786072511367237 -78.054603576660156
120.755288796490859 18.039854117404175 -79.349998474121094
101.854336722285453 -1.295174064624637 -80.150001525878906
20.479360607435325 -82.605374893285429 -82.949996948242188
17.148479987803796 -85.933604098984802 -85.284400939941406
120.590573263995964 17.426148247404402 -85.349998474121094
121.283956462984264 18.118979506505315 -87.349998474121094
-14.889132671939883 -117.945714502040531 -88.150001525878906
121.156836839479894 17.991961071479100 -90.550003051757813
121.159427443994474 18.983820449237211 -94.150001525878906
93.828802765776913 -9.314319616691490 -94.949996948242188
86.690477861977300 -16.446962343234258 -95.750000000000000
90.972723708403180 -12.168125206874768 -98.550003051757813
-3.078368253558572 -106.144351569003248 -99.312599182128906
118.721486203571828 16.029866598384157 -99.750000000000000
2.526552580088791 -100.543892307799922 -100.550003051757813
-2.037022474718845 -105.103834711707549 -100.949996948242188
-0.381450477358619 -103.449580566039046 -101.585998535156250
107.077524472699693 4.759328437438081 -102.150001525878906
115.984635867663584 13.375059967163601 -102.550003051757813
-6.449569443250424 -109.512869249190217 -103.220001220703125
82.424573962565560 -20.709470540931122 -102.949996948242188
89.141718643129522 -13.997672773998749 -103.349998474121094
80.701375556004280 -22.431297264509798 -106.949996948242188
88.021288742568601 -15.117210801272220 -109.349998474121094
128.500265300955448 26.469658129101255 -112.550003051757813
76.315780926768824 -26.813400917025117 -114.150001525878906
-15.100714472053035 -118.157127880947201 -114.550003051757813
127.870514487758470 25.751624016140305 -114.550003051757813
84.595429878064792 -17.239926699990360 -114.949996948242188
77.210906010723491 -24.682464529055132 -115.349998474121094
-11.138488526923183 -114.198055906875723 -115.750000000000000
126.873172189032161 23.703746161530223 -117.349998474121094
82.566616136761510 -20.567541433711334 -118.150001525878906
-14.113356988789388 -116.675920926314902 -118.550003051757813
132.206173386496971 29.032502237272030 -119.349998474121094
129.744459835139651 26.572748234260164 -120.150001525878906
81.929185540511327 -19.965255256819383 -121.750000000000000
132.900123264625449 29.725899724430921 -123.750000000000000
80.247657156233529 -22.884654499944805 -124.550003051757813
79.867787842317497 -23.264221434128174 -126.150001525878906
128.154255625836015 24.983809843242131 -128.550003051757813
73.597427837473290 -29.529590170363587 -129.350006103515625
130.305423611426789 27.133265477830665 -129.750000000000000
11.965462094463746 -90.185564456031329 -130.149993896484375
13.866238786445484 -88.042585382377510 -131.350006103515625
128.490970973990784 25.320257162647980 -131.350006103515625
131.882189429691721 28.708776174902216 -132.550003051757813
-3.404143522233470 -105.818316773404959 -134.550003051757813
-1.800623186704648 -104.726260675882301 -134.949996948242188
134.058118595236550 30.882973279300561 -134.949996948242188
9.455642190717912 -93.067722702446531 -135.750000000000000
17.590810835328895 -85.491625351191189 -136.149993896484375
130.765928668519308 27.593403968341054 -136.149993896484375
78.291092184327070 -24.839662026773500 -138.949996948242188
128.869420891584269 25.698405830362308 -138.949996948242188
10.004990208412195 -93.071407589827487 -139.750000000000000
1.939068220040917 -101.130909024484069 -141.350006103515625
132.280451529414961 29.106721254053287 -142.149993896484375
20.695254565958084 -82.389652788489911 -142.949996948242188
-0.125393948638220 -102.357414146686693 -143.750000000000000
132.353310276010404 29.179522004365499 -144.949996948242188
3.458183880444175 -99.613002595178074 -145.750000000000000
69.621906520325808 -33.501946933205005 -145.750000000000000
12.951829676267074 -90.126913835347878 -146.149993896484375
-0.242090855064613 -102.240624274366311 -146.949996948242188
20.519611017221159 -82.565156523224061 -147.179000854492188
130.650980845613390 28.363492275829902 -146.949996948242188
74.021997899813414 -28.233420510717082 -148.149993896484375
67.310443895280883 -35.811569611128569 -149.350006103515625
128.936623640666227 25.765555085391018 -149.350006103515625
131.278822657061681 29.083426117442553 -149.350006103515625
3.150822511751081 -99.920119301180364 -150.949996948242188
1.736577302951291 -100.175458397924686 -152.149993896484375
57.683611046263202 -44.244971194182988 -152.550003051757813
60.846785300247987 -42.016757949147042 -153.750000000000000
130.776544457745473 27.604011307293948 -153.750000000000000
2.471870741532869 -100.598530619071283 -154.149993896484375
5.872431307630593 -97.200676932832579 -154.149993896484375
130.709927882773599 28.304498278864365 -154.149993896484375
14.884980005795434 -88.195302312610252 -154.550003051757813
25.453786134294635 -77.634909058367228 -155.350006103515625
66.410858300303062 -36.710439127071432 -155.350006103515625
17.030489295400635 -86.051500869629308 -155.750000000000000
66.008709051525344 -37.112268261067861 -156.949996948242188
60.636574481883514 -41.806379667588764 -157.350006103515625
6.785880303002267 -96.287955051899758 -157.750000000000000
62.028182616401807 -40.502247947411348 -157.750000000000000
131.778201108995347 28.604870629938095 -157.750000000000000
130.718766433126319 28.295652687333259 -158.149993896484375
59.552375746760234 -43.563462260637245 -158.550003051757813
61.984998289846239 -40.459029218319770 -158.949996948242188
1.942533058212341 -101.127446944358113 -159.350006103515625
25.335226064279183 -77.753374753393800 -159.750000000000000
19.072223443605061 -84.011391962009725 -160.149993896484375
67.199100888886520 -35.922823987388107 -160.149993896484375
128.033288518710833 24.862939027131180 -160.949996948242188
18.003218325780033 -85.079546141183201 -161.350006103515625
133.547384178546736 30.372645412260116 -161.350006103515625
51.713438792066469 -50.406176678774457 -162.149993896484375
130.040153010489092 26.868206034916145 -162.550003051757813
3.550498610852686 -99.520761348208424 -162.949996948242188
28.684639790266910 -74.406627193874272 -162.949996948242188
7.377452766549396 -95.033147709119362 -163.350006103515625
131.025737537627975 27.988437036133355 -163.350006103515625
20.786123946593936 -81.483314513959769 -164.550003051757813
51.220299866256070 -51.261104212435612 -164.949996948242188
52.208429967707808 -50.901562186181508 -165.611999511718750
4.797579720434880 -97.845062082100554 -165.750000000000000
5.718377313711835 -96.069744752274147 -165.750000000000000
28.022383466907439 -75.068356354647349 -166.149993896484375
71.578896501587408 -31.546514735332817 -166.949996948242188
127.294776072386895 24.125014444022060 -166.949996948242188
129.512052876902203 26.805340338113762 -167.750000000000000
8.005577750022994 -94.313351547579913 -168.149993896484375
30.805672588724185 -72.287282758512092 -168.149993896484375
130.444778107415004 27.272509046261153 -168.149993896484375
7.333416401582764 -94.989076262845415 -169.350006103515625
21.357017068923966 -81.728417055024508 -169.750000000000000
23.179956401102295 -79.906928800592496 -169.750000000000000
128.957653540898491 26.011905513546793 -170.550003051757813
8.982871309938481 -93.943002125544737 -171.350006103515625
32.293452241911169 -70.800687392650559 -171.750000000000000
132.041350710865515 28.867810762121284 -172.149993896484375
129.113470707958015 25.942261380667365 -174.949996948242188
-54.171473296043970 -156.145736961882363 -175.350006103515625
-50.670848378400677 -152.906314358614964 -175.750000000000000
125.364316119538373 22.196091156397831 -177.750000000000000
127.680301383816413 24.510232873488935 -177.750000000000000
34.936254858695378 -68.159988472899727 -178.149993896484375
63.670295436420346 -39.448820475796737 -179.300994873046875
61.966267650247985 -41.151491838990019 -179.350006103515625
127.725576348645248 24.555471798997761 -180.550003051757813
26.331653076606774 -76.757740906827621 -181.750000000000000
27.982273377670605 -75.108434515856260 -181.750000000000000
69.100773541413560 -34.022665085109452 -181.750000000000000
127.722041350199319 24.551939614445576 -182.136993408203125
-49.744512701079913 -152.485101382339650 -182.149993896484375
70.079232777289079 -33.044984712467496 -184.949996948242188
68.507699296418551 -34.615267237136997 -186.149993896484375
38.119855569792371 -64.978921939470368 -186.550003051757813
30.283330020891547 -72.109728920413048 -186.949996948242188
-52.971093456880588 -155.997361669377028 -187.623001098632813
60.511382371912795 -42.605219014247623 -187.350006103515625
128.718749003624907 25.547853878716655 -187.350006103515625
-51.887171070887227 -154.385595916684252 -188.550003051757813
125.013449983711524 21.845504313486888 -188.550003051757813
31.861379636059500 -71.232416064432641 -190.550003051757813
124.980375658715474 21.902653777892311 -190.949996948242188
-54.009327150830075 -156.308012279855063 -192.149993896484375
-51.622818064883155 -154.650159517932764 -192.600006103515625
67.197050050093466 -35.924873193693188 -192.550003051757813
121.028024786005020 19.115327788369878 -192.949996948242188
126.769189265279991 23.599846009214264 -193.750000000000000
33.848361785433504 -69.247015572510634 -195.750000000000000
-41.979539758857797 -144.074057646993253 -196.149993896484375
-38.387876717565781 -140.927159692179117 -196.149993896484375
-36.520528656363844 -138.749732318980080 -196.149993896484375
67.515445471187618 -35.606731218504734 -196.949996948242188
-52.296961157826068 -155.323765986303073 -197.404006958007813
58.420293169070199 -44.694643689393523 -197.350006103515625
-47.741523360425909 -150.443423346408366 -198.149993896484375
40.406204864274692 -62.694392601649781 -198.149993896484375
-43.221019713546077 -145.529565107412935 -198.550003051757813
122.268546931080593 19.222104002116069 -198.550003051757813
-47.709547800521243 -150.740004255422917 -200.550003051757813
