-146.805145263672 -71.212959289551 -190.867080688477 2.223385095596
-96.744750976563 -67.128356933594 -105.513580322266 2.922641277313
105.745262145996 -76.410346984863 -190.307983398438 1.755990386009
-36.267910003662 -61.992870330811 -77.738891601563 2.464246988297
105.336723327637 -69.665657043457 -103.940544128418 0.457612216473
11.164228439331 -71.032722473145 -214.268081665039 0.614486217499
-147.628738403320 -68.958030700684 -198.206451416016 2.032862901688
57.327182769775 -58.966934204102 -90.049697875977 2.171699047089
-158.256439208984 -70.363838195801 -193.782318115234 1.738600730896
88.687637329102 -74.358146667480 -79.615524291992 2.416618347168
-108.331924438477 -73.202186584473 -222.629287719727 2.558460950851
42.992393493652 -71.036094665527 -115.871734619141 0.905118763447
-127.651145935059 -71.879669189453 -265.771820068359 2.075733423233
-70.034072875977 -74.571342468262 -246.441589355469 1.407576680183
23.125671386719 -79.209541320801 -166.459457397461 1.516036868095
2.376362085342 -85.520698547363 -249.187957763672 4.249918460846
18.356769561768 -71.710693359375 -158.603897094727 1.473801612854
27.542329788208 -76.887252807617 -155.465576171875 1.776424050331
-149.449020385742 -77.862220764160 -225.658187866211 2.250708818436
80.022880554199 -74.502189636230 -229.434127807617 1.069509387016
-6.812179088593 -76.443847656250 -170.478439331055 0.602269470692
-73.517982482910 -68.760414123535 -50.875919342041 1.674687743187
-65.957481384277 -60.114646911621 -41.634460449219 2.006679534912
-155.832489013672 -84.052711486816 -275.755767822266 4.332917690277
-98.524429321289 -62.249897003174 -145.255386352539 3.448533535004
0.220541998744 -71.208602905273 -233.707229614258 1.410380840302
102.672424316406 -75.567871093750 -177.208221435547 3.529671907425
8.301413536072 -84.547576904297 -237.685256958008 3.840611219406
-30.634895324707 -67.711410522461 -182.851684570313 1.826210856438
1.840234994888 -75.000411987305 -157.389556884766 2.985419511795
-91.136383056641 -72.988555908203 -89.903495788574 4.238987445831
-61.340244293213 -69.040367126465 -137.752304077148 2.127994060516
34.300800323486 -79.578239440918 -151.212661743164 2.506226301193
28.259689331055 -71.988525390625 -254.544952392578 2.856878995895
-149.228424072266 -73.667778015137 -309.110443115234 4.039278030396
86.798110961914 -74.754379272461 -212.245971679688 1.219760894775
44.015304565430 -71.156074523926 -107.178314208984 1.791302442551
99.678291320801 -53.939743041992 -70.541297912598 2.132915019989
18.242515563965 -76.565376281738 -210.132827758789 1.609909892082
-139.817657470703 -76.356338500977 -255.599105834961 2.660716295242
-92.757865905762 -73.440208435059 -219.953460693359 1.754386663437
-95.916679382324 -70.223396301270 -91.483802795410 1.851677060127
-114.804847717285 -70.624374389648 -227.526702880859 0.824784696102
-164.453994750977 -67.221458435059 -196.035522460938 2.791746377945
15.749862670898 -83.585601806641 -248.948318481445 1.444353461266
-22.480550765991 -77.688949584961 -291.503814697266 1.068765044212
107.700401306152 -76.612098693848 -152.807403564453 3.003575801849
96.343040466309 -65.055000305176 -75.444320678711 5.874662399292
24.089227676392 -78.393562316895 -181.757278442383 1.878154277802
-56.356670379639 -71.537086486816 -131.492233276367 1.740795254707
-17.664398193359 -60.829044342041 -67.458602905273 3.607751607895
105.214126586914 -57.780288696289 -92.077430725098 2.809387683868
-62.453872680664 -57.618152618408 -116.183914184570 1.384219408035
25.106552124023 -61.970188140869 -34.268989562988 2.225487947464
-26.773693084717 -76.178665161133 -191.825073242188 2.061047554016
-98.626235961914 -65.627990722656 -73.876983642578 2.697376966476
20.671045303345 -70.192733764648 -152.800109863281 2.661840200424
-46.587970733643 -76.698661804199 -192.178039550781 2.141455411911
111.475517272949 -76.020362854004 -149.426055908203 1.772065997124
-129.971832275391 -69.400856018066 -233.992095947266 1.895433068275
-95.528602600098 -67.397338867188 -150.018798828125 2.177788257599
9.465815544128 -74.717384338379 -241.198974609375 2.339027881622
15.872603416443 -87.116615295410 -248.653945922852 3.641520977020
-44.531642913818 -81.649261474609 -73.395973205566 2.205083370209
-29.827617645264 -81.800827026367 -189.534393310547 1.802446126938
-83.701362609863 -61.228065490723 -119.935714721680 1.035800933838
-148.594848632813 -64.726531982422 -247.608001708984 2.283753395081
6.182795047760 -78.705673217773 -292.021789550781 1.608759522438
-67.218444824219 -76.043388366699 -161.445968627930 1.648395061493
-140.063522338867 -88.621681213379 -258.275543212891 3.835950851440
-147.842422485352 -63.109745025635 -186.706420898438 1.710469722748
-124.388610839844 -75.826721191406 -264.076904296875 1.096307873726
0.229250997305 -79.552742004395 -243.782119750977 3.831217288971
22.379713058472 -63.124351501465 -275.360687255859 1.412387371063
-68.221427917480 -70.235542297363 -156.838973999023 1.497020006180
108.116516113281 -74.470687866211 -154.929275512695 3.298769950867
17.055755615234 -79.224517822266 -237.994628906250 2.123360872269
15.111241340637 -72.507255554199 -286.162048339844 1.647910118103
-106.452560424805 -61.974117279053 -170.683837890625 2.353500127792
-162.254577636719 -73.119430541992 -211.573638916016 1.920463919640
26.797998428345 -69.197387695313 -154.760864257813 1.846314430237
-72.632255554199 -73.753082275391 -100.986503601074 1.456880927086
-150.427536010742 -86.477027893066 -296.039184570313 1.011794090271
106.969757080078 -73.058227539063 -181.445922851563 0.976920306683
-73.935531616211 -79.642303466797 -286.200836181641 4.249920368195
111.436424255371 -74.869773864746 -134.262420654297 0.983773291111
-95.799690246582 -65.466072082520 -141.411819458008 1.188247084618
-49.681282043457 -77.953910827637 -193.856567382813 1.655741572380
-23.394138336182 -72.753723144531 -74.251068115234 2.211208105087
41.347434997559 -67.779335021973 -251.021789550781 1.781928300858
23.431730270386 -62.951568603516 -24.667203903198 2.330392837524
-45.534156799316 -70.407402038574 -147.882125854492 0.894169092178
22.589754104614 -76.015525817871 -159.085876464844 2.036610603333
-149.122665405273 -64.143493652344 -233.990371704102 1.606243252754
43.477252960205 -76.142158508301 -120.024795532227 1.385423660278
-78.380271911621 -74.606277465820 -97.496047973633 3.497724533081
109.206260681152 -71.730194091797 -121.907150268555 1.217384815216
-100.438674926758 -77.365982055664 -218.713668823242 4.144722461700
-88.490821838379 -66.302490234375 -121.007995605469 3.303412914276
-70.471435546875 -71.847213745117 -147.528137207031 0.864654481411
93.889442443848 -65.469360351563 -70.600784301758 4.246965885162
37.008670806885 -58.089160919189 -37.246059417725 3.156048536301
-142.870223999023 -67.221641540527 -197.313079833984 2.343354463577
-146.530319213867 -66.456222534180 -194.812454223633 2.931271076202
-71.024223327637 -83.176597595215 -211.975036621094 1.763863205910
-166.339736938477 -71.216674804688 -204.951354980469 1.725808858871
-13.406072616577 -74.427200317383 -243.148345947266 2.766100168228
-168.227447509766 -70.970207214355 -225.984130859375 2.360054254532
-131.069091796875 -70.840141296387 -261.767608642578 2.948913574219
-58.958641052246 -61.312477111816 -133.974548339844 1.573810577393
19.267261505127 -72.867584228516 -205.562255859375 1.011479020119
-39.637947082520 -81.463249206543 -240.209533691406 2.631459236145
31.798355102539 -68.077682495117 -138.339385986328 2.726874828339
-73.795837402344 -58.258911132813 -99.828712463379 1.945237874985
-81.061103820801 -83.654869079590 -98.898109436035 2.058005809784
78.987388610840 -68.281257629395 -102.528282165527 2.616637468338
-154.428039550781 -79.922981262207 -272.502319335938 1.539921998978
-93.879203796387 -62.711666107178 -64.154144287109 2.026086330414
18.075286865234 -80.937515258789 -230.307983398438 1.394305944443
87.953056335449 -64.275131225586 -64.015594482422 2.038190364838
-141.735794067383 -76.582550048828 -199.162918090820 1.672570228577
44.912673950195 -72.727020263672 -118.219390869141 1.183094501495
-4.813408851624 -65.783004760742 -242.373153686523 1.633705496788
26.103944778442 -73.079399108887 -264.720947265625 1.690329194069
-15.219590187073 -67.004875183105 -66.193092346191 2.715880632401
-144.957656860352 -79.602706909180 -215.885879516602 1.988983392715
-94.883460998535 -70.523094177246 -110.757507324219 2.859775781631
-6.377589225769 -77.191070556641 -290.187438964844 1.820041298866
-169.681549072266 -72.453262329102 -220.174774169922 3.013040781021
34.235252380371 -71.057426452637 -116.958747863770 2.460806846619
11.828134536743 -75.236099243164 -245.652221679688 0.599934279919
34.723213195801 -66.537948608398 -259.494079589844 1.535630106926
-53.370052337646 -83.931167602539 -244.085525512695 3.344905138016
-16.958898544312 -79.317184448242 -209.587478637695 2.196663856506
-69.410232543945 -68.283309936523 -97.023979187012 2.943031311035
-41.485633850098 -76.544746398926 -155.313888549805 1.028353214264
-101.575057983398 -66.282127380371 -170.415100097656 0.970478117466
-31.965229034424 -69.939842224121 -172.819534301758 1.262122273445
42.010936737061 -74.252189636230 -253.161026000977 3.819433689117
-67.454635620117 -73.112648010254 -166.869262695313 2.062849998474
23.809017181396 -66.393043518066 -139.597595214844 1.794682025909
-145.457870483398 -85.653747558594 -257.631774902344 0.891740977764
-51.445453643799 -76.794860839844 -177.455856323242 1.939887523651
-24.692646026611 -75.443931579590 -220.794067382813 2.216499090195
-69.135688781738 -82.633781433105 -206.854385375977 2.262561559677
13.117242813110 -82.429206848145 -231.103439331055 0.999419927597
6.666325092316 -79.588088989258 -200.760940551758 3.218297481537
-149.896423339844 -75.784355163574 -230.356170654297 0.963121354580
28.892475128174 -71.889106750488 -156.462387084961 2.220584392548
34.099689483643 -66.844650268555 -130.361236572266 2.870574474335
-153.782196044922 -86.280197143555 -230.587661743164 3.166294813156
-10.248994827271 -74.168647766113 -281.763000488281 3.064060211182
70.946411132813 -73.180908203125 -233.524353027344 1.814460754395
-123.068748474121 -76.333335876465 -289.289947509766 1.737219810486
37.559375762939 -74.244537353516 -261.700958251953 5.555497646332
-107.219902038574 -69.234611511230 -189.369857788086 0.815244495869
-146.010406494141 -67.512435913086 -252.719055175781 1.410972237587
-60.985839843750 -62.008460998535 -122.436965942383 3.531930685043
-63.309234619141 -73.508926391602 -93.441383361816 0.428022027016
105.061370849609 -62.900367736816 -83.738296508789 1.664824485779
-145.081283569336 -75.788215637207 -183.708206176758 1.897867202759
-138.293716430664 -71.238433837891 -234.513839721680 2.599111795425
4.902009010315 -79.335868835449 -233.764999389648 2.403338432312
11.505167961121 -71.926361083984 -237.421859741211 0.766792058945
-11.266119956970 -72.771675109863 -202.705917358398 0.303143084049
-49.775348663330 -81.588249206543 -90.785697937012 2.302704811096
11.114414215088 -71.021102905273 -206.809097290039 0.887388527393
23.170703887939 -75.855720520020 -181.005554199219 1.374921798706
43.135093688965 -54.517303466797 -24.318546295166 3.008851289749
-25.328996658325 -72.998527526855 -222.070404052734 2.473809242249
19.613842010498 -70.344589233398 -160.402923583984 1.750562071800
10.198480606079 -83.533187866211 -222.485977172852 1.798303723335
-26.958948135376 -82.094779968262 -184.819564819336 1.522028446198
-94.282936096191 -61.553192138672 -142.410415649414 1.884806513786
108.919120788574 -68.657180786133 -166.786346435547 2.448847770691
-48.533069610596 -62.734676361084 -83.276420593262 1.009300827980
84.590522766113 -80.189331054688 -223.324813842773 3.391115188599
-95.542289733887 -62.612239837646 -67.612884521484 0.956989824772
-83.224472045898 -60.025459289551 -116.951873779297 1.311588168144
-5.559513092041 -77.956939697266 -216.624801635742 0.809716045856
-53.898242950439 -84.391029357910 -84.309288024902 2.134392499924
-78.937774658203 -75.356018066406 -103.785682678223 2.537721872330
23.352485656738 -62.656654357910 -145.034240722656 2.681608676910
-2.053587913513 -78.906517028809 -161.629501342773 3.000680208206
-152.073532104492 -74.508460998535 -206.630249023438 2.031931400299
58.436401367188 -70.965606689453 -242.840698242188 1.102595090866
-42.393947601318 -65.765403747559 -158.225524902344 2.436677217484
-38.529857635498 -67.236564636230 -175.560348510742 3.218368530273
5.232088088989 -75.158187866211 -226.402832031250 1.720361351967
26.441751480103 -81.581443786621 -157.770156860352 3.025701761246
110.826095581055 -74.179443359375 -131.709350585938 2.041656494141
19.704370498657 -76.781906127930 -196.933258056641 1.886586546898
33.585102081299 -75.402404785156 -251.885437011719 5.224836826324
-56.881519317627 -67.323913574219 -88.053352355957 2.379550218582
-59.040157318115 -84.319381713867 -203.004928588867 2.245065689087
-102.090789794922 -69.591148376465 -221.977737426758 1.914529561996
8.992749214172 -73.818992614746 -200.983306884766 1.086359977722
52.714630126953 -73.833709716797 -100.798294067383 2.901437520981
-40.107166290283 -67.221641540527 -53.548572540283 5.937922477722
-15.978083610535 -67.865333557129 -65.352027893066 3.569791078568
-86.923255920410 -74.882644653320 -215.227722167969 1.792463183403
45.298942565918 -61.955909729004 -25.577985763550 2.472003936768
-159.571014404297 -71.772888183594 -294.123870849609 1.437721967697
-43.733898162842 -77.275779724121 -167.251983642578 2.797148704529
-1.597481012344 -70.287445068359 -290.100677490234 2.007334232330
-119.273765563965 -72.166961669922 -203.138275146484 2.362633943558
-155.369781494141 -70.511444091797 -176.513183593750 2.856007337570
-0.304471999407 -75.249984741211 -238.987594604492 1.760036110878
64.971153259277 -60.157901763916 -92.306365966797 1.882272481918
15.788414955139 -83.038581848145 -258.038696289063 1.686396598816
-97.346817016602 -62.748394012451 -112.103553771973 2.569344282150
94.596176147461 -77.121612548828 -212.060623168945 2.047230958939
-75.848129272461 -69.920036315918 -142.782333374023 1.779277801514
-59.156581878662 -78.526893615723 -176.644348144531 1.934275507927
-40.150585174561 -60.743408203125 -48.324295043945 3.146210670471
-47.487369537354 -80.916870117188 -153.247268676758 2.131374359131
-50.645790100098 -76.478927612305 -188.027908325195 2.042677402496
22.320497512817 -69.237648010254 -142.573272705078 2.281504154205
43.150138854980 -65.729850769043 -35.251605987549 3.045946121216
13.246417999268 -79.669425964355 -208.139434814453 0.888677775860
-46.089958190918 -87.826782226563 -199.016036987305 2.067446708679
-146.430541992188 -84.765853881836 -220.334304809570 0.704523980618
82.018577575684 -57.653285980225 -57.743316650391 1.166191101074
-48.570137023926 -79.720336914063 -284.326080322266 3.005064010620
14.790653228760 -73.423912048340 -213.723953247070 2.749664306641
73.745094299316 -73.484077453613 -89.154373168945 1.165871858597
-132.713668823242 -74.575340270996 -255.352172851563 1.074808120728
-149.706344604492 -66.964714050293 -195.250671386719 1.891703367233
44.601348876953 -66.258659362793 -21.603141784668 2.822024822235
-138.641830444336 -67.523124694824 -256.207336425781 3.283276319504
-153.705718994141 -63.489116668701 -247.906051635742 4.575883388519
-159.902435302734 -74.539199829102 -262.777679443359 1.234338283539
-139.691497802734 -70.691398620605 -255.151504516602 0.749880313873
29.251516342163 -60.711681365967 -19.547500610352 1.558678507805
-147.995132446289 -73.613334655762 -187.441452026367 0.684354245663
95.870117187500 -72.956420898438 -206.928604125977 2.654624223709
-152.340209960938 -72.471145629883 -297.408477783203 1.570597171783
13.985938072205 -70.308952331543 -176.019104003906 3.284275531769
-8.786892890930 -68.157089233398 -215.835327148438 1.521190762520
-141.599090576172 -72.892425537109 -199.944213867188 1.072860002518
-61.190868377686 -73.525108337402 -138.116439819336 3.324089527130
-152.684356689453 -84.421089172363 -229.675842285156 2.100198745728
-100.812133789063 -59.988906860352 -81.816780090332 2.492633104324
104.414299011230 -76.236595153809 -163.796752929688 5.128648757935
-70.738380432129 -84.451660156250 -90.091094970703 1.987882494926
-135.213699340820 -76.883277893066 -253.598754882813 3.034599542618
-64.492271423340 -62.046497344971 -123.594245910645 1.827453494072
94.178405761719 -74.180465698242 -197.294113159180 2.791410446167
-70.108108520508 -70.709487915039 -146.448074340820 1.777373075485
-74.365104675293 -66.974151611328 -103.788787841797 2.376902103424
3.976943969727 -76.319900512695 -214.474563598633 3.214951276779
-76.881446838379 -61.980937957764 -113.076286315918 1.960987925529
-134.932815551758 -73.221328735352 -224.838882446289 1.925942301750
-147.243637084961 -83.485717773438 -299.433349609375 2.748750448227
-74.117095947266 -55.952587127686 -45.483184814453 2.608762979507
-54.003482818604 -59.595912933350 -125.772735595703 1.867679238319
38.782833099365 -61.854984283447 -13.415626525879 3.505856990814
-108.483283996582 -66.973556518555 -186.046600341797 1.347421884537
-128.667846679688 -62.304878234863 -198.720214843750 2.329893589020
-149.204284667969 -64.889465332031 -191.747085571289 2.448560237885
-51.733215332031 -75.686195373535 -89.043502807617 1.281524777412
-148.002517700195 -88.587501525879 -250.172073364258 3.334106445313
-63.318458557129 -58.326236724854 -130.695968627930 1.256180047989
-91.458717346191 -68.643325805664 -137.670394897461 2.131322383881
32.685234069824 -54.426212310791 -13.014884948730 3.084558486938
110.584327697754 -72.471580505371 -129.117950439453 1.695283770561
-33.155242919922 -77.884979248047 -210.623306274414 1.252541661263
47.247554779053 -71.064544677734 -108.804252624512 1.550444960594
113.198097229004 -71.599151611328 -131.726181030273 1.629969239235
-51.314373016357 -67.662712097168 -134.202026367188 1.859090447426
-149.993453979492 -78.211547851563 -215.386520385742 1.752662062645
-140.220397949219 -70.965476989746 -200.921463012695 1.368630886078
-89.879173278809 -70.332252502441 -82.213989257813 3.400784730911
-34.393775939941 -79.225791931152 -207.011062622070 1.183073043823
-24.937910079956 -60.573108673096 -71.828414916992 3.814074039459
85.916221618652 -74.437187194824 -86.861007690430 4.592631340027
-154.323577880859 -69.442626953125 -278.337188720703 2.107919454575
45.775802612305 -65.970520019531 -107.255256652832 3.213756084442
-35.431819915771 -62.195564270020 -46.950332641602 1.902236223221
37.501209259033 -75.511100769043 -120.492385864258 2.676081180573
104.986946105957 -61.137477874756 -77.575378417969 0.807289958000
-107.585952758789 -67.167724609375 -193.722488403320 1.799869775772
-145.004684448242 -85.362449645996 -236.074127197266 3.086436510086
-79.192077636719 -68.613502502441 -59.993209838867 4.453150749207
-73.153335571289 -71.892868041992 -60.563694000244 4.934877395630
112.962677001953 -76.075714111328 -140.900512695313 1.772259831429
77.894065856934 -72.254745483398 -97.428398132324 2.864153385162
104.859451293945 -69.665481567383 -121.730979919434 2.409000396729
-144.849395751953 -79.562149047852 -203.439895629883 2.174933195114
77.210075378418 -79.911369323730 -223.821228027344 4.336909770966
24.591369628906 -77.730354309082 -154.740600585938 0.977777361870
-26.764211654663 -72.944137573242 -181.296798706055 2.130620241165
-146.958740234375 -75.463806152344 -286.457733154297 0.507768154144
0.571536004543 -76.405456542969 -240.583450317383 2.243580341339
15.427554130554 -76.414344787598 -248.524475097656 1.443428516388
109.875839233398 -64.949890136719 -117.540428161621 4.067093372345
-166.943740844727 -80.540023803711 -268.704071044922 4.684195041656
-12.084761619568 -70.548728942871 -245.296554565430 0.946208298206
28.817079544067 -73.035667419434 -165.114196777344 2.291393041611
-36.570358276367 -78.028808593750 -205.892562866211 1.588933467865
-46.159812927246 -62.492149353027 -83.588226318359 2.433558464050
-163.375442504883 -67.186225891113 -208.326736450195 2.158375740051
-135.982086181641 -77.453605651855 -294.663360595703 1.399636030197
-164.641647338867 -67.511512756348 -206.718933105469 1.925048470497
-93.847396850586 -64.941635131836 -60.974655151367 3.084629535675
-46.157005310059 -78.416801452637 -240.809463500977 1.919555544853
-149.075912475586 -85.659286499023 -275.206420898438 2.299905538559
-169.360916137695 -76.369178771973 -245.682601928711 5.537784576416
-143.574935913086 -78.143577575684 -290.688995361328 1.064692139626
-119.511596679688 -72.056732177734 -227.967239379883 2.488791465759
101.502952575684 -62.149009704590 -70.767761230469 1.315533757210
83.180885314941 -70.560134887695 -228.259414672852 1.589640140533
38.420085906982 -75.144477844238 -111.721611022949 2.696283340454
-48.642040252686 -75.318428039551 -88.404502868652 1.617889165878
-111.861618041992 -70.304916381836 -224.786666870117 1.235704421997
-95.124649047852 -65.780563354492 -75.557273864746 2.110353946686
57.800189971924 -69.724197387695 -238.655303955078 2.516942024231
45.202186584473 -67.177207946777 -34.805007934570 2.630805015564
-5.337915897369 -67.363067626953 -258.282348632813 2.006217718124
-81.815879821777 -66.680801391602 -116.025512695313 2.613359212875
17.260175704956 -80.275833129883 -273.588775634766 0.643213570118
-13.373414993286 -80.072761535645 -275.470092773438 4.309457778931
33.989025115967 -67.852233886719 -125.708663940430 1.860261440277
-154.874221801758 -68.228981018066 -285.518829345703 1.725106477737
2.126405000687 -81.947959899902 -246.188888549805 2.737093210220
-128.316223144531 -73.903839111328 -235.700073242188 3.301223754883
-12.154396057129 -76.104118347168 -269.158050537109 1.747642040253
31.752099990845 -55.034713745117 -37.150081634521 2.466037511826
5.416831016541 -86.421669006348 -248.096450805664 5.335896015167
22.877202987671 -76.871871948242 -139.538070678711 1.828132510185
68.110618591309 -71.738998413086 -240.534149169922 0.781305193901
-57.885086059570 -76.204666137695 -281.812286376953 2.665472984314
69.183586120605 -70.696258544922 -232.260406494141 1.520023465157
-144.873672485352 -62.460155487061 -181.479431152344 1.953528881073
34.759532928467 -71.551223754883 -118.422325134277 2.187544584274
-147.698440551758 -73.318557739258 -247.073867797852 2.716133117676
97.833045959473 -63.543560028076 -72.009696960449 2.675433874130
17.323312759399 -84.010185241699 -241.751022338867 3.327248573303
-50.691329956055 -80.586273193359 -86.174995422363 2.071202516556
-142.916015625000 -71.112930297852 -290.085296630859 1.769204974174
-144.931716918945 -65.559051513672 -178.721099853516 3.087187767029
-97.836135864258 -69.458435058594 -217.396545410156 0.687519371510
-23.101366043091 -80.679214477539 -195.015960693359 1.221589326859
-71.137825012207 -85.229881286621 -206.717056274414 3.135360717773
13.604730606079 -84.433891296387 -253.337295532227 1.568016767502
-11.618905067444 -72.104797363281 -236.150329589844 1.561877965927
-101.921951293945 -58.366180419922 -75.535240173340 3.438930749893
-35.446769714355 -58.136112213135 -47.286907196045 2.844922304153
-7.828774929047 -69.809303283691 -256.981384277344 4.168808937073
-147.190933227539 -80.571166992188 -300.803131103516 2.360975980759
-33.823192596436 -77.231994628906 -183.946212768555 1.691051363945
-160.689086914063 -68.117362976074 -207.648147583008 1.640445709229
-17.282386779785 -74.385566711426 -228.516067504883 1.743387699127
-77.132713317871 -64.331718444824 -139.261718750000 2.233163356781
-35.645061492920 -73.354095458984 -173.845840454102 2.479061365128
-147.669998168945 -64.240074157715 -197.330963134766 2.574877977371
-1.746431946754 -77.348197937012 -220.269195556641 0.763142764568
-161.509094238281 -76.575843811035 -251.015121459961 2.228002786636
22.362924575806 -77.312141418457 -263.787414550781 2.273476123810
-6.182102203369 -80.717712402344 -217.310089111328 1.862978458405
2.244020938873 -86.396827697754 -272.344787597656 2.886817216873
12.496011734009 -82.470275878906 -288.504180908203 4.672816753387
12.341705322266 -86.911125183105 -258.783508300781 3.199991226196
-60.676612854004 -76.254219055176 -245.128128051758 1.451161384583
-1.300766944885 -74.137443542480 -235.661193847656 1.634665608406
95.141601562500 -76.559539794922 -205.033386230469 1.395107269287
-36.609504699707 -82.574989318848 -208.831359863281 4.102614402771
106.773208618164 -57.791809082031 -76.592498779297 2.831833600998
-139.526733398438 -68.077270507813 -203.050186157227 1.886803984642
-116.467720031738 -74.115783691406 -291.185150146484 1.648014307022
-13.679622650146 -78.978469848633 -219.733688354492 1.968940258026
50.879333496094 -63.255836486816 -98.063507080078 1.688839316368
-149.591598510742 -69.489875793457 -277.986724853516 3.638935565948
-57.495777130127 -69.829132080078 -145.419845581055 2.153585672379
-44.966194152832 -80.535469055176 -284.886352539063 3.890188455582
-17.287490844727 -81.425025939941 -175.476699829102 1.096215367317
-18.687210083008 -74.851409912109 -225.044967651367 2.494646072388
35.978816986084 -71.811149597168 -131.724594116211 0.669411540031
102.607185363770 -74.458396911621 -178.713851928711 3.875013589859
8.453255653381 -75.477531433105 -193.697891235352 2.712014913559
115.126014709473 -71.182540893555 -138.993515014648 2.155396699905
100.877601623535 -68.512092590332 -104.725135803223 3.070559978485
-85.939453125000 -83.022949218750 -106.316719055176 1.883628129959
74.256507873535 -67.673797607422 -68.438293457031 2.885487794876
95.346740722656 -68.371681213379 -75.674674987793 3.997258186340
98.924446105957 -72.064140319824 -92.928245544434 2.117028236389
70.581718444824 -65.793075561523 -70.450485229492 1.784626364708
-29.102930068970 -69.623329162598 -184.038314819336 1.229663729668
-58.839614868164 -60.408641815186 -119.367240905762 1.434869766235
-2.628209114075 -79.696586608887 -245.453338623047 3.236516237259
-145.522460937500 -64.251441955566 -227.359375000000 2.096276760101
-155.704391479492 -76.117744445801 -220.566818237305 3.563102006912
24.694011688232 -79.105285644531 -138.687515258789 1.365150570869
55.349040985107 -71.482994079590 -88.962478637695 2.502940177917
36.996582031250 -64.562263488770 -114.636779785156 4.630739212036
-7.612154006958 -71.651062011719 -285.329345703125 1.847241520882
-33.559028625488 -77.491760253906 -208.847427368164 1.515153408051
-19.945529937744 -80.986770629883 -177.652130126953 2.342513799667
96.824615478516 -69.030586242676 -71.734573364258 1.506919026375
16.768438339233 -67.867691040039 -181.404266357422 2.786271810532
8.416791915894 -77.939712524414 -213.782867431641 1.468307137489
93.199668884277 -74.029121398926 -208.228073120117 0.837030827999
-47.566432952881 -61.390338897705 -48.519794464111 4.392030715942
-24.043781280518 -80.056556701660 -243.883407592773 1.971944212914
80.472259521484 -73.531486511230 -75.380355834961 1.834475040436
92.889091491699 -68.642463684082 -95.415466308594 6.032199859619
94.287681579590 -69.503669738770 -93.223426818848 4.304243087769
-44.339450836182 -71.875564575195 -162.582321166992 0.493441224098
69.888710021973 -60.549751281738 -68.816184997559 3.460239410400
-18.451951980591 -69.887313842773 -249.849212646484 2.529628753662
43.135913848877 -55.209442138672 -16.304294586182 2.245983362198
-53.200756072998 -71.914115905762 -54.809772491455 4.154878616333
-15.190168380737 -59.696556091309 -65.148986816406 1.963551998138
72.467620849609 -68.534439086914 -77.985237121582 4.427307605743
12.060555458069 -75.689643859863 -197.981674194336 1.575818419456
21.249383926392 -70.601898193359 -274.413085937500 2.256473779678
4.226671218872 -76.780609130859 -205.214706420898 3.073332786560
-12.166991233826 -71.669731140137 -269.930603027344 1.735899448395
3.270406961441 -73.286415100098 -158.977096557617 1.022646784782
-97.512786865234 -62.912940979004 -101.482971191406 2.309123992920
-143.382888793945 -65.122116088867 -185.931381225586 1.691322684288
-63.346145629883 -63.134895324707 -123.715782165527 1.588628649712
-148.507461547852 -82.418701171875 -227.401245117188 0.862178504467
45.077930450439 -71.862823486328 -114.050300598145 1.766165018082
-68.525421142578 -58.035243988037 -114.310920715332 2.482629060745
39.917724609375 -60.127899169922 -12.236371994019 3.707452297211
-40.617946624756 -73.393318176270 -168.102706909180 1.911774277687
-159.907226562500 -70.198440551758 -208.322601318359 2.874814987183
4.037357807159 -74.664619445801 -223.574249267578 1.732808709145
-107.763290405273 -69.373519897461 -219.322967529297 3.760757923126
-55.656578063965 -82.996292114258 -204.874801635742 1.678973197937
-56.828845977783 -75.549835205078 -65.948249816895 4.086936950684
-162.035522460938 -75.412467956543 -253.358612060547 1.126972675323
-16.793119430542 -76.231079101563 -235.443450927734 3.357372522354
-5.168971061707 -81.495498657227 -289.275756835938 3.633686065674
19.100225448608 -69.656616210938 -186.663787841797 2.252736568451
-89.708068847656 -66.028327941895 -141.225860595703 2.078695535660
-147.049896240234 -79.831008911133 -303.954254150391 3.073570489883
-150.277770996094 -80.360092163086 -187.149490356445 1.201296448708
-11.753784179688 -76.210021972656 -203.319152832031 1.591393828392
-67.729331970215 -73.102775573730 -163.797607421875 1.216104745865
-34.195068359375 -78.089935302734 -208.526229858398 2.000787258148
-71.545005798340 -57.380905151367 -102.345939636230 1.767629027367
39.643325805664 -78.420036315918 -124.422531127930 1.875797867775
-89.802742004395 -73.570701599121 -255.629669189453 1.728023648262
14.889592170715 -65.093666076660 -238.023910522461 3.452166318893
-16.978311538696 -76.221946716309 -259.264221191406 2.251125574112
-148.753280639648 -74.016128540039 -181.617813110352 1.115871906281
-4.193221092224 -71.599365234375 -165.633499145508 3.152069091797
-155.128326416016 -70.651351928711 -273.505432128906 1.990303516388
-4.121734142303 -69.088523864746 -223.381439208984 2.739755153656
-86.547409057617 -79.506690979004 -288.823486328125 5.077507972717
-83.496353149414 -60.554920196533 -117.697441101074 1.409150958061
-98.951622009277 -67.395462036133 -91.926475524902 3.266702651978
-68.321090698242 -78.708206176758 -209.473770141602 1.990510225296
19.199777603149 -67.004486083984 -156.763244628906 4.025958538055
13.085891723633 -81.326606750488 -246.222335815430 1.043166875839
-88.841072082520 -79.099884033203 -289.387054443359 5.236115932465
-40.979354858398 -54.764911651611 -47.616039276123 0.899370074272
13.910372734070 -68.272232055664 -183.508895874023 2.467601537704
-12.687653541565 -71.834022521973 -239.686340332031 1.674353837967
-60.422542572021 -53.187126159668 -43.693584442139 2.842247247696
-17.664791107178 -73.677246093750 -197.948333740234 2.179098844528
-93.835205078125 -61.524009704590 -69.208549499512 3.240909576416
-113.945877075195 -73.930763244629 -285.972991943359 1.857367157936
72.834587097168 -77.527992248535 -231.999191284180 3.546739816666
-37.750251770020 -74.609107971191 -80.138763427734 1.326949238777
-69.481140136719 -75.198379516602 -252.374618530273 0.678439557552
11.081675529480 -63.609134674072 -149.380310058594 2.316181898117
45.049160003662 -64.534645080566 -98.576690673828 2.630366325378
-79.851341247559 -73.635017395020 -210.489364624023 0.426448106766
15.081277847290 -81.470520019531 -212.212814331055 1.813104867935
49.834426879883 -64.687271118164 -95.129669189453 1.454761147499
-33.623298645020 -76.294738769531 -164.315505981445 2.149492979050
-9.586628913879 -80.934120178223 -287.593078613281 4.380558490753
-150.343292236328 -71.687393188477 -302.416961669922 3.118411779404
-23.884654998779 -58.640975952148 -65.937095642090 2.813864707947
-149.612716674805 -64.205322265625 -195.987594604492 1.798455953598
63.668979644775 -60.421215057373 -82.936203002930 1.350684762001
-99.726882934570 -55.434684753418 -76.476501464844 2.911288022995
-142.782424926758 -79.809852600098 -190.792785644531 3.170989751816
-19.251859664917 -74.959762573242 -202.567199707031 2.715333938599
-111.405181884766 -66.750770568848 -196.398834228516 1.202124834061
-152.788055419922 -66.546279907227 -185.415008544922 2.385704278946
90.916168212891 -72.729286193848 -98.119819641113 2.186071157455
-148.883529663086 -80.196266174316 -190.017776489258 2.175121068954
95.567153930664 -68.716728210449 -91.391960144043 5.138283252716
10.353731155396 -81.372718811035 -228.413528442383 1.714213609695
-117.372970581055 -64.277336120605 -201.927764892578 0.900635361671
-163.986267089844 -71.330787658691 -246.335662841797 2.606808900833
-65.539001464844 -65.063194274902 -120.231826782227 0.142657190561
-33.076259613037 -80.986640930176 -291.380187988281 2.733238697052
-142.667678833008 -82.026535034180 -197.871612548828 1.677549481392
-0.119732998312 -77.563659667969 -164.136611938477 1.577208638191
45.412357330322 -78.392219543457 -104.792190551758 1.275668263435
-158.111251831055 -69.669868469238 -205.379730224609 0.977347910404
-142.711105346680 -67.069679260254 -202.477935791016 1.524927616119
-151.593383789063 -80.120887756348 -216.334869384766 2.751638174057
118.684341430664 -69.516517639160 -143.875915527344 2.942643642426
31.815755844116 -73.391914367676 -259.901336669922 3.091404676437
64.036041259766 -66.841857910156 -85.787452697754 2.338567256927
-6.494196891785 -67.472343444824 -291.141723632813 1.779876708984
-144.759902954102 -62.966571807861 -186.250717163086 2.001710891724
-143.082443237305 -70.515731811523 -190.801162719727 2.796830177307
57.019374847412 -65.386413574219 -85.666297912598 2.367647171021
-67.853172302246 -62.278156280518 -120.880722045898 2.670121669769
36.823242187500 -79.271423339844 -123.237388610840 1.534521341324
-152.851226806641 -62.977958679199 -180.064956665039 1.525801539421
-53.567207336426 -70.923522949219 -145.780105590820 2.384603977203
-48.440155029297 -76.084854125977 -180.364822387695 2.939670324326
-45.505523681641 -74.365531921387 -146.296691894531 0.585730135441
-141.146896362305 -69.128639221191 -183.410797119141 1.482924222946
4.985054969788 -74.712425231934 -241.815521240234 1.798215031624
41.635295867920 -69.741767883301 -121.395843505859 0.924515128136
-149.179061889648 -69.260940551758 -274.931671142578 3.549860000610
103.648788452148 -57.268508911133 -89.196060180664 2.418897628784
-76.217735290527 -64.430099487305 -142.898605346680 2.862312078476
-153.091690063477 -75.206489562988 -278.876953125000 3.183727025986
-122.014198303223 -66.005523681641 -198.177124023438 1.707960844040
-127.270324707031 -70.666152954102 -203.705902099609 2.070090055466
-159.843750000000 -71.000617980957 -215.491012573242 3.249969482422
-150.446853637695 -84.546615600586 -258.032928466797 0.685954630375
-31.723110198975 -72.155258178711 -161.865158081055 1.782657742500
-149.153305053711 -72.778083801270 -195.011199951172 2.449115276337
88.331611633301 -70.439300537109 -68.468025207520 1.197221994400
54.041572570801 -63.542881011963 -89.948608398438 1.051461219788
65.077171325684 -63.236835479736 -70.786933898926 0.751326262951
-62.939502716064 -67.114883422852 -133.535446166992 1.420245170593
-69.025657653809 -59.868041992188 -106.927261352539 1.162225604057
-75.444847106934 -84.667091369629 -207.389465332031 3.801537275314
-61.603710174561 -78.200370788574 -286.813476562500 3.116521358490
-146.988571166992 -67.749610900879 -173.621154785156 1.338600754738
-152.839401245117 -65.663635253906 -260.768280029297 2.894036293030
-79.895690917969 -64.642105102539 -109.336891174316 1.896271944046
-14.088413238525 -63.149406433105 -65.384948730469 1.516961932182
76.110153198242 -71.886375427246 -89.434020996094 2.795465707779
-145.217346191406 -80.554206848145 -221.185607910156 2.992548465729
11.402275085449 -78.560035705566 -191.567565917969 3.148655414581
0.095556996763 -71.190475463867 -265.075897216797 5.795524597168
67.894699096680 -65.653533935547 -76.509895324707 3.271423578262
18.136598587036 -65.599044799805 -245.521484375000 1.981618165970
85.519607543945 -66.166442871094 -106.792396545410 1.951367855072
-145.745086669922 -86.539268493652 -219.124511718750 2.866507768631
-65.389282226563 -83.733337402344 -203.047821044922 3.284408807755
-95.194450378418 -68.034362792969 -86.492889404297 2.208292007446
-69.883392333984 -67.092720031738 -45.063980102539 1.626766204834
-73.709495544434 -67.128395080566 -138.468429565430 1.315594315529
-165.517410278320 -68.190391540527 -201.288909912109 1.341791272163
-92.967056274414 -63.560348510742 -67.745231628418 3.257300376892
-154.503295898438 -74.714057922363 -276.491546630859 3.573703289032
-64.107704162598 -68.219924926758 -131.050857543945 2.120087623596
-13.199869155884 -75.374015808105 -207.187683105469 2.120949268341
-66.989280700684 -73.456916809082 -147.124832153320 1.414246559143
-152.412277221680 -66.478065490723 -186.612716674805 1.777556538582
-166.642608642578 -71.654792785645 -246.059341430664 2.358162641525
-154.420471191406 -87.863754272461 -283.651062011719 4.480025768280
78.210487365723 -57.931385040283 -60.724147796631 3.271418809891
83.917686462402 -60.372531890869 -64.175498962402 2.775188684464
-25.077394485474 -79.388343811035 -237.630249023438 1.358273983002
34.135036468506 -57.721652984619 -40.111206054688 1.790794134140
58.188610076904 -64.360740661621 -96.996086120605 0.924184679985
29.461448669434 -73.787834167480 -130.941238403320 1.113541603088
-150.691375732422 -71.495361328125 -258.412475585938 1.755028605461
-56.302440643311 -67.252761840820 -87.560394287109 3.070027351379
-12.595911979675 -80.189949035645 -238.425186157227 5.177398204803
-155.135437011719 -75.530761718750 -240.003326416016 3.038445711136
-110.163223266602 -60.978076934814 -175.934555053711 2.903815507889
-85.752296447754 -69.472854614258 -112.282447814941 2.121192216873
-32.676368713379 -59.697128295898 -46.873512268066 1.717155814171
94.530357360840 -72.064567565918 -81.551040649414 3.700690746307
-151.772109985352 -85.535240173340 -264.377807617188 2.569381237030
-84.007713317871 -75.296188354492 -108.924186706543 2.305679798126
-59.273601531982 -83.006614685059 -245.912246704102 4.674866199493
-47.686164855957 -72.278823852539 -164.037185668945 1.184798002243
-102.556999206543 -68.975799560547 -219.447463989258 1.839139223099
-153.748092651367 -69.881958007813 -194.139694213867 1.825097560883
0.990226984024 -76.464118957520 -226.616912841797 2.154718160629
17.325113296509 -76.467193603516 -174.034011840820 2.400831699371
-149.829162597656 -64.332489013672 -175.024978637695 2.009101152420
-150.804580688477 -89.131408691406 -255.001266479492 3.502214193344
-44.535987854004 -87.886558532715 -195.745071411133 2.439614057541
-135.398529052734 -67.742080688477 -257.743865966797 0.954756855965
-7.533512115479 -72.360900878906 -232.831436157227 1.253074407578
-142.980209350586 -71.711265563965 -195.256759643555 2.144879102707
-29.196807861328 -79.438697814941 -184.196395874023 1.546216487885
-72.097755432129 -78.351539611816 -207.102615356445 1.092344880104
-134.553527832031 -63.992248535156 -202.326095581055 0.968776702881
-17.241319656372 -75.264717102051 -214.175079345703 1.749482274055
-24.580623626709 -73.124290466309 -221.025299072266 2.097351074219
-27.542854309082 -74.652137756348 -198.315292358398 1.776366472244
21.928148269653 -77.779090881348 -185.559844970703 2.052139759064
-157.844818115234 -78.487716674805 -257.449188232422 3.568535566330
-16.142633438110 -74.879028320313 -289.071228027344 2.760237216949
26.406188964844 -78.544349670410 -146.566497802734 0.912984669209
-138.273437500000 -78.960723876953 -227.088943481445 1.467296838760
-126.106910705566 -66.438903808594 -204.644790649414 2.172441482544
104.957443237305 -68.466667175293 -98.739326477051 1.042312860489
-18.945068359375 -74.669982910156 -210.414596557617 1.379202008247
-158.874359130859 -74.384170532227 -257.542053222656 2.060126543045
-43.900279998779 -67.828475952148 -147.341690063477 1.250865817070
39.995700836182 -74.664390563965 -127.740478515625 1.963783383369
-90.199584960938 -64.236312866211 -111.193862915039 3.847729444504
-157.624023437500 -65.846519470215 -195.046569824219 1.579988956451
2.290452957153 -70.352111816406 -235.152175903320 1.385091185570
-37.727714538574 -54.229049682617 -44.861713409424 3.182301044464
26.929515838623 -72.277252197266 -173.136032104492 1.664689302444
86.286109924316 -72.349174499512 -92.824356079102 4.249976634979
-5.330266952515 -78.970329284668 -165.858917236328 1.875456929207
-151.125900268555 -70.803977966309 -284.492736816406 3.134629249573
12.563105583191 -76.277015686035 -202.203536987305 2.449626922607
-151.353485107422 -80.159690856934 -311.833343505859 1.809892773628
13.432628631592 -65.712417602539 -153.042083740234 1.974082231522
-103.313728332520 -75.366020202637 -290.230529785156 2.105499505997
20.427156448364 -73.896064758301 -191.616210937500 2.642348527908
8.277333259583 -71.015380859375 -161.058990478516 0.536836028099
20.106367111206 -58.853084564209 -28.963844299316 2.910183191299
-43.658031463623 -70.365638732910 -138.258499145508 2.531473159790
-6.154304027557 -69.103469848633 -218.278198242188 0.548767566681
-169.996322631836 -74.936752319336 -276.486511230469 2.706824779510
-99.952690124512 -61.096660614014 -151.962432861328 4.103929042816
-36.730030059814 -78.709999084473 -240.641555786133 1.349693298340
-65.474830627441 -76.021644592285 -98.730178833008 1.072466492653
99.737014770508 -71.210350036621 -87.289093017578 1.960777521133
103.529075622559 -61.750095367432 -84.056632995605 2.578320980072
-148.898086547852 -73.702003479004 -310.269592285156 2.920476675034
3.023016929626 -88.847694396973 -272.264190673828 4.474479198456
-14.956732749939 -79.695442199707 -260.389862060547 2.695720434189
-147.266693115234 -76.399009704590 -185.934249877930 1.034642577171
-29.003511428833 -77.722930908203 -193.355392456055 1.669768691063
-64.101112365723 -77.645141601563 -175.167190551758 2.129960060120
-51.615756988525 -69.289489746094 -155.585784912109 2.550980329514
19.144973754883 -72.659957885742 -210.010360717773 0.577706992626
19.812601089478 -74.194007873535 -169.229843139648 2.174845695496
93.071998596191 -76.523353576660 -203.978912353516 0.634547948837
19.761470794678 -76.017753601074 -241.431503295898 1.752119302750
-60.428581237793 -77.302940368652 -290.991699218750 0.993268966675
-153.872619628906 -75.402755737305 -205.132934570313 2.483853578568
-15.609556198120 -65.464492797852 -206.404052734375 2.200636863708
-134.981506347656 -73.854072570801 -253.470291137695 2.183188199997
88.722091674805 -78.587348937988 -206.394348144531 5.113338470459
55.328063964844 -69.863555908203 -241.011795043945 1.488607764244
-92.789863586426 -55.044490814209 -54.601425170898 2.426542043686
-81.917121887207 -71.383094787598 -63.347560882568 3.537794351578
-37.138854980469 -71.510902404785 -170.192245483398 2.902690649033
-6.205787181854 -81.037185668945 -286.344451904297 4.619740009308
-169.166671752930 -68.804122924805 -204.774795532227 3.008495330811
-67.821968078613 -76.793823242188 -252.141311645508 2.162158489227
-84.893371582031 -61.958175659180 -57.789203643799 5.333621978760
24.288900375366 -65.790283203125 -158.371856689453 2.029097318649
14.545749664307 -76.232032775879 -209.666290283203 2.345668792725
12.655882835388 -85.043739318848 -215.590591430664 4.425116539001
-4.405107021332 -70.366523742676 -279.445587158203 3.666201591492
4.635737895966 -66.405570983887 -234.442199707031 1.359810471535
-165.542098999023 -70.300025939941 -255.469238281250 2.972744464874
-121.770645141602 -70.947227478027 -231.432617187500 1.515610575676
-27.228778839111 -70.982063293457 -179.014465332031 2.677029848099
-60.878185272217 -64.427505493164 -118.518745422363 1.421208620071
-21.772024154663 -81.304649353027 -222.915542602539 2.375136137009
-78.235198974609 -57.411739349365 -44.591732025146 1.786144852638
-17.917430877686 -83.023178100586 -191.689941406250 4.759736537933
34.915473937988 -59.137161254883 -38.111278533936 2.294106006622
-35.648002624512 -70.472007751465 -180.102416992188 1.665428280830
-14.098301887512 -76.096618652344 -248.037185668945 3.372947454453
-147.520584106445 -68.024749755859 -261.525665283203 1.744826793671
-130.304061889648 -75.723396301270 -229.277679443359 2.623383045197
-40.152278900146 -68.772598266602 -166.429550170898 2.259725570679
1.266558051109 -91.327049255371 -266.530914306641 5.168521404266
70.076110839844 -55.934829711914 -61.908622741699 1.786491990089
101.992774963379 -75.811683654785 -183.083862304688 1.983124852180
95.596450805664 -70.945777893066 -207.787048339844 1.752817273140
-149.063430786133 -80.885108947754 -187.885070800781 1.155400633812
89.498001098633 -71.705108642578 -77.054168701172 4.334411144257
-62.183952331543 -69.169227600098 -128.183334350586 2.172416925430
10.442932128906 -86.065147399902 -254.769699096680 1.814316391945
-153.474426269531 -67.169860839844 -180.427307128906 2.092781066895
107.862312316895 -71.448188781738 -179.515853881836 2.065799713135
41.328247070313 -60.479751586914 -30.013179779053 2.810346364975
-149.974273681641 -80.138023376465 -276.317596435547 2.024423837662
-21.045845031738 -75.201675415039 -221.744003295898 1.307993292809
-44.923679351807 -79.015289306641 -79.429512023926 3.793195724487
35.544326782227 -59.021289825439 -122.539665222168 1.875301241875
19.410346984863 -74.985664367676 -157.115890502930 1.499784827232
111.399597167969 -68.654907226563 -131.864440917969 0.492541015148
101.112571716309 -59.603488922119 -103.309295654297 1.778241753578
-74.571662902832 -79.217933654785 -82.334220886230 3.862823724747
-89.221031188965 -61.999908447266 -115.982009887695 2.053639650345
-147.651565551758 -70.618484497070 -265.095275878906 2.806772232056
-7.572687149048 -71.526077270508 -235.660461425781 1.640474200249
105.033119201660 -69.087547302246 -164.995193481445 4.372841358185
-26.500843048096 -72.820411682129 -191.836120605469 1.331933379173
104.156883239746 -64.785514831543 -88.521614074707 1.814790248871
-69.498840332031 -79.161529541016 -249.724029541016 2.106199741364
12.588660240173 -82.355339050293 -229.072082519531 2.169930934906
-164.826843261719 -66.594917297363 -211.882049560547 1.600770115852
-79.005996704102 -68.899864196777 -133.321014404297 1.599694252014
85.029556274414 -74.187133789063 -223.086105346680 1.361385345459
-52.116943359375 -77.268714904785 -192.659301757813 2.032804012299
116.692855834961 -74.746597290039 -124.273376464844 1.374588966370
-73.705802917480 -68.270118713379 -154.276901245117 2.550645112991
-64.189170837402 -77.866058349609 -179.039306640625 4.444908142090
23.860134124756 -65.445518493652 -163.991363525391 3.043137550354
-16.867652893066 -69.834243774414 -213.587829589844 1.011228442192
70.744628906250 -78.019683837891 -233.381637573242 2.878068208694
-140.922973632813 -65.740158081055 -222.937393188477 3.879414558411
-14.214276313782 -76.457160949707 -202.912704467773 1.232709169388
17.018913269043 -73.036445617676 -176.304824829102 1.307720899582
-155.331588745117 -76.233245849609 -201.813385009766 3.220559120178
13.952911376953 -84.602729797363 -245.496704101563 1.125736355782
34.716785430908 -58.947528839111 -122.031639099121 1.941061496735
-93.667976379395 -73.162361145020 -251.245681762695 1.713756799698
102.352355957031 -65.494453430176 -93.233810424805 2.576133012772
33.086120605469 -54.834293365479 -39.352428436279 2.730477094650
-124.896041870117 -65.847724914551 -200.220428466797 2.663630723953
3.926055908203 -70.882743835449 -290.263336181641 1.642224550247
18.178443908691 -70.197212219238 -185.147201538086 1.658596158028
-159.478073120117 -68.067253112793 -197.714782714844 2.553015947342
-92.293960571289 -65.632049560547 -64.852119445801 4.397890567780
-24.141389846802 -83.339309692383 -180.914154052734 2.623599529266
100.517723083496 -77.408882141113 -206.979034423828 2.041941881180
-145.929763793945 -75.199165344238 -266.011199951172 1.908088922501
