-139.804397583008 -74.918113708496 -200.708969116211 0.388186812401
-43.294235229492 -80.955566406250 -201.799774169922 2.297363281250
-51.027484893799 -70.347297668457 -131.699981689453 1.857392072678
40.111865997314 -75.579635620117 -120.804016113281 2.990460395813
29.988475799561 -76.165924072266 -122.600509643555 2.706075429916
4.947229862213 -63.828445434570 -239.811477661133 1.391533255577
-54.685379028320 -78.668090820313 -239.986099243164 2.754782438278
-161.973022460938 -68.807159423828 -204.910934448242 1.058469414711
-14.567898750305 -79.804740905762 -172.200820922852 1.218242406845
105.500221252441 -79.110488891602 -179.805343627930 2.550144433975
101.690032958984 -74.226013183594 -173.896621704102 4.360836982727
-9.881005287170 -73.915298461914 -204.013732910156 1.965929389000
16.326673507690 -77.443664550781 -167.580734252930 3.124071359634
-48.247692108154 -76.441184997559 -57.490135192871 1.094214558601
101.412094116211 -75.023880004883 -175.926208496094 4.284627914429
-68.811233520508 -79.311981201172 -285.276916503906 2.643126964569
-128.902557373047 -75.669448852539 -284.336181640625 1.892287731171
-80.319976806641 -63.051998138428 -104.173599243164 1.169574379921
-0.125857993960 -79.191604614258 -220.635894775391 1.601873993874
-105.453498840332 -63.122447967529 -78.870697021484 6.729674816132
-82.516677856445 -82.558662414551 -82.295913696289 2.358595848083
25.712850570679 -65.055534362793 -260.031738281250 0.818609178066
20.081920623779 -66.165695190430 -140.997131347656 0.652664780617
19.626693725586 -70.281623840332 -34.531005859375 2.151662349701
-161.673431396484 -72.433128356934 -260.962890625000 2.492480039597
66.486244201660 -68.404006958008 -74.797035217285 1.997341156006
-33.128940582275 -73.188064575195 -75.679199218750 3.614170789719
-24.469104766846 -82.429550170898 -188.597137451172 1.540751814842
38.565853118896 -81.677795410156 -121.257583618164 2.315016269684
-13.794734954834 -58.055984497070 -54.548370361328 2.950997829437
-53.792877197266 -76.366813659668 -85.900245666504 3.778933763504
24.510162353516 -67.759674072266 -264.384033203125 2.468883275986
20.582128524780 -72.164382934570 -150.118606567383 2.660429477692
23.927337646484 -73.524703979492 -135.942077636719 2.810045242310
-104.269401550293 -73.294982910156 -222.507431030273 1.931131839752
14.535179138184 -81.936759948730 -235.135284423828 1.585554242134
96.514305114746 -69.663124084473 -68.913612365723 1.589970946312
5.816188812256 -71.577194213867 -233.354553222656 1.217625856400
-9.901080131531 -67.606216430664 -209.160919189453 2.662901401520
97.843246459961 -71.753387451172 -196.288650512695 0.811878621578
-63.402565002441 -68.575019836426 -88.439010620117 3.410902261734
98.669822692871 -63.679515838623 -99.280754089355 2.018907546997
-159.442687988281 -72.712814331055 -228.126602172852 1.284280538559
15.856718063354 -69.778358459473 -25.667470932007 4.039838790894
10.580267906189 -67.649871826172 -285.676544189453 3.622224569321
-147.328201293945 -75.948699951172 -296.445800781250 1.179024219513
-146.379196166992 -74.467575073242 -227.121109008789 2.028261899948
-89.065254211426 -62.921592712402 -50.572959899902 2.823190450668
58.603191375732 -64.422164916992 -90.243553161621 3.468493461609
-113.313331604004 -75.106773376465 -286.679199218750 1.300315260887
-147.674972534180 -79.888877868652 -211.191757202148 0.735852003098
-73.534049987793 -83.420524597168 -209.197921752930 1.100061297417
21.408218383789 -76.518463134766 -138.579544067383 3.360815286636
35.929248809814 -67.798889160156 -20.725372314453 3.721338272095
-10.715812683105 -76.836982727051 -209.534713745117 1.731819152832
-32.114505767822 -81.490455627441 -179.052093505859 2.374591112137
-85.624526977539 -74.485565185547 -108.060127258301 2.917556524277
-160.674972534180 -71.621520996094 -285.768188476563 1.779177308083
-151.575027465820 -67.674552917480 -258.148834228516 2.241798162460
55.315155029297 -77.420730590820 -246.126678466797 4.750621318817
-42.526851654053 -77.082664489746 -244.341171264648 1.816752433777
-25.061769485474 -79.404502868652 -219.925033569336 1.760073900223
-59.150917053223 -75.751068115234 -140.289047241211 1.511972546577
-156.485519409180 -76.297653198242 -195.999816894531 3.104157209396
-150.346008300781 -70.259956359863 -294.888702392578 0.996253550053
-9.465114593506 -80.121269226074 -217.533248901367 0.635119020939
-51.661060333252 -84.145149230957 -200.241073608398 2.569454431534
-45.352752685547 -80.175033569336 -161.111877441406 3.322419643402
13.303607940674 -82.466796875000 -233.613891601563 1.428319692612
-154.155456542969 -65.692199707031 -215.027572631836 2.730089664459
34.415134429932 -79.314811706543 -131.918212890625 1.485391259193
59.640277862549 -72.898963928223 -237.513412475586 2.249392271042
-25.195697784424 -76.492721557617 -179.856353759766 1.395879030228
-168.282241821289 -74.345474243164 -240.108779907227 2.220913887024
6.281570911407 -75.916290283203 -241.907348632813 1.793832182884
-52.560363769531 -76.676170349121 -140.831405639648 1.328914761543
-156.561965942383 -69.946998596191 -177.864257812500 3.470037221909
-44.511737823486 -78.508872985840 -163.976745605469 1.390136241913
99.412857055664 -72.824394226074 -99.040420532227 1.207156658173
34.902347564697 -79.988800048828 -124.208610534668 1.641803503036
21.516693115234 -77.465156555176 -142.693084716797 4.275362491608
-37.465171813965 -69.943229675293 -176.376815795898 1.571973323822
58.195236206055 -70.370994567871 -233.678039550781 4.261970996857
65.598297119141 -75.773925781250 -76.898582458496 5.921258449554
-152.231689453125 -82.234954833984 -285.664703369141 1.907906293869
66.034614562988 -70.651451110840 -238.413345336914 1.295390129089
109.330017089844 -71.835334777832 -141.010848999023 1.381269216537
-54.095252990723 -79.813766479492 -195.997024536133 4.685303688049
58.276851654053 -75.034660339355 -241.912994384766 0.762491047382
25.664678573608 -59.909446716309 -12.150941848755 3.153285741806
-100.928398132324 -71.441825866699 -223.288070678711 1.873990654945
-63.215049743652 -62.238300323486 -135.459396362305 2.077342271805
-97.641326904297 -73.432510375977 -284.845184326172 2.439147233963
-63.440860748291 -82.161033630371 -75.484931945801 2.191572666168
-147.869338989258 -87.593399047852 -288.302459716797 3.033447980881
-62.626174926758 -76.145263671875 -53.843975067139 1.720376729965
23.805202484131 -74.892601013184 -180.705261230469 1.218152761459
-76.027687072754 -69.643760681152 -135.227249145508 0.381724923849
-58.366199493408 -82.105804443359 -205.053100585938 1.940328001976
13.867033004761 -70.514541625977 -236.983367919922 2.190960884094
-51.311897277832 -75.685104370117 -55.253925323486 2.661738157272
-66.350875854492 -81.956916809082 -83.325172424316 1.584404468536
45.745098114014 -64.387176513672 -25.291118621826 3.048846721649
6.089941024780 -77.062759399414 -207.779281616211 1.297425508499
-151.497039794922 -69.150276184082 -245.371734619141 1.905989646912
70.319419860840 -73.923263549805 -96.791198730469 0.699733018875
-152.787979125977 -81.217170715332 -188.610305786133 2.736456871033
-25.264720916748 -79.979560852051 -235.869720458984 2.505235671997
20.078708648682 -69.718330383301 -173.983459472656 1.498174428940
37.655620574951 -79.007545471191 -126.801925659180 1.999821305275
-105.404266357422 -71.023033142090 -290.701843261719 1.104088306427
1.999276995659 -77.337898254395 -239.605026245117 1.328884124756
-41.464286804199 -78.417678833008 -198.114639282227 1.442415475845
-80.921920776367 -60.668590545654 -123.143417358398 0.811221778393
-10.750721931458 -80.816764831543 -272.242797851563 2.762509584427
76.247497558594 -76.710998535156 -223.958786010742 2.935712575912
92.451179504395 -79.581260681152 -200.321304321289 5.024275779724
24.607543945313 -78.866905212402 -157.414031982422 2.503117322922
-39.115219116211 -84.596672058105 -193.002746582031 2.586887836456
-155.376571655273 -62.482452392578 -178.785568237305 3.037310123444
38.504268646240 -63.883003234863 -35.293621063232 1.509544134140
-153.106048583984 -71.087020874023 -189.406555175781 1.636283874512
42.321132659912 -62.615085601807 -33.385166168213 1.808616161346
1.006908059120 -87.534591674805 -261.408233642578 2.299022674561
-41.841609954834 -77.434478759766 -160.709060668945 1.430393338203
-68.608078002930 -81.961715698242 -208.823944091797 2.001900672913
20.173303604126 -71.446868896484 -18.282472610474 2.224243879318
-52.943408966064 -69.093032836914 -142.660614013672 2.149829387665
-40.087875366211 -76.426322937012 -205.922210693359 1.054636240005
-32.786392211914 -79.632255554199 -214.207138061523 2.464172363281
65.035598754883 -72.765708923340 -71.506858825684 6.313311576843
-154.865829467773 -74.370384216309 -269.120025634766 1.756002306938
57.422821044922 -66.337272644043 -83.938743591309 2.361368656158
-162.098129272461 -74.539566040039 -293.886657714844 2.612993240356
-48.798969268799 -70.692504882813 -53.404788970947 3.685690164566
-74.120269775391 -75.273582458496 -152.717880249023 1.957514762878
18.894685745239 -67.813713073730 -183.508651733398 2.491260528564
-57.414131164551 -64.177162170410 -141.532455444336 1.931376695633
-23.304155349731 -80.290725708008 -202.695922851563 2.745555877686
14.609137535095 -78.213882446289 -199.590667724609 2.232505083084
3.812547922134 -67.930778503418 -240.130157470703 1.349454998970
86.215873718262 -76.298179626465 -84.402641296387 1.934430360794
-37.783313751221 -77.034111022949 -284.675079345703 3.074000120163
-91.553085327148 -67.862678527832 -59.678237915039 1.739794254303
-153.394073486328 -68.372268676758 -245.375885009766 1.526945114136
-157.220596313477 -74.603584289551 -295.510406494141 2.983728647232
-130.588134765625 -75.737350463867 -254.118041992188 3.768496274948
25.865001678467 -67.028121948242 -34.007499694824 2.560169696808
-59.383720397949 -74.470283508301 -90.792610168457 4.750378608704
-57.881011962891 -62.588066101074 -77.382957458496 3.600385904312
14.420600891113 -83.220672607422 -189.780197143555 5.513208389282
-147.411972045898 -75.518104553223 -190.083786010742 2.683881759644
-80.240592956543 -80.511535644531 -78.994743347168 2.279175043106
72.923767089844 -77.915725708008 -230.447296142578 3.680022716522
-33.549705505371 -77.214752197266 -174.530303955078 2.014276504517
-98.587135314941 -61.612907409668 -79.998504638672 1.717616200447
-50.559959411621 -78.702819824219 -155.547607421875 2.556316614151
-154.222274780273 -81.862495422363 -193.036880493164 4.574081420898
-142.435028076172 -87.427055358887 -290.064880371094 1.936342835426
-152.662490844727 -83.185218811035 -232.017959594727 1.984608650208
-82.152862548828 -67.920639038086 -115.106773376465 2.282627344131
12.287631988525 -83.835891723633 -242.850265502930 1.765075325966
-47.448719024658 -80.292694091797 -159.103225708008 2.686127901077
45.684772491455 -62.747425079346 -93.498023986816 4.254845142365
17.542007446289 -70.189750671387 -182.469238281250 0.994094789028
-156.725051879883 -84.014961242676 -257.055358886719 3.154601573944
-2.255753040314 -69.171333312988 -264.708709716797 3.815902948380
-152.991546630859 -83.034286499023 -284.855041503906 0.811903119087
26.898351669312 -60.393814086914 -16.174552917480 2.670762538910
28.629951477051 -75.378997802734 -160.485794067383 2.243754148483
-48.149135589600 -73.990135192871 -147.852127075195 3.593871593475
84.498260498047 -66.677879333496 -57.476413726807 4.436324596405
-147.233474731445 -79.772354125977 -294.204986572266 1.959240078926
-150.786224365234 -75.228065490723 -259.467224121094 1.562788486481
-78.575790405273 -63.719142913818 -99.357803344727 3.795554161072
25.320625305176 -79.382453918457 -133.250976562500 4.608891963959
74.761199951172 -63.145687103271 -60.681438446045 1.398007512093
14.674323081970 -78.678833007813 -222.382125854492 1.771050095558
-33.848937988281 -75.836349487305 -168.424819946289 2.212436914444
-152.125335693359 -71.662422180176 -298.176971435547 1.547619342804
73.544227600098 -68.635131835938 -102.976310729980 1.734585523605
-148.359161376953 -83.137771606445 -292.993804931641 2.129235267639
-5.619960784912 -62.557106018066 -244.530227661133 2.151456117630
-46.399818420410 -79.334838867188 -153.472076416016 1.548448920250
-89.098709106445 -65.111717224121 -128.615020751953 2.116222143173
36.379905700684 -67.157669067383 -11.647294044495 3.375406980515
-133.922607421875 -71.367561340332 -293.676269531250 0.954785466194
29.964221954346 -69.007041931152 -15.949663162231 2.167702674866
22.007772445679 -62.980289459229 -21.561420440674 1.841668725014
-49.547840118408 -74.330032348633 -163.805130004883 2.570164918900
-81.333770751953 -57.870567321777 -107.959899902344 3.905693292618
-43.298957824707 -61.935173034668 -44.961238861084 0.686972856522
-29.888761520386 -81.946289062500 -209.094009399414 2.761597394943
-17.261127471924 -75.067008972168 -257.531585693359 4.044151306152
-69.951820373535 -56.708705902100 -42.482021331787 1.766632556915
-131.798980712891 -66.231895446777 -259.506011962891 2.459922790527
20.828231811523 -72.908126831055 -173.328002929688 2.648074150085
101.136383056641 -59.697414398193 -70.100791931152 2.068030118942
8.338853836060 -75.637260437012 -189.975463867188 3.490955829620
11.009864807129 -75.387008666992 -156.366561889648 1.790418505669
-99.730194091797 -68.700187683105 -64.580612182617 5.630674362183
-30.469011306763 -68.435203552246 -178.897247314453 1.873330712318
2.312515974045 -66.370368957520 -262.300720214844 2.480002880096
-61.123237609863 -65.072387695313 -40.483749389648 4.601950645447
15.099103927612 -76.995124816895 -188.340179443359 1.048800587654
108.794342041016 -74.281166076660 -139.255630493164 1.008690118790
-57.166954040527 -75.956840515137 -173.788269042969 1.697700381279
-142.708602905273 -79.168304443359 -260.028533935547 1.607618093491
87.161483764648 -76.848037719727 -210.188690185547 3.080917835236
36.719268798828 -73.502204895020 -255.325653076172 2.065388441086
-152.131225585938 -68.103462219238 -226.979049682617 2.319363832474
16.421037673950 -81.701423645020 -224.838195800781 2.368402957916
24.021749496460 -67.239738464355 -143.910903930664 1.511889100075
-8.593027114868 -76.038322448730 -208.518218994141 1.787907958031
54.617359161377 -57.538406372070 -81.816383361816 4.399717807770
28.674940109253 -74.172599792480 -156.701049804688 3.344644546509
-27.071464538574 -61.023147583008 -49.635543823242 1.961850762367
99.958404541016 -64.758872985840 -91.713638305664 3.962275028229
17.533359527588 -66.704032897949 -181.827728271484 2.494882345200
-87.376182556152 -75.664764404297 -70.848327636719 1.798417091370
23.879001617432 -77.815605163574 -183.487625122070 1.881240367889
-102.487991333008 -63.286514282227 -98.512062072754 3.874049186707
-20.909584045410 -68.259307861328 -204.325805664063 2.610179662704
-9.013433456421 -72.530067443848 -231.494979858398 1.064816951752
-56.990131378174 -58.373115539551 -43.101638793945 2.202036857605
-30.813030242920 -77.461776733398 -213.810180664063 1.302147984505
-164.964981079102 -68.733879089355 -231.384231567383 1.187106966972
-82.263092041016 -64.031242370605 -105.639823913574 1.660043835640
-150.870437622070 -68.983871459961 -297.420684814453 1.930321812630
1.220551967621 -81.484664916992 -244.427856445313 3.905146121979
-164.282150268555 -69.114707946777 -212.783477783203 2.755766868591
-0.377328991890 -77.878250122070 -218.793258666992 2.184602260590
-16.376482009888 -73.191864013672 -200.688232421875 2.830300331116
-100.665252685547 -64.916831970215 -114.314193725586 3.002669334412
-36.641567230225 -80.704490661621 -241.405212402344 1.222970247269
-76.062995910645 -71.084342956543 -249.166275024414 2.036750078201
-77.887084960938 -78.896286010742 -65.846672058105 2.385016441345
-82.358428955078 -70.791725158691 -55.167308807373 3.075280666351
-22.020008087158 -81.278800964355 -194.209869384766 1.449459791183
-56.582801818848 -64.258209228516 -141.262725830078 1.056388378143
18.959224700928 -69.373786926270 -163.791366577148 3.169175863266
55.229206085205 -72.741180419922 -245.222625732422 1.063802480698
-52.234657287598 -76.149948120117 -154.366836547852 2.354085922241
-97.879913330078 -68.154098510742 -116.769363403320 2.698703050613
-7.758012771606 -75.964073181152 -233.042739868164 0.818037629128
-6.144111156464 -70.131500244141 -236.440704345703 1.460815787315
37.001686096191 -64.678108215332 -14.254221916199 3.666609287262
-122.331741333008 -66.090759277344 -288.578277587891 2.559620857239
-156.795730590820 -65.778678894043 -204.798461914063 3.937177419662
-13.301166534424 -63.814876556396 -61.509670257568 4.032463073730
89.003097534180 -74.003097534180 -205.774551391602 4.313183784485
-146.083221435547 -73.820159912109 -264.960388183594 1.841971874237
-150.519226074219 -74.122306823730 -207.867095947266 2.184653997421
-21.325706481934 -69.932022094727 -70.408073425293 2.435045242310
-164.499435424805 -75.500144958496 -219.785995483398 2.623813629150
6.015347003937 -73.591255187988 -219.581420898438 2.055259704590
-77.900726318359 -62.746170043945 -45.163120269775 1.274442911148
-19.627395629883 -79.969139099121 -178.829589843750 2.177487611771
-15.288221359253 -64.184257507324 -64.447608947754 2.463740110397
-29.428033828735 -72.546104431152 -214.926788330078 2.023111104965
9.078618049622 -74.550231933594 -239.192947387695 1.593113064766
-145.621658325195 -83.676040649414 -262.221954345703 1.007935166359
-103.574829101563 -64.342987060547 -170.506637573242 0.648928642273
-152.887466430664 -85.647453308105 -257.043243408203 1.222151517868
-147.216217041016 -78.674537658691 -262.363555908203 2.846758365631
42.795391082764 -70.927253723145 -22.137237548828 0.963400840759
-74.616119384766 -68.721366882324 -139.992813110352 1.606302499771
-78.361076354980 -76.434379577637 -98.092674255371 3.336451530457
-17.466819763184 -79.713150024414 -206.248855590820 2.482811927795
-70.967170715332 -86.738906860352 -94.191123962402 1.744622826576
-80.941452026367 -65.278945922852 -122.817695617676 1.877155184746
-54.428844451904 -70.387954711914 -84.744537353516 5.159623146057
39.743144989014 -71.988716125488 -123.349754333496 0.547206342220
-87.361595153809 -68.455238342285 -127.784179687500 1.031639218330
-101.163490295410 -65.367706298828 -149.131668090820 2.785708427429
-152.083877563477 -79.846557617188 -182.715164184570 5.209846973419
-86.018981933594 -80.752029418945 -85.293197631836 2.095830202103
92.314186096191 -74.567550659180 -84.315567016602 3.037689924240
-27.597921371460 -68.195365905762 -51.251098632813 2.558026790619
88.178077697754 -61.239273071289 -57.905868530273 2.747538089752
7.916227817535 -79.908973693848 -205.630065917969 2.890572071075
-147.376815795898 -73.320449829102 -297.142913818359 1.777258276939
106.684089660645 -75.048568725586 -182.403396606445 0.444556593895
11.217243194580 -77.451873779297 -182.887557983398 4.555722713470
20.877708435059 -70.954826354980 -161.528594970703 0.788985133171
-19.320671081543 -75.235847473145 -261.327789306641 4.376888751984
28.832695007324 -64.484588623047 -256.213470458984 2.502675056458
-62.960205078125 -80.316268920898 -92.324165344238 3.228668928146
-15.050317764282 -67.043075561523 -244.919464111328 3.159633398056
-61.922298431396 -64.093276977539 -115.428428649902 2.029062509537
100.807807922363 -68.778503417969 -189.015380859375 3.651841402054
-169.627914428711 -69.509468078613 -252.094238281250 2.612420558929
-72.989143371582 -85.169731140137 -88.679466247559 0.878320693970
-28.842697143555 -68.838394165039 -184.602416992188 1.112596273422
-4.226807117462 -76.570854187012 -220.645675659180 0.689178764820
-82.342506408691 -84.527137756348 -101.637512207031 1.518010258675
-157.271133422852 -73.235771179199 -303.585174560547 1.700998902321
-144.803253173828 -71.331748962402 -238.654754638672 2.740120172501
9.967864990234 -71.577751159668 -215.842620849609 2.634346961975
68.941757202148 -71.744880676270 -86.510437011719 1.876431584358
-56.386547088623 -78.992042541504 -287.427856445313 2.173566579819
19.312192916870 -70.333427429199 -179.456420898438 1.990286231041
14.670716285706 -75.887550354004 -214.184524536133 2.672741651535
-70.229988098145 -74.665405273438 -96.618560791016 4.193673610687
-74.722526550293 -66.873367309570 -99.903015136719 0.450983881950
-151.652221679688 -81.653427124023 -237.798141479492 2.458425998688
16.849525451660 -72.897354125977 -194.590255737305 3.087647914886
-73.359802246094 -78.874290466309 -97.575042724609 4.325352668762
-10.997861862183 -84.674339294434 -214.767349243164 4.405401229858
-153.626724243164 -59.342613220215 -222.769317626953 3.670228242874
47.866722106934 -61.120700836182 -90.823577880859 4.385220527649
-150.782089233398 -72.927230834961 -201.027862548828 1.634992241859
20.892272949219 -75.764533996582 -252.871887207031 3.118184566498
-151.858627319336 -75.282920837402 -239.378295898438 1.594556570053
-76.471458435059 -81.016792297363 -83.624610900879 2.214448213577
108.329254150391 -72.529113769531 -142.319381713867 1.828946471214
13.923163414001 -75.328399658203 -234.904312133789 3.075206518173
41.022617340088 -77.678024291992 -111.957832336426 1.199829339981
31.108264923096 -69.173225402832 -143.567062377930 1.992036342621
13.417704582214 -75.371734619141 -175.090881347656 4.670012950897
-56.542201995850 -81.382041931152 -79.199256896973 2.519904375076
42.824386596680 -74.868316650391 -117.423622131348 2.038223266602
-56.778457641602 -60.670330047607 -81.126571655273 0.827232182026
42.757148742676 -72.233428955078 -98.171821594238 2.323869228363
-154.808959960938 -64.272293090820 -244.843063354492 4.488835334778
-79.752449035645 -85.805747985840 -93.250923156738 3.149565935135
-14.705637931824 -59.989021301270 -52.258487701416 0.879665970802
-43.017177581787 -76.401138305664 -169.931213378906 2.746411323547
38.066680908203 -77.090042114258 -117.728836059570 1.422178983688
-133.837539672852 -73.232696533203 -199.146041870117 1.561241745949
102.798377990723 -74.301666259766 -178.930175781250 3.752422332764
-88.133598327637 -67.238616943359 -129.066986083984 1.612903952599
-156.010833740234 -71.896995544434 -300.167144775391 1.312237620354
9.871702194214 -82.135040283203 -220.424697875977 1.967706322670
-94.364738464355 -68.063507080078 -135.161834716797 2.959378957748
-50.132232666016 -71.057929992676 -130.853118896484 2.505608081818
-124.547760009766 -67.963134765625 -200.782913208008 3.360666275024
-160.442840576172 -77.586433410645 -267.690032958984 4.324401378632
29.448740005493 -70.872886657715 -259.223876953125 2.695258855820
17.741022109985 -77.450607299805 -182.699386596680 1.619903564453
-155.911315917969 -71.589355468750 -275.992919921875 2.914979696274
-30.706954956055 -65.319007873535 -47.447944641113 2.006316184998
-12.265412330627 -72.269317626953 -220.368118286133 1.907527804375
9.653599739075 -79.577705383301 -213.932250976563 0.730279207230
-111.225990295410 -68.757064819336 -173.515945434570 1.921494722366
-145.251815795898 -70.005912780762 -190.211227416992 3.135253429413
-156.268676757813 -68.154182434082 -285.124969482422 2.728998899460
-13.706501007080 -68.842979431152 -232.114517211914 1.395051717758
-65.680755615234 -58.425960540771 -40.069507598877 3.840281248093
-156.734313964844 -84.024108886719 -281.657775878906 4.930245399475
-15.310086250305 -76.843376159668 -176.259979248047 1.607521772385
6.641492843628 -69.074951171875 -156.038070678711 0.821350097656
-148.479415893555 -71.550468444824 -239.149383544922 4.241483688354
58.050086975098 -76.268188476563 -243.083419799805 2.431177139282
-47.724826812744 -78.625228881836 -154.142120361328 0.428074538708
-65.366325378418 -79.858291625977 -162.228347778320 1.930451393127
-159.640625000000 -66.128494262695 -200.883575439453 1.381494164467
-48.471290588379 -77.499763488770 -195.692092895508 0.613791227341
34.847064971924 -61.878009796143 -32.965942382813 2.975349903107
4.570755004883 -87.562858581543 -267.244140625000 1.342120289803
110.350143432617 -78.467330932617 -150.576187133789 1.832463383675
52.594287872314 -72.883819580078 -85.496536254883 2.614300966263
-149.051559448242 -69.338478088379 -236.117309570313 2.582906246185
5.987254142761 -77.006462097168 -208.734909057617 1.354663014412
-144.447250366211 -78.140007019043 -192.825546264648 1.892102122307
7.972972869873 -73.106414794922 -288.006072998047 1.912812709808
5.606273174286 -63.119739532471 -270.926940917969 3.385378360748
-55.378570556641 -83.913635253906 -78.528053283691 0.985549747944
-42.994953155518 -77.815803527832 -243.484252929688 1.571861863136
77.740974426270 -71.529479980469 -228.477539062500 1.304361939430
-166.807525634766 -75.848976135254 -264.776702880859 1.341517806053
-84.996307373047 -69.733650207520 -100.393775939941 4.629414081573
21.935550689697 -58.836574554443 -25.171287536621 1.663483500481
-152.594146728516 -64.158050537109 -290.444854736328 1.092481255531
-59.483779907227 -75.499923706055 -143.731201171875 2.963200092316
-78.119949340820 -72.839050292969 -100.539047241211 1.679105162621
88.475311279297 -70.371078491211 -205.133453369141 4.965970993042
-65.104591369629 -58.500404357910 -109.443588256836 2.320577621460
-76.794342041016 -67.959770202637 -47.824451446533 1.953412652016
0.392675012350 -73.274917602539 -157.681869506836 4.000342369080
70.691535949707 -73.427764892578 -97.095169067383 0.921996176243
-157.898529052734 -71.076652526855 -216.338256835938 2.407316446304
-146.391143798828 -69.931182861328 -235.620162963867 2.028707265854
-92.160339355469 -80.456153869629 -101.159965515137 5.003394126892
5.522473812103 -76.758514404297 -191.451797485352 5.993665218353
-99.206443786621 -66.336326599121 -155.002670288086 2.188689231873
-102.380302429199 -66.740493774414 -108.573432922363 4.799541950226
44.040443420410 -73.005104064941 -99.958580017090 2.000954866409
54.846382141113 -66.474143981934 -83.072616577148 3.387836217880
77.903717041016 -74.188949584961 -76.434387207031 1.232572913170
82.601737976074 -78.660140991211 -216.712432861328 2.638084411621
-40.223068237305 -78.580070495605 -241.998977661133 1.336043119431
-7.415143013000 -80.959571838379 -271.153350830078 1.705124258995
42.281761169434 -68.780754089355 -35.347431182861 2.505280017853
-25.088180541992 -59.681522369385 -47.831439971924 2.069400548935
-47.329807281494 -71.848754882813 -166.389862060547 2.983258008957
40.542697906494 -72.581336975098 -116.106109619141 2.453245878220
19.033367156982 -64.233818054199 -32.950950622559 4.137318134308
-149.453933715820 -81.632316589355 -303.874755859375 3.495606660843
-38.688781738281 -79.185852050781 -166.280380249023 1.415689468384
-145.930206298828 -70.600105285645 -252.332916259766 0.849298059940
-49.573272705078 -74.081573486328 -195.505172729492 3.062843799591
68.536529541016 -70.903785705566 -101.283645629883 3.493175268173
-0.533226013184 -77.759559631348 -240.457794189453 2.348401069641
-30.112239837646 -77.455245971680 -287.703765869141 1.217897057533
-11.357988357544 -81.621841430664 -262.936431884766 3.926019430161
-77.148376464844 -76.802406311035 -154.363128662109 5.721145153046
-130.718185424805 -76.649955749512 -264.348266601563 2.901248931885
38.910720825195 -59.200435638428 -19.575386047363 3.237068414688
-51.905738830566 -82.818298339844 -77.156967163086 1.473065972328
81.576210021973 -73.315185546875 -220.189193725586 2.785716295242
-34.167003631592 -74.003547668457 -284.906066894531 1.655919313431
-110.624984741211 -74.031074523926 -227.733444213867 1.948364019394
74.938316345215 -68.956588745117 -61.970352172852 1.956451177597
-31.535522460938 -77.944091796875 -288.729614257813 1.498875617981
-5.118038177490 -78.610603332520 -285.781402587891 2.201677560806
-49.374515533447 -75.249176025391 -162.914215087891 2.542318105698
-149.441558837891 -80.953521728516 -307.841613769531 2.099357366562
-129.226074218750 -63.530628204346 -227.330963134766 2.223224878311
-71.982505798340 -81.459747314453 -72.457740783691 2.635413169861
-86.691017150879 -66.100013732910 -128.580429077148 2.512495040894
-57.623268127441 -63.895145416260 -137.383712768555 0.573581755161
-64.060630798340 -62.624462127686 -133.481399536133 2.573203802109
-10.055567741394 -62.746421813965 -246.911331176758 3.236103534698
6.520137786865 -80.201866149902 -209.188995361328 3.185997009277
57.998382568359 -60.508911132813 -87.512260437012 1.221348047256
21.613590240479 -80.381484985352 -154.198028564453 3.202610731125
17.935749053955 -80.836341857910 -170.238647460938 3.339909315109
-62.508300781250 -75.805252075195 -290.292907714844 2.296480894089
-141.265182495117 -81.597709655762 -230.068466186523 1.372294902802
24.078838348389 -76.569007873535 -130.295059204102 4.161269187927
-37.959323883057 -80.522430419922 -165.458847045898 0.963173508644
-158.216873168945 -63.901287078857 -226.814575195313 3.321471452713
-69.643745422363 -79.966369628906 -207.711547851563 2.372380495071
-58.553695678711 -71.948127746582 -285.230377197266 1.534294247627
-73.652717590332 -72.946006774902 -143.416366577148 1.132066845894
16.113023757935 -73.290115356445 -167.790557861328 2.588333845139
11.610986709595 -72.303642272949 -149.133392333984 2.338060855865
-26.328662872314 -71.946777343750 -216.080932617188 2.579459428787
23.304862976074 -80.388900756836 -141.116729736328 2.998194932938
-50.588375091553 -60.435256958008 -43.905799865723 0.758245110512
51.635021209717 -66.959777832031 -84.239288330078 3.175319910049
-44.762588500977 -66.625862121582 -46.294559478760 1.001515269279
-143.617462158203 -81.022827148438 -197.015548706055 1.659490466118
28.109773635864 -60.518028259277 -10.139418601990 5.121719837189
-8.381038665771 -66.108024597168 -236.767593383789 0.979606807232
-86.770614624023 -80.164291381836 -107.168960571289 1.167393445969
39.949295043945 -75.084350585938 -102.275436401367 2.988000392914
-19.953824996948 -68.664382934570 -68.931861877441 3.665674448013
-113.561805725098 -73.958419799805 -287.991455078125 0.790232598782
22.531250000000 -71.185249328613 -160.895904541016 1.680420756340
13.908067703247 -78.676963806152 -190.960845947266 1.721219062805
-90.842773437500 -77.990394592285 -218.569107055664 2.827385187149
-65.526077270508 -77.392494201660 -63.613609313965 2.876667499542
37.390026092529 -67.655220031738 -110.330978393555 2.653386354446
-104.744476318359 -67.120681762695 -167.856674194336 2.194910287857
92.642372131348 -73.293464660645 -196.302612304688 4.214787006378
-152.984161376953 -78.241577148438 -218.776016235352 3.283572912216
-22.486436843872 -79.466667175293 -215.193710327148 1.686121702194
-153.984252929688 -81.732734680176 -195.675552368164 2.655911684036
-96.835479736328 -66.441612243652 -138.286209106445 2.390978336334
47.894821166992 -68.160079956055 -244.425262451172 1.671415448189
-47.032615661621 -71.756942749023 -156.878524780273 0.983053624630
93.604896545410 -66.863731384277 -67.365043640137 2.309273481369
-18.037631988525 -72.146598815918 -198.396499633789 2.952552080154
29.099061965942 -69.417297363281 -129.790359497070 2.076654195786
49.278457641602 -76.437751770020 -242.785247802734 5.202657699585
-63.536937713623 -72.368263244629 -160.996673583984 1.751204490662
45.518726348877 -62.957630157471 -30.180774688721 2.703231811523
109.319946289063 -71.849487304688 -124.385360717773 0.901185750961
-24.782756805420 -64.978942871094 -57.776340484619 4.481557846069
-102.063468933105 -66.701477050781 -76.158462524414 4.461869716644
-53.133224487305 -79.117576599121 -245.198471069336 1.472437024117
112.212181091309 -72.665603637695 -140.985916137695 1.256272792816
-74.094329833984 -75.583511352539 -210.551757812500 0.503030538559
-82.538841247559 -78.875572204590 -82.833572387695 2.208604574203
47.755352020264 -63.980453491211 -21.704887390137 1.026336073875
-136.981597900391 -70.339317321777 -233.280273437500 2.856795310974
-66.304145812988 -64.492958068848 -125.450942993164 2.060981273651
-148.973754882813 -71.834678649902 -271.665130615234 4.078135967255
91.387603759766 -66.421127319336 -105.532501220703 0.914052128792
14.471487045288 -71.502258300781 -180.850830078125 1.357774257660
-157.076675415039 -75.536552429199 -235.581161499023 4.048864364624
-149.335357666016 -80.884254455566 -186.814636230469 1.691197633743
2.868433952332 -75.516479492188 -224.255935668945 2.078597784042
-117.958885192871 -68.962638854980 -256.649017333984 2.000263690948
107.150802612305 -76.367645263672 -141.532882690430 2.532932519913
-89.108802795410 -71.482215881348 -59.541015625000 3.448375940323
-165.888092041016 -68.496353149414 -248.562088012695 1.416238307953
-60.158164978027 -81.775970458984 -181.390869140625 4.261491298676
-104.853401184082 -64.166503906250 -154.955566406250 3.444780588150
-121.261482238770 -66.149177551270 -231.535491943359 2.221617221832
63.571552276611 -72.866020202637 -89.432723999023 3.106060266495
-114.566436767578 -69.315643310547 -191.733032226563 0.961063086987
-101.842369079590 -66.145065307617 -117.790458679199 3.895098209381
-168.816253662109 -75.291717529297 -271.762756347656 3.196865320206
-7.376673221588 -81.629638671875 -230.733612060547 4.285210609436
19.338638305664 -73.620048522949 -277.150268554688 2.102698802948
-44.932609558105 -69.603172302246 -162.897842407227 1.781631588936
-41.004032135010 -78.777824401855 -80.939483642578 3.435021400452
51.578742980957 -60.322845458984 -88.252723693848 3.387936592102
102.297164916992 -71.315681457520 -193.557937622070 2.196197986603
97.980827331543 -69.493690490723 -93.851448059082 2.085871219635
-64.645195007324 -62.084735870361 -119.805381774902 1.657682538033
109.940856933594 -73.944854736328 -127.911239624023 2.025355339050
-49.861431121826 -76.599136352539 -187.402465820313 1.810546636581
-95.043342590332 -64.931022644043 -59.415676116943 4.203829765320
-32.903217315674 -73.411865234375 -59.799293518066 1.441052436829
-35.532264709473 -73.317504882813 -54.862731933594 2.343614101410
-129.960906982422 -75.260528564453 -231.264968872070 2.070544481277
44.634037017822 -68.822288513184 -253.767456054688 2.030148983002
-1.885858058929 -71.861549377441 -224.019836425781 2.038897037506
-152.945358276367 -78.432052612305 -238.632080078125 3.723233938217
-49.184776306152 -80.359451293945 -183.666336059570 1.392283916473
20.071004867554 -79.662384033203 -181.861145019531 1.764888286591
18.771154403687 -69.901763916016 -151.531646728516 2.070733547211
-37.156608581543 -75.966278076172 -241.074279785156 2.414486646652
66.438133239746 -66.327178955078 -96.971733093262 1.164630651474
-152.673217773438 -67.980682373047 -250.984100341797 2.914053678513
-147.000839233398 -66.650901794434 -285.903747558594 1.725350260735
41.816505432129 -61.089176177979 -113.412712097168 2.078996419907
-104.285247802734 -63.874092102051 -88.732902526855 5.603142738342
42.058368682861 -69.060111999512 -25.993879318237 2.053455114365
49.860671997070 -71.147171020508 -107.341270446777 1.864620804787
27.387580871582 -75.072822570801 -121.244560241699 4.300833225250
107.428016662598 -67.655517578125 -127.703292846680 0.862399220467
-165.537261962891 -66.870994567871 -205.506362915039 2.369598150253
-20.926942825317 -75.974571228027 -201.186157226563 2.319236516953
-8.254988670349 -69.343597412109 -225.059936523438 2.202470541000
-49.773189544678 -59.169979095459 -45.103858947754 1.200060844421
-35.082859039307 -76.426231384277 -185.138229370117 2.299204826355
15.496324539185 -73.199226379395 -237.400772094727 1.535849690437
19.313503265381 -74.962486267090 -242.425445556641 1.914339065552
107.653266906738 -71.180404663086 -109.320632934570 2.327828884125
39.105239868164 -75.914573669434 -95.477287292480 6.533984184265
58.952621459961 -70.287345886230 -91.022911071777 1.259416699409
5.702886104584 -72.237564086914 -209.572006225586 2.058360338211
37.884014129639 -68.664070129395 -16.552200317383 2.795285701752
-134.482192993164 -72.736465454102 -202.238998413086 1.267768383026
20.845930099487 -68.803710937500 -151.012451171875 2.918612003326
91.105346679688 -76.726387023926 -88.823501586914 1.043255329132
-83.279586791992 -84.779403686523 -103.268959045410 1.417709112167
0.043542999774 -84.752899169922 -248.521713256836 3.403252840042
-151.313430786133 -76.256752014160 -191.848449707031 2.430650234222
-145.296066284180 -84.237510681152 -258.988037109375 1.579637765884
112.591690063477 -75.821296691895 -168.271896362305 2.176570415497
-37.713134765625 -74.467758178711 -289.349517822266 0.930975496769
-163.377151489258 -73.702865600586 -291.829498291016 0.183697044849
-149.931854248047 -69.300720214844 -296.594879150391 1.631154298782
11.543690681458 -77.282508850098 -240.295288085938 1.763257861137
-18.075082778931 -71.160247802734 -200.131927490234 1.920142173767
-77.308303833008 -78.903129577637 -212.662750244141 1.888553738594
-17.445953369141 -71.330001831055 -261.284332275391 2.762989997864
-34.502609252930 -79.633361816406 -71.795127868652 1.967913746834
-153.608520507813 -69.443176269531 -224.938415527344 1.524567365646
-23.655441284180 -70.396896362305 -194.300628662109 2.414902687073
-150.864135742188 -78.115028381348 -215.300827026367 2.048325061798
82.001274108887 -73.700309753418 -78.083320617676 2.836293458939
-75.318267822266 -73.216484069824 -137.846572875977 1.485721111298
-154.610671997070 -81.134193420410 -254.986328125000 1.868148803711
-143.447326660156 -71.191581726074 -226.020645141602 1.505466580391
-152.713714599609 -64.053733825684 -207.779678344727 2.195923089981
-26.334125518799 -76.660514831543 -176.792877197266 2.070302009583
88.441589355469 -73.204864501953 -220.196334838867 1.869453072548
-133.476501464844 -63.407360076904 -203.068054199219 1.390018701553
-9.628127098083 -73.578292846680 -240.709060668945 1.977470397949
-142.024795532227 -68.567337036133 -200.264709472656 2.886771678925
-152.126510620117 -77.797355651855 -203.664108276367 0.933032035828
91.057266235352 -71.179847717285 -212.641937255859 1.525685906410
102.730056762695 -70.266853332520 -98.689895629883 1.350318312645
-17.735162734985 -72.676948547363 -218.000091552734 2.602079868317
-45.679016113281 -71.451194763184 -284.630645751953 4.447371006012
101.113777160645 -72.585334777832 -190.589126586914 2.040233850479
-83.641510009766 -64.736808776855 -136.029495239258 2.798655509949
10.991113662720 -74.962493896484 -194.714111328125 0.843285977840
-152.655136108398 -72.020309448242 -176.687866210938 1.299118995667
77.666587829590 -62.688823699951 -58.791213989258 2.123084306717
-25.961061477661 -75.287528991699 -213.380081176758 1.665693521500
-90.125518798828 -77.369232177734 -114.630760192871 1.622182488441
-28.544450759888 -71.424270629883 -171.239044189453 1.567459464073
-63.631019592285 -65.413368225098 -124.826385498047 0.997260093689
8.869876861572 -66.660705566406 -153.993225097656 1.625831961632
-63.088653564453 -79.554214477539 -171.132034301758 1.360017180443
13.598734855652 -75.694534301758 -288.348815917969 1.795649528503
-153.637878417969 -83.002372741699 -199.760986328125 2.686939716339
-106.371429443359 -66.654724121094 -224.732025146484 1.720053076744
-151.594863891602 -62.103748321533 -181.968124389648 1.242473840714
91.059249877930 -67.446464538574 -66.263336181641 2.738413333893
4.177283763885 -72.371475219727 -235.350296020508 2.537333250046
-19.422252655029 -74.125259399414 -259.854187011719 4.965182304382
19.428140640259 -66.023788452148 -178.035385131836 2.273513078690
-128.237411499023 -66.801834106445 -288.819885253906 2.074113607407
-85.088417053223 -63.907970428467 -125.272254943848 0.865323483944
20.482931137085 -76.540618896484 -193.461898803711 2.767601966858
-14.443988800049 -77.357002258301 -220.955169677734 1.746249198914
-0.582198023796 -66.996536254883 -290.718414306641 2.362609624863
-37.264232635498 -74.159805297852 -58.606502532959 1.666489720345
111.992385864258 -71.580261230469 -132.967132568359 1.860546469688
-3.406512022018 -78.593513488770 -288.451751708984 2.328151702881
-86.597854614258 -72.963798522949 -107.447929382324 3.225311517715
-0.385008007288 -86.169639587402 -274.039855957031 1.982647776604
75.358970642090 -76.757560729980 -85.468147277832 1.763958334923
94.140449523926 -66.114051818848 -65.786743164063 2.097432613373
17.487535476685 -61.604568481445 -139.514739990234 2.742213249207
-55.201198577881 -76.241737365723 -148.693313598633 0.670732140541
111.137641906738 -72.479057312012 -128.633209228516 1.898271679878
-46.349700927734 -77.445922851563 -79.487892150879 4.670155525208
-74.014816284180 -80.263938903809 -85.916893005371 4.078507900238
-10.714086532593 -77.913185119629 -207.808792114258 1.212227106094
74.603302001953 -69.064498901367 -65.381439208984 2.734279394150
-146.118911743164 -79.280509948730 -206.853805541992 1.997875452042
26.461143493652 -73.834602355957 -171.534637451172 2.592432737350
25.061107635498 -64.208930969238 -33.394229888916 2.283246517181
-68.657333374023 -60.367099761963 -104.340980529785 1.655215740204
-98.696121215820 -62.713661193848 -149.762298583984 1.931325793266
-151.511840820313 -73.832824707031 -200.585540771484 1.132139921188
-61.964584350586 -61.436489105225 -133.062759399414 1.049506306648
-58.087841033936 -63.407447814941 -44.004566192627 1.953669786453
-35.536365509033 -63.695732116699 -46.381374359131 1.768711805344
-42.370380401611 -80.087554931641 -202.995361328125 2.566462993622
42.188488006592 -69.871879577637 -29.303197860718 2.918293952942
99.376701354980 -68.355094909668 -87.031166076660 2.844460964203
-158.411926269531 -75.274780273438 -293.417114257813 2.386772632599
-150.116851806641 -66.592468261719 -276.275268554688 2.123724937439
-80.216743469238 -70.070190429688 -116.152961730957 1.722770214081
-21.780832290649 -75.055290222168 -234.721221923828 3.930139541626
8.413045883179 -79.227790832520 -202.016494750977 2.035051107407
15.172386169434 -71.138259887695 -213.698257446289 1.099674940109
-79.988029479980 -67.439117431641 -106.803421020508 0.850388765335
21.791727066040 -61.681827545166 -24.270483016968 3.052157878876
-149.657073974609 -75.101684570313 -185.174468994141 2.332961320877
-7.033106803894 -82.003662109375 -275.812957763672 2.688985109329
-39.094680786133 -82.633796691895 -202.745880126953 2.471745729446
-162.263748168945 -67.322944641113 -200.384933471680 0.998204052448
13.336063385010 -66.757789611816 -178.513641357422 3.867071628571
96.747406005859 -74.679855346680 -199.552368164063 1.545787215233
-156.405334472656 -77.887191772461 -267.244384765625 3.286305665970
-153.686889648438 -85.522583007813 -298.573913574219 2.456065177917
-142.213226318359 -68.301818847656 -195.539840698242 1.265202879906
76.486457824707 -73.883377075195 -97.606430053711 1.587538957596
35.856803894043 -69.022773742676 -9.109075546265 2.580416440964
-140.497543334961 -66.524200439453 -229.408157348633 1.889348149300
-154.334625244141 -72.691284179688 -271.516021728516 2.827055692673
-25.631494522095 -66.857765197754 -188.545639038086 1.179889440536
-22.852848052979 -75.084342956543 -203.269897460938 0.834330081940
19.675619125366 -63.374412536621 -136.445953369141 2.744651556015
74.304328918457 -74.980987548828 -222.149871826172 4.326016426086
-107.722564697266 -62.805950164795 -175.530426025391 2.005776405334
-154.261703491211 -63.733062744141 -179.937988281250 2.363409280777
-55.200115203857 -71.367279052734 -129.353134155273 1.510489106178
-1.814736008644 -77.597816467285 -290.173889160156 1.995681405067
-81.554519653320 -87.218612670898 -104.516448974609 2.313766241074
-115.987297058105 -66.600677490234 -257.838714599609 1.555945515633
-62.077106475830 -78.305015563965 -245.635391235352 1.930341362953
-155.334014892578 -82.618919372559 -291.663055419922 2.407690286636
-144.426208496094 -73.812988281250 -223.844345092773 1.684598088264
-68.128494262695 -77.931930541992 -61.096080780029 0.921639323235
35.411804199219 -70.424880981445 -122.589797973633 0.751129627228
75.116127014160 -78.566848754883 -88.116127014160 2.905527591705
-38.599605560303 -77.987861633301 -173.213088989258 0.935303092003
6.476929187775 -77.444061279297 -206.432861328125 2.053870916367
-113.351821899414 -75.204910278320 -257.393707275391 2.101581811905
-91.274322509766 -74.898033142090 -109.408401489258 2.286208391190
-100.520248413086 -65.155120849609 -80.054969787598 4.384564399719
-148.850860595703 -67.054832458496 -311.241577148438 0.733815431595
-70.399681091309 -74.315399169922 -149.917083740234 2.111108541489
25.017322540283 -60.309848785400 -137.493026733398 1.993319034576
18.128862380981 -72.274726867676 -275.345855712891 2.473445892334
-21.276464462280 -79.089004516602 -239.721710205078 1.354925394058
-159.892791748047 -74.175483703613 -291.657562255859 2.496815443039
-61.512626647949 -65.436393737793 -138.984970092773 1.511284470558
-84.171348571777 -61.951595306396 -125.279632568359 2.066506385803
-24.314744949341 -72.230087280273 -237.878021240234 2.587422132492
114.206832885742 -73.648925781250 -135.419097900391 2.954133987427
-45.163429260254 -70.679450988770 -51.505615234375 0.936864137650
63.082984924316 -68.955284118652 -70.239135742188 5.535259723663
49.987907409668 -65.672378540039 -24.439580917358 3.805739164352
-7.927935123444 -87.076339721680 -264.381225585938 2.847280025482
48.132106781006 -69.289558410645 -101.260391235352 1.356304168701
-69.212471008301 -75.435485839844 -98.032722473145 3.982604503632
13.528130531311 -83.054489135742 -224.203262329102 3.403261899948
-101.827644348145 -62.706848144531 -144.777084350586 4.654845714569
34.216827392578 -78.755241394043 -131.714508056641 1.423475980759
-27.542947769165 -63.059188842773 -65.895851135254 4.145066261292
32.662982940674 -75.449676513672 -111.273880004883 3.626521110535
-84.101074218750 -62.540718078613 -46.773033142090 2.326382160187
-148.266174316406 -83.986175537109 -236.278610229492 2.256071567535
91.875518798828 -74.688621520996 -207.536453247070 1.948456406593
-172.909271240234 -69.428581237793 -262.278717041016 4.910057544708
78.566558837891 -75.260467529297 -77.539512634277 1.694937705994
-151.296997070313 -85.452842712402 -257.726745605469 1.658223986626
-46.677261352539 -81.185661315918 -240.154647827148 3.773693323135
9.951955795288 -69.780426025391 -213.725433349609 1.837980866432
-147.874191284180 -77.813934326172 -186.476638793945 1.834279537201
-23.048055648804 -78.864913940430 -221.671859741211 2.239382505417
-0.020926000550 -84.968376159668 -252.400314331055 3.134182214737
2.756480932236 -79.355270385742 -215.734710693359 5.551280498505
-7.416497230530 -83.726654052734 -267.802154541016 3.595571994781
-63.280315399170 -75.649696350098 -56.636741638184 0.664567172527
1.732030034065 -62.917835235596 -249.505386352539 3.524222850800
-152.778442382813 -77.615600585938 -280.235687255859 3.210671663284
5.871622085571 -74.064949035645 -157.656631469727 1.457792401314
-15.032279014587 -78.999954223633 -215.464492797852 3.048333168030
-39.431571960449 -80.307090759277 -160.016891479492 2.561612129211
81.919708251953 -76.014144897461 -218.212753295898 2.715653657913
22.577783584595 -80.651992797852 -169.332992553711 2.003766059875
51.821716308594 -72.136795043945 -238.317626953125 4.944095134735
-149.384277343750 -76.399551391602 -204.180480957031 0.967868089676
-77.037986755371 -88.484397888184 -92.646041870117 3.285058259964
-93.843399047852 -78.574714660645 -106.428237915039 3.434311389923
-107.737953186035 -71.733161926270 -223.954666137695 1.574459910393
-70.185943603516 -77.013313293457 -164.004806518555 3.288458585739
-152.157623291016 -78.851669311523 -249.725616455078 1.834578394890
18.055505752563 -80.812400817871 -250.774597167969 2.777817726135
-94.984230041504 -72.961097717285 -219.143630981445 2.028339147568
107.627677917480 -68.740852355957 -129.539672851563 1.593982577324
3.110033035278 -75.647827148438 -236.051818847656 1.619903564453
-150.921264648438 -67.347709655762 -301.776672363281 1.794653415680
-157.144622802734 -70.193305969238 -286.801391601563 2.327862739563
56.667819976807 -71.469772338867 -87.373367309570 2.125193595886
