-1.710980057716 -63.036319732666 -251.351562500000 1.098714709282
4.124272823334 -65.867111206055 -271.176361083984 4.012599468231
-53.719478607178 -76.734436035156 -66.039726257324 3.404458284378
-23.874160766602 -54.965496063232 -48.849174499512 2.646821260452
-15.839264869690 -78.026008605957 -225.295425415039 2.953754425049
76.862289428711 -73.181007385254 -226.990966796875 2.052664041519
-8.696350097656 -74.707237243652 -219.761627197266 3.171554565430
49.041301727295 -63.009040832520 -25.219657897949 2.834975481033
-53.602756500244 -81.982360839844 -81.369758605957 2.299514293671
-9.515043258667 -80.810211181641 -281.951049804688 6.417128562927
21.702169418335 -68.676635742188 -179.285614013672 2.228899717331
-159.647903442383 -77.977767944336 -289.483154296875 3.178658962250
46.431453704834 -67.517211914063 -90.693817138672 3.493397474289
-24.546413421631 -78.609710693359 -192.485382080078 1.304406046867
-153.715515136719 -84.116950988770 -196.524841308594 3.220174551010
-149.295867919922 -76.808464050293 -282.740600585938 1.936328887939
-24.609352111816 -71.850257873535 -206.549835205078 3.583149433136
110.721244812012 -62.872554779053 -115.016059875488 4.875006198883
-142.892074584961 -68.569114685059 -184.606887817383 2.412043571472
-93.621444702148 -68.338714599609 -144.879638671875 1.387857437134
-51.411445617676 -73.956542968750 -128.584960937500 3.967334032059
13.513221740723 -78.694229125977 -215.838424682617 1.891472578049
-105.209571838379 -72.055961608887 -169.900054931641 3.153974771500
-89.263740539551 -64.652465820313 -133.811294555664 1.832500457764
-29.777593612671 -86.089790344238 -184.997756958008 2.485539197922
-1.833019018173 -69.435691833496 -232.663955688477 1.504976868629
79.757156372070 -69.113517761230 -71.506721496582 4.244342803955
-36.328319549561 -78.110839843750 -173.318817138672 2.280212640762
-91.105728149414 -67.119590759277 -61.975082397461 1.858570218086
17.893712997437 -59.089313507080 -34.033687591553 2.603975057602
-32.897544860840 -83.957206726074 -210.992935180664 3.354615449905
36.424583435059 -68.120429992676 -128.868164062500 0.829425036907
-149.858215332031 -90.431983947754 -265.066467285156 4.568230152130
-5.692403793335 -77.036018371582 -216.641403198242 0.796019375324
-102.799758911133 -76.526992797852 -255.754806518555 3.653160333633
-77.365364074707 -66.449638366699 -123.573478698730 0.879566192627
-8.787075996399 -74.693519592285 -291.453063964844 1.103946208954
-77.449203491211 -63.725666046143 -109.985214233398 1.396718263626
39.252811431885 -60.854835510254 -122.762176513672 1.355199098587
21.156839370728 -67.891960144043 -153.721069335938 2.491802453995
-136.499191284180 -84.281745910645 -258.172363281250 1.257839083672
4.509309768677 -74.363784790039 -206.107452392578 1.312674403191
-8.898803710938 -77.964187622070 -172.895462036133 3.039235353470
-77.633384704590 -68.263137817383 -50.186866760254 2.898140907288
-26.666252136230 -75.053077697754 -173.934936523438 0.628439426422
19.320510864258 -77.865585327148 -248.732162475586 2.724582672119
9.733379364014 -78.372779846191 -221.268386840820 2.012710094452
88.277557373047 -62.622474670410 -68.025421142578 5.340620994568
-131.427673339844 -67.768066406250 -198.327239990234 2.856215715408
-76.813941955566 -77.890121459961 -77.500389099121 3.221298933029
-162.519195556641 -77.763732910156 -226.626892089844 4.781402111053
-137.281829833984 -72.639648437500 -286.964508056641 2.298584461212
-4.733897209167 -74.610588073730 -234.733367919922 2.022018671036
-81.623687744141 -80.100151062012 -246.327117919922 6.445762634277
107.778244018555 -69.269119262695 -131.859542846680 1.707802295685
-117.378318786621 -79.635185241699 -261.251312255859 6.654105186462
-100.988365173340 -79.944664001465 -285.143066406250 4.945744514465
-75.367752075195 -60.915573120117 -102.489204406738 1.109882354736
-100.875213623047 -68.379745483398 -148.913009643555 3.648887634277
-146.421844482422 -86.639236450195 -258.600128173828 1.795166254044
17.484985351563 -75.681327819824 -270.092254638672 3.516282796860
-152.805404663086 -89.796447753906 -260.399597167969 5.192868232727
-128.264129638672 -73.544815063477 -200.919082641602 3.172658205032
23.898645401001 -64.577583312988 -161.124572753906 1.837477207184
-165.553253173828 -71.014038085938 -207.302124023438 3.086556911469
-1.714344024658 -81.182174682617 -285.383422851563 4.795233249664
-126.484481811523 -67.637527465820 -197.347152709961 3.834070682526
-140.849044799805 -71.268554687500 -256.212890625000 1.014585256577
-133.221145629883 -68.237663269043 -231.853179931641 1.883541941643
44.456481933594 -56.693412780762 -23.733037948608 1.274695396423
-37.403282165527 -65.826347351074 -52.001583099365 5.046061038971
-170.209854125977 -77.701065063477 -250.302032470703 5.003091335297
-97.674491882324 -72.153671264648 -289.105743408203 1.270661592484
9.767504692078 -78.748023986816 -206.605453491211 0.703949451447
-0.427868992090 -77.188896179199 -234.843750000000 2.156076908112
42.107254028320 -52.522869110107 -33.292461395264 0.484314322472
33.633380889893 -65.752510070801 -138.062286376953 4.302531719208
105.818321228027 -65.731651306152 -96.969856262207 1.791322588921
82.400833129883 -75.033470153809 -227.105010986328 2.730673789978
42.533916473389 -72.695220947266 -113.243278503418 1.931041836739
-102.269569396973 -61.397296905518 -79.933761596680 3.297427415848
-59.926803588867 -70.044799804688 -140.727066040039 1.762451648712
7.529284954071 -74.248588562012 -228.741760253906 1.018483400345
-125.419593811035 -76.585922241211 -265.157196044922 2.668606281281
-54.985168457031 -73.012733459473 -137.922531127930 1.131775379181
-14.956708908081 -75.910285949707 -251.992691040039 3.535428285599
17.289812088013 -80.472679138184 -225.011016845703 2.985263586044
46.524085998535 -63.822170257568 -105.204948425293 3.304166316986
-10.617679595947 -70.473587036133 -221.005584716797 1.389026880264
103.073982238770 -64.153999328613 -114.693878173828 4.333078861237
-62.203289031982 -79.110183715820 -170.083068847656 1.566564440727
-151.422760009766 -80.205375671387 -211.247329711914 2.148372411728
-22.971813201904 -77.456550598145 -242.492553710938 1.249498486519
-157.603302001953 -73.849105834961 -229.798889160156 3.360257863998
-103.811889648438 -65.341003417969 -168.862167358398 1.839920520782
-117.508361816406 -76.113380432129 -257.915435791016 2.868970870972
-82.707946777344 -68.620323181152 -115.821075439453 2.574031829834
-68.576599121094 -76.781929016113 -159.703735351563 1.344284296036
-52.412384033203 -73.555664062500 -66.430999755859 6.141116619110
-73.197456359863 -77.215950012207 -75.913925170898 3.044411420822
25.895277023315 -70.849891662598 -265.018218994141 1.025931835175
-65.803962707520 -81.102951049805 -210.134628295898 0.588936686516
50.692249298096 -58.785911560059 -96.402778625488 4.610369205475
4.159716129303 -82.382591247559 -244.116378784180 3.692494869232
2.621100902557 -82.424591064453 -226.581268310547 3.804782152176
33.345359802246 -59.451644897461 -123.213180541992 2.084502935410
51.359130859375 -70.255737304688 -96.391075134277 3.508840322495
7.840607166290 -71.319541931152 -226.443649291992 1.745609998703
106.740104675293 -67.225448608398 -128.076446533203 1.153798341751
31.491836547852 -62.954616546631 -11.992067337036 2.627832889557
-6.195988178253 -82.167457580566 -246.870910644531 4.782302379608
32.887615203857 -74.238868713379 -144.639175415039 3.137296199799
-150.413635253906 -72.070159912109 -284.414337158203 3.202708959579
-14.996114730835 -70.046104431152 -200.894042968750 1.642100691795
38.340267181396 -71.315643310547 -130.988800048828 1.565491795540
-44.968364715576 -80.064002990723 -151.699401855469 1.035291433334
47.469375610352 -55.862472534180 -93.597450256348 7.792067050934
-98.919136047363 -63.556369781494 -73.570007324219 2.781361579895
93.214508056641 -71.369659423828 -85.371467590332 4.628493785858
-16.596267700195 -73.875991821289 -242.120452880859 1.047873139381
-25.957473754883 -80.773765563965 -181.637176513672 1.234051942825
-82.320899963379 -68.034637451172 -53.690593719482 1.514082193375
19.404193878174 -66.413169860840 -177.388900756836 2.576710939407
-139.201736450195 -73.005584716797 -201.871551513672 1.477761507034
45.037017822266 -72.428962707520 -107.685066223145 3.248861074448
11.305589675903 -85.918647766113 -245.442382812500 2.567282676697
-25.663507461548 -75.125831604004 -220.979400634766 2.586348772049
-152.407211303711 -73.436019897461 -182.985153198242 2.435101509094
57.387386322021 -65.490615844727 -90.815818786621 3.081986188889
-52.281978607178 -77.123771667480 -201.823333740234 2.444364070892
-111.393074035645 -76.937240600586 -226.569580078125 4.523720741272
106.666770935059 -65.927162170410 -147.881805419922 7.129775524139
-44.857341766357 -71.115669250488 -173.367721557617 3.775833368301
22.776844024658 -74.984573364258 -167.337509155273 1.995987892151
114.373001098633 -71.369720458984 -144.160095214844 1.597987413406
107.871574401855 -65.024101257324 -117.492309570313 3.252164840698
112.842529296875 -68.903106689453 -148.717559814453 2.420418262482
-83.170097351074 -71.051795959473 -136.271484375000 3.459057092667
-9.755029678345 -75.268875122070 -176.771179199219 1.415934205055
-58.565647125244 -78.202026367188 -175.453857421875 1.964712262154
61.264297485352 -69.734855651855 -242.482803344727 1.068499684334
26.614839553833 -70.314888000488 -161.797927856445 1.772162318230
6.004915237427 -74.291687011719 -162.208267211914 2.146855831146
-56.501083374023 -75.938362121582 -185.082946777344 2.983636856079
-151.674102783203 -71.686386108398 -190.064636230469 1.014700889587
-59.080749511719 -71.925430297852 -132.482360839844 0.896694839001
-22.527000427246 -82.549156188965 -200.624511718750 3.241830825806
-72.908645629883 -79.000808715820 -208.361495971680 1.046569824219
-90.120521545410 -64.095771789551 -139.200500488281 2.206074237823
38.099391937256 -74.311950683594 -107.535491943359 2.271103620529
16.583448410034 -83.444366455078 -239.175765991211 0.796918213367
-149.058059692383 -90.737197875977 -265.673767089844 4.740483760834
-112.133583068848 -74.015510559082 -260.543457031250 1.257118463516
-61.777786254883 -82.037185668945 -286.067565917969 6.771748542786
-98.451293945313 -59.410919189453 -75.612121582031 1.855534553528
-75.847480773926 -65.991539001465 -107.119445800781 2.294381618500
5.178275108337 -86.534690856934 -263.171142578125 1.904907226563
-39.331199645996 -71.952316284180 -163.229736328125 2.432202339172
-83.177383422852 -79.543304443359 -77.320114135742 2.111430644989
94.895851135254 -71.622360229492 -205.984893798828 1.990050554276
110.017150878906 -65.400833129883 -162.028152465820 5.098145008087
-48.335258483887 -68.190185546875 -145.925460815430 0.441444098949
36.192768096924 -73.903472900391 -131.033309936523 1.614017367363
-78.924179077148 -60.835826873779 -45.959217071533 1.364743590355
-89.813636779785 -76.308723449707 -214.729171752930 1.575668692589
-14.338167190552 -73.901397705078 -202.146743774414 1.532044291496
-166.838195800781 -82.835739135742 -273.872344970703 7.811049461365
2.672013044357 -86.771423339844 -252.668472290039 3.379447221756
-92.895133972168 -66.061546325684 -122.631858825684 1.190285325050
-145.447845458984 -68.720726013184 -233.429458618164 1.919491887093
90.561157226563 -51.325180053711 -61.832511901855 3.931167840958
-76.781356811523 -65.404151916504 -123.005363464355 1.812652349472
0.388152003288 -63.575000762939 -285.150939941406 0.556480407715
101.993240356445 -61.870258331299 -96.747558593750 1.166369199753
-39.293933868408 -82.172943115234 -164.102142333984 2.705897092819
-52.357891082764 -69.217094421387 -51.773216247559 4.090274333954
-108.559692382813 -68.947685241699 -188.885025024414 1.554332971573
-19.737211227417 -71.848243713379 -237.726821899414 2.116877317429
-147.465957641602 -85.469749450684 -306.832489013672 3.389340162277
-108.405677795410 -70.336578369141 -198.111145019531 2.459314823151
8.687076568604 -71.137084960938 -194.540267944336 2.098436594009
12.451078414917 -81.346572875977 -236.448760986328 1.977820277214
108.077926635742 -71.450813293457 -174.135025024414 1.959255218506
82.295059204102 -70.139541625977 -88.503356933594 8.464605331421
56.355815887451 -58.050960540771 -97.305114746094 3.097630500793
-32.911388397217 -80.547615051270 -213.795150756836 2.298813343048
-144.320480346680 -68.171714782715 -231.447143554688 2.595173120499
-150.693405151367 -83.057968139648 -221.995819091797 2.540966987610
-22.958858489990 -66.585998535156 -62.450283050537 5.108722209930
59.024314880371 -55.169853210449 -93.466033935547 4.302149772644
-43.447650909424 -60.352516174316 -44.960201263428 1.990994215012
40.476871490479 -73.165008544922 -126.802955627441 2.511345148087
38.771972656250 -70.897285461426 -132.376022338867 1.146526694298
-27.653362274170 -79.111946105957 -180.384170532227 1.412347316742
105.495208740234 -69.073478698730 -131.191757202148 3.845499992371
-78.535614013672 -74.346679687500 -63.451454162598 2.735416173935
-145.350433349609 -77.921676635742 -265.980499267578 1.700628161430
17.934221267700 -65.155075073242 -182.023681640625 2.714343070984
-145.656005859375 -77.424453735352 -210.829971313477 1.714773178101
-149.452941894531 -94.923797607422 -291.117095947266 8.587280273438
-151.343704223633 -75.723579406738 -182.220611572266 3.297940969467
-13.210411071777 -72.334426879883 -232.415649414063 2.441825628281
-12.020977020264 -78.070075988770 -213.863281250000 1.494141101837
-22.166193008423 -81.517204284668 -182.885604858398 1.768993139267
-107.477272033691 -80.662895202637 -291.262878417969 5.861308574677
-58.952194213867 -60.029853820801 -117.901504516602 1.482893347740
20.470476150513 -75.271903991699 -237.226638793945 1.608150362968
-77.214111328125 -73.521362304688 -134.777023315430 2.082981348038
36.951995849609 -66.198577880859 -254.076416015625 1.630622148514
16.734184265137 -67.699150085449 -151.907073974609 1.559750318527
-152.290100097656 -85.893547058105 -222.378829956055 4.575413227081
-77.970832824707 -76.201431274414 -287.852172851563 0.908940196037
-43.582763671875 -72.164237976074 -58.059768676758 3.674813032150
-165.813201904297 -82.013816833496 -278.576263427734 8.040950775146
-20.484121322632 -68.326797485352 -205.049926757813 1.782284617424
29.459102630615 -77.777862548828 -142.522842407227 2.342367172241
99.960418701172 -53.814697265625 -76.890518188477 4.005239486694
-7.400654792786 -69.921333312988 -270.939300537109 3.351184368134
9.595457077026 -82.309928894043 -211.916976928711 3.550686359406
-138.936431884766 -85.586677551270 -196.871902465820 3.262280464172
39.989768981934 -66.019699096680 -255.681594848633 1.879180788994
21.460269927979 -79.587631225586 -166.061721801758 3.231345891953
44.337764739990 -68.013938903809 -95.887077331543 1.258925557137
-85.732635498047 -76.482841491699 -110.225204467773 1.434507012367
10.703142166138 -77.918701171875 -211.543090820313 1.556244015694
-88.316085815430 -80.340705871582 -87.413963317871 4.190017223358
-109.795288085938 -74.151405334473 -184.497222900391 4.837301254272
-62.951015472412 -76.433799743652 -294.441986083984 4.215637207031
14.399719238281 -78.849082946777 -188.598052978516 1.557299137115
-4.088696956635 -72.034515380859 -227.203018188477 2.006999254227
87.755012512207 -76.509841918945 -210.555908203125 2.371832132339
-141.472335815430 -74.308891296387 -261.437774658203 0.867057323456
74.038192749023 -58.384098052979 -60.801139831543 1.238127350807
-64.179229736328 -76.812423706055 -250.967315673828 1.216937422752
-48.419086456299 -76.335197448730 -289.175781250000 1.602755188942
68.103080749512 -60.524684906006 -67.958625793457 1.682403802872
38.221370697021 -68.433311462402 -258.503173828125 1.284977912903
-22.006690979004 -79.762893676758 -287.277587890625 2.906211614609
-44.836383819580 -75.907669067383 -85.562538146973 2.516388654709
-167.734115600586 -77.048095703125 -233.027206420898 3.328021287918
-43.638015747070 -73.750572204590 -167.978042602539 0.605034887791
-118.294036865234 -73.920234680176 -289.426361083984 2.350325584412
71.240135192871 -56.775222778320 -60.740226745605 1.739234089851
-153.818649291992 -74.223281860352 -180.285568237305 3.518738269806
-45.310874938965 -70.259643554688 -170.390136718750 4.282070636749
-32.087528228760 -61.342624664307 -50.105705261230 3.743067026138
18.596561431885 -82.477523803711 -259.641723632813 1.762660026550
16.230096817017 -80.048713684082 -224.999008178711 2.290741205215
13.530920982361 -77.103973388672 -290.489593505859 1.383126139641
41.108261108398 -62.794055938721 -34.292396545410 0.928692877293
44.566352844238 -64.720603942871 -104.339759826660 3.246734857559
24.830043792725 -71.914505004883 -141.400131225586 1.733229517937
-71.177658081055 -56.527503967285 -91.690170288086 4.234936237335
52.234493255615 -58.980106353760 -93.609718322754 2.626393556595
112.449851989746 -63.964359283447 -154.429565429688 5.454217433929
25.217260360718 -69.512344360352 -137.131668090820 2.638858556747
-46.214889526367 -69.017723083496 -139.927017211914 2.217423439026
-100.545021057129 -63.172698974609 -110.292739868164 2.431181907654
-154.401855468750 -63.395751953125 -200.353897094727 2.604157924652
71.760772705078 -71.121635437012 -226.880142211914 1.027382254601
-63.936286926270 -68.894927978516 -120.313949584961 3.731939315796
-43.270870208740 -67.622955322266 -153.065933227539 1.050832390785
-64.343429565430 -79.838462829590 -162.175842285156 1.441600084305
-89.583808898926 -72.451095581055 -254.433273315430 1.767958045006
-56.425228118896 -78.663299560547 -285.841278076172 3.119881391525
22.722223281860 -70.065834045410 -261.220062255859 1.937277317047
81.852401733398 -72.789688110352 -223.077865600586 2.086714029312
-37.054832458496 -76.404212951660 -204.076263427734 2.391349315643
-153.775405883789 -86.399085998535 -230.288940429688 3.300271987915
-130.295776367188 -67.038391113281 -229.936508178711 2.613136053085
-80.493438720703 -73.232261657715 -252.061996459961 2.360363721848
-146.649612426758 -78.190765380859 -271.398651123047 1.166329860687
-131.451660156250 -81.650634765625 -263.908050537109 6.294232368469
-146.637496948242 -86.779098510742 -210.815963745117 3.250837326050
-125.729377746582 -67.120208740234 -197.285018920898 3.039012432098
-60.953269958496 -69.261291503906 -146.480697631836 3.946266889572
-36.471557617188 -74.704200744629 -287.651794433594 2.477617979050
-68.458892822266 -57.785659790039 -113.663459777832 2.052867412567
-40.735950469971 -88.338241577148 -195.530075073242 1.680161476135
-23.937456130981 -72.658439636230 -68.269104003906 4.251796245575
-68.220016479492 -80.203422546387 -289.444519042969 3.738693714142
-74.893150329590 -65.948265075684 -135.525238037109 1.819437026978
-50.367416381836 -82.747123718262 -201.688598632813 2.141488075256
22.259664535522 -65.952491760254 -36.145072937012 1.367942452431
90.779846191406 -65.867355346680 -70.435432434082 5.285008907318
-10.158548355103 -78.140769958496 -226.348754882813 2.215605974197
-125.547622680664 -76.359954833984 -258.041625976563 1.437752008438
26.922588348389 -60.359161376953 -37.794944763184 1.624322295189
-119.944274902344 -78.212341308594 -261.139770507813 5.551136493683
-58.368293762207 -60.163143157959 -135.119964599609 1.889024496078
48.937885284424 -69.036849975586 -104.661750793457 1.276567816734
103.754981994629 -70.373474121094 -197.473831176758 2.024162054062
4.705814838409 -77.997879028320 -242.649215698242 1.245620250702
-30.177177429199 -73.725639343262 -186.662582397461 0.997291326523
-84.729011535645 -64.754394531250 -116.374977111816 1.052606463432
61.636482238770 -62.852748870850 -83.231658935547 2.015450239182
109.152473449707 -70.514823913574 -165.405502319336 1.153918862343
-57.398498535156 -64.227256774902 -127.007415771484 1.533770799637
-28.588459014893 -64.122154235840 -76.342117309570 4.060172557831
9.008801460266 -68.100318908691 -289.301055908203 2.933611154556
-69.412590026855 -59.018131256104 -116.615798950195 1.402567028999
-1.824277997017 -85.018386840820 -248.920288085938 2.824791193008
-41.900196075439 -75.059623718262 -66.835227966309 4.394050121307
-25.330936431885 -62.759552001953 -52.391109466553 0.821129441261
-88.115516662598 -63.894546508789 -129.537429809570 1.948460936546
8.462568283081 -77.894828796387 -199.522613525391 2.145866632462
-148.757400512695 -84.063056945801 -302.512023925781 1.597043037415
-124.771446228027 -70.732330322266 -289.838897705078 2.412121534348
-75.747154235840 -68.715728759766 -101.814094543457 2.270797967911
-3.144925117493 -75.979148864746 -240.171508789063 2.599777936935
0.348596006632 -65.267143249512 -278.006378173828 1.892517566681
7.159976005554 -76.820487976074 -235.173645019531 1.628546237946
-147.487167358398 -73.837387084961 -191.655380249023 1.587214589119
-97.986236572266 -68.554145812988 -106.041763305664 3.212439537048
105.108657836914 -72.913154602051 -189.778884887695 1.879315018654
-37.797283172607 -61.958938598633 -77.951797485352 1.765649795532
104.086402893066 -66.193809509277 -103.414566040039 1.267609834671
10.551317214966 -69.825401306152 -214.231918334961 1.498802423477
-148.326889038086 -71.601928710938 -198.998870849609 1.554681062698
55.759910583496 -56.663833618164 -89.774055480957 2.125362157822
-158.940307617188 -73.265556335449 -194.630279541016 2.449547290802
87.429313659668 -71.292182922363 -79.176879882813 4.252359867096
-108.811927795410 -74.888732910156 -223.216491699219 2.514539718628
41.856666564941 -69.072807312012 -115.670875549316 1.986919522285
-127.932289123535 -74.028053283691 -266.459197998047 3.705011129379
-70.368499755859 -75.325683593750 -246.828704833984 1.375095367432
22.457929611206 -77.717407226563 -166.361785888672 2.683631420135
2.299350976944 -84.516639709473 -249.197586059570 3.284032821655
17.467802047729 -70.337547302246 -158.530990600586 2.394454240799
26.759622573853 -75.290481567383 -155.344940185547 2.931982517242
-149.787658691406 -80.543334960938 -226.459991455078 2.234026908875
79.551971435547 -71.622795104980 -229.038619995117 1.354874253273
-7.516785144806 -75.677398681641 -170.536819458008 0.479360252619
-75.011985778809 -69.631378173828 -51.283729553223 2.213220119476
-67.711517333984 -60.806373596191 -42.002700805664 1.908254384995
-155.757904052734 -86.878890991211 -276.590362548828 4.429111003876
-99.676353454590 -63.714054107666 -145.792175292969 2.568840503693
-0.283374011517 -70.263397216797 -233.727890014648 1.405805826187
101.948036193848 -72.147430419922 -176.695312500000 3.449702024460
8.139015197754 -83.402008056641 -237.664108276367 3.180417299271
-31.479276657104 -67.522903442383 -183.033920288086 2.038916826248
1.029734969139 -74.026741027832 -157.402938842773 3.750513792038
-92.318984985352 -74.279151916504 -90.402801513672 3.146747350693
-62.378166198730 -69.602600097656 -138.095397949219 2.597873210907
33.559051513672 -77.817558288574 -151.056930541992 2.126740217209
27.874719619751 -70.360359191895 -254.419067382813 2.120956659317
-149.233612060547 -76.331771850586 -309.909820556641 3.032862663269
86.241600036621 -71.713409423828 -211.815353393555 2.027237892151
42.836841583252 -69.169319152832 -106.972244262695 1.552238345146
97.874450683594 -50.614849090576 -70.044830322266 3.050598621368
17.739942550659 -75.185546875000 -210.059951782227 1.221240997314
-140.039611816406 -78.799827575684 -256.350189208984 2.852879762650
-93.250854492188 -74.749687194824 -220.459457397461 1.531677961349
-97.156585693359 -71.630401611328 -92.007957458496 2.488445520401
-115.319801330566 -72.467781066895 -228.147521972656 1.699857473373
-165.200378417969 -70.273941040039 -196.915695190430 1.572640895844
15.620596885681 -82.258064270020 -248.888137817383 0.672671139240
-22.519050598145 -77.282958984375 -291.642333984375 1.166605114937
106.872528076172 -73.073318481445 -152.268630981445 3.367197990417
94.835159301758 -61.806900024414 -74.965522766113 6.884812355042
23.481191635132 -76.875930786133 -181.654357910156 0.522508502007
-57.368263244629 -71.978782653809 -131.809478759766 1.051048636436
-19.281299591064 -60.346229553223 -67.574562072754 2.786642551422
103.613960266113 -54.316757202148 -91.551902770996 1.912549495697
-63.880729675293 -58.214088439941 -116.532775878906 2.946840047836
23.331085205078 -60.455722808838 -34.162307739258 0.740709900856
-27.367273330688 -75.892700195313 -191.987289428711 1.594717741013
-100.068489074707 -67.104751586914 -74.415374755859 3.875640630722
19.714315414429 -68.764854431152 -152.715164184570 2.843438148499
-47.161018371582 -76.892662048340 -192.443649291992 1.722268819809
110.614509582520 -72.390792846680 -148.867614746094 2.259630203247
-130.478057861328 -71.611152648926 -234.691925048828 1.024565219879
-96.531867980957 -68.786643981934 -150.540039062500 1.286076068878
9.083159446716 -73.545944213867 -241.171417236328 1.619991540909
15.827335357666 -85.785110473633 -248.593231201172 2.461376428604
-45.604770660400 -81.810485839844 -73.652633666992 2.458863973618
-30.295955657959 -81.587570190430 -189.712738037109 1.883496761322
-85.014640808105 -62.337253570557 -120.395477294922 2.219867706299
-149.137634277344 -67.387382507324 -248.404663085938 1.911241769791
6.162826061249 -77.604698181152 -292.010772705078 1.012861609459
-67.961296081543 -76.742317199707 -161.819610595703 1.694608569145
-139.974212646484 -91.067100524902 -259.028228759766 6.177310943604
-148.742202758789 -65.762336730957 -187.499938964844 1.037722229958
-124.583938598633 -77.895141601563 -264.747375488281 3.252351760864
-0.019917000085 -78.603309631348 -243.802841186523 3.196411371231
21.890285491943 -61.638038635254 -275.264953613281 1.562422752380
-69.128738403320 -70.961204528809 -157.217742919922 2.482880353928
107.247688293457 -70.922119140625 -154.388244628906 2.276004314423
16.763280868530 -77.868316650391 -237.927642822266 1.731074452400
14.907759666443 -71.192649841309 -286.104370117188 2.625265836716
-107.476127624512 -63.626518249512 -171.261611938477 2.296499490738
-162.777679443359 -76.114456176758 -212.442306518555 3.373661518097
25.825489044189 -67.621017456055 -154.643920898438 2.513331651688
-73.744224548340 -74.593307495117 -101.389144897461 1.719751238823
-150.190093994141 -89.168357849121 -296.845367431641 2.541477918625
106.205329895020 -69.533729553223 -180.910446166992 2.656004667282
-73.938537597656 -80.483497619629 -286.607910156250 4.526820182800
110.468467712402 -71.243858337402 -133.704360961914 1.087367653847
-96.894554138184 -66.863853454590 -141.934524536133 1.511047482491
-50.214202880859 -78.222236633301 -194.138320922852 1.480589151382
-24.684875488281 -72.405197143555 -74.397178649902 1.872943401337
40.838066101074 -65.835792541504 -250.827560424805 1.364632606506
21.630489349365 -61.478900909424 -24.569417953491 3.199796199799
-46.490982055664 -70.584617614746 -148.142654418945 1.731300950050
21.806324005127 -74.538467407227 -158.991012573242 2.011972665787
-149.750427246094 -66.819435119629 -234.789962768555 1.971885085106
42.486778259277 -74.164978027344 -119.821510314941 3.071152210236
-79.487998962402 -75.586082458496 -97.928749084473 3.416081666946
108.098487854004 -68.161163330078 -121.360801696777 0.862812817097
-100.840621948242 -78.860633850098 -219.259872436523 5.277379035950
-89.674072265625 -67.526092529297 -121.492881774902 2.760082960129
-71.387550354004 -72.628379821777 -147.918823242188 1.342929959297
92.367095947266 -62.281352996826 -70.134857177734 7.140061378479
35.151016235352 -56.286941528320 -37.077125549316 2.324355602264
-143.616561889648 -69.750877380371 -198.080627441406 2.550130844116
-147.307128906250 -69.074768066406 -195.599121093750 2.141049623489
-71.329544067383 -83.957778930664 -212.368041992188 2.516901016235
-166.942230224609 -74.312286376953 -205.841369628906 4.610163211823
-13.778567314148 -73.809806823730 -243.240066528320 2.695383787155
-168.725631713867 -74.108360290527 -226.883697509766 3.303928375244
-131.395263671875 -73.072280883789 -262.472808837891 2.040241956711
-60.204269409180 -61.819850921631 -134.305038452148 2.020662546158
18.650926589966 -71.464714050293 -205.483993530273 1.412296891212
-39.847194671631 -81.479927062988 -240.438354492188 2.467437982559
30.711540222168 -66.383033752441 -138.196533203125 2.981293916702
-75.288970947266 -59.132061004639 -100.236984252930 2.644577741623
-81.941413879395 -84.696769714355 -99.345046997070 0.881468057632
77.704261779785 -65.448577880859 -102.139747619629 4.437792301178
-154.470932006836 -82.716842651367 -273.329498291016 3.607334852219
-95.444290161133 -64.075759887695 -64.667816162109 2.382445573807
17.783927917480 -79.557304382324 -230.235839843750 1.657481670380
86.369255065918 -61.232360839844 -63.580699920654 1.820170521736
-142.245986938477 -79.081253051758 -199.924819946289 1.740175604820
43.829578399658 -70.716331481934 -118.008537292480 1.531072735786
-5.402070045471 -64.960037231445 -242.419799804688 0.906634986401
25.799140930176 -71.501564025879 -264.606231689453 1.192392826080
-16.694177627563 -66.461196899414 -66.296493530273 3.804598569870
-145.306472778320 -82.175994873047 -216.664428710938 1.188095211983
-96.015914916992 -71.901969909668 -111.276008605957 2.540684700012
-6.439967155457 -76.395202636719 -290.241943359375 1.993719696999
-170.173660278320 -75.627128601074 -221.082046508789 5.248155117035
33.108406066895 -69.306182861328 -116.803565979004 3.749553203583
11.480544090271 -74.006561279297 -245.612289428711 1.770038366318
34.229980468750 -64.753982543945 -259.334259033203 2.605935096741
-53.495059967041 -84.279296875000 -244.386001586914 3.741175174713
-17.386808395386 -78.789680480957 -209.698333740234 1.752217411995
-70.676406860352 -69.047676086426 -97.409713745117 3.069790601730
-42.256217956543 -76.620887756348 -155.553375244141 1.710155963898
-102.497131347656 -67.815101623535 -170.967559814453 1.098107218742
-32.807514190674 -69.784484863281 -173.008926391602 2.056099891663
41.669384002686 -72.290336608887 -252.963500976563 1.994725465775
-68.240150451660 -73.817314147949 -167.243972778320 2.887740850449
22.690395355225 -64.892295837402 -139.496353149414 2.465610027313
-145.442199707031 -88.230865478516 -258.412536621094 3.180414676666
-52.091449737549 -77.108833312988 -177.747009277344 1.408008098602
-25.153604507446 -75.103233337402 -220.945022583008 2.444775342941
-69.481445312500 -83.370155334473 -207.237594604492 1.620817661285
12.867705345154 -81.168586730957 -231.057205200195 1.307137727737
6.191689968109 -78.489356994629 -200.748687744141 2.952211380005
-150.260787963867 -78.476188659668 -231.160171508789 1.642430663109
27.993427276611 -70.260925292969 -156.334564208984 2.760618686676
32.940681457520 -65.095832824707 -130.206451416016 2.897615671158
-153.889801025391 -89.063079833984 -231.412246704102 5.994662284851
-10.427359580994 -73.468795776367 -281.837707519531 2.460712671280
70.467597961426 -70.521217346191 -233.176101684570 0.312888741493
-123.120727539063 -78.365692138672 -289.953216552734 3.266154766083
37.263538360596 -72.389228820801 -261.526550292969 4.109568595886
-107.969841003418 -70.900558471680 -189.951599121094 2.650839090347
-146.459808349609 -70.109046936035 -253.502243041992 2.195244550705
-62.274147033691 -62.566555023193 -122.778213500977 2.979936122894
-64.469329833984 -74.124465942383 -93.795486450195 0.953545868397
103.541839599609 -59.440334320068 -83.213836669922 2.470310926437
-145.690292358398 -78.370635986328 -184.487731933594 1.610302805901
-138.750137329102 -73.649780273438 -235.257125854492 3.583096027374
4.593912124634 -78.274826049805 -233.761489868164 1.684611678123
11.034548759460 -70.706901550293 -237.383621215820 1.867892861366
-11.890290260315 -72.109207153320 -202.786987304688 1.081490993500
-50.757656097412 -81.873855590820 -91.069465637207 1.691637754440
10.462339401245 -69.816154479980 -206.773300170898 0.568456232548
22.497526168823 -74.361213684082 -180.907348632813 2.363780260086
41.121585845947 -52.569683074951 -24.117723464966 2.682349443436
-25.842365264893 -72.673774719238 -222.224578857422 2.803234815598
18.700763702393 -68.941108703613 -160.323410034180 2.939210891724
9.931655883789 -82.344314575195 -222.455108642578 0.663110494614
-27.445631027222 -81.812660217285 -184.983032226563 1.495579004288
-95.467887878418 -62.915210723877 -142.925094604492 1.419964551926
107.970993041992 -65.089019775391 -166.240783691406 4.664762973785
-50.011817932129 -62.996891021729 -83.553260803223 1.295078754425
84.224174499512 -77.198539733887 -222.905731201172 1.545701265335
-97.091232299805 -64.016128540039 -68.135185241699 1.735713481903
-84.582603454590 -61.123912811279 -117.409149169922 1.680867433548
-5.987194061279 -77.152488708496 -216.676071166992 1.019422054291
-54.845134735107 -84.776733398438 -84.614746093750 2.435096979141
-79.994361877441 -76.348136901855 -104.221237182617 2.277720928192
22.171806335449 -61.167224884033 -144.935195922852 2.677419662476
-2.746120929718 -78.025405883789 -161.663253784180 3.279391050339
-152.591873168945 -77.257125854492 -207.445907592773 3.182729244232
57.956333160400 -68.608276367188 -242.557525634766 0.853581666946
-43.410293579102 -65.866271972656 -158.469390869141 2.318113803864
-39.421344757080 -67.240653991699 -175.783859252930 4.012702465057
4.784255981445 -74.091514587402 -226.397567749023 1.548557043076
25.785160064697 -80.009605407715 -157.655380249023 3.024909257889
109.828292846680 -70.568916320801 -131.154479980469 1.266087532043
19.137762069702 -75.368637084961 -196.852951049805 2.141714572906
33.267356872559 -73.644599914551 -251.731918334961 4.561064243317
-58.221572875977 -67.786346435547 -88.373817443848 1.736646413803
-59.368240356445 -84.811210632324 -203.335571289063 2.442797183990
-102.663627624512 -71.127609252930 -222.532287597656 2.030357122421
8.378750801086 -72.665542602539 -200.958740234375 0.946465730667
51.565109252930 -71.636352539063 -100.547012329102 3.336774587631
-41.634792327881 -67.282981872559 -53.781997680664 5.608955860138
-17.435972213745 -67.339920043945 -65.459426879883 3.934225320816
-87.407714843750 -76.051048278809 -215.703384399414 2.126485109329
43.471599578857 -59.953472137451 -25.366075515747 2.440201282501
-159.697082519531 -74.690414428711 -294.977355957031 3.262705564499
-44.423820495605 -77.404327392578 -167.503051757813 2.911338329315
-1.829082965851 -69.377777099609 -290.130035400391 2.516573905945
-119.877136230469 -74.122009277344 -203.782806396484 3.289810180664
-156.141021728516 -73.345863342285 -177.346328735352 4.175973892212
-0.682752013206 -74.315498352051 -239.011047363281 1.639514684677
63.442169189453 -57.668861389160 -91.990852355957 2.697375535965
15.693284988403 -81.708847045898 -257.978179931641 0.917926192284
-98.659904479980 -64.189033508301 -112.634658813477 1.938383340836
94.093673706055 -73.890998840332 -211.589401245117 0.614246308804
-76.834045410156 -70.832801818848 -143.201065063477 1.163629055023
-59.762466430664 -79.027351379395 -176.975784301758 1.852683186531
-41.862430572510 -60.808521270752 -48.557826995850 3.780191898346
-48.160934448242 -81.137496948242 -153.518218994141 2.425751209259
-51.244560241699 -76.771965026855 -188.314727783203 2.082210779190
21.286785125732 -67.771675109863 -142.479843139648 1.962757468224
41.465362548828 -63.776870727539 -35.050884246826 0.931542515755
12.810209274292 -78.410072326660 -208.092742919922 1.226796388626
-46.357822418213 -88.004371643066 -199.279281616211 2.331337690353
-146.630584716797 -87.372619628906 -221.120635986328 3.352780818939
80.243415832520 -54.757251739502 -57.339271545410 0.262088418007
-48.588821411133 -79.947113037109 -284.600860595703 2.991553783417
14.231738090515 -72.128097534180 -213.668945312500 2.213614702225
72.519920349121 -70.778991699219 -88.793525695801 3.485249280930
-132.982269287109 -76.847236633301 -256.066162109375 2.150089979172
-150.467575073242 -69.660003662109 -196.053924560547 1.646279811859
42.857769012451 -64.272476196289 -21.395053863525 0.366945594549
-139.075042724609 -69.940612792969 -256.952026367188 1.893151164055
-154.275360107422 -66.274139404297 -248.729324340820 3.530758380890
-160.124832153320 -77.468826293945 -263.633392333984 3.334221363068
-140.053115844727 -73.133567810059 -255.901779174805 2.452591180801
27.367506027222 -59.099433898926 -19.419357299805 2.216912984848
-148.636489868164 -76.266426086426 -188.236068725586 1.073892354965
95.239517211914 -69.696960449219 -206.450683593750 0.559302926064
-152.434448242188 -75.212722778320 -298.224212646484 1.336230397224
13.155160903931 -69.039428710938 -175.968719482422 3.851754903793
-9.455187797546 -67.433853149414 -215.903152465820 1.363452672958
-142.194671630859 -75.388778686523 -200.705276489258 0.983672797680
-62.118251800537 -74.082344055176 -138.458877563477 4.237007141113
-152.842102050781 -87.178054809570 -230.494659423828 4.230907440186
-102.348968505859 -61.519058227539 -82.366294860840 4.238261222839
103.635643005371 -72.775840759277 -163.274963378906 4.567940711975
-71.648483276367 -85.244544982910 -90.484329223633 1.756591439247
-135.434753417969 -79.215347290039 -254.325866699219 2.741278648376
-65.772544860840 -62.689373016357 -123.953765869141 0.830700457096
93.527755737305 -70.963150024414 -196.825195312500 4.188864231110
-71.057540893555 -71.482345581055 -146.836837768555 1.582949280739
-75.626205444336 -67.857917785645 -104.200233459473 0.837698101997
3.495446920395 -75.285171508789 -214.476043701172 3.165026187897
-78.214347839355 -62.925704956055 -113.500587463379 1.965571999550
-135.392669677734 -75.552162170410 -225.564834594727 2.219029188156
-147.061965942383 -86.100234985352 -300.222778320313 1.484763145447
-75.949417114258 -56.842674255371 -45.893817901611 1.552912116051
-55.335006713867 -59.984992980957 -126.077438354492 0.623420953751
36.891624450684 -60.012382507324 -13.237876892090 3.131051540375
-109.304954528809 -68.671302795410 -186.634902954102 1.455075740814
-129.530380249023 -64.491165161133 -199.413513183594 1.981648921967
-150.034225463867 -67.573745727539 -192.547683715820 0.956940531731
-52.867038726807 -76.021255493164 -89.337341308594 1.998324394226
-147.953857421875 -91.226593017578 -250.966308593750 5.889637947083
-64.652214050293 -58.940650939941 -131.049148559570 2.425597906113
-92.497436523438 -69.935562133789 -138.170608520508 2.396802663803
30.613782882690 -52.733619689941 -12.868733406067 1.516779422760
109.531692504883 -68.867813110352 -128.564331054688 1.634791612625
-33.607482910156 -77.750228881836 -210.818603515625 1.706360936165
46.074356079102 -68.999237060547 -108.581298828125 1.450566411018
112.137115478516 -67.931900024414 -131.158859252930 1.548403859138
-52.407276153564 -67.982940673828 -134.492813110352 2.776067256927
-150.377029418945 -80.907356262207 -216.191314697266 2.083384752274
-140.858001708984 -73.428833007813 -201.675262451172 1.914059996605
-91.166633605957 -71.594360351563 -82.706771850586 2.771751165390
-34.831977844238 -79.121223449707 -207.212921142578 1.556464910507
-26.535991668701 -60.265949249268 -71.982254028320 3.779336452484
84.698448181152 -71.437225341797 -86.436721801758 6.716319084167
-154.590057373047 -72.236129760742 -279.163452148438 2.375748872757
44.471530914307 -63.942615509033 -107.039855957031 3.844576358795
-37.117092132568 -62.146110534668 -47.159309387207 1.349742054939
36.499717712402 -73.678848266602 -120.320251464844 2.471293210983
103.392578125000 -57.680725097656 -77.051330566406 2.182108402252
-108.363174438477 -68.842475891113 -194.306015014648 0.429219335318
-145.108612060547 -87.932037353516 -236.852813720703 4.953873157501
-80.640350341797 -69.620590209961 -60.430492401123 4.070095062256
-74.521018981934 -72.752563476563 -60.969562530518 3.473721742630
112.058097839355 -72.411415100098 -140.334426879883 1.525434613228
76.680969238281 -69.448181152344 -97.045753479004 4.128819942474
103.702049255371 -66.202430725098 -121.207244873047 4.471925258636
-145.264129638672 -82.134757995605 -204.218063354492 2.135204553604
76.841842651367 -77.099426269531 -223.440643310547 2.546931266785
23.826219558716 -76.204963684082 -154.635406494141 1.454299807549
-27.491083145142 -72.660537719727 -181.459014892578 2.868855953217
-147.039230346680 -78.075805664063 -287.245635986328 2.738790035248
0.229311004281 -75.449157714844 -240.602355957031 2.502590894699
15.122388839722 -75.096786499023 -248.465759277344 2.426405191422
108.580764770508 -61.367313385010 -116.990440368652 6.023796558380
-166.987640380859 -83.637596130371 -269.596649169922 7.651389598846
-12.540451049805 -69.900115966797 -245.381240844727 0.652092635632
27.990955352783 -71.407630920410 -164.986679077148 2.420562267303
-37.042732238770 -77.977516174316 -206.105743408203 1.395921587944
-47.643539428711 -62.696872711182 -83.852668762207 1.643393993378
-164.058898925781 -70.210662841797 -209.201110839844 2.585461854935
-135.974929809570 -79.797729492188 -295.393951416016 3.464603185654
-165.325225830078 -70.566795349121 -207.599945068359 2.706086874008
-95.375030517578 -66.304801940918 -61.488273620605 4.237707614899
-46.434947967529 -78.592262268066 -241.072204589844 1.764633536339
-148.967346191406 -88.321342468262 -276.005828857422 2.441348075867
-169.625198364258 -79.530143737793 -246.587966918945 6.827216148376
-143.569442749023 -80.672126770020 -291.459259033203 1.958571314812
-119.988090515137 -74.013710021973 -228.612640380859 2.700806379318
99.898666381836 -58.777450561523 -70.262016296387 2.804543495178
82.607353210449 -67.605560302734 -227.847335815430 3.360681772232
37.363685607910 -73.291435241699 -111.544792175293 1.818348169327
-49.789058685303 -75.578788757324 -88.682212829590 1.267221808434
-112.399505615234 -72.077507019043 -225.392150878906 1.870750784874
-96.555511474609 -67.172164916992 -76.077377319336 0.616197049618
57.268405914307 -67.383308410645 -238.375473022461 2.355798006058
43.549522399902 -65.174140930176 -34.593631744385 2.597776412964
-5.805162906647 -66.549873352051 -258.331573486328 1.393377900124
-83.017990112305 -67.743309020996 -116.475654602051 2.067380428314
17.178730010986 -78.908821105957 -273.520263671875 1.539300918579
-13.440556526184 -79.447875976563 -275.561370849609 4.006038665771
32.830207824707 -66.106529235840 -125.554550170898 2.592275381088
-155.132492065430 -71.035064697266 -286.347808837891 1.323110580444
1.947250008583 -80.951477050781 -246.199752807617 2.028382301331
-128.704925537109 -76.072433471680 -236.391372680664 4.613388538361
-12.351002693176 -75.451843261719 -269.242950439453 1.998765826225
29.821540832520 -53.360790252686 -37.008483886719 1.943276643753
5.355028152466 -85.343833923340 -248.090270996094 4.411161899567
22.012498855591 -75.390640258789 -139.442016601563 3.495414733887
67.634292602539 -69.147361755371 -240.200546264648 1.403676509857
-57.999210357666 -76.658599853516 -282.135559082031 2.438532114029
68.638511657715 -68.080223083496 -231.921295166016 1.135314822197
-145.817367553711 -65.041809082031 -182.257522583008 2.959591865540
33.652122497559 -69.786903381348 -118.264404296875 3.368961334229
-148.036056518555 -75.955245971680 -247.866104125977 2.044873237610
96.270164489746 -60.260330200195 -71.523124694824 5.418265342712
17.166320800781 -82.645507812500 -241.682739257813 3.050544261932
-51.721683502197 -80.895088195801 -86.463584899902 2.353534221649
-143.084259033203 -73.627662658691 -290.851928710938 2.160719633102
-145.814682006836 -68.141624450684 -179.499618530273 2.449650287628
-98.437385559082 -70.892547607422 -217.928955078125 0.453639566898
-23.570369720459 -80.302429199219 -195.159118652344 1.374027609825
-71.420761108398 -86.014038085938 -207.110794067383 3.509830474854
13.519568443298 -83.157402038574 -253.288253784180 1.272842884064
-12.084723472595 -71.445861816406 -236.232757568359 2.033473014832
-103.530525207520 -59.924682617188 -76.090591430664 5.448483943939
-37.228656768799 -58.088161468506 -47.495838165283 2.890707731247
-8.242758750916 -69.055953979492 -257.043670654297 3.842763662338
-147.072753906250 -83.185050964355 -301.592193603516 2.517630815506
-34.430168151855 -77.117774963379 -184.145355224609 1.921054601669
-161.354339599609 -71.076538085938 -208.508544921875 4.251780033112
-17.731002807617 -73.864395141602 -228.628219604492 1.265831947327
-78.272018432617 -65.277801513672 -139.687042236328 1.844848871231
-36.398124694824 -73.286750793457 -174.054504394531 2.195139646530
-148.487030029297 -66.886497497559 -198.123474121094 0.215595632792
-2.171032905579 -76.450958251953 -220.300491333008 0.897395968437
-161.742980957031 -79.545639038086 -251.879455566406 5.096650600433
22.156978607178 -75.823875427246 -263.692321777344 2.104343175888
-6.539113998413 -79.927436828613 -217.364669799805 1.460229039192
2.309040069580 -85.392105102539 -272.354827880859 2.029280185699
12.546991348267 -81.215751647949 -288.460388183594 3.461780071259
12.345365524292 -85.663665771484 -258.741058349609 2.334468841553
-60.979980468750 -76.781509399414 -245.466491699219 1.130680322647
-1.723047971725 -73.227943420410 -235.689865112305 0.655233979225
94.588661193848 -73.316978454590 -204.559402465820 2.975505113602
-36.956371307373 -82.522850036621 -209.044845581055 4.009734153748
105.092086791992 -54.292903900146 -76.059051513672 2.014896154404
-140.223464965820 -70.524330139160 -203.800247192383 1.724961400032
-116.565589904785 -75.988533020020 -291.813873291016 2.381447315216
-14.063839912415 -78.370010375977 -219.827301025391 1.626813054085
49.459770202637 -61.106483459473 -97.821517944336 2.840195417404
-149.860229492188 -72.168746948242 -278.788299560547 3.366727352142
-58.475780487061 -70.296768188477 -145.742797851563 2.214958190918
-44.963306427002 -80.674583435059 -285.142333984375 3.912757635117
-17.842098236084 -80.910179138184 -175.589813232422 1.629291653633
-19.142206192017 -74.364692687988 -225.164505004883 2.602307081223
34.946701049805 -70.015129089355 -131.560134887695 0.776453852654
101.863784790039 -71.039634704590 -178.201217651367 2.893518209457
7.841623783112 -74.337806701660 -193.676284790039 2.945325851440
114.092247009277 -67.467559814453 -138.416030883789 1.413078427315
99.604797363281 -65.148529052734 -104.222373962402 2.459754228592
-86.794891357422 -84.182098388672 -106.788986206055 2.385634422302
72.782341003418 -64.961257934570 -68.074890136719 2.305076360703
93.920738220215 -65.146713256836 -75.201164245605 6.636692523956
97.676803588867 -68.748695373535 -92.435943603516 3.078927516937
69.073593139648 -63.169818878174 -70.106178283691 2.231176376343
-29.895261764526 -69.396949768066 -184.212600708008 1.828982353210
-60.183357238770 -60.915672302246 -119.697280883789 1.641970515251
-2.864299058914 -78.816093444824 -245.488952636719 2.443097829819
-146.183273315430 -66.841133117676 -228.140258789063 0.911931753159
-156.109939575195 -78.951751708984 -221.401275634766 4.537887573242
23.878438949585 -77.579505920410 -138.582046508789 1.078797459602
54.080024719238 -69.224327087402 -88.697547912598 1.630925059319
35.699375152588 -62.746372222900 -114.467033386230 5.707014560699
-7.833743095398 -70.887496948242 -285.390167236328 1.846127510071
-34.029933929443 -77.367187500000 -209.044845581055 1.857987523079
-20.498596191406 -80.536132812500 -177.779067993164 2.158907175064
95.393577575684 -65.770225524902 -71.253425598145 3.426236152649
15.905724525452 -66.530609130859 -181.339233398438 3.716393470764
7.969577789307 -76.797019958496 -213.761260986328 1.031378269196
92.602661132813 -70.833854675293 -207.764099121094 1.296136498451
-49.259300231934 -61.634941101074 -48.792030334473 4.236110687256
-24.272752761841 -79.695175170898 -244.030792236328 1.556145668030
79.174339294434 -70.665512084961 -74.984603881836 3.384034156799
91.573348999023 -65.473899841309 -94.954521179199 8.518741607666
92.980949401855 -66.301300048828 -92.755233764648 7.782515048981
-45.184406280518 -72.021102905273 -162.836456298828 1.225968480110
