18.865026473999 -68.343017578125 -151.940917968750 1.686576485634
-150.630386352539 -82.769935607910 -222.152603149414 2.289928436279
-76.254638671875 -74.303321838379 -287.731689453125 0.856626629829
-41.350173950195 -71.996307373047 -57.993209838867 2.092457771301
-164.179367065430 -78.363815307617 -278.304992675781 5.371743202209
-18.460304260254 -67.973548889160 -205.011093139648 2.046595096588
31.399581909180 -78.721107482910 -142.627059936523 0.951228380203
102.501182556152 -56.495029449463 -77.031066894531 3.638947248459
-5.538650989532 -69.539962768555 -270.933074951172 2.681901454926
11.314365386963 -82.536575317383 -212.000534057617 3.855072498322
-137.224273681641 -82.849647521973 -196.671447753906 1.381444334984
41.950740814209 -66.674247741699 -255.753555297852 1.466743350029
23.320293426514 -80.262016296387 -166.157608032227 1.778523564339
46.563941955566 -69.471435546875 -95.978492736816 1.564982891083
-83.679489135742 -75.220748901367 -110.092414855957 1.769205570221
12.512161254883 -78.170585632324 -211.609405517578 1.282791852951
-86.297332763672 -79.127082824707 -87.293342590332 3.395269393921
-107.832115173340 -72.066734313965 -184.304840087891 3.755831003189
-61.255378723145 -74.812591552734 -294.352630615234 4.530680656433
16.233028411865 -79.278793334961 -188.676208496094 2.586879253387
-2.186539888382 -71.915863037109 -227.213333129883 1.338366746902
89.578483581543 -78.338409423828 -210.770950317383 2.639142990112
-139.653442382813 -71.233818054199 -261.181488037109 2.660208702087
76.522041320801 -60.606544494629 -60.910003662109 2.259065866470
-62.407585144043 -75.360519409180 -250.877685546875 1.115897774696
-46.714382171631 -75.034034729004 -289.115264892578 0.768604695797
70.530746459961 -62.593570709229 -68.064964294434 2.666870594025
40.128032684326 -69.038642883301 -258.582244873047 1.380867958069
-20.373853683472 -79.008323669434 -287.285400390625 1.897188901901
-42.732742309570 -75.590347290039 -85.509727478027 2.324895381927
-165.911056518555 -73.563713073730 -232.730575561523 1.952551007271
-41.648849487305 -73.089569091797 -167.917114257813 1.867860198021
-116.525833129883 -71.192932128906 -289.214630126953 2.301920175552
73.757530212402 -58.941207885742 -60.836338043213 0.937549471855
-151.839584350586 -71.259284973145 -180.005020141602 2.013977527618
-43.254737854004 -69.554481506348 -170.310348510742 3.053720951080
-29.621210098267 -61.447147369385 -50.014392852783 2.325008630753
20.218519210815 -82.674331665039 -259.743560791016 2.588895082474
17.968643188477 -80.352699279785 -225.085723876953 2.824848175049
15.204386711121 -77.060638427734 -290.557067871094 0.535050153732
43.559928894043 -64.462287902832 -34.354896545410 2.084967374802
46.843471527100 -66.145683288574 -104.416931152344 0.863170623779
26.893321990967 -72.769607543945 -141.469070434570 0.753300249577
-68.684692382813 -55.649600982666 -91.498420715332 3.372991323471
54.647766113281 -60.610862731934 -93.676994323730 1.948046088219
114.631950378418 -66.550491333008 -154.639312744141 4.233256340027
27.337680816650 -70.394966125488 -137.190780639648 1.536616444588
-44.074718475342 -68.430633544922 -139.840255737305 2.738106012344
-98.217231750488 -61.611011505127 -110.071166992188 0.661690175533
-152.240219116211 -60.332469940186 -200.023956298828 1.524375081062
73.666229248047 -72.552062988281 -227.038940429688 2.073237895966
-61.752223968506 -68.034042358398 -120.191238403320 2.749751329422
-41.128078460693 -67.037467956543 -152.978759765625 2.984688282013
-62.463016510010 -78.779663085938 -162.100326538086 1.227968335152
-87.724464416504 -70.466354370117 -254.273178100586 2.040532588959
-54.759952545166 -77.213203430176 -285.775024414063 2.411644458771
24.593606948853 -70.342453002930 -261.275177001953 1.171552062035
83.728996276855 -74.442642211914 -223.264389038086 0.589026093483
-35.190521240234 -75.715492248535 -204.039916992188 1.801278233528
-152.140884399414 -83.209686279297 -230.061859130859 1.988831281662
-128.270355224609 -64.333808898926 -229.670837402344 2.459211587906
-78.647392272949 -71.443405151367 -251.923675537109 2.079210758209
-144.927993774414 -74.964668273926 -271.149047851563 3.993682861328
-129.789474487305 -78.767349243164 -263.704437255859 4.135687828064
-144.974838256836 -83.822334289551 -210.605148315430 1.048996806145
-123.643898010254 -64.654800415039 -197.029281616211 0.858944773674
-58.827556610107 -68.344154357910 -146.365295410156 2.893374681473
-34.733150482178 -73.653961181641 -287.608123779297 2.291034221649
-66.034370422363 -56.864673614502 -113.482490539551 2.703003883362
-39.098030090332 -87.610038757324 -195.539321899414 1.490566372871
-21.738685607910 -72.845535278320 -68.244125366211 3.400943040848
-66.590614318848 -78.496253967285 -289.361328125000 2.770697355270
-72.675849914551 -64.796455383301 -135.367263793945 0.990386009216
-48.625179290771 -81.796096801758 -201.653625488281 0.389071136713
24.647274017334 -67.227210998535 -36.183643341064 2.877972602844
93.088943481445 -68.386634826660 -70.611022949219 3.309946537018
-8.378103256226 -77.900779724121 -226.373931884766 2.472745418549
-123.767425537109 -73.624504089355 -257.826477050781 0.864973187447
29.420209884644 -61.722850799561 -37.818084716797 2.169654130936
-118.209014892578 -75.576950073242 -260.944061279297 2.968121767044
-56.035614013672 -59.351539611816 -134.969589233398 1.342708230019
51.125373840332 -70.548728942871 -104.766838073730 1.494580864906
105.725448608398 -72.588310241699 -197.694000244141 1.476478815079
6.454751968384 -77.988265991211 -242.703475952148 0.714406609535
-28.226207733154 -73.255699157715 -186.628387451172 1.269605398178
-82.448501586914 -63.487827301025 -116.192153930664 2.042668342590
63.988662719727 -64.720893859863 -83.335128784180 1.913106203079
111.180496215820 -72.983169555664 -165.637527465820 1.790549874306
-55.133392333984 -63.470832824707 -126.877090454102 0.920476019382
-26.229984283447 -64.180114746094 -76.269851684570 4.133216381073
10.869264602661 -67.972000122070 -289.319549560547 1.844620227814
-67.018684387207 -58.064212799072 -116.438346862793 2.482779741287
-0.229298993945 -84.845970153809 -248.992446899414 3.292058229446
-39.743900299072 -74.886146545410 -66.784782409668 3.720715522766
-22.899347305298 -62.991390228271 -52.319637298584 2.760552883148
-85.842025756836 -62.500209808350 -129.343826293945 2.153269290924
10.295626640320 -78.154762268066 -199.584457397461 2.062776327133
-147.214920043945 -80.653526306152 -302.283843994141 3.233700037003
-122.937599182129 -67.871734619141 -289.600036621094 2.539216756821
-73.521430969238 -67.696662902832 -101.667060852051 1.696144342422
-1.348376989365 -75.820892333984 -240.201049804688 2.549767017365
2.290394067764 -65.013282775879 -277.995025634766 2.688423633575
8.946780204773 -76.894638061523 -235.227691650391 1.739452004433
-145.523391723633 -70.951797485352 -191.385726928711 2.588170766830
-95.760658264160 -67.062500000000 -105.849235534668 2.840455770493
107.041778564453 -75.189468383789 -190.013122558594 2.179507017136
-35.395809173584 -61.822299957275 -77.851409912109 2.122021198273
106.322715759277 -68.836990356445 -103.617973327637 1.111624956131
12.520391464233 -70.063926696777 -214.262039184570 1.583129286766
-146.331405639648 -68.666854858398 -198.717529296875 1.948461651802
58.227085113525 -58.384174346924 -89.838203430176 1.972413778305
-156.968170166016 -70.133132934570 -194.335021972656 1.034419059753
89.611602783203 -73.702827453613 -79.369667053223 2.953869819641
-106.938354492188 -72.650787353516 -223.028900146484 2.074802875519
44.023769378662 -70.390975952148 -115.761764526367 1.912432789803
-126.120155334473 -71.206809997559 -266.228820800781 1.200679421425
-68.557258605957 -73.766342163086 -246.720077514648 1.398338794708
24.355339050293 -78.411216735840 -166.451385498047 1.062085628510
3.903170108795 -84.427223205566 -249.275817871094 3.225463390350
19.531921386719 -70.966186523438 -158.577941894531 1.723084449768
28.726814270020 -76.121856689453 -155.432571411133 2.685994625092
-148.027114868164 -77.453689575195 -226.215026855469 1.625276565552
81.441421508789 -73.202415466309 -229.215286254883 0.450289875269
-5.579452037811 -75.741447448730 -170.557037353516 1.098017334938
-72.708076477051 -68.853111267090 -51.142818450928 1.451268076897
-65.211204528809 -60.220478057861 -41.837463378906 2.212434530258
-154.221664428711 -83.441864013672 -276.360900878906 3.308711290359
-97.427955627441 -62.011199951172 -145.574325561523 3.076397418976
1.641603946686 -70.193588256836 -233.737930297852 1.438843250275
103.922569274902 -74.417945861816 -176.919952392578 2.070875644684
9.786502838135 -83.483558654785 -237.749267578125 2.193637132645
-29.394466400146 -67.043975830078 -182.969665527344 1.761920928955
3.024179935455 -74.324256896973 -157.433197021484 2.346116542816
-90.181419372559 -72.971824645996 -90.247230529785 4.724428176880
-60.243015289307 -68.693817138672 -137.978744506836 1.741144299507
35.481468200684 -78.806274414063 -151.169464111328 3.159669399261
29.752067565918 -70.772453308105 -254.485916137695 2.354868412018
-147.547439575195 -72.881118774414 -309.646331787109 3.273996114731
88.160858154297 -73.506515502930 -212.006088256836 1.617790699005
45.018466949463 -70.546363830566 -107.065628051758 1.845390915871
100.494110107422 -53.283943176270 -70.167091369629 1.863868355751
19.606113433838 -75.588211059570 -210.128326416016 1.824347376823
-138.302917480469 -75.775756835938 -256.116760253906 2.344710588455
-91.372413635254 -72.841575622559 -220.302566528320 2.139964580536
-94.967018127441 -70.217773437500 -91.830894470215 1.869451045990
-113.404907226563 -70.075538635254 -227.936065673828 1.444770216942
-163.170257568359 -67.004226684570 -196.594558715820 2.133058309555
17.268306732178 -82.442291259766 -248.983139038086 1.089032173157
-20.843870162964 -76.498962402344 -291.638092041016 1.247476100922
108.874031066895 -75.553344726563 -152.507568359375 1.663442730904
97.217575073242 -64.389541625977 -75.131210327148 4.935487270355
25.366197586060 -77.522407531738 -181.742095947266 1.172990322113
-55.270595550537 -71.199813842773 -131.713516235352 0.986967384815
-16.830881118774 -60.634109497070 -67.504386901855 4.350237846375
106.115562438965 -57.005947113037 -91.701858520508 2.351793050766
-61.471420288086 -57.373577117920 -116.362884521484 0.566963791847
25.834465026855 -61.762363433838 -34.178695678711 1.507262587547
-25.471347808838 -75.455795288086 -191.968292236328 1.996045351028
-97.752159118652 -65.712394714355 -74.212600708008 2.246556043625
21.821228027344 -69.465675354004 -152.759719848633 2.419051408768
-45.282218933105 -76.049674987793 -192.389282226563 0.965642452240
112.635688781738 -74.962524414063 -149.111083984375 1.697613477707
-128.555053710938 -68.880584716797 -234.446105957031 2.264672756195
-94.396774291992 -67.125602722168 -150.350952148438 1.759422302246
10.924877166748 -73.633216857910 -241.214752197266 1.621567010880
17.403581619263 -85.974113464355 -248.704284667969 2.274076700211
-43.598575592041 -81.529472351074 -73.624572753906 1.551546096802
-28.511280059814 -81.099845886230 -189.713119506836 1.183035612106
-82.692459106445 -61.047409057617 -120.201309204102 1.226956009865
-147.150833129883 -64.215721130371 -248.102432250977 2.375465869904
7.824699878693 -77.404129028320 -292.065643310547 2.166074514389
-66.016250610352 -75.611976623535 -161.723098754883 1.090035676956
-138.493057250977 -88.029716491699 -258.849273681641 3.594256877899
-146.605377197266 -62.871486663818 -187.192016601563 1.257012009621
-122.848152160645 -75.149024963379 -264.540924072266 1.508570551872
1.715440988541 -78.491996765137 -243.850265502930 2.633743286133
23.906888961792 -61.836708068848 -275.280853271484 1.789347171783
-67.056617736816 -69.828880310059 -157.093307495117 0.967800557613
109.288955688477 -73.400787353516 -154.618362426758 3.219548463821
18.521390914917 -78.125839233398 -238.005615234375 2.200926780701
16.710006713867 -71.198303222656 -286.148437500000 3.621906042099
-105.273208618164 -61.650650024414 -171.027404785156 2.813808679581
-160.897079467773 -72.823455810547 -212.151748657227 3.124966859818
27.950759887695 -68.438140869141 -154.695663452148 0.951769113541
-71.638069152832 -73.615722656250 -101.272193908691 2.090638160706
-148.740646362305 -85.753829956055 -296.636993408203 0.970715403557
108.224227905273 -71.872817993164 -181.132019042969 2.048827171326
-72.308197021484 -78.672286987305 -286.514526367188 4.109264373779
112.542205810547 -73.880676269531 -133.942626953125 1.251770973206
-94.703620910645 -65.234321594238 -141.736282348633 1.976189136505
-48.365150451660 -77.309097290039 -194.083679199219 1.530083179474
-22.492544174194 -72.549690246582 -74.369499206543 2.430721759796
42.811931610107 -66.529403686523 -250.900466918945 2.580954074860
24.131763458252 -62.793525695801 -24.587032318115 1.918690800667
-44.398509979248 -69.954811096191 -148.062194824219 0.910910844803
23.782905578613 -75.252639770508 -159.065292358398 3.212484836578
-147.725769042969 -63.696285247803 -234.484146118164 1.679175019264
44.541847229004 -75.476325988770 -119.936180114746 1.320314645767
-77.394256591797 -74.506584167480 -97.804687500000 2.809284925461
110.259338378906 -70.805511474609 -121.580787658691 0.377917230129
-99.042190551758 -76.802146911621 -219.105957031250 3.726054906845
-87.458923339844 -66.135147094727 -121.312332153320 2.561819076538
-69.331130981445 -71.491203308105 -147.797348022461 1.354238510132
94.749626159668 -64.835144042969 -70.297752380371 4.329850196838
37.731399536133 -57.822597503662 -37.098773956299 2.457215070724
-141.582534790039 -66.916404724121 -197.800567626953 1.574187040329
-145.253753662109 -66.176254272461 -195.308670043945 2.499690771103
-69.628112792969 -82.531074523926 -212.296157836914 1.350744009018
-165.011306762695 -70.966239929199 -205.534530639648 1.588847756386
-11.941399574280 -73.421356201172 -243.238571166992 1.025575518608
-166.830581665039 -70.631866455078 -226.572113037109 1.666494488716
-129.555236816406 -70.198432922363 -262.231292724609 2.849289178848
-57.903453826904 -60.974075317383 -134.158325195313 1.837802052498
20.601636886597 -71.907249450684 -205.537765502930 1.644416213036
-38.155712127686 -80.570503234863 -240.418457031250 1.324812054634
32.892631530762 -67.373664855957 -138.252822875977 3.287348031998
-72.864707946777 -58.131488800049 -100.048408508301 1.733263969421
-80.035820007324 -83.558898925781 -99.256416320801 2.715803861618
79.963775634766 -67.559387207031 -102.286811828613 2.905554771423
-152.843750000000 -79.321563720703 -273.084197998047 2.261320114136
-93.048393249512 -62.821994781494 -64.461036682129 2.898771286011
19.522121429443 -79.869682312012 -230.323440551758 2.038407087326
88.787040710449 -63.693328857422 -63.726955413818 2.303496360779
-140.406219482422 -76.264465332031 -199.688842773438 1.402386307716
45.958232879639 -72.063934326172 -118.110649108887 0.860585927963
-3.384464025497 -64.748077392578 -242.395935058594 0.790817916393
27.634071350098 -71.825500488281 -264.673828125000 2.587212085724
-14.366655349731 -66.806236267090 -66.258636474609 2.240638256073
-143.561370849609 -79.221221923828 -216.435836791992 2.223868846893
-93.869125366211 -70.426383972168 -111.102218627930 3.052284240723
-4.747361183167 -75.945693969727 -290.266113281250 1.827257275581
-168.298156738281 -72.146705627441 -220.774353027344 2.558799028397
35.270408630371 -70.440757751465 -116.877883911133 1.542837381363
13.303829193115 -74.122779846191 -245.662429809570 0.660003721714
36.210979461670 -65.274971008301 -259.388977050781 1.409176826477
-51.865425109863 -83.073173522949 -244.351028442383 3.623504638672
-15.586117744446 -78.476547241211 -209.712051391602 1.847399234772
-68.450065612793 -68.151695251465 -97.274391174316 2.486669063568
-40.302066802979 -76.043014526367 -155.508087158203 1.352586746216
-100.380180358887 -65.941215515137 -170.761932373047 1.573108673096
-30.749334335327 -69.322799682617 -172.952133178711 1.510887026787
43.507232666016 -72.989944458008 -253.066665649414 1.867659926414
-66.245765686035 -72.657661437988 -167.133880615234 1.093500852585
24.901102066040 -65.713798522949 -139.529891967773 1.588180065155
-143.900802612305 -85.085296630859 -258.210021972656 1.779930830002
-50.187805175781 -76.230949401855 -177.683853149414 2.439284324646
-23.297634124756 -74.582153320313 -220.926635742188 1.397346258163
-67.758560180664 -82.004226684570 -207.166885375977 2.820985794067
14.572469711304 -81.376640319824 -231.142044067383 1.588649868965
8.010737419128 -78.697349548340 -200.808578491211 1.771625399590
-148.466964721680 -75.356323242188 -230.905044555664 1.302486062050
30.061113357544 -71.114143371582 -156.402359008789 0.826487123966
35.162918090820 -66.167961120605 -130.261611938477 2.791981220245
-152.311782836914 -85.865737915039 -231.196731567383 3.300377607346
-8.658049583435 -72.976165771484 -281.841003417969 1.245167851448
72.373497009277 -71.897239685059 -233.329574584961 1.592628240585
-121.443252563477 -75.536590576172 -289.751464843750 0.752338230610
39.083854675293 -72.960632324219 -261.621185302734 4.811372280121
-105.951164245605 -68.829444885254 -189.748413085938 1.462973833084
-144.538909912109 -66.968620300293 -253.217407226563 1.077898144722
-59.966003417969 -61.729938507080 -122.630767822266 2.707586050034
-62.340972900391 -73.370170593262 -93.695198059082 1.388118743896
105.954895019531 -62.164226531982 -83.386451721191 1.241231799126
-143.805664062500 -75.552772521973 -184.241867065430 2.389885663986
-136.868087768555 -70.747482299805 -235.003707885742 2.574622869492
6.354284763336 -78.302619934082 -233.816833496094 0.873220920563
12.941074371338 -70.851547241211 -237.418350219727 1.875861883163
-9.941134452820 -71.940582275391 -202.782226562500 1.393451213837
-48.785114288330 -81.409797668457 -91.031127929688 2.713887929916
12.445941925049 -70.086219787598 -206.803283691406 1.891699314117
24.435499191284 -74.991508483887 -180.981979370117 0.614055275917
43.801464080811 -54.285919189453 -24.135051727295 3.018371105194
-23.939121246338 -72.133445739746 -222.194030761719 0.924078643322
20.789684295654 -69.587181091309 -160.366622924805 1.165343284607
11.629557609558 -82.530685424805 -222.539352416992 2.233915567398
-25.657068252563 -81.404190063477 -184.990203857422 2.337478160858
-93.198562622070 -61.311214447021 -142.712203979492 2.388824462891
110.108398437500 -67.530708312988 -166.446380615234 1.508446455002
-47.639717102051 -62.585781097412 -83.432838439941 1.263783693314
86.010620117188 -78.899688720703 -223.116577148438 2.191356182098
-94.700431823730 -62.713268280029 -67.924781799316 1.663138031960
-82.230010986328 -59.856502532959 -117.210510253906 1.327395081520
-4.168881893158 -77.041076660156 -216.705368041992 1.250021815300
-52.918586730957 -84.257522583008 -84.581130981445 2.702586412430
-77.928146362305 -75.229995727539 -104.099456787109 3.362473964691
24.448207855225 -61.954631805420 -144.951110839844 2.654449939728
-0.840676009655 -78.225967407227 -161.703582763672 2.965355873108
-150.727142333984 -74.196029663086 -207.180969238281 1.847964644432
59.885894775391 -69.687507629395 -242.677246093750 1.541132330894
-41.241996765137 -65.254158020020 -158.374099731445 3.044142484665
-37.315181732178 -66.632179260254 -175.702468872070 2.930414199829
6.644110202789 -74.157043457031 -226.434860229492 1.865785360336
27.651803970337 -80.809738159180 -157.761932373047 2.252970933914
111.920837402344 -73.204223632813 -131.388504028320 1.473369121552
21.025260925293 -75.858856201172 -196.925094604492 2.111522912979
35.081699371338 -74.178009033203 -251.824188232422 3.623938560486
-55.954757690430 -67.185142517090 -88.258064270020 2.804765224457
-57.669403076172 -83.668739318848 -203.291610717773 1.197420001030
-100.713264465332 -69.018981933594 -222.340393066406 2.005724906921
10.315799713135 -72.918487548828 -200.997222900391 1.276782631874
53.706886291504 -73.219665527344 -100.668960571289 1.928648710251
-39.294769287109 -67.174995422363 -53.697769165039 5.443142890930
-15.124621391296 -67.673377990723 -65.423980712891 3.200010061264
-85.547935485840 -74.283126831055 -215.564071655273 2.563672304153
45.997886657715 -61.710460662842 -25.420843124390 3.216749906540
-157.946548461914 -71.093437194824 -294.685699462891 1.898735165596
-42.508148193359 -76.728614807129 -167.456741333008 2.965605020523
0.005994999781 -69.024368286133 -290.132354736328 2.570128917694
-117.948272705078 -71.745407104492 -203.569793701172 3.702986955643
-154.137924194336 -70.347831726074 -177.057266235352 1.605067253113
1.149461030960 -74.213027954102 -239.038177490234 1.533159732819
65.882957458496 -59.535797119141 -92.074874877930 1.099936246872
17.334735870361 -81.854026794434 -258.070770263672 0.798054337502
-96.357742309570 -62.655113220215 -112.421348571777 2.508410692215
95.967269897461 -75.844833374023 -211.805572509766 1.224008321762
-74.730773925781 -69.606002807617 -143.060745239258 1.694419860840
-57.894886016846 -77.995994567871 -176.905715942383 1.596376061440
-39.380184173584 -60.720661163330 -48.444507598877 3.223431348801
-46.293815612793 -80.447280883789 -153.481109619141 1.335510730743
-49.354507446289 -75.864166259766 -188.251663208008 1.771998286247
23.433292388916 -68.550575256348 -142.523284912109 1.397904396057
43.895439147949 -65.448776245117 -35.118450164795 3.227684497833
14.615381240845 -78.720260620117 -208.165527343750 1.516673445702
-44.719108581543 -87.144783020020 -199.275695800781 1.035465717316
-144.999832153320 -84.369773864746 -220.912338256836 1.823977589607
82.806632995605 -57.122566223145 -57.444583892822 2.098384380341
-46.949012756348 -78.662170410156 -284.556060791016 3.270421028137
16.154119491577 -72.443717956543 -213.716674804688 2.055623531342
74.697357177734 -72.842567443848 -88.953948974609 1.491840124130
-131.206665039063 -73.968841552734 -255.838256835938 2.445143461227
-148.426361083984 -66.694854736328 -195.759704589844 2.046755075455
45.303657531738 -66.033760070801 -21.467775344849 2.771077394485
-137.158889770508 -66.935462951660 -256.681243896484 1.990069031715
-152.265380859375 -62.996452331543 -248.411834716797 3.265778541565
-158.370727539063 -74.002700805664 -263.353576660156 1.074205040932
-138.199905395508 -70.112457275391 -255.643203735352 2.120924949646
29.926027297974 -60.554656982422 -19.438022613525 1.126881837845
-146.715484619141 -73.372154235840 -187.974899291992 0.671124279499
97.208343505859 -71.698074340820 -206.650634765625 0.907010376453
-150.702331542969 -71.749282836914 -297.949462890625 2.668944835663
15.213198661804 -69.502372741699 -176.001037597656 2.289801836014
-7.436305046082 -67.257263183594 -215.882415771484 1.568106293678
-140.281066894531 -72.570350646973 -200.453033447266 1.781190514565
-60.075286865234 -73.176269531250 -138.362609863281 2.474141359329
-151.224075317383 -84.006607055664 -230.272918701172 1.808941483498
-99.933418273926 -60.045829772949 -82.134094238281 2.367354631424
105.622772216797 -75.140670776367 -163.505935668945 3.474857807159
-69.739219665527 -84.356170654297 -90.418922424316 2.966616153717
-133.703613281250 -76.294189453125 -254.103561401367 2.629384040833
-63.468425750732 -61.776103973389 -123.799819946289 2.380747318268
95.489578247070 -72.972106933594 -197.027420043945 2.780611276627
-68.975715637207 -70.356994628906 -146.710968017578 1.240708351135
-73.387580871582 -66.830841064453 -104.049606323242 1.517612338066
5.354101181030 -75.377456665039 -214.516174316406 1.933128952980
-75.892372131348 -61.805301666260 -113.322784423828 2.886457920074
-133.531555175781 -72.761283874512 -225.326705932617 1.024765372276
-145.557037353516 -82.735084533691 -300.007080078125 3.035524845123
-73.373947143555 -56.072174072266 -45.694400787354 2.967281341553
-52.981964111328 -59.275749206543 -125.932472229004 2.906439065933
39.441379547119 -61.689357757568 -13.279814720154 3.377555131912
-107.234138488770 -66.588264465332 -186.419189453125 1.050373315811
-127.394515991211 -61.939258575439 -199.138458251953 2.303606033325
-147.943786621094 -64.633567810059 -192.245132446289 2.335527658463
-50.771270751953 -75.523185729980 -89.268836975098 1.634337425232
-146.458786010742 -88.062423706055 -250.772094726563 3.361429929733
-62.285446166992 -58.019321441650 -130.880767822266 0.735881090164
-90.362892150879 -68.411895751953 -137.994857788086 1.794469833374
33.314125061035 -54.285755157471 -12.865788459778 2.726857662201
111.663993835449 -71.509025573730 -128.790252685547 1.315505623817
-31.784317016602 -77.101387023926 -210.795074462891 1.238210082054
48.255687713623 -70.435173034668 -108.680419921875 0.773995995522
114.282989501953 -70.614868164063 -131.385833740234 1.279998660088
-50.234249114990 -67.294052124023 -134.389083862305 1.157898664474
-148.604064941406 -77.851531982422 -215.946899414063 1.388322114944
-138.906539916992 -70.633766174316 -201.417007446289 1.411158800125
-88.959732055664 -70.345542907715 -82.541709899902 3.944752454758
-33.029613494873 -78.463226318359 -207.193054199219 1.948856115341
-24.090871810913 -60.386127471924 -71.897079467773 3.975177764893
86.864410400391 -73.759658813477 -86.624580383301 4.711636066437
-152.760147094727 -68.814605712891 -278.871398925781 1.860676646233
46.759361267090 -65.353851318359 -107.113357543945 2.801350831985
-34.660457611084 -62.161026000977 -47.061473846436 2.407007455826
38.565006256104 -74.865928649902 -120.420722961426 3.724683523178
105.853408813477 -60.429515838623 -77.215927124023 1.510736823082
-106.310775756836 -66.744308471680 -194.092880249023 2.427596569061
-143.519805908203 -84.889762878418 -236.649887084961 3.361226081848
-78.352607727051 -68.686592102051 -60.278110504150 4.686899662018
-72.299522399902 -71.940315246582 -60.843357086182 5.361019611359
114.094940185547 -75.050758361816 -140.580993652344 1.688910365105
78.868850708008 -71.560035705566 -97.208549499512 3.106264114380
105.904106140137 -68.758193969727 -121.409713745117 2.151541948318
-143.494293212891 -79.236534118652 -203.989501953125 1.229950308800
78.630828857422 -78.647598266602 -223.636199951172 2.693928718567
25.776727676392 -76.979461669922 -154.721191406250 1.429038882256
-25.508947372437 -72.268898010254 -181.425567626953 2.033370733261
-145.345596313477 -74.770904541016 -286.994537353516 1.466530442238
2.035137891769 -75.357925415039 -240.636322021484 1.445654511452
16.917177200317 -75.274307250977 -248.528030395508 1.703161001205
110.888572692871 -64.042526245117 -117.181343078613 4.485319614410
-165.369461059570 -80.003448486328 -269.330291748047 3.774905204773
-10.627858161926 -69.528198242188 -245.364883422852 2.053245306015
30.018627166748 -72.221847534180 -165.059448242188 2.687567710876
-35.214435577393 -77.279617309570 -206.076370239258 1.252731323242
-45.266391754150 -62.332809448242 -83.735679626465 2.577298879623
-162.051315307617 -66.909309387207 -208.881851196289 2.498040437698
-134.334411621094 -76.681747436523 -295.172637939453 1.645682334900
-163.321563720703 -67.246688842773 -207.279739379883 1.939425826073
-93.018539428711 -65.066184997559 -61.291549682617 2.436731576920
-44.684364318848 -77.546234130859 -241.026260375977 1.400712609291
-147.460845947266 -85.025146484375 -275.796417236328 0.877032995224
-167.878433227539 -75.945991516113 -246.298370361328 3.951815843582
-141.937637329102 -77.418609619141 -291.226623535156 0.825805783272
-118.104667663574 -71.523811340332 -228.398635864258 1.998695850372
102.350883483887 -61.485092163086 -70.424522399902 1.922408819199
84.580436706543 -69.253715515137 -228.012359619141 2.673076152802
39.453552246094 -74.535469055176 -111.645385742188 2.518200397491
-47.683654785156 -75.146537780762 -88.617942810059 2.468062162399
-110.471969604492 -69.757255554199 -225.184875488281 1.305698275566
-94.244491577148 -65.844024658203 -75.881950378418 2.511975288391
59.231140136719 -68.467468261719 -238.488433837891 3.139648437500
45.951519012451 -66.890312194824 -34.671585083008 2.613737583160
-3.850472927094 -66.258178710938 -258.313751220703 2.450621128082
-80.799034118652 -66.510551452637 -116.309509277344 3.084414958954
18.847175598145 -79.015403747559 -273.603271484375 0.832429707050
-11.780594825745 -78.920539855957 -275.585144042969 2.831059694290
35.040771484375 -67.196990966797 -125.614021301270 2.663473367691
-153.291748046875 -67.570602416992 -286.049255371094 2.381025314331
3.629666090012 -80.869064331055 -246.261505126953 1.920608758926
-126.876617431641 -73.369461059570 -236.168869018555 2.283948898315
-10.597579002380 -74.975868225098 -269.251281738281 3.462543010712
32.462898254395 -54.788661956787 -37.006443023682 2.250286340714
6.943449020386 -85.321533203125 -248.178314208984 3.813905715942
24.009181976318 -76.196266174316 -139.520706176758 1.893716096878
69.555335998535 -70.434463500977 -240.342147827148 1.847123980522
-56.285575866699 -75.193412780762 -282.057312011719 2.796622276306
70.597023010254 -69.425071716309 -232.060287475586 0.403365820646
-143.656387329102 -62.234233856201 -181.952346801758 1.276944994926
35.801395416260 -70.925926208496 -118.341926574707 1.343810439110
-146.223342895508 -72.806602478027 -247.604080200195 3.519593477249
98.690452575684 -62.887977600098 -71.684890747070 1.952419996262
18.819633483887 -82.893417358398 -241.782653808594 3.128044366837
-49.720119476318 -80.432182312012 -86.419021606445 1.096622109413
-141.307617187500 -70.388298034668 -290.589019775391 0.935728073120
-143.711669921875 -65.345771789551 -179.208221435547 3.621178627014
-96.474273681641 -68.890777587891 -217.744583129883 0.839673936367
-21.771335601807 -79.927841186523 -195.167266845703 0.822938799858
-69.751190185547 -84.608528137207 -207.047897338867 1.933450818062
15.140916824341 -83.278892517090 -253.382980346680 2.403634071350
-10.186208724976 -71.123825073242 -236.224273681641 2.070339918137
-101.070137023926 -58.455764770508 -75.849014282227 2.774657011032
-34.689823150635 -58.100181579590 -47.379791259766 3.243906497955
-6.336233139038 -68.719741821289 -257.032073974609 3.467025041580
-145.510955810547 -79.814193725586 -301.363525390625 2.548360109329
-32.542701721191 -76.571586608887 -184.117675781250 1.043662548065
-159.363677978516 -67.833267211914 -208.198577880859 0.831526577473
-15.866062164307 -73.460655212402 -228.619186401367 0.483308374882
-76.048316955566 -64.038589477539 -139.519241333008 2.317816495895
-34.412677764893 -72.746376037598 -174.006011962891 1.495167851448
-146.393600463867 -63.953098297119 -197.820922851563 1.823199868202
-0.346165001392 -76.401336669922 -220.334320068359 1.148705124855
-160.008346557617 -76.098625183105 -251.605728149414 2.442186832428
23.906209945679 -76.076644897461 -263.771789550781 3.515011310577
-4.778645992279 -79.801071166992 -217.405151367188 1.039641499519
3.850523948669 -85.199127197266 -272.436676025391 1.682312011719
14.140637397766 -81.160522460938 -288.544128417969 3.045198202133
13.905336380005 -85.736274719238 -258.844451904297 1.431301355362
-59.197814941406 -75.419479370117 -245.383224487305 1.528569221497
0.137958005071 -73.119338989258 -235.710128784180 1.580673336983
96.487373352051 -75.312477111816 -204.774108886719 2.273615121841
-35.226501464844 -81.812576293945 -209.035766601563 3.299727201462
107.623611450195 -57.081546783447 -76.212051391602 3.061730623245
-138.216918945313 -67.733337402344 -203.530364990234 2.989956378937
-114.844543457031 -73.285369873047 -291.614776611328 1.238631129265
-12.274730682373 -78.079460144043 -219.845718383789 1.897623062134
51.822139739990 -62.661331176758 -97.892593383789 1.805212140083
-148.029205322266 -68.845413208008 -278.505462646484 3.184980869293
-56.370307922363 -69.433250427246 -145.636993408203 1.186653852463
-43.340152740479 -79.461021423340 -285.108062744141 2.281479358673
-16.019098281860 -80.739845275879 -175.612411499023 1.498225092888
-17.280529022217 -73.947532653809 -225.154907226563 1.198181271553
37.065513610840 -71.121055603027 -131.641113281250 1.617749094963
103.858055114746 -73.301933288574 -178.420761108398 2.733992815018
9.758638381958 -74.611991882324 -193.721191406250 1.811769962311
116.233245849609 -70.158050537109 -138.644790649414 3.205610990524
101.861831665039 -67.696891784668 -104.412132263184 2.417002439499
-84.892066955566 -82.912025451660 -106.688224792480 2.594565868378
75.118247985840 -67.124114990234 -68.210304260254 2.560440778732
96.234725952148 -67.708915710449 -75.379821777344 4.555495738983
99.883392333984 -71.309661865234 -92.637916564941 1.511768102646
71.442947387695 -65.248321533203 -70.226158142090 2.585034847260
-27.851297378540 -68.944656372070 -184.159820556641 0.757242679596
-57.836044311523 -60.135852813721 -119.546760559082 0.471971005201
-1.135923027992 -78.639160156250 -245.531570434570 2.628015995026
-144.147048950195 -63.820495605469 -227.841796875000 1.768304824829
-154.305862426758 -75.756095886230 -221.136596679688 2.410392284393
25.831705093384 -78.426567077637 -138.674209594727 1.800554513931
56.293258666992 -70.912475585938 -88.813995361328 2.085880279541
37.999206542969 -63.945686340332 -114.517509460449 5.036486625671
-6.019114017487 -70.432456970215 -285.387176513672 1.737180948257
-32.195457458496 -76.717742919922 -209.018798828125 1.230397582054
-18.671607971191 -80.301895141602 -177.794631958008 2.067107915878
97.702117919922 -68.379997253418 -71.437850952148 1.849078416824
18.004077911377 -67.026199340820 -181.365890502930 1.898318409920
9.797806739807 -76.983459472656 -213.817077636719 2.292718887329
94.546318054199 -72.775047302246 -207.963760375977 1.559577822685
-46.792816162109 -61.394947052002 -48.667495727539 4.603205204010
-22.555017471313 -79.087814331055 -244.034271240234 2.863660573959
81.379211425781 -72.926628112793 -75.158073425293 2.770386934280
93.843231201172 -67.899795532227 -95.129669189453 5.925070762634
95.237869262695 -68.765563964844 -92.936912536621 4.691728115082
-43.149742126465 -71.351921081543 -162.764816284180 0.857264399529
70.724510192871 -60.015125274658 -68.570533752441 3.948593616486
-16.982486724854 -68.870468139648 -249.935577392578 1.852681636810
43.778511047363 -55.014282226563 -16.124044418335 1.727656841278
-52.366081237793 -71.911560058594 -55.023498535156 3.630998373032
-14.368629455566 -59.502655029297 -65.181495666504 1.237360358238
73.364143371582 -67.948387145996 -77.766899108887 5.508883476257
13.380824089050 -74.790992736816 -197.993911743164 2.172725677490
22.802049636841 -69.322715759277 -274.370727539063 2.693903923035
5.575058937073 -75.879074096680 -205.257705688477 1.909224033356
-10.624587059021 -70.538108825684 -270.003875732422 2.443318605423
4.453011035919 -72.597663879395 -159.008239746094 0.682576775551
-96.558097839355 -62.868312835693 -101.802223205566 2.768764019012
-142.140762329102 -64.870338439941 -186.411285400391 2.026498317719
-62.317756652832 -62.859561920166 -123.922462463379 2.586609840393
-147.062377929688 -81.998626708984 -227.975479125977 0.979513287544
46.106437683105 -71.217979431152 -113.937171936035 1.494674324989
-67.547477722168 -57.822261810303 -114.511917114258 2.640116930008
40.565761566162 -59.963310241699 -12.089029312134 3.875187635422
-39.404281616211 -72.830505371094 -168.279632568359 1.857174754143
-158.571640014648 -69.908279418945 -208.879821777344 2.909433603287
5.438182830811 -73.680824279785 -223.608047485352 1.485232234001
-106.395271301270 -68.834976196289 -219.703475952148 2.461865425110
-54.284763336182 -82.324325561523 -205.144287109375 1.628733158112
-55.943500518799 -75.510673522949 -66.190216064453 4.775103092194
-160.531509399414 -74.926673889160 -253.945663452148 1.833622217178
-15.346904754639 -75.272949218750 -235.553161621094 2.743465423584
-3.525300979614 -80.249565124512 -289.369842529297 2.421907901764
20.360017776489 -68.782424926758 -186.625671386719 2.082256555557
-88.610542297363 -65.774200439453 -141.532684326172 1.546312570572
-145.362365722656 -79.059257507324 -304.510803222656 2.178632974625
-148.973251342773 -80.128814697266 -187.720947265625 1.399205803871
-10.413619995117 -75.377952575684 -203.412567138672 0.860962808132
-66.530616760254 -72.662719726563 -164.063125610352 1.198191046715
-32.830257415771 -77.319786071777 -208.702407836914 1.350315570831
-70.608963012695 -57.233539581299 -102.554183959961 2.629655599594
40.731178283691 -77.748878479004 -124.356819152832 1.707994222641
-88.299209594727 -72.799484252930 -255.969009399414 1.089355587959
16.301307678223 -64.003356933594 -237.978363037109 2.313159465790
-15.453599929810 -75.156806945801 -259.374145507813 2.018500328064
-147.491287231445 -73.804161071777 -182.155685424805 2.293100595474
-2.995028018951 -70.908981323242 -165.681655883789 3.013951063156
-153.576187133789 -70.048225402832 -274.047821044922 1.817511916161
-2.742765903473 -68.136779785156 -223.417129516602 1.557643055916
-84.911781311035 -78.572868347168 -289.178314208984 4.051236629486
-82.497406005859 -60.383613586426 -117.959365844727 1.817814230919
-98.011276245117 -67.399452209473 -92.270866394043 2.746652603149
-66.950347900391 -78.063774108887 -209.765808105469 1.260348200798
20.350851058960 -66.265174865723 -156.713302612305 3.854222059250
14.586744308472 -80.205818176270 -246.255844116211 1.644357085228
-87.205116271973 -78.172256469727 -289.747619628906 4.434687137604
-40.234142303467 -54.748626708984 -47.712051391602 1.537450075150
15.154536247253 -67.432113647461 -183.481781005859 1.809514403343
-11.244321823120 -70.841140747070 -239.762542724609 1.996420264244
-59.696048736572 -53.262683868408 -43.846973419189 2.568420171738
-16.351943969727 -72.892028808594 -198.050003051758 1.667236924171
-92.992279052734 -61.611335754395 -69.509857177734 3.996163129807
-112.340621948242 -73.114303588867 -286.393493652344 1.680777430534
74.273246765137 -76.243949890137 -231.817779541016 1.679456591606
-36.821968078613 -74.433113098145 -80.313041687012 2.221122503281
-67.982376098633 -74.364433288574 -252.654022216797 1.420464277267
12.195529937744 -62.934192657471 -149.342071533203 1.941290855408
45.998626708984 -63.960006713867 -98.430862426758 1.632974624634
-78.496505737305 -73.030006408691 -210.796737670898 0.744006812572
16.470535278320 -80.495910644531 -212.240890502930 2.299830198288
50.773052215576 -64.109992980957 -94.968727111816 1.920972824097
-32.411113739014 -75.722351074219 -164.482406616211 2.374061584473
-7.950595855713 -79.712638854980 -287.699310302734 3.894933462143
-148.691940307617 -70.935287475586 -302.947692871094 4.036710262299
-23.064439773560 -58.476654052734 -65.993644714355 2.912784099579
-148.340850830078 -63.931819915771 -196.483856201172 2.313040256500
64.550910949707 -59.846439361572 -82.710365295410 1.991021394730
-98.883209228516 -55.511699676514 -76.769767761230 3.124733924866
-141.468093872070 -79.533546447754 -191.336868286133 3.034702062607
-17.918859481812 -74.159683227539 -202.679840087891 2.888710737228
-110.122726440430 -66.329803466797 -196.779953002930 1.044780611992
-151.542053222656 -66.332641601563 -185.932510375977 1.997490882874
91.894882202148 -71.981834411621 -97.858940124512 2.310609340668
-147.570190429688 -79.946701049805 -190.583816528320 3.504861831665
96.508277893066 -67.982048034668 -91.097679138184 4.870000362396
11.796084403992 -80.342864990234 -228.456573486328 1.903469920158
-116.081672668457 -63.854152679443 -202.317413330078 0.882001340389
-162.520980834961 -70.884254455566 -246.910903930664 2.282124996185
-64.514686584473 -64.811935424805 -120.454521179199 1.121807336807
-31.427236557007 -79.837524414063 -291.564422607422 1.901769995689
-141.321533203125 -81.717750549316 -198.425186157227 2.012219905853
1.096284031868 -76.864425659180 -164.198181152344 1.380117774010
46.435310363770 -77.787857055664 -104.707542419434 0.955686092377
-156.787414550781 -69.386177062988 -205.928649902344 1.716502189636
-141.406982421875 -66.740486145020 -202.964141845703 0.347573131323
-150.193557739258 -79.762649536133 -216.909149169922 1.682832956314
119.801246643066 -68.456420898438 -143.507812500000 4.462768077850
33.331115722656 -72.138053894043 -259.836761474609 2.222664356232
64.951927185059 -66.252677917480 -85.589302062988 1.246040940285
-4.897993087769 -66.223266601563 -291.176910400391 1.512126803398
-143.524932861328 -62.718635559082 -186.725463867188 1.281528353691
-141.803634643555 -70.240692138672 -191.304321289063 2.688946008682
57.929382324219 -64.824539184570 -85.484840393066 1.318541765213
-66.837341308594 -62.032833099365 -121.098518371582 1.654313921928
37.910480499268 -78.616355895996 -123.184883117676 0.306136161089
-151.636505126953 -62.788818359375 -180.566665649414 2.065587282181
-52.436412811279 -70.511032104492 -145.989151000977 2.827716588974
-47.175670623779 -75.496353149414 -180.579620361328 3.780540943146
-44.359966278076 -73.919929504395 -146.494537353516 0.723521053791
-139.897781372070 -68.879669189453 -183.901397705078 2.150015592575
6.446187019348 -73.642532348633 -241.846099853516 1.522306919098
42.679950714111 -69.076858520508 -121.284446716309 1.308447718620
-147.627609252930 -68.628723144531 -275.448059082031 2.458834886551
104.538780212402 -56.513168334961 -88.823417663574 1.952418565750
-75.120979309082 -64.117034912109 -143.153488159180 2.804022789001
-151.504440307617 -74.571235656738 -279.433044433594 3.059318065643
-120.728584289551 -65.616950988770 -198.589996337891 2.846276998520
-125.948600769043 -70.272521972656 -204.157135009766 1.927261114120
-158.481460571289 -70.677787780762 -216.051513671875 3.084619998932
-148.892639160156 -83.995376586914 -258.622711181641 1.211222290993
-30.534858703613 -71.586791992188 -162.007125854492 2.269993305206
-147.851882934570 -72.507095336914 -195.544601440430 1.974735736847
89.203849792480 -69.835815429688 -68.205856323242 0.759343743324
54.958686828613 -62.973018646240 -89.768638610840 1.291230440140
65.929801940918 -62.711582183838 -70.569313049316 1.401570081711
-61.863521575928 -66.793533325195 -133.758575439453 1.836350083351
-68.065032958984 -59.690322875977 -107.138298034668 0.914433002472
-74.058097839355 -84.059112548828 -207.732025146484 2.732315540314
-59.980033874512 -77.180625915527 -287.079772949219 2.743514299393
-145.776931762695 -67.567192077637 -174.125045776367 1.754636526108
-151.348358154297 -65.109466552734 -261.280792236328 2.008481025696
-78.908721923828 -64.494819641113 -109.605445861816 1.828593850136
-13.252903938293 -62.950183868408 -65.429367065430 1.593661069870
77.057197570801 -71.234611511230 -89.218551635742 3.894460678101
-143.799942016602 -80.149734497070 -221.740631103516 2.482680559158
12.712386131287 -77.692848205566 -191.595031738281 1.707413792610
1.619964957237 -70.034095764160 -265.106445312500 5.051614284515
68.775398254395 -65.091621398926 -76.293746948242 3.797876358032
19.574922561646 -64.462455749512 -245.467330932617 2.523826599121
86.501876831055 -65.400444030762 -106.519676208496 2.423817157745
-144.311569213867 -86.146018981934 -219.708297729492 3.197373390198
-64.020545959473 -83.106704711914 -203.352905273438 2.578733444214
-94.269622802734 -68.048599243164 -86.827796936035 2.738274097443
-69.099067687988 -67.197883605957 -45.311408996582 1.680798888206
-72.617057800293 -66.825767517090 -138.727233886719 1.893238186836
-164.212615966797 -67.953445434570 -201.855773925781 1.798917531967
-92.121170043945 -63.650951385498 -68.052871704102 4.130420207977
-152.925781250000 -74.094978332520 -277.050140380859 2.342789411545
-63.035675048828 -67.914237976074 -131.282867431641 1.236846089363
-11.850131034851 -74.529975891113 -207.282058715820 1.771418333054
-65.844192504883 -73.089431762695 -147.389755249023 1.168686747551
-151.162597656250 -66.257583618164 -187.128646850586 1.591652154922
-165.176971435547 -71.219619750977 -246.644851684570 2.014664888382
-152.769058227539 -87.211753845215 -284.268554687500 2.967385053635
79.009483337402 -57.401691436768 -60.439239501953 3.015005588531
84.737319946289 -59.805446624756 -63.882629394531 2.820683479309
-23.611787796021 -78.451828002930 -237.781600952148 2.562732696533
34.865840911865 -57.453086853027 -39.971740722656 2.167757511139
59.132034301758 -63.743194580078 -96.805953979492 1.839175581932
30.553205490112 -73.126068115234 -130.888290405273 1.892137408257
-149.185821533203 -70.943565368652 -258.944213867188 2.026232004166
-55.377586364746 -67.114021301270 -87.762870788574 3.342731952667
-11.124779701233 -79.202270507813 -238.538787841797 5.437911987305
-153.675079345703 -75.079071044922 -240.568267822266 2.992690563202
-108.970321655273 -60.645015716553 -176.285842895508 2.117294311523
-84.737068176270 -69.334472656250 -112.592147827148 2.256054639816
-31.914850234985 -59.652488708496 -46.964260101318 1.159602999687
95.451850891113 -71.378273010254 -81.275451660156 3.561323642731
-150.193176269531 -84.960342407227 -264.976318359375 1.109560489655
-82.981300354004 -75.166244506836 -109.254409790039 2.547767639160
-57.766410827637 -82.162864685059 -246.193115234375 3.972073554993
-46.490074157715 -71.761344909668 -164.232574462891 0.749241352081
-101.190155029297 -68.416862487793 -219.808929443359 0.832418680191
-152.460556030273 -69.632469177246 -194.675292968750 2.449371099472
2.408004999161 -75.478149414063 -226.668884277344 2.046179533005
18.569339752197 -75.656761169434 -174.032684326172 1.980526804924
-148.625930786133 -64.154602050781 -175.522857666016 1.785668373108
-149.242828369141 -88.595161437988 -255.612960815430 3.495744228363
-43.175712585449 -87.213432312012 -195.999908447266 1.946349978447
-133.909729003906 -67.135108947754 -258.208007812500 1.781777739525
-6.110829830170 -71.379371643066 -232.893051147461 1.706521749496
-141.682144165039 -71.415672302246 -195.764907836914 1.896726369858
-27.907112121582 -78.759498596191 -184.362472534180 1.088352799416
-70.736145019531 -77.732223510742 -207.405609130859 1.675397872925
-133.261779785156 -63.632717132568 -202.771392822266 1.158154606819
-15.868910789490 -74.404487609863 -214.282257080078 0.349264115095
-23.193723678589 -72.261077880859 -221.147033691406 0.861089229584
-26.224939346313 -73.902877807617 -198.454086303711 0.786175668240
23.215330123901 -76.898979187012 -185.548995971680 2.096315622330
-156.315597534180 -77.967407226563 -258.036163330078 3.217799901962
-14.524801254272 -73.675941467285 -289.171844482422 1.028750538826
27.567689895630 -77.823493957520 -146.544860839844 1.569545745850
-136.842758178711 -78.503135681152 -227.613677978516 1.507749915123
-124.798271179199 -66.036666870117 -205.073089599609 1.209444522858
105.921707153320 -67.662994384766 -98.412696838379 1.257404804230
-17.587308883667 -73.833251953125 -210.524780273438 1.096121430397
-157.360519409180 -73.867439270020 -258.113922119141 2.164190530777
-42.776298522949 -67.372146606445 -147.504714965820 1.773139119148
41.080120086670 -73.976959228516 -127.656616210938 2.187765598297
-89.207916259766 -64.119888305664 -111.494697570801 3.202856540680
-156.348892211914 -65.607772827148 -195.576797485352 1.349641680717
3.712975978851 -69.322692871094 -235.172134399414 0.596291720867
-36.993679046631 -54.212841033936 -44.944576263428 3.194588422775
28.154632568359 -71.434364318848 -173.083984375000 0.642917335033
87.245971679688 -71.643310546875 -92.577194213867 5.332379817963
-4.103126049042 -78.283134460449 -165.944076538086 1.224528074265
-149.537002563477 -70.135917663574 -285.022369384766 3.076123237610
13.899534225464 -75.357353210449 -202.216690063477 2.165611982346
-149.638671875000 -79.368698120117 -312.405487060547 2.303809881210
14.566566467285 -65.011924743652 -153.005477905273 2.254676342010
-101.689079284668 -74.489776611328 -290.622222900391 0.707630753517
21.719472885132 -72.994354248047 -191.592727661133 2.069977521896
9.458050727844 -70.298179626465 -161.063262939453 1.731160759926
20.804931640625 -58.688350677490 -28.876144409180 3.174401998520
-42.554294586182 -69.949409484863 -138.432312011719 3.316564321518
