# This PCD file was generated using the MATLAB® pcwrite function
# from Computer Vision Toolbox®.
# .PCD v.7 - Point Cloud Data file format
VERSION .7
FIELDS x y z
SIZE 4 4 4
TYPE F F F
COUNT 1 1 1
WIDTH 1422
HEIGHT 1
VIEWPOINT 0 0 0 1 0 0 0
POINTS 1422
DATA ascii
-91.939980 -94.305855 -106.318031
-19.592789 -72.713402 -209.641769
-13.787446 -79.043030 -210.776505
-94.268051 -70.862030 -298.262390
-92.694176 -69.922195 -129.727570
-149.565445 -61.753376 -231.136154
-149.676620 -71.338058 -201.636612
-33.980568 -79.809311 -189.006760
74.996811 -68.103668 -220.879700
58.790962 -63.123413 -235.409454
-13.218046 -74.686691 -221.505859
-90.848724 -71.512337 -265.182159
70.643097 -68.807228 -219.594116
-1.753715 -66.084778 -222.515228
71.139145 -70.896774 -43.028572
12.464115 -67.492287 -168.124664
6.021928 -57.466000 -233.086960
-130.315506 -80.180420 -295.872711
-139.677887 -77.631393 -268.932556
15.065314 -70.164291 -178.793976
25.244690 -72.507751 -122.388077
-7.816204 -66.167976 -284.521881
-87.996811 -69.545471 -131.819107
-157.769821 -70.057495 -233.564209
-2.281126 -78.035645 -213.304031
-137.066223 -84.009819 -300.123322
-165.189713 -65.876358 -273.786774
57.160515 -70.960602 -89.034149
84.263306 -67.306015 -191.759399
13.120092 -66.552544 -126.130173
-154.518631 -67.444641 -214.361725
15.374134 -70.258064 -152.323746
-50.798531 -83.086380 -189.565872
-57.146809 -76.693077 -136.706863
-15.414312 -67.233353 -204.374222
-68.855835 -70.364548 -259.280304
-158.461182 -74.092171 -215.795471
-138.334717 -64.843239 -316.778839
-96.033234 -66.840965 -296.096313
10.054349 -71.019508 -235.408783
-153.503265 -68.055176 -233.805847
-78.230125 -73.387741 -91.299217
-27.934986 -78.942444 -196.161850
73.222916 -64.568695 -93.833344
-124.155960 -74.264244 -214.315353
-143.103180 -78.807739 -210.596481
-32.678505 -79.250458 -172.445221
-77.634560 -91.990005 -95.879745
-157.793274 -73.098793 -229.728119
10.757096 -66.440254 -234.071808
-90.238708 -68.800423 -128.797806
-84.317131 -72.899033 -109.525581
-43.008251 -69.653183 -291.774445
-146.656830 -65.981827 -237.843414
-148.028870 -63.312481 -209.560059
94.906815 -70.113464 -185.233200
14.490672 -67.446342 -170.392365
103.713249 -71.120979 -111.057297
-2.923078 -78.899277 -14.932660
80.708328 -73.592056 -85.632172
-141.773087 -61.192871 -214.177185
-23.503525 -70.675323 -209.932739
-33.429211 -82.799110 -189.227768
-84.944374 -67.683052 -136.497742
38.162373 -82.549393 -88.370750
-0.622079 -76.171700 -267.525726
-81.356041 -82.077835 -58.911587
-52.666710 -74.220062 -146.115509
-145.920715 -61.051472 -302.439575
-3.357140 -78.790680 -217.867264
-57.244652 -87.738968 -205.856918
-56.210030 -76.445175 -144.247650
86.591888 -69.344460 -79.310120
20.200966 -70.697594 -182.870407
93.733139 -75.153458 -100.981461
-144.929306 -63.134594 -226.953247
-87.662453 -77.907585 -103.078331
-8.520380 -72.594826 -228.592911
-128.029663 -62.741550 -272.928894
-65.105774 -68.507576 -138.719055
-33.046288 -71.761421 -184.496567
86.217293 -67.439087 -81.081177
-147.856873 -83.382622 -217.079361
61.548840 -65.690002 -224.794006
14.141199 -71.334236 -169.370804
-141.822205 -65.783173 -269.034943
14.362067 -57.112991 -232.787003
-90.430824 -74.828224 -122.387360
-123.471588 -65.904335 -301.892212
-132.718002 -74.575806 -301.901672
-108.876305 -81.708672 -72.476448
37.377140 -79.357254 -81.817085
-22.629484 -78.125076 -218.832611
-42.197105 -76.227257 -246.354019
-50.545353 -73.892403 -78.600693
9.520913 -59.558918 -266.049103
37.068909 -74.292801 -95.598839
-33.374031 -83.678902 -177.439301
-54.233131 -82.470116 -57.064556
17.344484 -71.331902 -168.788101
-32.638050 -75.593246 -177.831238
17.792477 -80.302193 -231.931915
-3.291148 -69.448967 -24.014017
-150.710815 -79.814217 -243.498581
20.141897 -81.941566 -13.033758
16.656298 -71.481461 -179.797058
-45.458851 -76.661026 -153.449356
14.348682 -78.109077 -132.934616
-125.662598 -66.873680 -291.429718
22.427935 -72.000084 -109.892052
82.965141 -74.411461 -78.807831
-37.583809 -80.147102 -177.606644
-141.043777 -79.795662 -211.056076
-83.046623 -72.959862 -135.919800
56.133896 -70.918739 -231.191666
6.173975 -77.372292 -229.801865
-146.684341 -78.111313 -228.978424
-108.614975 -68.346481 -300.837006
26.081993 -64.117119 -108.138092
-78.547508 -86.954124 -73.664520
-54.464291 -71.552818 -154.131973
-126.380127 -76.083969 -209.469223
-12.558155 -76.109062 -220.697433
-64.156693 -79.100731 -175.836807
-49.022194 -82.768692 -163.039627
-103.516586 -68.118271 -300.054993
-94.381584 -68.155800 -293.327789
-28.730606 -79.539780 -189.559814
4.316582 -63.826962 -271.967499
-83.293022 -62.963520 -292.677246
-0.676804 -78.906273 -150.799515
-103.702446 -68.602585 -300.615936
-70.754799 -71.563850 -78.582664
-87.411537 -71.838455 -137.312759
31.187172 -74.124344 -99.684883
-98.536049 -67.755890 -120.867455
18.705667 -68.110603 -29.751131
-103.946793 -77.558350 -124.137039
-23.585922 -74.150131 -187.198349
31.629990 -81.291130 -92.722458
-69.528969 -72.056915 -128.297760
-147.352173 -76.590569 -222.392273
40.726616 -73.156273 -90.226921
-146.623489 -77.077774 -259.552979
23.615490 -80.280731 -148.511856
-56.404228 -73.705780 -79.872490
-145.136246 -76.114433 -248.862320
26.190369 -74.225983 -9.327613
-144.431702 -70.969246 -312.963837
32.421585 -64.824356 -246.076950
-122.254372 -65.896599 -295.204895
-45.615208 -70.609047 -165.985138
100.033623 -74.441750 -107.258499
-62.177448 -88.863472 -63.619556
-144.844009 -78.972252 -265.469910
9.758119 -82.195694 -32.016808
-145.852859 -75.126953 -233.540451
21.580500 -79.720192 -152.222763
-25.065994 -73.539040 -217.249283
-19.105272 -76.007385 -236.654160
-0.898817 -72.203232 -225.480927
-0.310641 -82.307632 -16.810553
-133.108246 -73.267639 -243.298630
-0.950797 -74.488052 -22.383434
-92.000374 -65.354561 -127.016640
12.448727 -62.584129 -235.566803
19.808550 -76.337280 -173.657104
-89.947159 -68.091591 -124.435364
33.290806 -83.157227 -104.848671
-163.522614 -74.322090 -228.815735
95.280846 -78.976288 -96.780090
94.791573 -71.930191 -96.156693
-12.515882 -79.486298 -206.335419
-96.514534 -88.063911 -96.419235
9.144399 -59.591919 -250.094864
-148.436615 -72.420502 -211.565613
-58.716572 -79.382996 -149.941376
-26.795746 -80.488091 -186.659195
2.121072 -62.567768 -224.404449
-32.902401 -77.387413 -189.784393
-24.211546 -67.935669 -200.028763
30.981491 -70.149498 -249.387177
-140.696457 -76.204063 -257.150574
-66.851723 -71.268944 -251.528915
-28.327854 -80.357468 -177.811615
-94.643478 -69.939102 -225.466080
-135.702744 -73.937035 -294.878204
49.562702 -71.476112 -83.454063
-114.878693 -68.915985 -81.006233
-143.404633 -73.713005 -269.027496
38.008545 -78.442993 -89.292015
-52.153931 -85.049202 -64.524834
-145.267975 -68.015495 -188.447388
40.775948 -73.941414 -89.274780
98.459259 -72.289520 -184.206863
101.897293 -72.839470 -155.693680
-109.767059 -69.844505 -162.082672
-84.901840 -77.044777 -141.611465
-97.149185 -69.158920 -120.856186
-104.189095 -75.001060 -158.993805
16.513975 -81.294617 -28.550673
17.535997 -69.708191 -186.952026
100.714867 -73.574776 -138.605026
-75.345352 -88.493393 -70.105232
-121.856125 -70.808647 -208.889481
21.569658 -71.496010 -154.437561
-69.266220 -93.547913 -89.856491
-30.250629 -78.100357 -239.352478
-31.601566 -86.164864 -187.793442
55.195332 -71.888672 -48.652645
-97.760300 -89.696556 -102.020767
-40.892208 -66.925636 -285.715088
27.795874 -77.876053 -91.712410
-90.215416 -66.938232 -109.724403
-154.139969 -73.786957 -301.343719
-7.621887 -74.582649 -206.922531
2.585624 -78.511284 -8.449478
-64.365623 -83.656746 -180.896545
-74.670441 -77.899467 -213.018082
19.664646 -78.388504 -239.177658
-9.539134 -74.273232 -227.083267
-135.083099 -69.027527 -309.070160
-98.172905 -69.008781 -111.521843
-16.456511 -73.297264 -222.738495
19.367434 -80.462540 -142.665512
32.952236 -79.708664 -123.083817
8.650903 -79.278015 -4.563367
-96.788155 -83.551064 -61.280197
-141.692215 -61.705265 -296.260468
-71.102493 -82.833534 -215.561188
-13.650941 -68.082787 -225.873154
-49.008427 -81.889084 -56.250454
93.595093 -70.696907 -182.329407
-143.673477 -63.633938 -280.511749
-103.073593 -73.251801 -53.802845
-80.353233 -78.840836 -218.170776
-148.519363 -62.186733 -267.010742
-44.957623 -75.702332 -168.816864
20.744827 -78.523453 -264.169830
-87.253365 -72.175613 -128.410278
53.408039 -58.145279 -233.317215
-52.002514 -84.542412 -156.533936
-54.584225 -78.120201 -149.333710
-5.808109 -73.419792 -246.405106
60.341709 -69.112556 -227.993805
18.631628 -76.652290 -200.635391
-143.195953 -83.894615 -277.242554
12.762660 -77.610313 -239.213104
22.362413 -78.455315 -253.287109
-34.760685 -72.010803 -173.332947
-0.829223 -73.754425 -139.827805
-138.244186 -76.420311 -211.868530
-42.125591 -80.809212 -202.183365
-58.081478 -75.277466 -132.893219
31.312361 -79.791969 -111.897064
21.478073 -80.413780 -114.889427
9.720781 -60.278568 -233.101181
-49.124996 -76.028931 -241.187759
-159.927383 -70.387543 -218.184616
-17.010349 -81.277374 -169.447617
103.087502 -78.114655 -163.031906
98.509674 -73.719376 -157.286148
-8.858013 -73.092941 -200.029770
13.086818 -78.748810 -161.131302
-63.663898 -86.523636 -59.447178
98.485077 -74.377083 -159.383743
-57.956871 -73.717422 -287.748108
-117.831505 -71.119415 -293.527252
-90.498177 -70.407097 -108.512695
2.859142 -77.030586 -215.730133
-118.352425 -72.660072 -86.354179
-94.712372 -91.435272 -88.412338
32.686893 -59.747223 -250.817001
13.503018 -69.307007 -133.587509
0.969743 -80.898399 -28.417490
-153.129700 -70.061821 -273.940704
52.069309 -75.441528 -62.764992
-46.646339 -81.757469 -75.499825
-24.904503 -82.903244 -187.020355
29.975891 -85.867340 -112.939743
-30.227140 -67.837334 -51.293575
-65.922539 -84.543167 -88.237190
32.055592 -62.157997 -255.452835
15.188003 -74.641289 -142.975906
16.921181 -76.939972 -128.632721
-100.498169 -72.697144 -229.244354
19.144640 -78.513664 -228.586914
81.248672 -76.626457 -53.543011
10.031918 -68.446724 -227.128372
-8.441214 -66.439026 -204.704178
97.191444 -69.742256 -179.753006
-75.363754 -76.748253 -91.336586
86.719322 -68.490479 -82.979218
-154.664200 -72.611427 -241.162354
-3.800558 -81.079865 -20.036587
20.654596 -60.777386 -278.158264
-134.738617 -70.844398 -307.679932
-141.763031 -74.221611 -238.772354
-105.318878 -74.183281 -56.401173
45.911491 -70.512100 -78.714104
-102.094711 -70.142242 -294.005554
-144.741608 -80.768684 -223.505478
-71.252159 -83.235687 -213.183807
14.793276 -79.781296 -131.741379
15.521156 -79.129036 -12.680327
-8.985004 -75.632668 -205.795883
-33.612125 -82.760368 -178.383316
-95.045982 -81.623451 -113.754883
-149.319763 -67.493752 -298.350708
-143.537247 -65.350464 -269.659485
60.793499 -72.579704 -234.449631
-36.589848 -73.945641 -243.987732
-21.981932 -77.694954 -217.927826
-65.036240 -80.194824 -142.712265
-155.316376 -78.396042 -209.227448
-138.051025 -65.328491 -306.100037
-6.748605 -78.326378 -213.800232
-50.536442 -84.234909 -201.824310
-48.843769 -82.922066 -162.049194
17.760241 -79.169060 -227.257919
-151.081131 -66.443977 -227.092789
27.016306 -82.828568 -123.824020
63.994507 -68.605003 -225.106369
-26.769274 -77.607574 -178.039627
-162.032898 -73.540680 -254.170593
11.577235 -72.166237 -235.844559
-58.406536 -80.973145 -142.549347
-157.620255 -73.337090 -190.833572
-47.720940 -81.045433 -164.677567
87.650276 -77.616478 -83.276123
26.634405 -84.034515 -116.173584
15.394450 -80.434814 -135.869415
-39.510605 -71.517387 -175.567596
62.059628 -66.376328 -221.301361
51.605598 -82.658974 -65.450897
-140.690308 -77.950706 -297.991241
70.393745 -66.197014 -225.105011
102.277252 -73.521820 -123.650978
-53.543930 -80.252167 -197.606400
63.195274 -70.448074 -229.769073
4.155776 -72.027946 -4.836342
-97.135460 -70.740097 -229.505173
-69.950882 -67.121994 -137.479187
-86.780396 -68.348457 -290.259552
-76.556206 -91.209534 -79.426971
-135.926895 -83.039581 -300.463867
-78.368042 -86.716454 -57.478996
21.954069 -75.161842 -173.097717
-82.523628 -74.731110 -139.235870
-56.694241 -81.970963 -207.230743
18.417076 -67.002106 -229.719849
-66.981155 -85.976013 -57.534702
-78.554207 -90.502121 -87.519356
25.709763 -75.247192 -15.836313
7.510090 -75.710175 -202.125504
-144.886002 -67.718628 -257.089264
58.525562 -79.339622 -84.491013
-152.370972 -83.762222 -201.810776
-20.345449 -77.151741 -233.790726
17.359346 -70.533302 -166.516876
29.641823 -82.829247 -118.357933
-93.878151 -65.659012 -296.798492
7.095193 -73.814926 -234.155548
-40.790997 -78.507278 -198.147308
-88.983185 -66.707039 -127.218605
-1.749494 -75.197670 -268.210602
79.028999 -73.091492 -210.010208
92.486481 -77.353447 -184.905228
20.182076 -80.748993 -150.194366
-38.893871 -84.991417 -193.229340
-156.517593 -65.808121 -191.102295
19.650791 -74.158455 -26.552528
-152.840057 -73.607620 -201.948608
23.192562 -72.966347 -24.133232
8.849938 -82.469513 -256.568817
-45.468880 -80.160316 -161.057281
-66.437935 -81.727509 -212.143692
-0.318236 -83.193192 -12.331897
-58.760536 -73.287415 -143.891312
-38.578804 -75.950462 -205.589554
-30.302246 -78.448334 -213.171692
50.357372 -80.046402 -59.968834
-145.388855 -71.311264 -281.367218
44.064087 -72.884148 -72.733131
-149.733994 -69.856865 -306.758636
-64.817406 -81.085770 -55.072208
-78.492493 -79.086884 -156.729645
17.227262 -67.983620 -175.963593
-63.448204 -68.535660 -142.957199
-22.186125 -79.760811 -200.711334
15.061784 -77.296150 -193.102676
8.729264 -64.366142 -233.827011
72.952919 -82.322281 -70.535049
-27.265551 -70.987427 -283.403900
-106.628784 -78.512024 -66.047714
-146.788315 -66.972946 -257.260223
-144.702606 -69.728004 -307.807220
-122.961029 -73.337029 -263.782471
7.026917 -77.589539 -26.955328
-70.961052 -82.398048 -93.603889
-71.289322 -71.464485 -79.334579
13.872890 -82.982109 -183.742905
-147.000702 -77.887787 -202.261276
-92.878937 -89.588661 -84.738434
76.499451 -73.890884 -216.906693
-35.657909 -78.836563 -173.778244
-111.440529 -70.964516 -86.574104
-54.687351 -81.928520 -157.038315
-153.273453 -84.118050 -206.407211
-130.332230 -82.662239 -301.569763
-147.232773 -82.673920 -244.944595
-90.950256 -74.524620 -119.889816
17.840948 -79.902153 -236.621323
-51.152328 -83.214317 -160.309433
33.413628 -68.821411 -83.321358
15.822242 -70.448303 -175.251617
-148.383026 -81.808235 -270.282135
5.544446 -63.974777 -258.970032
-141.518311 -78.817085 -297.331207
5.852995 -72.208519 -8.713562
24.444216 -76.989517 -152.535599
-53.287117 -77.729790 -148.813232
67.934570 -74.646156 -43.398087
-134.808701 -74.813988 -305.708130
-142.420883 -72.779007 -271.387634
-89.300819 -71.382675 -103.583832
18.138287 -82.949066 -126.202499
58.545799 -71.055016 -47.461773
17.745224 -76.157829 -215.711823
-36.686832 -77.895462 -167.669067
-139.408142 -66.525017 -309.659821
62.308350 -73.578758 -89.887520
-135.984085 -78.273888 -304.866852
-0.264730 -58.849457 -238.914581
-50.777958 -82.637611 -154.542740
-96.370758 -70.886101 -133.889359
14.914669 -79.119911 -3.588693
-121.852295 -66.253563 -303.071930
9.079805 -80.765709 -8.720677
1.674623 -74.488724 -14.793678
-52.842903 -76.970726 -164.806870
-91.196777 -64.989517 -112.030197
-60.532284 -72.855644 -45.473389
-27.953665 -81.068802 -207.926453
-10.036949 -70.601250 -253.996002
-87.412010 -68.246704 -45.748116
-123.776367 -63.497334 -268.616272
18.105658 -73.748756 -165.997192
85.734558 -66.528740 -53.507324
7.672332 -75.502762 -184.125626
6.473910 -77.570992 -150.494675
-114.168755 -79.134834 -71.909531
-32.310444 -69.723419 -177.152603
9.738350 -61.276585 -255.864578
-78.670914 -76.586647 -43.313614
14.231870 -76.862968 -181.814514
101.603424 -76.093231 -122.139809
-59.228394 -78.014877 -175.692444
-134.239426 -76.539307 -271.276093
88.296051 -74.019485 -195.110214
43.283092 -68.325043 -245.452652
-147.645325 -67.976784 -238.865433
19.833834 -78.971870 -218.148682
17.775078 -70.110046 -136.091599
-7.012332 -74.873260 -204.488510
40.822884 -64.302490 -70.357254
24.026806 -76.051392 -148.697983
-43.903316 -71.355972 -48.164238
87.159363 -70.077805 -75.404694
15.656205 -67.016853 -174.380157
-101.014465 -85.441818 -77.162895
22.416168 -77.880608 -176.044876
-113.156204 -71.396164 -105.485458
-19.911633 -67.607574 -201.231995
-4.885760 -69.766876 -227.067657
-74.428200 -69.654251 -44.974167
-28.440172 -76.279572 -212.402390
-159.871857 -68.503052 -244.759750
-92.236603 -71.312126 -110.257172
-138.312958 -63.886322 -308.583160
6.973567 -77.624680 -239.306534
-161.312576 -70.178513 -226.274170
2.366915 -75.854141 -213.844101
-15.706841 -72.709732 -197.437424
-109.498787 -71.882813 -121.044189
-30.993483 -77.669395 -240.642807
-69.488594 -68.164749 -252.245331
-92.084755 -88.863266 -71.327141
-97.942650 -81.602058 -60.711796
-21.857819 -81.321724 -192.220520
-62.651482 -68.622047 -142.599152
15.073191 -70.923660 -156.523285
60.491871 -67.977219 -233.245880
-56.547211 -79.492233 -155.888763
-106.373596 -74.894279 -123.374458
-3.379070 -73.062988 -228.689270
-1.528132 -66.980865 -231.473434
15.770643 -76.453651 -5.931607
-111.051407 -61.161694 -296.319427
-154.871490 -67.291351 -217.267914
-28.801672 -73.084290 -58.525841
89.551422 -71.462318 -190.329529
-137.155624 -70.913048 -276.190826
-148.085770 -75.296524 -220.148621
-35.605629 -78.689842 -68.688423
-160.573257 -76.058952 -233.672150
8.702539 -71.419846 -213.593658
-94.854073 -74.208305 -49.735508
-21.272804 -81.057289 -176.613449
-30.430069 -73.278374 -61.692379
-27.055462 -71.275909 -213.014633
14.011611 -70.949303 -232.738037
-136.772873 -80.928223 -274.093140
-105.973457 -67.410080 -177.025879
-144.533783 -83.375450 -269.936615
-138.460892 -75.955490 -274.078400
22.577171 -82.039375 -13.496767
-80.598778 -73.453590 -143.732162
-88.925705 -84.150253 -103.168900
-15.996278 -78.841034 -203.516891
-81.780396 -94.582825 -99.146309
-88.928673 -71.328598 -127.211227
-66.830536 -78.671303 -86.759506
31.150827 -76.037514 -114.218559
-94.659996 -74.251282 -133.091949
-105.999382 -69.894753 -155.634781
-152.379196 -82.797935 -195.794357
-97.891312 -89.479271 -91.665352
78.957710 -80.503937 -69.625015
-44.068382 -78.404541 -50.313267
71.507133 -69.132179 -43.028133
9.146600 -78.670517 -199.977570
-134.770508 -68.174797 -308.197876
104.462532 -73.861702 -165.193451
9.763832 -77.764145 -176.891800
16.757767 -72.628601 -154.166229
-11.643987 -70.536186 -258.007782
35.334736 -59.395676 -246.633255
-74.196815 -88.178925 -95.932800
-9.477700 -63.448479 -240.697037
-70.913948 -70.358398 -117.605850
99.231827 -67.238228 -172.000214
-162.114761 -67.897026 -265.874908
-84.456902 -93.437500 -93.812119
-30.032852 -69.698570 -182.645172
-1.275756 -74.482094 -216.036728
-92.279129 -92.037155 -107.692360
-143.861969 -67.797348 -315.721832
-138.953995 -70.258339 -249.806107
12.151651 -69.610481 -209.294235
55.928631 -77.911301 -74.314903
-45.379036 -73.046875 -288.419037
17.239063 -70.774704 -172.070831
16.736475 -73.949715 -207.399277
-81.061691 -82.358315 -100.646378
-85.335548 -74.428261 -103.892120
-145.605087 -80.723785 -250.451416
16.586523 -72.308578 -187.526993
-83.959114 -86.539528 -102.242508
-8.477485 -83.086617 -211.546097
-149.823441 -59.558544 -234.271957
35.235409 -67.351601 -80.307961
-149.158096 -74.589218 -213.320587
27.338478 -71.009056 -245.007568
-145.782913 -74.262177 -251.608490
-88.593788 -89.706604 -88.924225
101.449791 -74.138008 -125.110687
18.351046 -71.948593 -227.980072
31.255405 -82.491631 -103.168015
24.820274 -71.948395 -135.061569
11.007051 -76.201622 -168.769608
-69.298706 -90.060410 -82.255875
33.602386 -79.276230 -108.184837
-69.812279 -69.270981 -82.786369
31.269539 -78.001640 -88.936157
-148.353302 -62.943878 -256.617584
-90.635483 -93.859802 -99.168602
-31.347160 -69.940887 -49.261200
-45.606228 -78.500801 -170.261902
28.965805 -81.547447 -109.189148
-132.537704 -74.752846 -209.514313
100.188110 -73.423370 -162.150925
-95.309273 -72.960159 -134.369904
-143.033646 -66.681831 -312.097870
12.834943 -79.819992 -214.563019
-100.780495 -73.455238 -141.187195
-57.272118 -76.031296 -131.998611
-123.251442 -69.232208 -209.702667
-151.013641 -74.709328 -280.814453
36.445011 -65.545952 -249.978943
16.221306 -77.670906 -175.949768
-145.707916 -68.071533 -288.110077
-47.660561 -75.852959 -46.709217
-9.394708 -70.340866 -216.400421
11.813891 -77.728889 -207.980911
-113.121414 -71.724663 -181.193771
-144.973694 -72.346146 -201.763031
-145.100891 -64.009560 -296.967529
-9.564669 -66.121529 -227.974640
-83.404831 -70.060089 -42.979473
-145.577332 -80.089279 -294.663513
-17.354460 -78.050545 -173.354843
1.945712 -71.368858 -150.246323
-142.543060 -70.501015 -250.736816
63.133713 -71.599838 -231.038940
-52.034332 -81.904144 -155.311966
-68.599983 -82.850441 -165.451675
-158.136337 -67.961143 -213.741684
-48.049225 -77.874916 -196.495789
15.704025 -72.381157 -24.533260
13.057688 -82.030289 -261.941101
104.544647 -79.448189 -133.462036
39.604752 -79.382095 -75.280624
-143.511505 -68.516998 -247.648224
7.516081 -75.588547 -203.080566
-143.679413 -80.262474 -204.812973
18.463276 -66.098137 -281.139252
13.918026 -57.375340 -263.810486
-68.158798 -92.613800 -81.627937
-37.135094 -74.744621 -243.242569
80.904266 -67.581947 -213.963165
-157.709885 -73.283669 -278.546539
-95.413742 -77.412292 -105.762436
1.915969 -70.103371 -18.097790
-140.939301 -59.590866 -301.542328
-64.979073 -79.707901 -146.144745
-88.493050 -80.388535 -105.321007
88.866333 -67.893295 -189.508682
-74.893982 -65.251793 -111.663849
-93.325081 -79.203560 -52.598728
-3.970909 -75.543198 -152.884125
58.917950 -78.818054 -84.715485
-154.518738 -71.782715 -229.190781
-140.911926 -69.100189 -246.887741
-102.182419 -88.168617 -108.079575
5.071209 -76.562813 -185.990891
-103.360718 -70.416885 -161.291794
-111.814880 -74.132652 -115.677872
32.767056 -78.625099 -90.610542
41.409531 -73.123047 -72.182503
63.735291 -80.912308 -63.458248
84.557632 -75.442131 -202.225998
-34.533718 -75.566536 -241.501648
1.442012 -75.362846 -266.754456
23.526636 -78.978775 -26.501062
-42.172390 -70.112587 -46.055676
-50.404209 -74.278564 -166.942825
31.130465 -77.124535 -106.988152
0.053883 -74.986885 -26.509682
-135.862778 -76.025658 -315.673828
-41.658051 -81.464935 -166.332016
-138.525986 -68.585930 -263.441254
-49.247463 -74.496521 -196.206009
57.196049 -76.041161 -88.944168
4.687790 -74.216423 -235.322495
-19.290436 -71.071014 -285.545441
-3.397890 -76.664177 -259.113495
-81.274742 -80.544983 -158.814499
-121.897781 -73.530724 -273.997131
18.143274 -70.585648 -10.611485
-64.893059 -91.561623 -79.792702
83.808022 -69.883385 -205.427002
-23.720697 -67.890213 -283.008148
-106.194519 -73.166695 -235.209045
59.009277 -76.757408 -49.113182
-20.574804 -71.509483 -286.760010
5.340262 -71.955383 -280.824524
-52.750534 -77.947266 -163.966385
-135.413025 -75.069778 -319.557251
-124.967270 -63.021770 -236.251083
-85.402512 -90.860451 -77.368698
-93.959717 -71.835434 -133.643372
-64.137352 -68.549187 -138.851074
-71.007652 -67.659737 -135.643250
-4.392935 -58.942543 -241.800629
8.174314 -78.735153 -203.685852
44.903992 -66.810638 -75.811790
16.877247 -82.533821 -147.457047
15.070751 -81.920013 -163.809250
-51.207870 -69.765831 -291.750610
-136.174957 -81.043701 -241.585083
16.498997 -80.370598 -123.226044
-40.995354 -82.843979 -165.524216
-153.809372 -63.895218 -239.121765
-67.641884 -79.832191 -211.025787
-47.952583 -66.210587 -286.013977
-79.148430 -77.411217 -147.300110
12.798482 -74.594772 -161.081863
6.169035 -74.994049 -143.047958
-23.859758 -70.547089 -213.758713
17.060513 -83.432854 -134.298828
-67.928627 -71.551315 -45.169765
38.365379 -73.577255 -73.743484
-61.720226 -77.464081 -47.282719
-142.306442 -82.830078 -209.064758
6.368644 -72.736824 -2.601215
-3.809341 -62.980953 -231.783142
-96.149239 -87.368492 -113.390205
29.019173 -80.602158 -93.521408
-34.442612 -77.507080 -66.980606
-102.219040 -68.908699 -295.256714
18.333138 -72.876205 -153.363419
13.389380 -78.375542 -184.663605
-87.500977 -77.440491 -224.105759
-80.100266 -87.320930 -67.580719
27.219919 -72.667747 -101.295815
-107.371277 -70.385559 -174.724014
92.064972 -71.361221 -180.473709
-149.186417 -78.678513 -231.524017
-19.964060 -78.047791 -212.945313
-152.738312 -83.799438 -208.985611
-102.915955 -71.657936 -144.459244
53.006100 -63.582310 -232.993942
-51.199429 -74.850334 -157.476929
78.114555 -73.990036 -52.155243
-17.643991 -71.854958 -195.287827
21.254591 -73.191986 -121.658821
54.392223 -71.931351 -231.770752
-67.104660 -75.436913 -163.510574
26.009882 -73.481537 -20.610825
100.365532 -74.703972 -107.178139
-40.603558 -74.692719 -56.234974
-115.209633 -76.365646 -83.517014
-46.976322 -76.086067 -246.203720
105.156815 -74.305206 -123.348907
-71.842690 -75.332993 -214.057983
-94.761688 -87.724350 -88.697540
27.286133 -75.061028 -12.022131
-131.824783 -69.519897 -243.507095
-74.109459 -70.123657 -128.072205
-139.307159 -68.508354 -283.034760
80.268394 -70.903229 -90.203880
12.619272 -71.920601 -174.092560
-151.393463 -74.866020 -248.467224
-149.155502 -83.500641 -199.608932
6.158430 -73.062439 -218.721039
-110.292206 -66.198494 -264.367889
100.282005 -78.040810 -124.728477
-104.129692 -82.092369 -65.874519
-158.829117 -67.074356 -261.872864
-61.188984 -83.333054 -183.967834
-109.026657 -68.347076 -161.751663
-116.513145 -65.209732 -239.673080
50.956623 -78.910843 -77.908768
-114.341331 -71.055969 -199.670715
-110.240501 -72.882637 -124.708717
-158.919022 -72.269508 -285.664093
-3.127908 -78.869881 -226.741684
28.521393 -67.189743 -269.100403
-48.477108 -72.245468 -163.052292
-53.730816 -87.090164 -82.004105
38.608608 -66.676559 -77.276329
101.291840 -69.425697 -176.501495
85.554108 -74.682030 -78.073738
-73.165848 -68.091522 -122.122086
101.436096 -76.536201 -110.742508
-50.399940 -77.581360 -188.381012
-110.195839 -75.662712 -65.992592
-48.233536 -83.092552 -59.752743
-51.411598 -83.387604 -55.158916
-124.964142 -74.456665 -241.031265
50.852455 -63.639118 -242.674149
1.321602 -69.510269 -218.789398
-146.871613 -77.473061 -251.208755
-50.064686 -81.583435 -184.855743
18.492741 -79.898239 -174.999527
13.496551 -72.314491 -144.432205
-31.657112 -72.975052 -240.052689
54.508377 -71.813194 -84.603455
-145.440216 -66.176796 -262.707581
-135.843781 -62.306038 -296.563934
31.810276 -65.830917 -103.391083
-116.045761 -72.698143 -96.042870
22.241404 -79.918053 -17.277029
39.347191 -76.159538 -97.126198
18.713530 -79.460716 -113.772705
98.765038 -70.318344 -110.400269
-163.445740 -68.472061 -219.055893
-20.102024 -75.523598 -198.646805
-4.945567 -67.028503 -220.386627
-67.012474 -70.192024 -46.176640
-35.985943 -77.329659 -184.414124
20.147684 -69.624222 -230.127136
24.556057 -70.968376 -234.784058
96.970642 -75.121742 -92.397354
27.423172 -81.921379 -86.938942
46.489120 -76.301651 -79.844299
7.214438 -70.777840 -203.619110
17.005941 -80.253593 -8.377330
-132.836044 -74.051033 -212.620209
15.471217 -71.222313 -143.602859
78.324951 -82.359978 -74.378754
-93.017052 -92.189270 -109.434685
6.351802 -80.615822 -243.721603
-150.655685 -78.563461 -204.511932
-136.805939 -81.710152 -270.888947
108.731522 -75.529846 -150.558243
-26.722952 -68.098259 -287.853577
-151.259766 -69.187477 -304.811401
-137.467667 -64.245224 -307.677643
16.651777 -73.557289 -233.730515
-17.506426 -70.749863 -196.944885
-74.713058 -78.547508 -216.747528
-9.881283 -66.613327 -257.482361
-48.299526 -88.481003 -72.247757
-149.313644 -69.480179 -237.105331
-23.734056 -70.488113 -191.760742
-147.481567 -78.762230 -227.826172
67.981606 -80.243034 -64.584557
-81.433258 -78.099106 -141.991989
-146.589325 -79.046204 -267.791321
-139.056168 -70.984161 -237.119827
-150.517990 -65.295654 -219.632278
-28.246328 -78.008484 -175.147110
90.624466 -69.662148 -204.631577
-131.967361 -64.671738 -212.691666
-4.416810 -70.175034 -236.340714
-140.653305 -70.153053 -211.254089
-150.074265 -79.283173 -216.419418
92.309090 -68.130882 -196.705109
90.842949 -75.036728 -82.370926
-15.088028 -71.001976 -214.714935
-35.246807 -65.549469 -283.894989
99.807533 -70.919678 -173.782837
-90.111771 -69.903336 -140.579269
10.832262 -74.454117 -188.468414
-153.824829 -75.424644 -189.356232
61.203987 -70.685272 -45.221176
-23.723116 -74.062943 -211.266632
-98.694847 -84.110641 -120.983116
-31.203154 -73.211632 -169.543884
-71.503929 -71.042435 -127.206268
3.866651 -69.068604 -147.797958
-65.326622 -81.884979 -173.990341
24.152069 -68.564735 -281.003174
-151.896286 -84.773201 -213.080185
-102.491394 -65.951775 -231.241226
-152.406860 -65.145859 -193.792389
75.474365 -74.689697 -51.397881
8.651733 -69.125175 -229.349792
-11.940242 -69.533638 -256.483856
17.087719 -66.574226 -170.356522
-116.871780 -61.949173 -297.291046
-92.799438 -69.855637 -130.030685
20.153767 -75.963051 -186.235519
-11.368497 -75.409203 -217.579987
10.129759 -59.951569 -284.402740
-52.683064 -83.992653 -59.126572
103.994957 -73.789513 -115.354454
7.345141 -71.723160 -283.271332
-96.119377 -80.164345 -113.157578
8.879794 -80.243240 -269.154572
62.303455 -82.880684 -72.879372
78.447784 -73.344543 -50.478291
10.646847 -64.903709 -132.109192
-60.140278 -80.030159 -150.616394
102.671928 -75.004196 -111.219788
-59.238010 -85.949898 -81.094238
-85.909897 -88.755066 -90.860138
-9.154799 -76.827278 -204.158463
59.069412 -76.630821 -52.539513
-143.707184 -80.441528 -218.985291
23.517103 -74.707970 -163.630692
6.090393 -74.833725 -26.249228
-78.961113 -67.529366 -107.145638
-103.540787 -67.163528 -155.793716
-149.911621 -75.535301 -213.028275
-69.002518 -66.470459 -134.904984
-75.293686 -74.629768 -46.337967
-52.618011 -74.386696 -46.101311
-41.092220 -79.844574 -203.202194
22.768810 -80.493149 -20.596455
86.132660 -74.002983 -71.076233
-146.109070 -70.563713 -305.916412
-140.041382 -62.974369 -287.379456
-88.855896 -76.563873 -120.848328
-17.135593 -72.264778 -231.914719
9.210170 -78.236931 -196.292923
17.064548 -69.238838 -206.536743
-89.761841 -74.592720 -111.378235
1.738683 -73.006821 -17.415043
-149.802109 -77.853516 -197.628113
2.379693 -76.070740 -271.398560
-37.806129 -82.348907 -202.748581
-160.769699 -69.229813 -213.632431
11.109841 -67.370956 -171.585785
96.547073 -72.449524 -183.312836
-147.047562 -74.975502 -279.925720
-140.579361 -80.346428 -311.175385
-141.387405 -70.223175 -206.575790
64.742607 -79.143127 -84.581993
14.149742 -81.166908 -1.260708
-135.851608 -66.043396 -239.818085
-144.627655 -69.459656 -283.565979
-26.440304 -67.394310 -186.046310
-21.797792 -74.520370 -200.874237
12.511511 -66.849243 -128.934998
76.850494 -71.524384 -208.325180
-109.555054 -65.591019 -182.380112
-155.248367 -66.956551 -192.200119
-62.469383 -76.526939 -131.120102
9.099015 -70.583405 -284.725922
-91.102272 -94.506683 -110.636787
-108.254990 -63.727310 -265.158081
-55.828465 -75.389153 -247.617233
-143.075851 -77.962341 -304.320648
-140.214096 -73.767418 -235.254639
-82.959846 -88.077766 -65.423981
26.724543 -74.600967 -113.860855
62.408855 -84.503174 -75.654396
-40.805225 -79.781631 -173.110275
7.749581 -76.178825 -200.772369
-105.481018 -72.297935 -264.996307
-100.492836 -82.031242 -115.773232
-113.268509 -74.524719 -87.094505
-134.772552 -60.958866 -321.914032
-75.140961 -78.267944 -153.458267
17.862469 -63.632961 -129.145859
27.081041 -65.994186 -267.361084
-15.965329 -75.928604 -237.085495
-147.807587 -69.614754 -304.269623
-67.779671 -70.036659 -140.992920
-91.934998 -67.889046 -129.798920
-19.359095 -69.266022 -235.144485
106.524628 -75.644859 -117.668274
-61.424393 -81.147537 -52.768333
48.181232 -76.366425 -58.679901
29.857040 -76.520454 -14.588446
0.305457 -81.947685 -260.518463
36.889999 -74.761787 -91.174385
-79.870796 -83.010643 -101.982208
16.920755 -80.412659 -217.946396
-107.221336 -67.557419 -151.215805
26.782564 -82.287956 -123.607132
-42.462185 -72.252106 -64.470230
22.821123 -80.451920 -103.306976
-100.832664 -73.990280 -52.034912
-142.359848 -83.102608 -248.711960
92.622238 -71.975983 -191.789398
-164.210388 -67.153839 -276.341705
64.545860 -81.892715 -64.549385
-142.880707 -83.107689 -270.416534
-41.091816 -78.398979 -240.598404
11.850290 -67.966812 -207.075989
-147.817062 -80.438492 -198.896240
-19.795193 -77.001587 -219.388992
6.736709 -80.559319 -247.587189
5.164929 -77.491638 -210.550659
1.123992 -78.358162 -263.621704
-78.710136 -86.036545 -60.288574
7.614724 -58.741211 -243.017822
-141.965820 -73.733551 -292.360962
1.486623 -76.244598 -152.278305
-12.541304 -77.443069 -212.318726
-43.085293 -83.035217 -160.287399
83.988121 -72.708626 -203.612000
19.572889 -81.724915 -162.361725
56.303200 -67.914398 -226.756943
-147.325470 -77.808510 -216.518616
-87.944252 -96.530197 -98.436783
-103.296585 -85.949127 -113.367271
-103.815018 -71.093651 -230.974075
-73.251907 -79.965790 -167.576935
-144.809998 -77.099602 -262.139130
24.402948 -76.236870 -243.600616
-91.669571 -72.450699 -224.813080
99.199600 -71.268639 -112.270615
7.751066 -72.360931 -230.391083
-137.904541 -61.949242 -312.794464
-145.729874 -65.939751 -298.868683
43.830971 -77.774208 -76.572693
19.842857 -71.349991 -275.500549
88.025658 -67.118546 -198.540634
-59.481159 -91.926880 -80.938438
-107.857933 -81.630341 -109.253960
85.033844 -71.283104 -205.642197
-82.806053 -92.583557 -83.246552
-81.834511 -84.269897 -102.591805
-67.832077 -76.807503 -141.169525
77.505974 -66.987099 -213.555893
-90.297112 -71.961929 -256.948700
-13.717092 -76.760834 -207.339508
40.178356 -80.681396 -90.791786
16.721788 -83.362076 -171.053452
-127.294182 -63.995678 -265.642059
26.522709 -80.668869 -93.242722
30.333195 -78.435852 -84.515739
-110.716240 -65.411240 -300.782593
-57.481701 -64.703239 -288.811859
89.299805 -72.521301 -80.325699
-103.164040 -73.312134 -226.225281
-158.076126 -68.988396 -290.691772
-47.120628 -74.465515 -151.637695
-74.162521 -73.881714 -291.179718
-92.970573 -65.793243 -119.988243
-152.861206 -73.172287 -224.893311
10.768562 -62.829330 -235.045715
-145.652206 -67.190735 -232.479309
-143.129990 -84.720291 -275.678864
-138.490753 -63.171268 -297.721985
-112.523315 -71.109161 -64.711090
-158.807861 -71.400024 -269.858307
-117.105339 -74.944649 -263.329071
-112.841507 -67.060928 -238.602966
-116.550163 -70.801529 -75.410263
-134.057526 -72.615387 -288.074707
-69.817619 -78.004379 -158.483215
92.104073 -73.717506 -80.169281
-10.609523 -69.640572 -257.391754
-79.459595 -67.680763 -113.210190
-73.323311 -91.889908 -82.451317
15.383995 -83.365952 -126.777199
-113.087502 -67.192719 -174.216812
-78.336205 -67.287987 -122.898026
-82.091125 -69.943779 -261.769928
-148.026108 -74.610168 -219.402603
-11.117362 -72.088341 -218.562698
20.495283 -76.430695 -4.249383
-14.491954 -83.041519 -167.710587
-127.238518 -65.095726 -208.358841
0.510195 -77.842529 -226.145706
-107.482933 -71.171158 -124.394196
20.009199 -75.531952 -213.238647
-159.482727 -71.801697 -231.130615
-67.958565 -68.316444 -249.822647
15.269296 -82.445793 -235.694351
-95.286865 -70.314545 -135.576035
-64.102882 -68.771294 -140.737991
67.516869 -70.144508 -222.063431
-160.693161 -72.784920 -250.510513
-41.667259 -82.434143 -197.722382
-73.348030 -84.558296 -213.270309
-80.235229 -80.632942 -151.902512
-21.407036 -78.660820 -193.342041
10.101961 -78.691444 -207.568954
91.338554 -73.606201 -91.406105
-38.072105 -73.998230 -172.041290
33.327877 -80.182175 -106.616318
0.533760 -79.491913 -215.419540
-160.666351 -71.547371 -252.608063
7.211120 -68.854286 -33.279079
-27.347157 -77.516762 -182.768539
105.592766 -74.837563 -149.491180
-15.081429 -81.408455 -198.178421
64.477020 -66.223206 -227.107224
82.885391 -70.464783 -202.804825
-140.379410 -73.721237 -319.610260
-131.140015 -71.613861 -234.416367
33.234200 -67.732620 -81.285637
-40.457058 -83.471878 -62.576168
81.817665 -68.525757 -203.731964
-58.894382 -75.157578 -249.474976
-139.520615 -62.428543 -314.750366
19.845339 -76.139824 -123.468842
23.755980 -78.091187 -138.088287
37.913425 -80.048683 -83.784988
11.366468 -70.083939 -140.233154
35.263111 -77.460342 -99.903236
-60.667732 -86.168465 -57.063976
22.302174 -82.566154 -138.572891
-32.066921 -75.562134 -204.659119
-147.159012 -58.942608 -214.585983
-11.866293 -70.367363 -200.659805
11.716463 -72.415779 -220.040680
-85.355057 -74.420395 -223.135544
-36.250572 -72.018433 -173.649384
-93.686180 -91.796829 -97.209122
1.579486 -72.528374 -281.443634
104.096054 -71.383705 -138.513763
-92.610153 -71.140083 -291.137268
-76.069443 -71.306252 -118.745361
-158.016159 -76.704842 -212.474945
68.756546 -80.781509 -73.984825
-92.627258 -73.367821 -138.753510
-7.627838 -77.183708 -207.499100
-85.118210 -67.547028 -96.780441
20.687065 -69.837196 -153.826675
96.981834 -75.938225 -169.253448
-26.429825 -70.456573 -188.836227
-100.102768 -69.285896 -225.952484
-142.603592 -66.048576 -271.801453
-30.359007 -76.273880 -59.451839
-150.152451 -60.048801 -270.513611
70.616936 -67.359688 -216.466705
-33.248077 -79.989479 -187.780853
-34.756050 -80.758629 -182.454697
-154.525955 -68.041992 -289.937866
-79.336761 -89.694870 -68.020760
29.807016 -76.902618 -106.878647
18.583923 -75.100235 -24.985437
-77.868942 -71.245651 -250.993927
21.077553 -69.846031 -144.052444
-54.617683 -84.227142 -80.656975
85.017365 -77.015999 -80.276268
-146.099213 -63.089058 -236.951889
-49.285614 -73.093567 -168.346481
-144.549011 -58.813465 -248.755920
-45.446598 -78.081703 -168.279144
-95.670502 -73.842438 -139.176743
80.995575 -71.428246 -55.833344
8.160728 -72.506668 -229.819412
8.213738 -60.364948 -234.097321
-30.430992 -80.350067 -175.854813
-58.960091 -78.344971 -47.706867
20.042412 -77.856865 -252.789246
-101.036446 -70.189926 -150.941101
-154.133133 -82.332687 -208.377228
-91.390717 -74.141403 -134.905746
17.893475 -78.648857 -140.563858
22.749468 -73.402710 -144.931656
-144.326050 -74.830116 -227.100067
89.935913 -72.878021 -187.607208
-163.865479 -67.267616 -237.984955
-148.672775 -77.800117 -241.979950
26.891048 -82.835625 -95.875954
-96.009537 -63.918804 -296.446472
18.251190 -73.627914 -276.303223
6.623496 -78.254517 -268.963165
-148.875671 -79.892426 -233.628845
-94.801735 -72.854523 -109.490280
-19.402224 -72.139282 -233.329651
98.339699 -73.125412 -177.976807
-2.393914 -62.948296 -246.583405
-84.553162 -73.567276 -128.525101
-152.622894 -72.984856 -186.985077
20.323193 -85.961975 -126.214455
-79.967758 -71.042084 -146.417725
3.616954 -78.315659 -225.468887
15.553887 -76.875130 -142.677734
61.488937 -71.794998 -46.679703
-35.417828 -82.522362 -174.864731
-136.994019 -80.240509 -300.724121
-58.086670 -73.055908 -136.734772
-29.756704 -71.117744 -190.554321
11.908260 -79.532669 -248.195190
23.559633 -74.126572 -227.110550
-165.001373 -71.298271 -237.369858
-32.116173 -68.989479 -185.812347
-159.781754 -71.232933 -245.955780
13.936052 -70.822472 -217.819336
-142.962860 -78.504623 -303.913330
53.042557 -63.153442 -238.345901
9.827884 -67.590675 -233.723511
73.490898 -67.740654 -216.214508
-147.241043 -65.129929 -229.567245
68.817291 -66.661819 -44.209415
-2.396598 -76.303848 -265.297211
-39.240417 -77.309029 -53.177780
5.384290 -63.062023 -281.877441
17.217255 -72.241699 -151.894302
-67.641792 -71.346474 -145.582581
43.872906 -61.057423 -237.113144
-63.621319 -91.995094 -85.091988
21.689415 -72.476631 -129.166397
-119.533409 -68.290123 -204.860443
-140.570435 -73.492790 -317.283783
70.839668 -69.881615 -215.589005
16.106247 -71.468407 -166.618546
-116.083900 -68.008492 -68.376808
-145.196793 -67.910469 -256.249207
-155.401428 -69.992416 -266.059296
-132.815842 -72.146545 -302.266052
104.797050 -76.822067 -117.758514
-18.900723 -83.451897 -198.672333
27.645199 -61.977913 -115.523926
-96.929497 -74.240868 -142.191330
5.903685 -73.270218 -24.220753
13.235314 -68.309212 -202.514786
-106.485413 -69.761658 -157.277512
-35.533787 -71.510315 -239.521591
-128.530579 -64.058853 -271.225037
18.723755 -76.477272 -211.036972
98.467995 -70.294609 -160.141144
9.678009 -57.739281 -247.828217
30.553596 -80.174934 -113.540901
-18.340435 -74.491783 -185.102341
-171.604980 -66.568901 -224.274994
-84.022972 -72.835487 -102.625031
21.446621 -63.342739 -276.975159
-15.468975 -73.157616 -231.659500
17.073969 -76.829102 -179.091873
-33.687916 -77.141670 -200.744186
37.583363 -71.041313 -88.000763
-68.859924 -73.991798 -254.100769
4.091859 -66.410660 -220.129303
-46.561939 -85.376785 -164.242386
-35.983864 -76.540611 -167.130234
62.397655 -70.899277 -219.588684
-62.153709 -76.058289 -136.575821
-124.153763 -69.108276 -209.484879
-116.238899 -73.893822 -235.188980
-46.126373 -79.412560 -153.544922
13.969885 -57.023281 -232.397949
-51.288689 -83.943314 -78.390915
-62.745872 -87.438995 -58.567837
-9.044456 -69.788406 -231.133362
9.195219 -70.929581 -185.893341
-141.223145 -66.553429 -245.918915
92.820206 -74.190758 -190.551254
-52.538212 -74.580917 -48.438862
-41.972878 -86.118004 -68.595093
53.228210 -66.345062 -238.687393
-134.525009 -81.771973 -297.929657
4.483322 -70.902435 -22.531944
-32.761883 -73.903969 -235.967682
9.465626 -64.494400 -133.377365
28.121321 -82.232956 -96.168076
-61.296093 -81.669670 -174.532333
2.506741 -69.448563 -232.851791
-141.961609 -64.726639 -307.270477
-70.436356 -67.896271 -45.965004
-4.315959 -74.397141 -159.067322
-85.597679 -80.285858 -52.371033
-35.864285 -78.489716 -60.045372
-153.226547 -69.777138 -265.618073
94.611946 -67.468224 -188.864243
12.960114 -82.564613 -231.320145
94.936302 -72.636169 -92.059357
14.986763 -70.241943 -175.372040
-130.139160 -77.083282 -300.091370
-145.553513 -76.781525 -232.168121
-148.656052 -77.318878 -203.695084
-98.483955 -73.861305 -141.938492
-82.883797 -66.450859 -116.229141
-144.996964 -85.677719 -248.389557
-5.892429 -62.126358 -246.913239
0.807295 -73.757271 -235.785370
-139.220703 -68.552452 -248.240112
-147.629623 -82.195930 -201.509521
0.842219 -78.558479 -239.889908
-68.412132 -85.041817 -57.510895
-92.885567 -82.610062 -106.543983
15.720793 -80.142303 -236.843414
73.260681 -72.217033 -88.758049
99.515701 -74.627075 -112.844749
18.947929 -71.363174 -9.451712
19.878422 -73.521423 -173.385941
57.958324 -64.387901 -232.494720
16.536343 -68.125534 -224.760254
99.824722 -82.896149 -121.327179
-114.522346 -70.646698 -99.864754
-156.917999 -74.117516 -207.222565
-3.359785 -66.606178 -270.484436
-72.583992 -70.505913 -117.888618
1.373981 -79.059334 -261.773468
-109.832771 -70.300514 -262.675751
6.294990 -72.138260 -214.374802
17.050163 -72.066124 -210.904236
27.406660 -74.234421 -236.350693
25.142433 -73.627823 -108.145683
-30.316702 -72.830994 -283.980560
-109.945938 -72.873161 -51.997742
12.545309 -76.528305 -195.138428
75.133171 -78.251137 -58.207726
23.501591 -76.085648 -151.938080
10.695521 -69.215012 -135.815247
21.249676 -79.199463 -115.907234
9.148035 -73.767830 -234.331131
-37.804962 -83.380333 -68.088181
-142.859604 -67.126968 -239.174606
-0.121029 -68.118011 -144.329773
18.821728 -83.570450 -132.861237
37.905647 -62.261379 -242.325043
-0.284860 -70.236168 -217.431076
6.629697 -77.913086 -23.898932
-29.556868 -83.866028 -185.528946
-66.118401 -79.200188 -170.096558
-122.385979 -62.432098 -271.380432
-50.933331 -87.418961 -72.863846
106.697655 -74.957458 -129.511124
-135.333755 -69.222588 -284.098480
-95.416298 -71.292091 -137.455276
-149.544144 -74.860565 -203.351654
-132.365707 -68.101006 -212.137512
-24.551456 -71.056602 -201.364395
22.576715 -78.042076 -254.062820
-45.163231 -80.636879 -193.940170
-146.291733 -79.797470 -246.576965
7.926032 -71.115257 -185.105164
-31.600246 -64.483406 -284.216064
94.957718 -72.344536 -186.431213
69.302765 -68.675560 -223.531662
-30.909151 -74.177887 -176.963989
16.007624 -69.850250 -201.272812
29.603579 -84.270645 -105.405464
-90.235023 -67.830582 -123.628860
-49.967026 -71.755447 -153.149139
-69.373413 -74.138916 -170.501968
-5.576132 -63.299622 -232.514343
97.311455 -74.247986 -151.263657
-147.642929 -66.809937 -296.023834
-79.434441 -70.371292 -99.539612
-127.559135 -73.772614 -262.073761
7.469410 -56.210018 -280.003723
-153.714279 -68.069382 -253.749817
-124.514175 -72.679634 -299.289307
25.553007 -84.732361 -117.829628
84.075668 -68.379974 -201.175873
20.657131 -78.822632 -111.905304
-79.253326 -71.416367 -143.722824
107.417221 -75.980423 -143.560257
61.175255 -82.586380 -56.283295
-103.719612 -72.863213 -143.793945
-83.385681 -78.177513 -144.178482
-83.694420 -74.089249 -217.572266
32.763721 -75.395546 -86.917603
21.964159 -76.091591 -163.376602
8.477755 -80.444565 -241.673874
-117.049957 -61.960304 -270.114532
-58.749619 -80.011833 -190.663254
-20.910892 -65.453651 -203.141388
25.903612 -83.086540 -102.186035
-164.563248 -74.057442 -247.393677
13.677842 -82.752823 -3.003298
-107.164207 -70.515396 -176.113647
-5.962819 -68.548149 -281.628662
-126.452103 -69.363304 -263.964600
-138.397003 -69.620697 -287.693024
-48.825352 -81.053505 -159.682907
-48.915752 -71.899002 -48.274548
-78.706299 -72.967430 -103.013954
-141.196243 -63.459938 -233.258423
-6.825006 -63.445480 -229.312012
42.428078 -69.165977 -69.646423
-55.387630 -80.521736 -203.701828
-1.981773 -77.892128 -253.685059
-85.605331 -88.872108 -67.493904
58.985428 -74.117523 -89.402359
-0.409121 -60.660805 -260.187897
-152.441559 -63.947216 -186.269150
-81.948952 -70.111511 -260.722198
-96.592857 -78.412895 -223.415207
-150.936417 -79.222786 -246.771225
18.556871 -71.228889 -198.435135
1.654628 -73.644730 -17.834743
-12.852435 -68.809700 -284.230530
-13.106006 -76.835739 -168.597534
-16.598185 -74.765587 -223.662033
-58.873676 -76.860031 -188.609940
-4.476708 -76.290085 -153.266449
-96.134193 -78.181091 -105.485039
-37.430290 -73.900124 -173.006485
28.820593 -62.217720 -243.511444
-56.393684 -86.625000 -69.418762
-54.265957 -80.762978 -202.232895
-80.528725 -75.992798 -144.670746
-81.474525 -73.436424 -293.833527
-92.860992 -88.139252 -73.974541
-68.663528 -72.507843 -122.907372
-72.655396 -63.712273 -135.662186
33.795834 -73.666222 -96.431877
-1.107618 -63.965576 -229.611511
-110.166405 -81.109612 -92.160423
-138.261047 -81.785225 -269.873993
-68.494270 -89.591492 -64.858871
-70.683739 -70.690254 -129.424408
14.579837 -78.940674 -154.626007
-124.615280 -74.016434 -300.879272
18.525635 -75.558426 -17.715405
-132.261017 -68.008316 -265.997467
-122.081001 -63.320240 -240.528885
-146.519318 -75.481834 -261.708588
-153.480042 -82.256004 -207.503357
-126.548515 -74.930748 -212.770798
-156.206680 -70.017952 -193.635300
23.287653 -70.984215 -115.491074
3.372939 -78.941620 -246.353195
-49.982288 -80.929321 -53.769558
14.459717 -79.083557 -182.530914
6.034694 -78.871735 -149.892014
-142.421097 -62.892517 -304.046051
70.343193 -67.410347 -231.123810
-79.806183 -76.807327 -139.523132
-68.673622 -80.078033 -208.897552
-5.506459 -74.049438 -256.327301
52.054287 -65.017014 -232.985840
20.789452 -77.642700 -257.143250
-10.945268 -72.092140 -203.189575
-46.939705 -77.389107 -147.506668
-106.923859 -65.423691 -297.423828
-44.665653 -73.813057 -159.174881
-59.701698 -76.611465 -47.977821
-61.682323 -71.952942 -45.187595
35.169346 -73.887520 -87.909683
-92.194336 -72.660629 -106.686951
-144.914276 -83.737740 -246.577560
-38.494823 -73.093086 -176.269943
20.117193 -78.789452 -271.699402
18.564030 -66.095917 -235.118668
65.676262 -74.330322 -50.777653
-3.542654 -81.674187 -21.202419
-77.231697 -86.489059 -98.595085
40.199146 -60.984539 -241.756302
-17.559393 -69.692009 -194.027039
9.005700 -63.388474 -283.586761
-83.985771 -70.874336 -144.808334
-127.650093 -76.998772 -302.478943
53.852524 -79.399063 -61.685150
105.651360 -77.844841 -153.058197
-66.206886 -70.278938 -140.211258
16.478075 -70.446205 -159.282410
-74.229492 -73.751930 -132.137985
-138.083466 -73.325569 -273.645905
-146.075836 -68.305901 -291.160706
101.794250 -68.612885 -178.637085
-152.283890 -69.354759 -296.519135
-126.802048 -75.848724 -297.898041
-2.224988 -64.945930 -218.761749
22.525898 -80.405632 -143.866364
-37.173435 -69.671707 -166.788483
24.570723 -73.116913 -234.637558
81.505463 -70.739853 -51.526890
26.210794 -72.297104 -126.530022
-123.932289 -64.709114 -212.015472
-67.566399 -72.779190 -171.181976
70.657188 -74.882271 -222.916336
-24.356701 -77.284767 -182.397339
21.239046 -74.852753 -9.749687
-147.865128 -71.520195 -199.906769
25.479961 -85.012207 -119.522652
-64.500107 -73.064438 -86.410378
6.285931 -70.003479 -187.073395
