16.060066223145 -85.745903015137 -248.891571044922 2.420853376389
-43.744644165039 -82.261528015137 -73.377532958984 1.943507671356
-29.478191375732 -81.408920288086 -189.567474365234 1.322995066643
-83.335853576660 -61.990791320801 -119.625480651855 1.176313161850
-148.663131713867 -65.375831604004 -247.079406738281 2.227689504623
6.104817867279 -77.146392822266 -292.162200927734 1.112624883652
-66.830215454102 -76.308494567871 -161.300994873047 1.787390589714
-139.881317138672 -89.088584899902 -257.948760986328 4.393679618835
-147.700683593750 -64.182327270508 -186.171020507813 2.142205953598
-124.385620117188 -76.062126159668 -263.716339111328 1.229236602783
0.344114989042 -78.408584594727 -243.908187866211 2.828664541245
22.173242568970 -61.486915588379 -275.450042724609 1.379103899002
-67.886566162109 -70.546188354492 -156.648971557617 1.183240771294
108.495880126953 -72.639015197754 -155.419631958008 3.270081520081
17.187082290649 -77.915794372559 -238.180572509766 1.819984436035
14.979047775269 -70.881057739258 -286.291290283203 2.844424009323
-106.267585754395 -62.654624938965 -170.293426513672 1.548359751701
-162.083419799805 -74.190658569336 -211.055816650391 2.751832723618
27.120300292969 -68.361427307129 -154.913787841797 1.659661889076
-72.043388366699 -74.513771057129 -100.807167053223 2.387226343155
-150.413131713867 -86.802772521973 -295.657653808594 1.320371866226
107.231933593750 -71.052482604980 -181.921096801758 1.737146973610
-73.973594665527 -79.103569030762 -286.052795410156 4.071769237518
111.898361206055 -73.144187927246 -134.768539428711 0.949660003185
-95.462539672852 -66.223808288574 -141.086563110352 1.365588188171
-49.393466949463 -77.774391174316 -193.788848876953 1.395965576172
-22.720582962036 -73.102432250977 -74.246971130371 2.780884504318
41.288032531738 -66.082351684570 -251.215087890625 1.676230669022
24.169010162354 -63.080863952637 -24.767301559448 2.019085407257
-45.165248870850 -70.504295349121 -147.777267456055 0.615750968456
22.979240417480 -75.199623107910 -159.271850585938 2.938558578491
-149.146636962891 -64.895973205566 -233.456115722656 2.174710512161
44.013973236084 -75.348205566406 -120.289939880371 1.682947039604
-77.767356872559 -75.461914062500 -97.301734924316 3.416558980942
109.676712036133 -70.119880676270 -122.383010864258 1.328368544579
-100.247688293457 -77.630500793457 -218.453842163086 4.512019157410
-88.067085266113 -67.115646362305 -120.716331481934 2.798548698425
-70.081604003906 -72.251296997070 -147.341659545898 1.305118083954
94.478378295898 -64.411102294922 -70.977111816406 4.928460121155
37.638072967529 -57.963691711426 -37.361061096191 2.733194828033
-142.718765258789 -68.157745361328 -196.825042724609 1.965441107750
-146.378448486328 -67.454895019531 -194.305541992188 2.965797901154
-70.739341735840 -83.128822326660 -211.865371704102 1.470586538315
-166.166473388672 -72.385032653809 -204.405105590820 2.200963497162
-13.350222587585 -73.454719543457 -243.187561035156 2.156230211258
-168.136383056641 -72.012359619141 -225.428482055664 1.495389819145
-131.117660522461 -71.174095153809 -261.346832275391 3.383235454559
-58.647090911865 -61.673099517822 -133.755691528320 1.923469066620
19.443252563477 -71.762687683105 -205.711990356445 1.392264485359
-39.483055114746 -80.831565856934 -240.202407836914 2.307904720306
32.168556213379 -67.297279357910 -138.503265380859 3.132150411606
-73.391479492188 -59.043586730957 -99.534431457520 1.229869127274
-80.342895507813 -84.532424926758 -98.758514404297 2.180649518967
79.491355895996 -67.178237915039 -102.868728637695 3.192775726318
-154.404434204102 -80.465354919434 -272.059967041016 1.251033425331
-93.284294128418 -63.994621276855 -63.818801879883 2.884643316269
18.256427764893 -79.670730590820 -230.510177612305 1.360772728920
88.552749633789 -63.336303710938 -64.361724853516 2.656347274780
-141.477233886719 -77.490715026855 -198.745895385742 1.653623819351
45.414432525635 -71.928672790527 -118.465484619141 1.248612403870
-4.860764980316 -64.711860656738 -242.382308959961 1.205268502235
26.058738708496 -71.470970153809 -264.895507812500 1.404118895531
-14.586414337158 -67.311439514160 -66.178314208984 2.292196035385
-144.725097656250 -80.431243896484 -215.477996826172 2.235250949860
-94.369041442871 -71.486732482910 -110.472755432129 2.166567087173
-6.466094017029 -75.798484802246 -290.270782470703 2.285337924957
-169.550369262695 -73.554283142090 -219.624542236328 2.947470188141
34.722274780273 -70.398719787598 -117.153594970703 2.144988775253
11.882347106934 -73.937316894531 -245.790145874023 1.688537836075
34.617244720459 -64.861923217773 -259.653808593750 2.102352857590
-53.198566436768 -83.439582824707 -244.045272827148 2.979626178741
-16.716480255127 -78.625877380371 -209.649612426758 1.634876251221
-68.873382568359 -69.033287048340 -96.817581176758 3.460385322571
-41.070243835449 -76.538787841797 -155.267562866211 0.856810748577
-101.336929321289 -66.904495239258 -170.073455810547 1.262131094933
-31.697225570679 -69.693908691406 -172.760543823242 1.224839329720
42.022357940674 -72.531265258789 -253.402954101563 2.203557729721
-67.122589111328 -73.342437744141 -166.702316284180 1.775627017021
24.154575347900 -65.701538085938 -139.719940185547 1.376604318619
-145.308990478516 -86.191459655762 -257.263916015625 1.440060496330
-51.109748840332 -76.753440856934 -177.373886108398 2.196328401566
-24.539125442505 -74.767997741699 -220.799667358398 2.051794290543
-68.838256835938 -82.599327087402 -206.747970581055 2.391269683838
13.313982009888 -81.217231750488 -231.297988891602 1.498054981232
6.943428039551 -78.670631408691 -200.912384033203 2.378198146820
-149.764633178711 -76.570922851563 -229.902343750000 0.787842988968
29.241016387939 -71.015197753906 -156.642196655273 1.608792901039
34.484767913818 -66.092880249023 -130.525039672852 3.312000513077
-153.522933959961 -87.111572265625 -230.194473266602 4.041812896729
-10.342260360718 -72.883491516113 -281.810760498047 1.892858266830
71.016502380371 -71.245788574219 -233.865921020508 0.819408714771
-123.154823303223 -76.373573303223 -288.937042236328 1.866547822952
37.538841247559 -72.517402648926 -261.926147460938 4.497507095337
-107.016815185547 -69.791130065918 -189.027877807617 1.095800876617
-146.064193725586 -68.093589782715 -252.219726562500 1.658744335175
-60.622100830078 -62.475692749023 -122.215972900391 3.210352659225
-62.695629119873 -74.209236145020 -93.294921875000 1.066565871239
105.568481445313 -61.612552642822 -84.137039184570 0.614895701408
-144.773818969727 -76.847061157227 -183.273651123047 2.147775888443
-138.234008789063 -71.854118347168 -234.070175170898 2.858735322952
5.051644802094 -78.205718994141 -233.907073974609 1.584474921227
11.550094604492 -70.690277099609 -237.535217285156 1.891642570496
-11.078034400940 -72.060287475586 -202.742507934570 0.736893713474
-49.054283142090 -82.141174316406 -90.746925354004 3.059121608734
11.263842582703 -70.007194519043 -206.915542602539 0.761651933193
23.475482940674 -74.877136230469 -181.191818237305 1.322660446167
43.769214630127 -54.409072875977 -24.431034088135 3.022910118103
-25.210065841675 -72.321556091309 -222.056137084961 2.071022272110
19.929431915283 -69.556282043457 -160.537384033203 1.582975387573
10.441438674927 -82.417938232422 -222.677917480469 1.086907267570
-26.588380813599 -81.701255798340 -184.865478515625 1.969295382500
-93.997406005859 -62.285690307617 -142.062774658203 1.232061028481
109.182769775391 -66.732109069824 -167.237747192383 2.943554401398
-48.013725280762 -63.327606201172 -83.107780456543 1.054041504860
84.783477783203 -78.159141540527 -223.767074584961 2.194370508194
-94.961502075195 -63.890983581543 -67.270584106445 1.701426863670
-82.862411499023 -60.803657531738 -116.634902954102 2.143020629883
-5.361168861389 -77.076477050781 -216.719024658203 0.793626546860
-53.118217468262 -85.040046691895 -84.275558471680 2.194068431854
-78.339401245117 -76.173751831055 -103.594467163086 2.422373056412
23.631992340088 -61.932506561279 -145.128036499023 2.720371723175
-1.636433005333 -78.373497009277 -161.745208740234 3.030740261078
-151.867599487305 -75.490188598633 -206.160049438477 2.847387552261
58.445343017578 -69.117492675781 -243.120025634766 0.837485253811
-42.120941162109 -65.750953674316 -158.098754882813 2.532444953918
-38.304634094238 -67.051681518555 -175.457763671875 3.123297214508
5.358520984650 -74.076683044434 -226.516510009766 1.422909498215
26.903774261475 -80.727241516113 -158.010131835938 2.688697338104
111.289306640625 -72.479515075684 -132.208358764648 1.494852542877
19.960626602173 -75.732528686523 -197.112838745117 2.251639604568
33.616050720215 -73.793411254883 -252.104553222656 4.175878047943
-56.323543548584 -67.984527587891 -87.886573791504 2.623410701752
-58.708465576172 -84.188682556152 -202.947875976563 2.020931959152
-102.006820678711 -69.853462219238 -221.656158447266 1.728636503220
9.198458671570 -72.872093200684 -201.102111816406 1.005142450333
53.294986724854 -73.063560485840 -101.081619262695 2.269343376160
-39.421607971191 -67.922157287598 -53.444011688232 4.971375465393
-15.331177711487 -68.187057495117 -65.340637207031 3.322195291519
-86.750511169434 -75.006950378418 -215.000076293945 1.785148859024
46.018859863281 -61.811550140381 -25.751550674438 3.104655742645
-159.727981567383 -72.225456237793 -293.603637695313 1.246557950974
-43.354454040527 -77.212478637695 -167.202194213867 2.844401121140
-1.770249962807 -68.837738037109 -290.152313232422 3.009996891022
-119.085891723633 -72.772789001465 -202.772369384766 2.566986799240
-155.098693847656 -71.747657775879 -176.003250122070 2.898416996002
-0.223954007030 -74.146812438965 -239.081115722656 1.327146291733
65.415756225586 -59.299579620361 -92.537445068359 0.900768399239
15.890732765198 -81.602684020996 -258.246582031250 0.762260019779
-96.932098388672 -63.733360290527 -111.754135131836 2.189909219742
94.793395996094 -75.049385070801 -212.518218994141 2.115312099457
-75.463455200195 -70.423721313477 -142.562408447266 1.876001834869
-58.796062469482 -78.585319519043 -176.546340942383 1.890576243401
-39.524322509766 -61.482185363770 -48.173465728760 3.420987844467
-47.010368347168 -80.998504638672 -153.210113525391 1.996792197227
-50.353897094727 -76.352714538574 -187.946289062500 1.871346831322
22.689643859863 -68.542930603027 -142.710372924805 1.500722289085
43.879760742188 -65.542709350586 -35.443897247314 3.055294513702
13.496135711670 -78.619155883789 -208.315475463867 0.882205665112
-45.701488494873 -87.565750122070 -199.031921386719 1.634240746498
-146.151672363281 -85.580299377441 -219.957733154297 1.605603098869
82.561653137207 -56.832183837891 -58.020465850830 1.876305103302
-48.602241516113 -78.884857177734 -284.272155761719 2.546473741531
14.942996978760 -72.315742492676 -213.860885620117 1.926612138748
74.363410949707 -72.539550781250 -89.513107299805 1.695177435875
-132.692352294922 -74.974563598633 -254.952239990234 1.452828288078
-149.549682617188 -67.999038696289 -194.735671997070 1.635233163834
45.388801574707 -66.150604248047 -21.805004119873 2.857864379883
-138.709259033203 -67.989440917969 -255.735122680664 3.092571496964
-153.789810180664 -64.198898315430 -247.349777221680 4.100793361664
-159.907363891602 -75.218048095703 -262.277008056641 1.754246711731
-139.716217041016 -71.177726745605 -254.698104858398 1.205862879753
29.980319976807 -60.806404113770 -19.653215408325 1.448847532272
-147.728057861328 -74.681518554688 -186.980499267578 0.517549932003
96.035797119141 -70.905471801758 -207.361312866211 1.787075400352
-152.501632690430 -72.811943054199 -296.919799804688 1.412591695786
14.242627143860 -69.478584289551 -176.132034301758 2.970987319946
-8.704833984375 -67.322662353516 -215.847671508789 0.998024702072
-141.388488769531 -73.793746948242 -199.501296997070 1.618056654930
-60.745807647705 -73.882392883301 -137.976455688477 3.389650821686
-152.444427490234 -85.245704650879 -229.273468017578 2.461658716202
-100.316513061523 -61.231498718262 -81.435852050781 2.235544443130
104.782043457031 -74.387054443359 -164.285797119141 3.896248340607
-69.978065490723 -85.265472412109 -89.995529174805 2.465594053268
-135.157409667969 -77.325271606445 -253.206146240234 3.201045274734
-64.132148742676 -62.548370361328 -123.360557556152 1.583068490028
94.395507812500 -72.218467712402 -197.729644775391 2.640702486038
-69.728103637695 -71.116905212402 -146.254837036133 2.094065189362
-73.869346618652 -67.736801147461 -103.554550170898 2.137672662735
4.162658214569 -75.338294982910 -214.592300415039 2.585170030594
-76.481430053711 -62.708915710449 -112.796798706055 2.119873523712
-134.812698364258 -73.864418029785 -224.422088623047 2.363940954208
-147.278778076172 -83.748741149902 -299.042083740234 2.887467622757
-73.535781860352 -57.127197265625 -45.173004150391 2.188191175461
-53.682327270508 -59.954357147217 -125.560134887695 2.050072193146
39.547943115234 -61.876617431641 -13.564844131470 3.139129400253
-108.295135498047 -67.569328308105 -185.683914184570 1.923464775085
-128.582824707031 -63.057880401611 -198.249359130859 1.975649237633
-149.059753417969 -65.942733764648 -191.219207763672 2.213739633560
-51.077400207520 -76.276008605957 -88.955406188965 1.878470897675
-147.789489746094 -89.208976745605 -249.816055297852 4.046957015991
-63.030609130859 -58.763721466064 -130.439788818359 1.173091173172
-91.069053649902 -69.374237060547 -137.383972167969 2.785217046738
33.361747741699 -54.525962829590 -13.088564872742 3.011183261871
111.036499023438 -70.793167114258 -129.603958129883 0.226233065128
-32.932884216309 -77.384437561035 -210.615463256836 1.390090942383
47.764373779297 -70.304664611816 -109.047378540039 0.761212289333
113.629570007324 -69.870361328125 -132.215499877930 1.959578514099
-50.926853179932 -67.927642822266 -134.056686401367 1.537247300148
-149.775573730469 -79.105323791504 -214.950164794922 1.576067924500
-140.037109375000 -71.843200683594 -200.469833374023 1.544194340706
-89.259788513184 -71.437355041504 -81.947250366211 3.473072052002
-34.141330718994 -78.765899658203 -207.008361816406 1.533576011658
-24.403654098511 -60.959106445313 -71.731689453125 3.445783853531
86.553825378418 -73.360069274902 -87.271492004395 5.053072452545
-154.449829101563 -69.943351745605 -277.820190429688 2.250306129456
46.236454010010 -65.240135192871 -107.456619262695 3.430724382401
-34.783046722412 -62.886268615723 -46.827316284180 2.241851091385
38.028953552246 -74.786933898926 -120.730979919434 3.327740669250
105.495819091797 -59.894496917725 -77.961441040039 0.858243525028
-107.424476623535 -67.698028564453 -193.364257812500 1.140249371529
-144.778045654297 -86.047683715820 -235.706573486328 3.565031528473
-78.510681152344 -69.745880126953 -59.754306793213 3.524582386017
-72.434585571289 -72.947052001953 -60.370460510254 4.669427871704
113.414154052734 -74.284225463867 -141.420654296875 1.584944009781
78.465827941895 -71.200889587402 -97.793365478516 3.118475675583
105.305740356445 -68.109764099121 -122.176071166992 2.419489145279
-144.570373535156 -80.477714538574 -203.032531738281 2.060667514801
77.398361206055 -77.967895507813 -224.234298706055 2.615956306458
25.018001556396 -76.920661926270 -154.946350097656 1.158567309380
-26.491977691650 -72.574150085449 -181.278167724609 2.258033275604
-147.042785644531 -75.816261291504 -286.010620117188 0.713713049889
0.660054028034 -75.280136108398 -240.688415527344 2.190301656723
15.485007286072 -75.051063537598 -248.684005737305 2.290389060974
110.280006408691 -63.363075256348 -117.970458984375 4.783812522888
-166.897262573242 -81.262275695801 -268.220153808594 5.260920524597
-12.084429740906 -69.545234680176 -245.312866210938 1.064158797264
29.146965026855 -72.101150512695 -165.301651000977 2.682010889053
-36.328117370605 -77.603584289551 -205.873306274414 1.431696772575
-45.644794464111 -63.053882598877 -83.426589965820 2.437877655029
-163.264297485352 -68.294792175293 -207.762496948242 2.930491685867
-136.073715209961 -77.613441467285 -294.270660400391 1.326246857643
-164.520370483398 -68.646942138672 -206.152404785156 2.894674062729
-93.213287353516 -66.246551513672 -60.655464172363 2.087795972824
-46.041004180908 -77.860855102539 -240.756515502930 1.750293850899
-148.992980957031 -86.116462707520 -274.824737548828 2.590831995010
-169.278228759766 -77.284820556641 -245.160690307617 5.859355926514
-143.642547607422 -78.424369812012 -290.273376464844 1.243147373199
-119.418731689453 -72.489227294922 -227.598861694336 2.141322135925
102.050132751465 -60.996841430664 -71.148429870605 2.520250558853
83.237884521484 -68.513114929199 -228.627532958984 2.981159687042
38.976375579834 -74.471382141113 -111.961250305176 2.455376625061
-47.988555908203 -75.875030517578 -88.325195312500 1.792836904526
-111.778747558594 -70.666648864746 -224.434082031250 1.437216997147
-94.535224914551 -66.997489929199 -75.238891601563 2.011288881302
57.809829711914 -67.913696289063 -238.923553466797 1.898152232170
45.950977325439 -66.968009948730 -35.015220642090 2.275992631912
-5.425988197327 -66.185249328613 -258.300354003906 1.626345753670
-81.369262695313 -67.447692871094 -115.761314392090 2.921440601349
17.270002365112 -78.711837768555 -273.781829833984 1.521390795708
-13.370669364929 -78.869880676270 -275.548706054688 3.533019781113
34.403957366943 -67.134742736816 -125.879417419434 2.454889535904
-155.042327880859 -68.685577392578 -284.990875244141 1.428656458855
2.261246919632 -80.763290405273 -246.338989257813 1.695674777031
-128.229293823242 -74.388877868652 -235.312179565430 2.994561672211
-12.176337242126 -74.931541442871 -269.213012695313 2.074737548828
32.345039367676 -54.974483489990 -37.223888397217 2.420323848724
5.598773002625 -85.182792663574 -248.290588378906 4.148097515106
23.350868225098 -76.191131591797 -139.731857299805 2.104310989380
68.136909484863 -69.788925170898 -240.854736328125 2.298614025116
-57.949821472168 -75.501235961914 -281.698974609375 2.843093156815
69.228286743164 -68.791915893555 -232.577774047852 0.787039577961
-144.720382690430 -63.533618927002 -180.950515747070 2.645182609558
35.247013092041 -70.875671386719 -118.622589111328 1.946523785591
-147.659988403320 -73.959838867188 -246.609985351563 2.706644535065
98.392845153809 -62.427291870117 -72.386764526367 2.593370199203
17.498815536499 -82.671051025391 -241.972015380859 3.386378288269
-49.965015411377 -81.183219909668 -86.125839233398 1.569163918495
-143.067153930664 -71.390647888184 -289.621887207031 2.290669441223
-144.730224609375 -66.652496337891 -178.214187622070 1.979239821434
-97.736839294434 -69.701278686523 -217.089859008789 0.816738367081
-22.786853790283 -80.166290283203 -195.065658569336 0.770552337170
-70.808044433594 -85.220619201660 -206.621810913086 2.999986886978
13.741984367371 -83.057922363281 -253.547241210938 1.251392245293
-11.565120697021 -71.160377502441 -236.179763793945 2.022733449936
-101.422325134277 -59.667091369629 -75.138839721680 3.374334812164
-34.848781585693 -58.825016021729 -47.134822845459 2.530034303665
-7.881898880005 -68.670913696289 -257.007720947266 3.705651521683
-147.266799926758 -80.824111938477 -300.391204833984 1.956668615341
-33.508083343506 -76.929054260254 -183.932113647461 1.301576137543
-160.564239501953 -69.197814941406 -207.100494384766 2.326548337936
-17.171516418457 -73.564338684082 -228.541168212891 0.944284081459
-76.802810668945 -64.876655578613 -138.997253417969 2.055934429169
-35.338989257813 -73.145515441895 -173.797637939453 2.232482910156
-147.554580688477 -65.235015869141 -196.803939819336 1.909228205681
-1.569574952126 -76.395317077637 -220.373001098633 0.481385856867
-161.444656372070 -77.357635498047 -250.523468017578 2.530084133148
22.373170852661 -75.755645751953 -263.978424072266 2.398791551590
-5.952620983124 -79.839721679688 -217.421707153320 1.315418362617
2.334420919418 -85.024604797363 -272.526275634766 1.838580250740
12.476711273193 -80.858421325684 -288.694885253906 3.152967453003
12.488726615906 -85.511688232422 -259.006317138672 2.165193319321
-60.602100372314 -75.845314025879 -245.006072998047 1.102056503296
-1.221186041832 -73.070167541504 -235.743209838867 0.753427863121
95.358436584473 -74.530593872070 -205.489212036133 2.497145414352
-36.322898864746 -82.128929138184 -208.844360351563 3.721507787704
107.244834899902 -56.534301757813 -76.961280822754 3.086587667465
-139.386764526367 -68.931694030762 -202.580398559570 1.121752023697
-116.588531494141 -74.062110900879 -290.840667724609 1.939910411835
-13.479887962341 -78.175086975098 -219.805160522461 1.410277128220
51.341140747070 -62.528587341309 -98.264579772949 1.950764775276
-149.716339111328 -69.935234069824 -277.487487792969 3.631088256836
-57.123661041260 -70.089775085449 -145.266845703125 1.891563773155
-44.990760803223 -79.651870727539 -284.851501464844 3.297470092773
-16.890626907349 -80.979660034180 -175.553787231445 1.246934533119
-18.557445526123 -74.071945190430 -225.068328857422 2.262707233429
36.419174194336 -71.026237487793 -131.930770874023 1.491828322411
102.897102355957 -72.525230407715 -179.183044433594 2.775853872299
8.706727981567 -74.588775634766 -193.826797485352 2.363185405731
115.524826049805 -69.378639221191 -139.486724853516 2.852366447449
101.374313354492 -67.125885009766 -105.147857666016 2.532867908478
-85.256546020508 -83.907531738281 -106.154380798340 2.207790613174
74.882080078125 -66.870651245117 -68.758071899414 3.092304944992
95.951805114746 -67.259300231934 -76.076950073242 5.052389144897
99.509155273438 -70.785186767578 -93.369529724121 0.704952478409
71.177062988281 -65.020751953125 -70.743217468262 2.702904939651
-28.881353378296 -69.262802124023 -183.987258911133 1.109759807587
-58.483982086182 -60.871585845947 -119.142822265625 1.506407380104
-2.517663955688 -78.575477600098 -245.569854736328 2.555544376373
-145.520385742188 -65.006973266602 -226.839370727539 2.677149295807
-155.531127929688 -77.044761657715 -220.094268798828 4.359611511230
25.197978973389 -78.408157348633 -138.903976440430 1.148720264435
55.945175170898 -70.764892578125 -89.239105224609 2.101157903671
37.412918090820 -63.886932373047 -114.795478820801 5.057806968689
-7.749797821045 -70.308616638184 -285.368713378906 1.683540463448
-33.334732055664 -77.008796691895 -208.835342407227 1.691280961037
-19.562002182007 -80.558502197266 -177.716217041016 1.980573654175
97.452461242676 -67.928047180176 -72.147125244141 2.218798398972
16.974803924561 -66.965324401855 -181.509841918945 2.818481683731
8.624511718750 -76.908592224121 -213.928573608398 1.461909770966
93.373741149902 -72.001480102539 -208.658554077148 1.295868754387
-46.932415008545 -62.218307495117 -48.346240997314 3.915561199188
-23.921178817749 -79.208320617676 -243.923599243164 1.575044512749
81.142585754395 -72.602500915527 -75.764671325684 2.761379718781
93.423171997070 -67.419975280762 -95.809982299805 6.125883579254
94.840423583984 -68.279548645020 -93.629318237305 5.211401462555
-44.008201599121 -71.853355407715 -162.491882324219 0.287604808807
70.426330566406 -59.798027038574 -69.068954467773 3.979845523834
-18.476346969604 -68.929397583008 -249.837173461914 2.918941736221
43.808715820313 -55.158023834229 -16.421989440918 1.824419260025
-52.461654663086 -72.765251159668 -54.690425872803 3.098603963852
-14.642193794250 -60.010902404785 -65.082145690918 1.723098635674
73.067810058594 -67.685310363770 -78.304260253906 5.398479461670
12.300156593323 -74.726364135742 -198.125244140625 1.187663197517
21.137783050537 -68.984260559082 -274.551696777344 2.680156946182
4.452923774719 -75.861633300781 -205.336959838867 2.146903753281
-12.245932579041 -70.492263793945 -269.953796386719 1.520510077477
3.628588914871 -72.707702636719 -159.072372436523 0.854394614697
-97.055976867676 -63.975311279297 -101.134460449219 1.509922981262
-143.214050292969 -66.145484924316 -185.426834106445 1.876331806183
-62.973304748535 -63.621784210205 -123.494087219238 1.892867565155
-148.283706665039 -83.208610534668 -227.000015258789 0.928160548210
45.584865570068 -71.092140197754 -114.290962219238 1.896910667419
-68.178871154785 -58.652717590332 -114.034004211426 2.335624217987
40.666126251221 -60.144203186035 -12.377471923828 4.024878978729
-40.289321899414 -73.286285400391 -168.036651611328 1.778237819672
-159.759613037109 -71.264343261719 -207.792678833008 3.041708230972
4.168541908264 -73.617843627930 -223.680084228516 1.693057179451
-107.671493530273 -69.724037170410 -218.979019165039 3.761617422104
-55.348354339600 -82.811088562012 -204.820724487305 1.721600651741
-56.087135314941 -76.365890502930 -65.841140747070 4.259556293488
-161.994079589844 -76.184173583984 -252.856628417969 1.914312839508
-16.685918807983 -75.354515075684 -235.483306884766 2.700656890869
-5.201633930206 -80.094184875488 -289.394348144531 2.587851524353
19.308374404907 -68.688232421875 -186.790573120117 2.635269641876
-89.363861083984 -66.712867736816 -140.927093505859 1.628953814507
-147.146697998047 -80.059936523438 -303.537445068359 3.065025329590
-149.927108764648 -81.457580566406 -186.728347778320 1.761938810349
-11.526035308838 -75.499900817871 -203.378479003906 1.273334264755
-67.385795593262 -73.357719421387 -163.629669189453 1.467971563339
-33.962211608887 -77.616973876953 -208.516098022461 1.938341379166
-71.161041259766 -58.120285034180 -102.053604125977 1.837376713753
40.191543579102 -77.641502380371 -124.689666748047 1.763424277306
-89.798210144043 -73.443534851074 -255.380722045898 1.866355299950
14.848634719849 -63.812622070313 -238.100921630859 2.744922161102
-16.961091995239 -75.178550720215 -259.302581787109 2.653115749359
-148.459243774414 -75.134880065918 -181.157135009766 1.582461714745
-3.880124092102 -71.064804077148 -165.688980102539 3.641198396683
-155.221542358398 -71.196090698242 -272.994262695313 2.031515598297
-4.057168006897 -68.143409729004 -223.417373657227 2.184010028839
-86.595993041992 -79.103515625000 -288.627899169922 4.626948833466
-83.130622863770 -61.331096649170 -117.383232116699 1.680521726608
-98.403961181641 -68.542808532715 -91.604995727539 2.538067817688
-68.081481933594 -78.645591735840 -209.342224121094 1.818323016167
19.488395690918 -66.247413635254 -156.872421264648 4.417774200439
13.212136268616 -80.007797241211 -246.408401489258 1.873856067657
-88.896560668945 -78.720779418945 -289.180084228516 4.850365638733
-40.423271179199 -55.519443511963 -47.419464111328 1.185467600822
14.113965034485 -67.389823913574 -183.606765747070 2.272784948349
-12.650426864624 -70.877593994141 -239.709777832031 1.440371513367
-59.869323730469 -54.207321166992 -43.414188385010 1.759976625443
-17.447187423706 -73.077758789063 -197.967956542969 2.272387027740
-93.273857116699 -62.770668029785 -68.864715576172 3.328677892685
-114.049484252930 -73.883277893066 -285.636657714844 2.025891542435
72.963302612305 -75.580192565918 -232.378829956055 2.591071367264
-37.075115203857 -75.091323852539 -80.094810485840 1.824768185616
-69.446128845215 -74.845756530762 -252.212341308594 0.543778955936
11.357401847839 -63.004032135010 -149.435546875000 2.423319101334
45.525104522705 -63.874885559082 -98.765396118164 2.095186471939
-79.676506042480 -73.706642150879 -210.279037475586 0.414309442043
15.337443351746 -80.368721008301 -212.408370971680 1.724787712097
50.324848175049 -63.993476867676 -95.337219238281 1.490587711334
-33.245563507080 -76.128799438477 -164.296096801758 2.187408208847
-9.619429588318 -79.598808288574 -287.691436767578 3.123268127441
-150.533340454102 -71.968307495117 -301.929870605469 3.043664932251
-23.351819992065 -59.056110382080 -65.830635070801 2.865665435791
-149.492492675781 -65.233551025391 -195.453201293945 1.412364006042
64.152252197266 -59.645298004150 -83.164665222168 1.598790049553
-99.266746520996 -56.702373504639 -76.067214965820 1.891042709351
-142.452835083008 -80.789909362793 -190.395233154297 2.757442235947
-19.035913467407 -74.346755981445 -202.589981079102 3.004020452499
-111.258575439453 -67.308799743652 -196.023452758789 1.765923857689
-152.599121093750 -67.688133239746 -184.885971069336 3.464570045471
91.490051269531 -71.511306762695 -98.536163330078 2.623258352280
-148.545791625977 -81.256355285645 -189.600509643555 2.125886917114
96.117103576660 -67.490058898926 -91.796997070313 5.164586544037
10.547958374023 -80.213714599609 -228.590423583984 1.240136504173
-117.276916503906 -64.869316101074 -201.512542724609 0.427664756775
-163.967941284180 -72.176597595215 -245.797561645508 2.425055980682
-65.129310607910 -65.601425170898 -120.015937805176 0.782721698284
-33.120796203613 -79.911567687988 -291.392181396484 2.075174570084
-142.337768554688 -82.954719543457 -197.490066528320 0.769232451916
0.271425992250 -76.989334106445 -164.249755859375 1.575707197189
46.033836364746 -77.682518005371 -105.081031799316 1.252579569817
-157.959121704102 -70.734756469727 -204.852737426758 2.111655712128
-142.580993652344 -67.967185974121 -201.989242553711 1.795809864998
-151.355667114258 -81.027297973633 -215.906219482422 2.596632957458
119.044120788574 -67.634628295898 -144.370193481445 4.724617481232
31.792081832886 -71.747856140137 -260.099304199219 1.545745015144
64.586837768555 -66.040573120117 -86.063049316406 1.541054487228
-6.704831123352 -66.075386047363 -291.155151367188 2.943916559219
-144.618438720703 -64.004722595215 -185.725677490234 2.462033033371
-142.866226196289 -71.500320434570 -190.336090087891 2.561018228531
57.553447723389 -64.671897888184 -85.905632019043 1.810072541237
-67.479713439941 -62.840351104736 -120.636383056641 2.624840021133
37.386547088623 -78.535690307617 -123.500251770020 0.749142825603
-152.685623168945 -64.158920288086 -179.510360717773 1.411614298820
-53.183418273926 -71.133483886719 -145.649398803711 2.513120412827
-48.124332427979 -75.986122131348 -180.288772583008 3.249845743179
-45.082359313965 -74.472938537598 -146.220275878906 0.469463109970
-140.919860839844 -70.142173767090 -182.943176269531 1.664428949356
5.047914981842 -73.524574279785 -241.924606323242 0.729901432991
42.088924407959 -68.961235046387 -121.608421325684 1.388309717178
-149.295089721680 -69.722969055176 -274.432434082031 3.779083728790
104.066726684570 -55.959781646729 -89.549179077148 2.637691974640
-75.900428771973 -64.938018798828 -142.638092041016 2.268919706345
-153.149780273438 -75.687744140625 -278.405639648438 2.922753334045
-121.882530212402 -66.680679321289 -197.757247924805 1.072826981544
-127.102249145508 -71.365844726563 -203.299774169922 2.713338375092
-159.713409423828 -72.014778137207 -214.966812133789 2.992951869965
-150.312576293945 -85.142570495605 -257.638763427734 1.390368342400
-31.386772155762 -71.983901977539 -161.823242187500 1.818722486496
-148.924880981445 -73.806770324707 -194.539764404297 2.424080371857
88.989662170410 -69.463623046875 -68.859443664551 1.315315485001
54.537246704102 -62.834552764893 -90.163650512695 1.448509097099
65.640518188477 -62.529666900635 -71.041099548340 1.574648737907
-62.555202484131 -67.526702880859 -133.343368530273 1.282914400101
-68.628852844238 -60.543857574463 -106.661834716797 1.434174060822
-75.124122619629 -84.705749511719 -207.274291992188 3.738821983337
-61.662677764893 -77.506690979004 -286.700561523438 2.433808565140
-146.740936279297 -68.904182434082 -173.122467041016 1.961549043655
-152.945571899414 -66.271301269531 -260.230316162109 3.023812055588
-79.448860168457 -65.433212280273 -109.065429687500 2.242131710052
-13.499304771423 -63.448268890381 -65.346824645996 1.213040828705
76.707733154297 -70.911109924316 -89.790046691895 3.947741031647
-144.993148803711 -81.348205566406 -220.783401489258 3.240871906281
11.701142311096 -77.650054931641 -191.729431152344 2.589936256409
0.028090000153 -69.897628784180 -265.141052246094 4.501046180725
68.465690612793 -64.871055603027 -76.791526794434 3.842411279678
18.073249816895 -64.225044250488 -245.613815307617 2.758508682251
85.981155395508 -64.953521728516 -107.141677856445 2.082739591599
-145.440078735352 -87.353752136230 -218.763183593750 3.807715415955
-65.064376831055 -83.680000305176 -202.963180541992 3.238537311554
-94.618804931641 -69.174293518066 -86.190002441406 2.444652795792
-69.164962768555 -68.217445373535 -44.849010467529 2.725261688232
-73.342765808105 -67.636840820313 -138.236587524414 1.893221378326
-165.367294311523 -69.375000000000 -200.724182128906 1.179293274879
-92.375411987305 -64.806579589844 -67.419197082520 3.974643230438
-154.558273315430 -75.229545593262 -276.011596679688 3.619205474854
-63.700458526611 -68.663551330566 -130.862442016602 2.265371084213
-12.996797561646 -74.654190063477 -207.235580444336 2.288558244705
-66.578575134277 -73.821136474609 -146.962692260742 1.599658966064
-152.228744506836 -67.606834411621 -186.084548950195 2.503746747971
-166.619079589844 -72.534996032715 -245.513763427734 2.857154130936
-154.342086791992 -88.326095581055 -283.265136718750 4.952509403229
78.746025085449 -57.135643005371 -60.989151000977 3.640908479691
84.469505310059 -59.482288360596 -64.478866577148 3.436816215515
-24.939260482788 -78.597206115723 -237.662048339844 1.234262228012
34.749378204346 -57.611007690430 -40.212898254395 2.048518896103
58.667327880859 -63.551609039307 -97.232032775879 1.535201907158
29.929401397705 -73.087944030762 -131.137542724609 1.652174353600
-150.717697143555 -72.092910766602 -257.924163818359 1.100986480713
-55.743522644043 -67.909797668457 -87.395256042480 3.370456933975
-12.452018737793 -79.240516662598 -238.508697509766 4.677344799042
-155.042724609375 -76.312911987305 -239.528060913086 3.497880458832
-110.009910583496 -61.666767120361 -175.523178100586 2.161166191101
-85.257186889648 -70.314147949219 -112.023811340332 1.947504043579
-32.058002471924 -60.354949951172 -46.742809295654 1.878629803658
95.158355712891 -70.920089721680 -81.976493835449 4.203391551971
-151.649612426758 -86.102256774902 -263.985595703125 2.266291141510
-83.429039001465 -76.139419555664 -108.713684082031 2.067750215530
-59.119804382324 -82.574317932129 -245.843566894531 4.271497726440
-47.355216979980 -72.287162780762 -163.937240600586 1.078508019447
-102.470947265625 -69.261840820313 -219.119857788086 1.991897344589
-153.551315307617 -70.973289489746 -193.630676269531 1.905163526535
1.132127046585 -75.432815551758 -226.724288940430 2.441391944885
17.664131164551 -75.609489440918 -174.203323364258 2.125140905380
-149.628280639648 -65.512153625488 -174.491378784180 0.763614475727
-150.602920532227 -89.752799987793 -254.638656616211 4.245279788971
-44.134574890137 -87.629745483398 -195.767227172852 2.200805664063
-135.469345092773 -68.157829284668 -257.285156250000 1.388780832291
-7.464414119720 -71.390083312988 -232.877868652344 1.601338386536
-142.766220092773 -72.662857055664 -194.800460815430 1.686098337173
-28.856101989746 -79.077209472656 -184.215103149414 1.358398318291
-71.853248596191 -78.351959228516 -206.954666137695 1.243935346603
-134.461044311523 -64.791427612305 -201.845489501953 1.084433555603
-17.065616607666 -74.544708251953 -214.207077026367 1.241066336632
-24.456277847290 -72.445579528809 -221.014724731445 1.607687354088
-27.313940048218 -74.170684814453 -198.305450439453 1.323381781578
22.239301681519 -76.783172607422 -185.755126953125 2.204611301422
-157.781631469727 -79.178848266602 -256.984497070313 3.072033166885
-16.254329681396 -73.613960266113 -289.102081298828 1.930142283440
26.873445510864 -77.770416259766 -146.785003662109 1.294027090073
-138.091522216797 -79.628097534180 -226.700759887695 1.894583702087
-125.994033813477 -67.118133544922 -204.212722778320 1.816436529160
105.475852966309 -67.073081970215 -99.176963806152 1.783921360970
-18.762290954590 -73.997550964355 -210.436187744141 0.824170351028
-158.861495971680 -75.087638854980 -257.044219970703 2.172498703003
-43.560920715332 -67.909492492676 -147.224441528320 1.295408368111
40.485565185547 -73.858375549316 -127.981979370117 1.559817314148
-89.763870239258 -65.140220642090 -110.881454467773 3.192351341248
-157.479583740234 -66.979194641113 -194.494400024414 1.747450113297
2.325494050980 -69.244934082031 -235.220382690430 1.077371001244
-37.168041229248 -54.963439941406 -44.673389434814 3.611474514008
27.220035552979 -71.308937072754 -173.310836791992 1.005695819855
86.875717163086 -71.225418090820 -93.221084594727 5.326597213745
-4.928026199341 -78.447334289551 -165.962860107422 1.697311043739
-151.259033203125 -71.221786499023 -283.997039794922 3.325529575348
12.793899536133 -75.277572631836 -202.353027343750 2.741975307465
-151.475646972656 -80.385253906250 -311.402740478516 1.619619250298
13.719998359680 -65.052375793457 -153.120895385742 2.653247356415
-103.416755676270 -75.158203125000 -289.943511962891 2.127825737000
20.668218612671 -72.875885009766 -191.778015136719 2.861933231354
8.599553108215 -70.360916137695 -161.156417846680 0.974084973335
20.777715682983 -58.992935180664 -29.022262573242 2.903972625732
-43.253475189209 -70.507919311523 -138.160568237305 2.836984634399
-6.070134162903 -68.219429016113 -218.306915283203 0.643799245358
-170.047302246094 -75.641632080078 -275.951019287109 3.176570177078
-99.708305358887 -61.830703735352 -151.590332031250 3.706256628036
-36.610584259033 -78.039985656738 -240.625457763672 1.242368936539
-64.850357055664 -76.710632324219 -98.593505859375 1.156902432442
100.332519531250 -69.961578369141 -87.727455139160 1.844706892967
104.021080017090 -60.478862762451 -84.441497802734 2.226207733154
-149.093322753906 -73.909301757813 -309.801971435547 3.385785579681
3.143549919128 -87.466270446777 -272.466033935547 3.511402130127
-14.901556968689 -78.619003295898 -260.460418701172 1.938117146492
-146.960006713867 -77.468711853027 -185.495941162109 0.516164660454
-28.718309402466 -77.294242858887 -193.362258911133 1.173461318016
-63.745372772217 -77.774574279785 -175.044723510742 1.826534271240
-51.289058685303 -69.406150817871 -155.450271606445 2.204239368439
19.301656723022 -71.525001525879 -210.158004760742 1.416454911232
20.141817092896 -73.340225219727 -169.392242431641 2.886755228043
93.292541503906 -74.527183532715 -204.426879882813 1.916574358940
19.840497970581 -74.651885986328 -241.604400634766 1.356064558029
-60.514354705811 -76.565322875977 -290.876556396484 0.609276115894
-153.649978637695 -76.417022705078 -204.662536621094 1.423885226250
-15.524195671082 -64.780677795410 -206.372299194336 2.627784013748
-134.961685180664 -74.294441223145 -253.056900024414 2.637758493423
88.959045410156 -76.626998901367 -206.840957641602 4.382191181183
55.330715179443 -68.066535949707 -241.271850585938 1.698412895203
-92.252510070801 -56.382709503174 -54.215629577637 1.969332098961
-81.214378356934 -72.524696350098 -63.118289947510 2.420866012573
-36.841354370117 -71.346694946289 -170.125488281250 2.965714454651
-6.232894897461 -79.669403076172 -286.456054687500 3.532791852951
-169.021911621094 -70.008529663086 -204.200881958008 2.873760461807
-67.766754150391 -76.422416687012 -251.996536254883 1.891007184982
-84.284362792969 -63.176555633545 -57.481807708740 4.661341667175
24.556224822998 -64.959701538086 -158.491073608398 2.840321063995
14.747674942017 -75.155380249023 -209.822525024414 3.192418575287
12.943082809448 -83.947257995605 -215.802612304688 3.380604982376
-4.536478042603 -69.026771545410 -279.487792968750 2.517280101776
4.625132083893 -65.275161743164 -234.490890502930 1.717681288719
-165.570678710938 -71.100120544434 -254.917739868164 2.194647312164
-121.704208374023 -71.382843017578 -231.047882080078 1.059541106224
-26.971826553345 -70.634147644043 -178.980178833008 2.631618499756
-60.470165252686 -64.920989990234 -118.315551757813 1.129106283188
-21.555265426636 -80.577369689941 -222.973709106445 2.176049947739
-77.632392883301 -58.642868041992 -44.276824951172 2.476088047028
-17.562202453613 -82.470268249512 -191.775588989258 4.251654148102
35.554569244385 -59.031032562256 -38.226024627686 2.573712825775
-35.400691986084 -70.219337463379 -180.033416748047 1.966697573662
-14.040480613708 -75.097732543945 -248.085601806641 3.216404676437
-147.601242065430 -68.561798095703 -261.024139404297 1.501028537750
-130.170532226563 -76.278144836426 -228.895660400391 2.897572278976
-39.873737335205 -68.672210693359 -166.332244873047 2.162471294403
1.439108967781 -90.007545471191 -266.744201660156 4.077760219574
70.583488464355 -55.230308532715 -62.129333496094 2.239279270172
102.282752990723 -73.854873657227 -183.560317993164 1.339856147766
95.734390258789 -68.892280578613 -208.204360961914 1.955943822861
-148.709243774414 -81.962478637695 -187.472122192383 0.652713358402
90.138992309570 -70.654098510742 -77.458648681641 5.081594944000
-61.754463195801 -69.609596252441 -128.008880615234 2.443652153015
10.594935417175 -84.717498779297 -254.979598999023 1.164434075356
-153.259017944336 -68.355453491211 -179.900360107422 1.108904957771
108.112060546875 -69.445396423340 -179.982879638672 2.956287145615
42.013751983643 -60.352588653564 -30.161417007446 2.322953224182
-149.962814331055 -80.598854064941 -275.893096923828 2.102603912354
-20.899160385132 -74.474441528320 -221.761276245117 1.270748853683
-44.191539764404 -79.589782714844 -79.390617370605 3.118850469589
35.863380432129 -58.308162689209 -122.653167724609 1.926523923874
19.794963836670 -74.222709655762 -157.282852172852 0.748314857483
111.794784545898 -66.947418212891 -132.326095581055 2.198838710785
101.505943298340 -58.225341796875 -103.669288635254 1.125554323196
-73.845596313477 -80.134185791016 -82.187385559082 2.686897039413
-88.830741882324 -62.858093261719 -115.657073974609 1.389296054840
-147.714050292969 -71.131530761719 -264.611694335938 2.763782024384
-7.524442195892 -70.535736083984 -235.700698852539 1.029330849648
105.309089660645 -67.222648620605 -165.435409545898 4.898254871368
-26.269906997681 -72.372406005859 -191.817245483398 0.936041414738
104.669013977051 -63.474609375000 -88.930328369141 1.482026815414
-69.405494689941 -78.827545166016 -249.590072631836 1.746037244797
12.792205810547 -81.164245605469 -229.264221191406 2.419638872147
-164.736206054688 -67.696052551270 -211.308120727539 1.637090206146
-78.597808837891 -69.509414672852 -133.082458496094 1.308143854141
85.150161743164 -72.153877258301 -223.487121582031 1.462939739227
-51.832775115967 -77.127532958984 -192.577743530273 1.781651854515
117.190559387207 -73.027679443359 -124.798309326172 1.251123428345
-73.384796142578 -68.666191101074 -154.052703857422 2.248838901520
-63.845333099365 -77.969062805176 -178.917953491211 4.090582370758
24.102085113525 -64.580322265625 -164.106338500977 3.561354637146
-16.755998611450 -69.114372253418 -213.582412719727 1.247055530548
70.874298095703 -76.087562561035 -233.757049560547 1.879414319992
-140.886428833008 -66.470710754395 -222.445114135742 3.172704935074
-13.981780052185 -75.779975891113 -202.964736938477 0.779948771000
17.307544708252 -72.166702270508 -176.448425292969 2.006423711777
-155.086181640625 -77.288818359375 -201.343643188477 2.705076456070
14.121781349182 -83.278144836426 -245.709381103516 1.407315373421
35.036926269531 -58.248130798340 -122.141578674316 1.945766568184
-93.651573181152 -73.113609313965 -250.979721069336 1.924768567085
102.855499267578 -64.172088623047 -93.640785217285 2.417686700821
33.668197631836 -54.742141723633 -39.429649353027 2.288747787476
-124.773773193359 -66.543624877930 -199.788742065430 3.192132949829
3.759484052658 -69.364311218262 -290.339599609375 2.649962902069
18.398984909058 -69.250808715820 -185.274505615234 1.656140446663
-159.316467285156 -69.203422546387 -197.171554565430 1.991390705109
-91.666191101074 -66.890380859375 -64.543457031250 3.618381738663
-23.741136550903 -82.938941955566 -180.979476928711 2.356019973755
100.737136840820 -75.300315856934 -207.460678100586 2.537255048752
-145.939971923828 -75.684211730957 -265.566650390625 1.979798913002
11.809797286987 -90.428779602051 -256.505676269531 5.592996597290
-98.061355590820 -62.782375335693 -114.417259216309 1.188233375549
-64.772010803223 -75.665390014648 -155.717224121094 0.831175625324
24.154378890991 -72.423561096191 -140.832733154297 1.383090257645
-161.088760375977 -78.853767395020 -260.344085693359 4.332283020020
16.440530776978 -71.802146911621 -233.458557128906 1.115933656693
19.741376876831 -62.854892730713 -251.780700683594 2.922929048538
-66.191642761230 -61.476654052734 -92.145149230957 2.032268047333
31.874603271484 -78.854820251465 -139.990966796875 1.142132401466
-46.258705139160 -69.534126281738 -158.969619750977 2.844186067581
44.396430969238 -73.349288940430 -123.513099670410 1.335866212845
-63.169853210449 -70.380912780762 -138.534561157227 3.328805923462
-145.974319458008 -78.356094360352 -261.054840087891 2.119206428528
17.386047363281 -74.864379882813 -191.322235107422 2.051593065262
77.225601196289 -72.763954162598 -95.703651428223 2.558502912521
-33.056465148926 -71.388847351074 -162.614715576172 0.904426217079
-158.150741577148 -77.267906188965 -290.860351562500 3.225505113602
-14.707845687866 -81.179489135742 -262.202178955078 4.757263183594
-20.337179183960 -68.493019104004 -205.456100463867 1.327570438385
-122.087150573730 -79.623283386230 -288.478576660156 3.810942888260
-86.307754516602 -60.355445861816 -120.891357421875 2.593858957291
-20.916389465332 -70.528884887695 -201.715576171875 2.038409709930
-49.212432861328 -67.393188476563 -137.172134399414 2.433858871460
11.590659141541 -68.489631652832 -287.454315185547 2.281365394592
-42.249359130859 -72.738510131836 -82.003425598145 1.358191370964
59.854114532471 -72.942100524902 -239.250549316406 1.655126452446
-151.009307861328 -61.941673278809 -197.087570190430 1.202391862869
-48.506614685059 -81.827331542969 -190.647186279297 4.155796051025
11.715597152710 -67.986114501953 -150.240661621094 1.406144499779
-132.732086181641 -67.382995605469 -226.527236938477 1.244026064873
-16.499902725220 -72.857955932617 -212.243484497070 1.392875432968
-128.163925170898 -77.344429016113 -262.608154296875 2.834597826004
115.817634582520 -68.489204406738 -120.348220825195 1.535611271858
23.621431350708 -73.569145202637 -186.166976928711 1.596608757973
87.965148925781 -76.655860900879 -91.533363342285 1.966975808144
-45.773704528809 -78.032409667969 -244.304779052734 2.153364181519
7.086849212646 -68.929626464844 -157.690643310547 1.464118838310
-79.947624206543 -70.840812683105 -124.244972229004 1.858854651451
101.628662109375 -59.224964141846 -72.714988708496 2.079973220825
-7.550076007843 -73.345252990723 -285.343566894531 2.624564170837
-68.157600402832 -74.864326477051 -69.288627624512 5.434200763702
15.060564994812 -83.203811645508 -238.332977294922 1.817349433899
30.635765075684 -68.429153442383 -167.414093017578 3.502671718597
27.563831329346 -67.013420104980 -30.928693771362 1.953680038452
39.085964202881 -74.416725158691 -107.466125488281 1.551962256432
99.290702819824 -68.001930236816 -80.962867736816 2.781335353851
-141.193191528320 -75.232330322266 -197.852020263672 1.004639983177
-65.172180175781 -57.324077606201 -84.942878723145 4.174062728882
43.630699157715 -63.771541595459 -13.295657157898 1.916019082069
-22.405828475952 -80.265365600586 -193.412460327148 1.188043236732
-18.613897323608 -81.752639770508 -255.143234252930 6.811553001404
-158.011688232422 -76.216064453125 -301.747406005859 3.246176719666
6.373016834259 -75.931739807129 -245.349060058594 1.149347066879
16.107343673706 -79.965797424316 -212.091308593750 1.967886209488
-71.415702819824 -67.081550598145 -136.951538085938 2.234939575195
49.199375152588 -67.698791503906 -96.444694519043 0.867628812790
-23.768007278442 -71.613899230957 -238.235916137695 2.536743164063
-54.912696838379 -62.439727783203 -45.513938903809 1.168652892113
-61.001472473145 -66.658584594727 -126.242103576660 2.705468177795
-67.229179382324 -78.283447265625 -69.662200927734 2.612534046173
46.423542022705 -64.191711425781 -25.473501205444 3.501950025558
-68.013320922852 -60.132907867432 -111.698707580566 1.584682703018
