-151.483200073242 -78.206558227539 -215.761032104492 2.000782966614
118.780441284180 -68.688751220703 -143.099395751953 3.838253259659
31.936624526978 -70.889411926270 -259.187133789063 0.676364839077
64.119926452637 -66.834533691406 -84.990478515625 2.282151699066
-6.365390777588 -64.516868591309 -290.348022460938 3.367080211639
-144.653198242188 -61.485240936279 -185.433288574219 1.627891182899
-142.976119995117 -68.968902587891 -190.090805053711 2.380157232285
57.103496551514 -65.379676818848 -84.850051879883 2.202383995056
-67.760711669922 -61.745395660400 -120.043479919434 2.112907886505
36.913093566895 -78.722549438477 -122.620124816895 1.425422787666
-152.745880126953 -61.583545684814 -179.250076293945 1.686432123184
-53.470859527588 -70.036636352539 -145.060806274414 1.923163414001
-48.337169647217 -74.704071044922 -179.714645385742 3.449869632721
-45.409690856934 -73.472396850586 -145.624786376953 0.778373599052
-141.041946411133 -67.687934875488 -182.680938720703 0.448304772377
5.101734161377 -72.463333129883 -241.127853393555 1.416146278381
41.726467132568 -69.221069335938 -120.641525268555 1.532545685768
-149.054061889648 -66.510650634766 -274.196075439453 2.214824914932
103.735137939453 -57.220748901367 -88.253326416016 1.544021248817
-76.120834350586 -63.580875396729 -142.091690063477 3.228146314621
-152.966903686523 -72.398483276367 -278.226806640625 2.021591663361
-121.905441284180 -64.357620239258 -197.396987915039 2.039199352264
-127.161209106445 -68.937782287598 -202.992950439453 0.853751361370
-159.732086181641 -69.097763061523 -214.788681030273 2.149027585983
-150.328338623047 -82.036064147949 -257.517822265625 1.759791612625
-31.623472213745 -71.042373657227 -161.157073974609 2.244593143463
-149.046463012695 -71.169731140137 -194.334060668945 1.352812767029
88.411041259766 -70.683631896973 -67.718978881836 1.247609972954
54.126972198486 -63.474575042725 -89.106216430664 1.191203474998
65.158424377441 -63.444469451904 -69.939735412598 0.498544543982
-62.845146179199 -66.401664733887 -132.764984130859 0.951265513897
-68.935813903809 -59.534744262695 -106.057258605957 1.485419154167
-75.337486267090 -82.894195556641 -206.865036010742 3.380055904388
-61.477775573730 -75.295494079590 -286.185485839844 1.027300000191
-146.885513305664 -66.447891235352 -172.873855590820 1.841567277908
-152.716857910156 -63.115474700928 -259.983520507813 0.742510139942
-79.806175231934 -64.271873474121 -108.537231445313 1.301758527756
-14.008296012878 -63.419658660889 -64.554191589355 1.921912789345
76.193916320801 -71.828636169434 -88.706153869629 2.998726606369
-145.106170654297 -78.571678161621 -220.616073608398 2.961678504944
11.507241249084 -77.029922485352 -190.938659667969 2.398513078690
0.217972993851 -68.608383178711 -264.336608886719 3.444226741791
67.976760864258 -65.779640197754 -75.696052551270 2.957602500916
18.255735397339 -63.300342559814 -244.700347900391 2.521078824997
85.608207702637 -65.862930297852 -105.978965759277 2.212374687195
-145.635452270508 -84.585494995117 -218.640853881836 1.729968428612
-65.282699584961 -82.024452209473 -202.508300781250 3.445285081863
-95.110557556152 -67.987472534180 -85.747367858887 1.472036361694
-69.808418273926 -67.642723083496 -44.303752899170 2.548505067825
-73.614059448242 -66.342689514160 -137.699981689453 1.484767198563
-165.408355712891 -66.489761352539 -200.549102783203 1.420599341393
-92.886459350586 -63.782276153564 -66.937194824219 3.274678707123
-154.378952026367 -71.939941406250 -275.834899902344 1.837494254112
-64.014099121094 -67.541893005371 -130.296691894531 2.318749427795
-13.090891838074 -73.616432189941 -206.516967773438 2.485419273376
-66.893096923828 -72.548072814941 -146.444488525391 0.689852356911
-152.306137084961 -64.989791870117 -185.847091674805 1.053372621536
-166.524383544922 -69.313705444336 -245.364715576172 0.848826289177
-154.296936035156 -84.985977172852 -283.181610107422 2.523511648178
78.290489196777 -58.285808563232 -59.799308776855 2.519091129303
83.997993469238 -60.678428649902 -63.283958435059 2.124449491501
-24.962467193604 -77.193046569824 -237.016357421875 0.764743626118
34.210575103760 -58.362583160400 -39.195018768311 1.530402302742
58.275405883789 -64.192382812500 -96.163764953613 1.750702142715
29.553985595703 -73.128051757813 -130.246414184570 1.627517819405
-150.570404052734 -68.980674743652 -257.710845947266 1.349902272224
-56.218189239502 -67.197868347168 -86.795166015625 3.551714897156
-12.480961799622 -77.985511779785 -237.819961547852 3.959770202637
-155.019241333008 -73.277961730957 -239.362228393555 2.958688020706
-110.058441162109 -59.650775909424 -175.082260131836 3.583076715469
-85.663017272949 -69.058952331543 -111.552803039551 1.683996319771
-32.599674224854 -60.228885650635 -45.999340057373 2.417582988739
94.612350463867 -72.122879028320 -80.822540283203 3.381323814392
-151.652389526367 -82.933662414551 -263.876464843750 1.833480000496
-83.920219421387 -74.930007934570 -108.277732849121 2.836089134216
-59.157501220703 -80.686271667480 -245.356628417969 2.642608880997
-47.586067199707 -71.131935119629 -163.334106445313 1.831342935562
-102.444129943848 -67.027168273926 -218.703399658203 2.887800455093
-153.640914916992 -68.285514831543 -193.422241210938 1.821527838707
1.103258967400 -74.431343078613 -225.956726074219 1.440283775330
17.426612854004 -75.188987731934 -173.375701904297 2.360106229782
-149.725173950195 -63.010532379150 -174.229309082031 2.533822298050
-150.687561035156 -86.663650512695 -254.552093505859 2.303095579147
-44.431774139404 -86.285469055176 -195.261154174805 2.290676832199
-135.277038574219 -65.240150451660 -256.985382080078 2.178928852081
-7.418371200562 -70.238151550293 -232.113800048828 2.241364002228
-142.873123168945 -70.100646972656 -194.563018798828 0.793129086494
-29.093597412109 -78.006355285645 -183.589584350586 2.011443853378
-71.989303588867 -76.584007263184 -206.487213134766 2.545415163040
-134.443496704102 -62.282932281494 -201.519470214844 1.555497884750
-17.130788803101 -73.406532287598 -213.502960205078 0.948907017708
-24.468200683594 -71.167060852051 -220.323471069336 1.941573858261
-27.435682296753 -73.018791198730 -197.638275146484 1.682447433472
22.031934738159 -76.336860656738 -184.918106079102 3.126614332199
-157.725326538086 -75.984764099121 -256.849151611328 3.175063371658
-16.015619277954 -71.950607299805 -288.385711669922 1.488245725632
26.501289367676 -77.660194396973 -145.938705444336 0.745993733406
-138.160690307617 -76.895271301270 -226.494537353516 1.091351032257
-125.996826171875 -64.697761535645 -203.871078491211 1.146779894829
105.043853759766 -68.281608581543 -97.955390930176 0.711937427521
-18.835252761841 -72.865287780762 -209.734725952148 1.188619732857
-158.754104614258 -71.880119323730 -256.883575439453 2.804950952530
-43.803035736084 -66.921371459961 -146.575881958008 2.421630382538
40.087371826172 -74.052207946777 -127.056221008301 2.013999938965
-90.109588623047 -63.837684631348 -110.390441894531 4.426648616791
-157.515914916992 -64.236808776855 -194.272186279297 2.169105768204
2.406462907791 -68.198204040527 -234.403457641602 1.334877729416
-37.650466918945 -54.789184570313 -43.910682678223 4.234167098999
27.031574249268 -71.014076232910 -172.415847778320 1.801428198814
86.370529174805 -72.244819641113 -92.100555419922 4.696177482605
-5.231002807617 -77.804534912109 -165.242111206055 2.198161125183
-150.999084472656 -67.916526794434 -283.778656005859 2.481343269348
12.670816421509 -74.595329284668 -201.540664672852 2.464176893234
-151.222381591797 -76.880462646484 -311.250213623047 2.437538385391
13.531479835510 -64.734619140625 -152.233047485352 2.656953573227
-103.186508178711 -72.404907226563 -289.570709228516 2.025464773178
20.532974243164 -72.367393493652 -190.918670654297 2.490691423416
8.376982688904 -69.921508789063 -160.326034545898 1.624713897705
20.179265975952 -59.650638580322 -28.068006515503 3.355679512024
-43.563240051270 -69.588134765625 -137.529830932617 3.032567501068
-6.041760921478 -67.189315795898 -217.515182495117 1.890654325485
-169.872009277344 -72.159828186035 -275.836395263672 2.559214115143
-99.853187561035 -60.113857269287 -151.112091064453 4.764708518982
-36.614315032959 -76.469581604004 -240.020187377930 1.581834077835
-65.389717102051 -75.804512023926 -98.091125488281 0.556516170502
99.820419311523 -71.187698364258 -86.546669006348 2.359550237656
103.613487243652 -61.775310516357 -83.178504943848 2.516246318817
-148.766159057617 -70.446235656738 -309.593811035156 2.527930974960
3.143805980682 -86.161605834961 -271.775878906250 2.324767351151
-14.836877822876 -77.176689147949 -259.775848388672 1.059772133827
-147.162506103516 -74.920372009277 -185.309387207031 1.308524966240
-28.897983551025 -76.159896850586 -192.723083496094 0.706696569920
-63.999542236328 -76.335601806641 -174.543228149414 2.085926055908
-51.516967773438 -68.262977600098 -154.841690063477 3.115946292877
19.255046844482 -70.868270874023 -209.293548583984 2.171188354492
19.913457870483 -72.985160827637 -168.539001464844 2.193198204041
93.180015563965 -74.831108093262 -203.301940917969 2.371703386307
19.877820968628 -73.776748657227 -240.759353637695 0.826922059059
-60.301567077637 -74.338653564453 -290.350189208984 2.266869306564
-153.764022827148 -73.648597717285 -204.493301391602 2.478068590164
-15.498952865601 -63.718681335449 -205.592300415039 3.184866189957
-134.862045288086 -71.412681579590 -252.799484252930 2.277278661728
88.830261230469 -76.859565734863 -205.747573852539 4.499578952789
55.445423126221 -67.635734558105 -240.244003295898 1.552348613739
-92.710609436035 -55.455184936523 -53.672977447510 2.326896905899
-81.838912963867 -71.669120788574 -62.649387359619 2.933515071869
-37.037273406982 -70.278060913086 -169.475265502930 2.602609872818
-6.080492019653 -78.148941040039 -285.745086669922 2.670875310898
-169.056961059570 -67.052932739258 -204.044189453125 3.024723529816
-67.703369140625 -74.383506774902 -251.498107910156 1.512486457825
-84.814674377441 -62.324058532715 -56.957534790039 4.767108440399
24.388900756836 -64.738304138184 -157.561035156250 3.202444791794
14.655102729797 -74.444053649902 -209.001571655273 3.577764987946
12.764938354492 -83.169837951660 -215.051620483398 2.499743700027
-4.279388904572 -67.578308105469 -278.694000244141 0.988633453846
4.752306938171 -64.262649536133 -233.636642456055 1.815680742264
-165.421554565430 -67.824790954590 -254.754043579102 3.761602401733
-121.655502319336 -68.823547363281 -230.719665527344 2.955440282822
-27.125173568726 -69.625007629395 -178.286895751953 2.267685890198
-60.786632537842 -63.929569244385 -117.710960388184 0.681279659271
-21.660671234131 -79.320091247559 -222.329849243164 1.752925872803
-78.158569335938 -57.967941284180 -43.694988250732 2.411246776581
-17.813234329224 -81.485450744629 -191.131149291992 3.725758552551
34.990322113037 -59.806674957275 -37.215362548828 1.820992946625
-35.544063568115 -69.097908020020 -179.369262695313 3.135485410690
-13.980502128601 -73.754943847656 -247.372802734375 2.881549358368
-147.398300170898 -65.466506958008 -260.773437500000 1.804306983948
-130.190246582031 -73.628456115723 -228.635040283203 2.511908769608
-40.051025390625 -67.593261718750 -165.674468994141 3.311403751373
1.385643005371 -88.722320556641 -266.079010009766 3.263190269470
70.156738281250 -56.271026611328 -60.956886291504 0.939882278442
102.096336364746 -74.419807434082 -182.396911621094 1.940861344337
95.706314086914 -69.200141906738 -207.029418945313 1.133742451668
-148.959625244141 -79.377799987793 -187.324508666992 1.998711943626
89.579078674316 -71.826805114746 -76.322082519531 4.175780296326
-62.091144561768 -68.532432556152 -127.442611694336 2.634870290756
10.560388565063 -83.630752563477 -254.241806030273 2.260826349258
-153.369750976563 -65.769721984863 -179.672439575195 1.998103022575
107.965888977051 -70.108833312988 -178.765640258789 3.120646476746
41.401073455811 -61.266056060791 -29.135889053345 2.469762325287
-149.850952148438 -77.366676330566 -275.737518310547 1.577564001083
-20.933641433716 -73.234611511230 -221.071029663086 1.301898360252
-44.843345642090 -79.077499389648 -78.830772399902 3.390185356140
35.637699127197 -58.484218597412 -121.633323669434 1.209689378738
19.508407592773 -73.949798583984 -156.437683105469 1.506893038750
111.493232727051 -67.997566223145 -131.078414916992 1.159769535065
101.201591491699 -59.353302001953 -102.399040222168 1.546227335930
-74.490715026855 -79.233146667480 -81.744499206543 3.789305448532
-89.129585266113 -61.533252716064 -115.145927429199 2.704619884491
-147.528976440430 -68.008934020996 -264.379791259766 2.063101530075
-7.456774234772 -69.362968444824 -234.930618286133 1.882834076881
105.133941650391 -67.955451965332 -164.213333129883 4.596034049988
-26.394760131836 -71.280052185059 -191.133346557617 1.373044490814
104.241722106934 -64.746719360352 -87.686271667480 1.471804618835
-69.381202697754 -76.785217285156 -249.115280151367 0.682922303677
12.701157569885 -80.289009094238 -228.493316650391 2.028486013412
-164.715179443359 -64.743179321289 -211.118194580078 2.151188373566
-78.912010192871 -68.186561584473 -132.579559326172 1.987890601158
85.142189025879 -72.220558166504 -222.375518798828 0.566481411457
-52.011478424072 -75.711410522461 -192.025573730469 1.570678830147
116.783721923828 -74.198104858398 -123.574043273926 0.676723778248
-73.607101440430 -67.258346557617 -153.523147583008 2.168217658997
-64.086784362793 -76.501136779785 -178.418121337891 4.101144790649
23.961427688599 -64.313179016113 -163.175125122070 2.987059831619
-16.756265640259 -67.985069274902 -212.838058471680 2.141332864761
70.858833312988 -75.902923583984 -232.727874755859 2.612194299698
-140.808746337891 -63.734897613525 -222.155014038086 3.518127441406
-14.106431961060 -74.760383605957 -202.258117675781 0.645027756691
17.121534347534 -71.726074218750 -175.597320556641 2.553372621536
-155.223876953125 -74.526176452637 -201.186264038086 3.100881814957
14.068598747253 -82.301666259766 -244.948089599609 1.739320158958
34.810058593750 -58.417575836182 -121.124473571777 1.713150620461
-93.548912048340 -70.760459899902 -250.556259155273 2.008529663086
102.438095092773 -65.387901306152 -92.408515930176 2.469201803207
33.162021636963 -55.486171722412 -38.395278930664 1.896282672882
-124.786811828613 -64.170097351074 -199.438446044922 2.010402202606
4.054046154022 -67.941390991211 -289.516204833984 3.551105022430
18.283515930176 -68.760963439941 -184.397949218750 1.846261978149
-159.369781494141 -66.418830871582 -196.972259521484 2.630032062531
-92.214370727539 -65.895240783691 -64.073837280273 3.928745985031
-24.039609909058 -81.954414367676 -180.362335205078 3.073412895203
100.626235961914 -75.675041198730 -206.312789916992 1.409825921059
-145.807800292969 -72.576377868652 -265.360687255859 0.618454456329
11.710250854492 -89.345649719238 -255.804290771484 4.495092868805
-98.363311767578 -61.351631164551 -113.940826416016 1.085854053497
-65.075386047363 -74.352020263672 -155.205108642578 1.182667970657
23.825548171997 -72.322624206543 -139.958526611328 1.356532096863
-161.015014648438 -75.594581604004 -260.218902587891 2.030886650085
16.481695175171 -70.943252563477 -232.606231689453 1.214854121208
19.964796066284 -61.906993865967 -250.850784301758 1.633089900017
-66.567070007324 -60.601520538330 -91.538467407227 2.381116390228
31.462041854858 -78.855232238770 -139.133621215820 1.773759603500
-46.474891662598 -68.428329467773 -158.342651367188 2.907366991043
43.986774444580 -73.623748779297 -122.568908691406 1.472496747971
-63.474887847900 -69.210830688477 -137.978897094727 2.958376646042
-145.892898559570 -75.279808044434 -260.868408203125 1.956412076950
17.224632263184 -74.318122863770 -190.489730834961 1.826190590858
76.711845397949 -73.645462036133 -94.630928039551 2.135886907578
-33.282554626465 -70.420959472656 -161.950607299805 2.082053899765
-157.938430786133 -73.827278137207 -290.711547851563 2.006067752838
-14.668148994446 -79.726867675781 -261.535217285156 3.192448616028
-20.361160278320 -67.377342224121 -204.721206665039 2.050587177277
-121.916427612305 -76.647850036621 -288.209197998047 1.850743651390
-86.555328369141 -59.024814605713 -120.352394104004 1.865021109581
-20.980182647705 -69.432533264160 -200.997665405273 2.435802698135
-49.486907958984 -66.406700134277 -136.541748046875 2.403958559036
11.884142875671 -67.184806823730 -286.594848632813 2.581280469894
-42.806129455566 -72.232406616211 -81.386779785156 1.505587220192
59.900058746338 -72.581489562988 -238.240615844727 2.316502332687
-150.973571777344 -59.261722564697 -196.804336547852 2.339013814926
-48.751445770264 -80.465888977051 -190.116210937500 3.139174938202
11.479607582092 -67.663726806641 -149.381668090820 1.633204936981
-132.650466918945 -64.719299316406 -226.212448120117 0.981574654579
-16.551862716675 -71.741027832031 -211.525146484375 1.071096658707
-128.065414428711 -74.478591918945 -262.346435546875 1.490606546402
115.449844360352 -69.674835205078 -119.096672058105 1.421726942062
23.455429077148 -73.137405395508 -185.301544189453 2.243141889572
87.385910034180 -77.700317382813 -90.447807312012 1.777106523514
-45.762195587158 -76.321777343750 -243.734283447266 2.497475385666
6.868632793427 -68.496330261230 -156.855850219727 1.163200139999
-80.312728881836 -69.564216613770 -123.757095336914 1.854690313339
101.191040039063 -60.575614929199 -71.452491760254 2.511981248856
-7.323444843292 -71.817016601563 -284.592163085938 1.205604434013
-68.788185119629 -74.126754760742 -68.786544799805 5.926927566528
14.979426383972 -82.291748046875 -237.567810058594 1.482810854912
30.459718704224 -68.219215393066 -166.485534667969 3.603400707245
26.872743606567 -67.741050720215 -30.006200790405 2.403117656708
38.600868225098 -74.739753723145 -106.550407409668 1.796191334724
98.776596069336 -69.263648986816 -79.772178649902 3.620522499084
-141.320190429688 -72.667602539063 -197.626968383789 1.825218081474
-65.524291992188 -56.513526916504 -84.302665710449 4.988096237183
42.909622192383 -64.825325012207 -12.289123535156 2.561984062195
-22.622703552246 -79.208847045898 -192.770584106445 1.429994702339
-18.608537673950 -80.301849365234 -254.495544433594 6.453270435333
-157.743835449219 -72.699447631836 -301.590148925781 1.916469335556
6.410227775574 -74.862243652344 -244.564468383789 1.271174550056
15.963833808899 -79.254653930664 -211.299713134766 1.788210868835
-71.685279846191 -65.820594787598 -136.403640747070 1.576760172844
48.753730773926 -68.227043151855 -95.442413330078 1.977539896965
-23.702434539795 -70.220924377441 -237.535476684570 3.349233150482
-55.483081817627 -62.038063049316 -44.872703552246 1.452360510826
-61.308502197266 -65.603721618652 -125.651779174805 2.638143777847
-67.900802612305 -77.554397583008 -69.181167602539 3.129837989807
45.744560241699 -65.193130493164 -24.458930969238 2.893944025040
-68.295578002930 -59.095485687256 -111.088653564453 1.635872602463
-147.319381713867 -62.028949737549 -199.573486328125 2.056621313095
-110.388618469238 -69.281661987305 -181.066818237305 1.704977869987
-144.622711181641 -62.984531402588 -187.618118286133 1.077153444290
-5.742352962494 -62.805900573730 -239.952301025391 1.909162759781
-128.261138916016 -64.063461303711 -200.472854614258 1.204091668129
-87.352699279785 -67.307487487793 -116.979347229004 1.792763948441
29.227684020996 -65.679824829102 -150.323669433594 3.231851339340
-14.524873733521 -77.482032775879 -292.337188720703 2.154399633408
-149.161514282227 -84.291488647461 -220.954956054688 2.541857719421
110.129081726074 -74.722373962402 -118.932838439941 1.164448738098
-146.849945068359 -81.571510314941 -220.192886352539 2.553437709808
18.832641601563 -67.476737976074 -280.821441650391 1.423173785210
-17.502111434937 -66.612426757813 -204.438491821289 0.855095148087
-85.719444274902 -70.983741760254 -65.934318542480 1.714312434196
101.922225952148 -67.864067077637 -100.519401550293 0.744635879993
-65.484558105469 -82.142860412598 -211.126846313477 1.360812306404
-17.763694763184 -73.399307250977 -222.144744873047 0.878062546253
-167.345443725586 -71.596252441406 -224.796859741211 0.953660249710
4.977941989899 -71.427520751953 -214.864273071289 1.924608588219
-65.456451416016 -77.996765136719 -168.455169677734 1.694257974625
-35.260368347168 -59.747531890869 -49.886188507080 3.750477075577
-68.911445617676 -70.601028442383 -143.777542114258 2.375394105911
25.966485977173 -66.357688903809 -153.037963867188 3.252775669098
-21.303050994873 -72.840377807617 -211.343505859375 1.768332004547
11.350914955139 -66.806037902832 -210.430160522461 1.945738911629
-110.494895935059 -63.113746643066 -176.288375854492 2.425656795502
-133.246734619141 -72.478363037109 -195.113052368164 0.576462745667
-59.794418334961 -82.441642761230 -81.940719604492 2.280085086823
-58.102756500244 -72.955825805664 -131.772705078125 1.366886734962
91.295013427734 -70.440658569336 -208.871414184570 0.628313660622
4.944178104401 -81.060752868652 -221.745376586914 2.642874002457
-77.345687866211 -81.234779357910 -86.500663757324 3.018766403198
-22.489286422729 -76.999496459961 -178.140914916992 1.405848741531
85.283454895020 -72.536743164063 -75.602897644043 1.303446888924
-79.441535949707 -68.076171875000 -96.976829528809 2.532104015350
-116.118019104004 -69.662071228027 -193.779312133789 1.535732865334
0.093705996871 -66.572463989258 -233.865417480469 1.261739492416
101.207733154297 -60.747177124023 -102.478561401367 2.878112792969
25.408597946167 -67.535179138184 -153.439163208008 2.259650468826
-58.132289886475 -67.584999084473 -45.871974945068 2.415979385376
-17.273992538452 -77.472045898438 -285.703186035156 3.085606813431
-149.506805419922 -79.953773498535 -300.803863525391 1.707038164139
-154.685211181641 -65.287086486816 -262.980224609375 1.919013023376
25.953973770142 -70.028511047363 -145.983169555664 2.349325656891
-57.899124145508 -58.996257781982 -116.406356811523 1.276121020317
92.972732543945 -77.159019470215 -208.870712280273 2.250409126282
-61.823429107666 -62.656448364258 -90.290008544922 2.870428085327
-65.997848510742 -66.596298217773 -47.299266815186 3.280605792999
-52.413642883301 -80.626365661621 -83.897232055664 4.265968322754
108.034141540527 -66.407379150391 -119.096504211426 2.388535499573
94.063369750977 -58.838718414307 -65.243934631348 3.081072807312
-50.472885131836 -71.294548034668 -140.382400512695 2.571322202682
-78.961112976074 -73.871322631836 -208.602218627930 1.770718216896
-169.896774291992 -73.511940002441 -280.031341552734 2.944778919220
28.588474273682 -59.034263610840 -35.319320678711 3.115401983261
-39.475559234619 -73.129707336426 -180.120559692383 2.589004039764
-78.508384704590 -70.044822692871 -136.876113891602 1.978101015091
-113.916000366211 -72.017074584961 -290.283569335938 1.829763531685
-51.064891815186 -72.154525756836 -154.236785888672 2.088982343674
-60.148082733154 -76.986747741699 -168.230651855469 1.906908035278
-129.403823852539 -70.261810302734 -282.446228027344 4.438706874847
-17.661359786987 -70.726943969727 -228.315963745117 1.954979181290
26.484203338623 -63.227939605713 -10.262232780457 4.375751972198
-152.255737304688 -69.777313232422 -288.196411132813 2.409725189209
-147.099166870117 -74.560874938965 -282.371765136719 1.227367043495
-61.251186370850 -58.041904449463 -119.215797424316 1.570382356644
19.926683425903 -75.806144714355 -187.855316162109 1.031327366829
-71.728454589844 -65.997055053711 -46.098659515381 1.911578893661
-42.163131713867 -71.659736633301 -55.537475585938 3.462511777878
53.616798400879 -57.603897094727 -89.956535339355 2.311129808426
-57.920291900635 -64.308074951172 -143.873504638672 2.055513620377
30.066688537598 -63.047447204590 -36.760643005371 1.608812332153
-89.796867370605 -71.782012939453 -214.248229980469 1.857142567635
99.966087341309 -70.244430541992 -77.243576049805 0.934758067131
-46.679458618164 -61.813278198242 -82.756195068359 1.467805624008
-5.386871814728 -80.633819580078 -271.633880615234 1.761450409889
20.758892059326 -70.989707946777 -164.587448120117 0.929768025875
37.428562164307 -59.051029205322 -16.036998748779 4.021806716919
113.800384521484 -75.983345031738 -168.930618286133 1.226331949234
76.885879516602 -75.149291992188 -92.701889038086 1.890445232391
9.848496437073 -81.927612304688 -214.695907592773 2.039366960526
-72.348693847656 -61.492401123047 -45.328430175781 1.792795300484
-130.164306640625 -75.340667724609 -228.770996093750 2.631036996841
-26.122564315796 -68.881835937500 -196.632858276367 2.054522037506
114.292274475098 -68.285301208496 -145.727554321289 1.072292208672
-152.672454833984 -79.380928039551 -195.778594970703 1.265622973442
-16.890039443970 -75.778022766113 -218.203720092773 1.471430182457
-38.953361511230 -73.366966247559 -212.307647705078 5.762136936188
-141.572494506836 -75.463996887207 -286.762390136719 0.707563996315
63.462501525879 -61.614044189453 -67.368530273438 3.754812717438
-143.839111328125 -83.590438842773 -252.671890258789 2.202355861664
17.921939849854 -74.016189575195 -172.685440063477 2.166590452194
-25.378356933594 -65.707649230957 -183.917633056641 3.577751636505
-58.619400024414 -65.985702514648 -88.270378112793 1.572034597397
-42.005794525146 -76.452102661133 -65.634048461914 3.050522804260
18.138460159302 -73.000434875488 -217.342407226563 2.653463840485
-83.295906066895 -70.375305175781 -101.791893005371 3.542761802673
13.246479034424 -80.427169799805 -271.402343750000 1.721834182739
-128.046157836914 -69.096885681152 -221.112915039063 3.173619985580
-104.607421875000 -72.704910278320 -255.682846069336 1.413574218750
19.988847732544 -69.486152648926 -163.582504272461 2.448751449585
25.180166244507 -66.630081176758 -253.312179565430 1.434934496880
23.470899581909 -70.267990112305 -152.375717163086 1.282289147377
9.402155876160 -78.534271240234 -226.189880371094 2.698618650436
-36.450027465820 -76.281364440918 -80.768615722656 1.476166367531
-144.404556274414 -75.265251159668 -289.514160156250 2.296870708466
52.831954956055 -62.425369262695 -88.927947998047 1.992293000221
10.171811103821 -70.109794616699 -208.065338134766 0.961241006851
-43.443565368652 -77.160133361816 -153.097610473633 2.277069807053
92.685119628906 -73.167663574219 -94.821456909180 2.795664310455
1.532044053078 -69.333396911621 -224.748474121094 1.786498546600
30.372724533081 -74.028404235840 -126.052177429199 3.214239597321
-59.621383666992 -71.636154174805 -54.498104095459 4.677696704865
-0.815819978714 -72.019897460938 -235.402954101563 1.196655511856
24.970905303955 -68.922370910645 -162.831329345703 1.639841198921
-157.180801391602 -72.178527832031 -269.791412353516 3.052634716034
-153.726119995117 -85.143173217773 -278.558807373047 3.443184137344
-11.936424255371 -57.600254058838 -61.071758270264 3.051980972290
111.140922546387 -68.463668823242 -108.956253051758 2.316213846207
-28.698741912842 -77.249778747559 -237.768753051758 2.861903905869
-149.187301635742 -83.985855102539 -229.081909179688 1.506929516792
111.152153015137 -71.846679687500 -140.719558715820 2.388939142227
4.727708816528 -76.526603698730 -226.750244140625 1.956055641174
22.568620681763 -67.598022460938 -162.719100952148 1.699761867523
-103.577095031738 -73.479438781738 -258.338806152344 2.037415742874
28.815425872803 -61.015068054199 -34.123844146729 1.812296390533
86.847030639648 -73.939178466797 -213.594558715820 0.959812760353
-132.789916992188 -76.218147277832 -229.159942626953 2.155010461807
-85.040344238281 -61.289653778076 -45.298717498779 3.393112421036
28.717267990112 -57.977802276611 -35.017002105713 2.030827522278
10.593020439148 -81.510261535645 -277.835388183594 0.783768713474
-113.565132141113 -62.695529937744 -197.313720703125 2.140997648239
-2.904989957809 -80.072868347168 -232.973297119141 1.592332005501
-50.385753631592 -70.837600708008 -287.634857177734 1.457430601120
-86.036155700684 -72.921043395996 -247.262527465820 2.232774019241
110.574272155762 -73.151283264160 -130.803649902344 1.036408305168
-154.563796997070 -74.997276306152 -293.780303955078 1.160984396935
-155.871154785156 -72.966049194336 -285.588043212891 2.976934909821
65.278762817383 -72.501976013184 -234.390060424805 1.848439931870
5.443904876709 -80.457244873047 -236.891784667969 2.329292297363
39.509616851807 -73.890846252441 -127.309867858887 1.923797845840
38.981006622314 -74.398017883301 -251.516891479492 4.205783843994
33.685688018799 -64.406356811523 -10.131185531616 3.191901445389
37.685791015625 -70.097541809082 -111.931610107422 2.123170614243
17.535625457764 -75.245338439941 -206.027725219727 1.190081954002
7.656806945801 -72.141586303711 -158.722915649414 2.528433799744
67.430137634277 -63.956455230713 -68.967163085938 0.968320250511
90.850227355957 -73.017662048340 -93.505371093750 2.981803894043
3.367299079895 -76.520011901855 -156.665603637695 2.404082775116
20.880941390991 -75.506980895996 -191.709960937500 1.229353666306
20.388315200806 -74.437843322754 -253.017333984375 2.275017023087
-50.282844543457 -78.265571594238 -85.297340393066 2.081248760223
-42.175075531006 -72.635726928711 -81.683387756348 1.476019620895
32.795303344727 -72.692108154297 -153.850311279297 1.734396696091
-30.568691253662 -80.690277099609 -172.120590209961 3.014623403549
-147.403701782227 -79.652496337891 -267.870300292969 2.822554111481
-137.741363525391 -85.428291320801 -224.119674682617 3.330682754517
-79.094146728516 -84.716865539551 -99.745590209961 2.381217956543
-20.171548843384 -72.881965637207 -212.724411010742 0.933446049690
-14.650264739990 -79.419883728027 -214.075286865234 2.084995985031
-105.478027343750 -76.005294799805 -291.123992919922 3.105551958084
-82.465652465820 -62.188232421875 -124.730232238770 1.757939934731
-151.649520874023 -60.429786682129 -218.513381958008 3.182491064072
-148.146636962891 -67.719451904297 -188.568542480469 2.832853555679
-31.919208526611 -78.021636962891 -189.948547363281 1.641268730164
72.277122497559 -71.459465026855 -236.090072631836 0.987975418568
54.428787231445 -67.213188171387 -248.816116333008 1.643351078033
-15.387056350708 -75.914016723633 -225.101959228516 1.713648557663
-97.888442993164 -74.201324462891 -258.788848876953 2.201337575912
68.112548828125 -71.955833435059 -234.215927124023 2.037369966507
-4.020508766174 -67.697441101074 -228.221588134766 1.867486953735
91.033470153809 -60.516422271729 -59.505321502686 1.433858275414
16.978406906128 -65.278526306152 -176.109619140625 3.116988420486
2.471609115601 -60.106914520264 -240.335296630859 2.273697137833
-141.060226440430 -84.229644775391 -283.493164062500 4.334177970886
-146.881713867188 -79.395111083984 -255.876831054688 2.915185213089
18.162239074707 -68.823249816895 -186.776077270508 2.229565620422
35.398693084717 -67.084106445313 -132.089523315430 2.248610258102
-17.921625137329 -72.385261535645 -288.772155761719 1.961612105370
-78.067520141602 -62.087806701660 -127.418724060059 1.474674463272
-160.215850830078 -68.692665100098 -219.226303100586 1.792481422424
-3.545506000519 -78.890617370605 -218.100570678711 1.801966905594
-148.351699829102 -88.207534790039 -286.545227050781 2.619179725647
-172.630294799805 -67.427001953125 -258.401214599609 5.903033256531
71.317001342773 -63.765010833740 -103.238922119141 1.949701905251
85.183082580566 -68.658622741699 -208.520385742188 5.233992099762
22.984378814697 -61.138839721680 -134.737594604492 1.249588131905
-154.510894775391 -64.695785522461 -200.852111816406 2.311290264130
21.834196090698 -66.895240783691 -160.630767822266 2.231896877289
-48.717494964600 -80.920074462891 -188.128540039063 2.818717002869
-48.196941375732 -70.340583801270 -135.563781738281 1.242039561272
-15.277818679810 -67.117988586426 -208.474060058594 1.197066545486
-75.309150695801 -73.142158508301 -255.807235717773 1.603600502014
-158.699935913086 -71.335350036621 -201.248458862305 2.004754304886
-151.449935913086 -70.348785400391 -304.373260498047 3.560808897018
-106.894744873047 -71.788101196289 -289.078277587891 1.865648746490
5.978627204895 -73.892982482910 -242.065658569336 1.490418791771
-155.986068725586 -66.819602966309 -220.159912109375 1.092669844627
-63.282848358154 -63.050251007080 -88.271560668945 1.672036409378
-26.820922851563 -77.853736877441 -197.852676391602 2.540642261505
86.729598999023 -58.154106140137 -110.509338378906 2.844515085220
-124.491249084473 -72.231498718262 -204.082458496094 0.690125942230
-142.875503540039 -76.012313842773 -197.664093017578 2.252134799957
-28.513099670410 -76.226905822754 -173.778518676758 0.848965704441
-63.545047760010 -81.957878112793 -91.404144287109 4.818623065948
-159.795333862305 -71.429489135742 -215.189163208008 3.264102935791
6.912174224854 -69.243255615234 -241.194183349609 1.625766277313
-79.895828247070 -61.058815002441 -124.208129882813 1.540913224220
-71.631065368652 -63.811531066895 -105.569488525391 2.703153133392
-53.797225952148 -75.555343627930 -291.245727539063 0.666928529739
-149.679443359375 -65.229721069336 -225.177200317383 2.524209737778
-147.403732299805 -60.367500305176 -197.246261596680 0.583640396595
96.528358459473 -71.216743469238 -203.182037353516 1.769371867180
18.700500488281 -65.456062316895 -178.610488891602 2.103978157043
114.682937622070 -66.750320434570 -130.855682373047 1.984941601753
21.038318634033 -64.529975891113 -21.779937744141 1.322045803070
95.065536499023 -66.702445983887 -102.625816345215 2.300520420074
-141.755950927734 -58.761512756348 -202.766128540039 2.254334688187
-24.057510375977 -70.777252197266 -212.681961059570 4.224267005920
-31.443935394287 -81.032157897949 -189.999816894531 1.252231478691
-75.608268737793 -60.664627075195 -132.576477050781 4.031295776367
52.391239166260 -74.801254272461 -99.278266906738 2.375239610672
-8.770091056824 -81.229507446289 -272.076995849609 1.374813795090
-62.389533996582 -69.153198242188 -55.162574768066 5.961396217346
-44.914577484131 -68.706237792969 -145.626815795898 1.865230679512
-157.094451904297 -65.284835815430 -289.539672851563 2.622006893158
-5.204081058502 -79.966697692871 -222.418228149414 1.481955409050
-57.250392913818 -86.648857116699 -203.060668945313 1.388875722885
-48.223464965820 -70.694396972656 -143.158294677734 1.839397907257
101.766555786133 -62.127750396729 -97.449401855469 1.379988670349
22.729352951050 -69.792762756348 -191.410537719727 2.559617280960
106.008033752441 -69.753562927246 -119.318237304688 2.662679433823
-146.539520263672 -61.599159240723 -214.850204467773 0.389329880476
-74.201522827148 -68.227912902832 -98.376983642578 1.574694156647
-11.599143028259 -74.486946105957 -232.866333007813 1.067600607872
-135.621398925781 -65.144432067871 -262.471008300781 1.007627844810
-56.227462768555 -62.141418457031 -137.201126098633 1.096001267433
-30.302011489868 -69.676940917969 -186.242614746094 2.067905902863
101.197433471680 -60.355155944824 -99.304512023926 1.945148110390
-148.481155395508 -80.953170776367 -203.115646362305 2.692443609238
58.476978302002 -69.025123596191 -238.461898803711 2.716931343079
18.427370071411 -69.244514465332 -177.248687744141 1.074788451195
-148.849304199219 -67.540756225586 -256.646148681641 1.197286128998
10.786396026611 -59.935813903809 -241.114746093750 2.170854568481
-79.358512878418 -66.570999145508 -117.367645263672 1.967254161835
-134.830932617188 -70.628448486328 -291.435699462891 1.606878280640
-144.128417968750 -79.046646118164 -289.596832275391 2.022874832153
-91.403427124023 -69.152687072754 -65.147613525391 2.080619573593
52.492473602295 -71.097915649414 -92.951179504395 0.939456224442
-24.430952072144 -78.906425476074 -221.003494262695 1.979740977287
-47.310726165771 -78.646308898926 -245.910705566406 1.315807819366
-34.217964172363 -63.256244659424 -79.153205871582 4.093278884888
1.718579053879 -64.805183410645 -273.206054687500 1.318826198578
50.507289886475 -67.098770141602 -106.942123413086 2.011111259460
-29.902482986450 -81.006820678711 -178.279388427734 1.603881478310
-35.260578155518 -70.065246582031 -56.713665008545 4.280640125275
21.678447723389 -69.275779724121 -177.075210571289 1.239969611168
-29.104959487915 -72.995399475098 -179.399291992188 2.925077438354
13.960495948792 -83.068107604980 -238.865295410156 1.922238945961
19.655395507813 -55.797416687012 -31.462139129639 1.081830501556
-154.620330810547 -79.351722717285 -229.165618896484 1.807460665703
44.110832214355 -67.980331420898 -22.560054779053 2.630032539368
19.593402862549 -70.251907348633 -187.863754272461 3.160677194595
-38.734363555908 -71.877548217773 -153.592025756836 0.901207804680
23.169454574585 -73.209510803223 -140.706512451172 1.840489268303
-135.687164306641 -70.739143371582 -280.737152099609 3.419029474258
34.201995849609 -65.551414489746 -119.418251037598 4.683685302734
98.159942626953 -67.051223754883 -96.095939636230 2.055746793747
-34.047599792480 -77.396446228027 -178.195281982422 2.623020410538
-140.905853271484 -77.082572937012 -198.299255371094 0.900179505348
-73.729278564453 -65.926399230957 -131.825881958008 2.672632694244
52.216854095459 -74.595024108887 -243.694335937500 3.205111742020
2.751110076904 -79.700584411621 -235.530548095703 0.728956699371
-148.755279541016 -76.639694213867 -215.447250366211 1.153158307076
-119.997833251953 -73.344749450684 -292.066040039063 0.660249054432
38.163600921631 -57.648822784424 -118.766738891602 1.338843226433
-61.551536560059 -75.213157653809 -69.719017028809 4.697191238403
-47.678321838379 -66.618217468262 -153.539535522461 3.346158027649
-126.107116699219 -73.619522094727 -198.866546630859 2.641603946686
-14.650424957275 -77.285926818848 -224.272872924805 1.650980830193
-60.161483764648 -75.568618774414 -173.188323974609 2.288360834122
-43.576999664307 -78.613487243652 -162.144836425781 2.154641866684
-114.838615417480 -73.181892395020 -291.951507568359 0.949940681458
-104.923622131348 -72.926811218262 -286.444000244141 1.637284755707
-26.778884887695 -77.923629760742 -191.176589965820 2.203365802765
-4.257746219635 -69.385910034180 -278.067016601563 2.593216419220
-93.768142700195 -67.972396850586 -287.605072021484 1.905282855034
5.983603954315 -75.006439208984 -156.421905517578 1.540832161903
-115.101333618164 -73.703094482422 -292.444580078125 0.459755003452
-54.224983215332 -60.440139770508 -76.779808044434 1.129640460014
-78.219161987305 -64.808769226074 -132.743560791016 1.179074048996
44.156658172607 -67.100364685059 -110.256996154785 2.088924169540
-87.100967407227 -59.207073211670 -115.405601501465 2.056573390961
40.760864257813 -55.440547943115 -40.005992889404 1.862133383751
-93.025474548340 -69.096191406250 -117.183273315430 2.823514223099
-21.297866821289 -72.496124267578 -189.914352416992 0.908564209938
45.377349853516 -73.721054077148 -102.860321044922 1.412679076195
-59.340209960938 -64.772361755371 -126.058647155762 2.134969472885
-148.557769775391 -74.602714538574 -208.970535278320 2.830147027969
54.834720611572 -65.643501281738 -102.179389953613 3.021839857101
-152.569015502930 -77.954627990723 -245.772201538086 1.056556582451
30.347013473511 -76.794563293457 -157.103805541992 2.239387512207
-40.187690734863 -63.024581909180 -79.689353942871 1.959194540977
-149.720169067383 -76.211265563965 -235.463226318359 1.173846364021
50.693035125732 -60.153434753418 -20.265684127808 2.211418151855
-157.100448608398 -76.013557434082 -299.349578857422 3.294193983078
26.894784927368 -69.082099914551 -255.916763305664 1.875072598457
-132.772994995117 -70.137878417969 -284.976104736328 1.253871202469
-40.396087646484 -66.802268981934 -166.448043823242 3.882880449295
111.468566894531 -69.679244995117 -126.373809814453 1.011870741844
-44.066196441650 -76.746261596680 -61.691665649414 2.497982740402
-151.584350585938 -80.339988708496 -251.697235107422 2.008143424988
31.394151687622 -69.435066223145 -40.007507324219 0.907023787498
-148.467575073242 -74.035011291504 -220.299346923828 2.306982040405
27.864883422852 -76.470573425293 -160.562164306641 1.701604962349
-26.579391479492 -74.154357910156 -219.494400024414 1.212796330452
-23.171897888184 -78.247772216797 -239.237884521484 1.699192523956
-3.638761997223 -74.044273376465 -230.777679443359 1.464849948883
23.340875625610 -68.135040283203 -23.695623397827 3.053147077560
-137.042098999023 -73.241081237793 -231.698120117188 1.596818923950
22.110700607300 -60.752353668213 -29.745018005371 2.210989475250
-81.366378784180 -57.444545745850 -122.497993469238 1.597084283829
8.455734252930 -65.555557250977 -243.190322875977 2.566588401794
23.430187225342 -74.698348999023 -181.803817749023 1.389143109322
-79.041481018066 -60.025001525879 -119.986793518066 1.536447882652
45.454929351807 -76.551185607910 -114.913124084473 1.025870323181
-165.379241943359 -72.438911437988 -213.470046997070 2.141787767410
108.021888732910 -73.279762268066 -115.055473327637 2.099211692810
107.718299865723 -66.196769714355 -114.935058593750 1.255383729935
-12.830696105957 -79.552360534668 -209.808197021484 1.347106456757
-82.281242370605 -77.624618530273 -89.875579833984 4.614732265472
3.374078035355 -63.605937957764 -257.378784179688 3.083603858948
-148.195526123047 -69.589767456055 -198.457626342773 1.393273115158
-51.476303100586 -73.997909545898 -148.241394042969 2.089329957962
-24.504760742188 -78.693794250488 -188.476257324219 2.917312383652
-0.366831004620 -64.431304931641 -230.855117797852 2.903777599335
-30.913650512695 -75.693542480469 -191.044708251953 2.375740766525
-23.460113525391 -67.270011901855 -203.015609741211 2.561686277390
24.968124389648 -74.608543395996 -258.587890625000 2.780100107193
-146.372497558594 -77.044395446777 -244.210449218750 2.235551834106
-72.348678588867 -73.498413085938 -248.322113037109 1.067026257515
-24.896942138672 -77.847969055176 -179.544570922852 0.783588707447
-96.577194213867 -69.496116638184 -219.160781860352 1.767008423805
-146.185943603516 -77.798652648926 -282.326690673828 1.789620637894
64.484016418457 -63.665496826172 -96.725067138672 2.860569238663
-98.255584716797 -56.908657073975 -73.840744018555 1.293716430664
-150.532943725586 -75.405654907227 -255.812438964844 2.397312402725
52.181144714355 -70.775016784668 -100.494918823242 2.796338796616
-34.184906005859 -73.258628845215 -64.148437500000 4.900048732758
-142.048324584961 -63.504364013672 -176.342544555664 0.645309269428
54.993354797363 -66.354324340820 -101.181877136230 2.130590677261
100.150512695313 -73.393859863281 -202.441329956055 0.871668875217
107.179176330566 -71.840393066406 -174.632888793945 1.666036486626
-103.512504577637 -64.173812866211 -154.587051391602 2.620352506638
-76.352546691895 -70.389030456543 -136.898040771484 1.531257867813
-85.744468688965 -60.638572692871 -115.457725524902 1.144108533859
-97.662445068359 -69.213157653809 -151.825408935547 1.649237632751
38.548397064209 -68.436271667480 -37.500152587891 2.388990879059
19.581501007080 -69.054328918457 -195.190261840820 1.180597186089
108.169486999512 -71.234527587891 -157.526947021484 2.499292850494
-57.945339202881 -76.552833557129 -66.479827880859 2.541456937790
-121.469970703125 -68.427375793457 -199.279235839844 2.372480154037
27.691871643066 -68.442558288574 -163.401809692383 2.242026329041
-54.502044677734 -83.253479003906 -86.376091003418 3.060588836670
-34.599170684814 -80.268501281738 -240.339981079102 1.536993145943
-29.497772216797 -84.321701049805 -188.544754028320 1.589666485786
74.491073608398 -61.546691894531 -62.984798431396 2.985764741898
-84.252990722656 -79.650909423828 -95.129234313965 2.938403844833
-50.888217926025 -72.423866271973 -285.735351562500 2.208239555359
41.752876281738 -70.145950317383 -101.649856567383 0.494329273701
-77.419517517090 -57.741188049316 -105.496520996094 3.242169380188
-165.291671752930 -77.694236755371 -286.415283203125 2.959414243698
-7.980423927307 -74.829170227051 -211.391876220703 0.847948491573
27.331989288330 -63.780860900879 -16.091659545898 1.863811850548
-61.078483581543 -80.492607116699 -177.805175781250 2.895519018173
-75.300750732422 -76.964454650879 -208.731018066406 1.339269757271
14.923389434814 -81.761772155762 -246.417404174805 0.948604226112
-12.441864967346 -76.019302368164 -231.112579345703 1.357301592827
-147.305297851563 -74.008056640625 -296.827606201172 1.942111849785
-85.570243835449 -59.748401641846 -106.110122680664 4.752052783966
-18.735479354858 -74.544464111328 -226.023864746094 2.300485134125
26.874937057495 -76.423858642578 -150.774017333984 2.014453411102
42.849708557129 -74.503311157227 -133.176391601563 1.967424392700
33.830535888672 -64.395401000977 -12.950224876404 2.403683900833
-78.017333984375 -70.426200866699 -55.448909759521 3.329815149307
-152.124252319336 -65.566162109375 -283.908782958984 1.491584897041
-72.157333374023 -82.164634704590 -211.303909301758 0.747715294361
-16.275981903076 -69.655708312988 -229.888977050781 0.638838708401
-29.966873168945 -69.551345825195 -56.611183166504 2.841104507446
95.588317871094 -71.543663024902 -200.099411010742 2.228047370911
-152.113967895508 -66.232994079590 -267.933105468750 1.192765235901
-83.150321960449 -59.433597564697 -48.079528808594 1.862256407738
-81.605880737305 -78.158905029297 -213.037902832031 1.867301464081
-155.181625366211 -63.637195587158 -254.087310791016 0.807222008705
-40.178096771240 -72.112174987793 -168.927978515625 1.828233599663
12.813691139221 -83.838401794434 -271.257507324219 1.464758992195
-76.934783935547 -64.466293334961 -123.932998657227 1.335189819336
49.428607940674 -61.959304809570 -246.464492797852 3.665878772736
-45.731025695801 -79.809967041016 -155.196365356445 0.776065587997
-47.282321929932 -72.793579101563 -148.259719848633 3.220363378525
-11.186903953552 -76.740859985352 -250.756576538086 1.580364108086
56.823047637939 -72.652374267578 -241.203674316406 2.161422967911
18.826709747314 -77.051559448242 -208.310089111328 1.681517601013
-151.518859863281 -86.189071655273 -263.156951904297 1.803443431854
8.084999084473 -80.820205688477 -245.646621704102 1.135718703270
15.803248405457 -82.975807189941 -260.704162597656 1.742938995361
-30.585901260376 -69.027893066406 -174.967590332031 1.712515473366
7.302887916565 -69.026557922363 -145.960357666016 4.606770038605
-138.183624267578 -73.848838806152 -199.721618652344 1.820744514465
-41.687805175781 -79.829338073730 -201.876281738281 1.545960187912
-48.618255615234 -68.614402770996 -131.786972045898 1.484276056290
42.645084381104 -73.688789367676 -121.901008605957 1.967211246490
32.502063751221 -74.297698974609 -123.575057983398 0.823001742363
6.097358226776 -63.001819610596 -240.591644287109 0.466171473265
-53.521572113037 -77.883361816406 -239.946777343750 2.824916839600
-160.404159545898 -67.790046691895 -203.719985961914 1.503311276436
-12.622026443481 -78.400260925293 -172.622863769531 1.055988430977
107.349525451660 -77.690048217773 -181.621887207031 1.875588655472
103.604080200195 -72.756759643555 -175.712341308594 2.553732633591
-8.307971000671 -72.785736083984 -204.538070678711 1.304186344147
18.322032928467 -75.977706909180 -168.381332397461 1.111029267311
-44.975688934326 -74.057861328125 -57.563896179199 3.331033945084
103.303314208984 -73.572517395020 -177.731536865234 3.140478610992
-68.169715881348 -78.932579040527 -285.063781738281 2.440948963165
-128.248992919922 -75.323219299316 -283.459655761719 2.288905620575
-77.596214294434 -61.099021911621 -103.988220214844 0.739338159561
1.258456945419 -78.200363159180 -221.225311279297 3.075377225876
-102.435379028320 -60.965679168701 -78.396553039551 3.613533735275
-79.524406433105 -80.415328979492 -81.917175292969 1.253786087036
26.628721237183 -64.391242980957 -261.039337158203 0.479940533638
22.375560760498 -64.465362548828 -141.942398071289 2.480985403061
23.154779434204 -67.651374816895 -35.446273803711 2.414310932159
-160.749923706055 -71.905326843262 -259.737884521484 3.116882324219
69.544059753418 -66.093421936035 -76.266647338867 3.093668222427
-30.070854187012 -70.953384399414 -75.954368591309 2.498268127441
