77.071945190430 -72.231391906738 -90.007369995117 3.231348752975
-143.868881225586 -79.810775756836 -222.472976684570 1.757372379303
12.663164138794 -78.277565002441 -192.368743896484 2.488000392914
1.595921993256 -70.527908325195 -265.874420166016 5.493630409241
68.829582214355 -66.044837951660 -77.078147888184 3.146833181381
19.588325500488 -65.068122863770 -246.238159179688 2.451168775558
86.545860290527 -66.446212768555 -107.308952331543 2.148340702057
-144.414932250977 -85.804710388184 -220.442657470703 2.848117589951
-64.103172302246 -83.239585876465 -204.107849121094 1.917237162590
-94.232711791992 -68.047058105469 -87.569252014160 3.441996812820
-69.046516418457 -67.358032226563 -46.059368133545 1.618182182312
-72.587287902832 -66.931945800781 -139.474075317383 1.752286672592
-164.204757690430 -67.502769470215 -202.578277587891 2.093346357346
-92.053627014160 -63.668739318848 -68.793350219727 4.482453346252
-152.974060058594 -73.683082580566 -277.777832031250 2.853463172913
-63.010417938232 -68.078941345215 -132.032684326172 1.041569232941
-11.884683609009 -74.965866088867 -208.048019409180 2.010282993317
-65.853385925293 -73.231895446777 -148.140655517578 1.771871447563
-151.141113281250 -65.888328552246 -187.854080200195 1.482883214951
-165.200119018555 -70.747222900391 -247.368240356445 1.814366698265
-152.895767211914 -86.797966003418 -285.001007080078 2.237438678741
79.112579345703 -58.420406341553 -61.223663330078 3.645276069641
84.825378417969 -60.856292724609 -64.669448852539 2.503327608109
-23.677177429199 -78.808128356934 -238.545776367188 1.785788893700
34.974876403809 -58.221672058105 -40.744277954102 1.723142027855
59.188751220703 -64.632835388184 -97.587257385254 1.216455221176
30.546564102173 -73.836662292480 -131.665222167969 0.942302346230
-149.210922241211 -70.560028076172 -259.671813964844 1.801008343697
-55.336143493652 -67.338989257813 -88.514488220215 3.075594186783
-11.194963455200 -79.631118774414 -239.306594848633 5.756130218506
-153.719314575195 -74.675857543945 -241.296142578125 3.168354511261
-108.913925170898 -60.525817871094 -177.020645141602 1.656141877174
-84.714721679688 -69.379280090332 -113.336624145508 1.967322349548
-31.819368362427 -60.029045104980 -47.719562530518 1.356787085533
95.467575073242 -72.485176086426 -82.069282531738 2.912337541580
-150.301635742188 -84.568527221680 -265.708648681641 1.482374548912
-82.992103576660 -75.222381591797 -110.001441955566 2.438499450684
-57.855110168457 -82.316886901855 -246.949401855469 3.802671432495
-46.496360778809 -72.010681152344 -164.988204956055 1.387678861618
-101.190879821777 -68.327316284180 -220.548599243164 1.051743268967
-152.460754394531 -69.252883911133 -195.401565551758 2.707997798920
2.362488031387 -75.990234375000 -227.439025878906 2.167603015900
18.536594390869 -76.281959533691 -174.807266235352 1.926216006279
-148.589111328125 -63.804332733154 -176.248229980469 1.895471692085
-149.369995117188 -88.212181091309 -256.346832275391 3.267980813980
-43.280681610107 -87.470443725586 -196.761932373047 1.565003395081
-133.912689208984 -66.840995788574 -258.938385009766 1.033375382423
-6.133962154388 -71.839614868164 -233.659423828125 0.900696277618
-141.693222045898 -71.098526000977 -196.494720458984 1.483284354210
-27.959920883179 -79.109878540039 -185.125625610352 1.171508073807
-70.788398742676 -77.824569702148 -208.156829833984 1.394258022308
-133.229476928711 -63.362304687500 -203.500701904297 1.873846888542
-15.904537200928 -74.814430236816 -215.047073364258 0.834284543991
-23.218561172485 -72.625885009766 -221.909118652344 0.971800208092
-26.253225326538 -74.258102416992 -199.215957641602 0.934967935085
23.172176361084 -77.547126770020 -186.325271606445 1.084185123444
-156.381317138672 -77.542488098145 -258.764343261719 3.274461746216
-14.576250076294 -74.066909790039 -289.936737060547 1.850490927696
27.529510498047 -78.510978698730 -147.322662353516 0.870521485806
-136.903778076172 -78.202674865723 -228.347320556641 2.013338804245
-124.780761718750 -65.814750671387 -205.805541992188 1.328945636749
105.954338073730 -68.824890136719 -99.208023071289 0.920627057552
-17.618568420410 -74.234535217285 -211.288955688477 1.136697292328
-157.402313232422 -73.436470031738 -258.840362548828 2.432870864868
-42.752571105957 -67.649208068848 -148.259811401367 1.402816653252
41.069202423096 -74.750091552734 -128.436691284180 1.682349324226
-89.154785156250 -64.139099121094 -112.236106872559 2.724352598190
-156.325790405273 -65.205245971680 -196.300582885742 0.985743999481
3.701061010361 -69.839454650879 -235.940414428711 0.631702780724
-36.865840911865 -54.560592651367 -45.696567535400 2.623158216476
28.146602630615 -72.115882873535 -173.859649658203 1.054825782776
87.257263183594 -72.698303222656 -93.368904113770 4.259975910187
-4.148634910583 -78.778953552246 -166.713485717773 1.418462395668
-149.564376831055 -69.741004943848 -285.749603271484 2.746026039124
13.861069679260 -75.945220947266 -202.989898681641 1.423224806786
-149.727218627930 -78.963226318359 -313.135955810547 2.562899827957
14.601604461670 -65.621490478516 -153.775192260742 2.466183423996
-101.744171142578 -74.371849060059 -291.363891601563 0.819721341133
21.697500228882 -73.631683349609 -192.367202758789 2.959039926529
9.460186958313 -70.874977111816 -161.833480834961 1.586456894875
20.909973144531 -59.378883361816 -29.645334243774 2.167784690857
-42.543174743652 -70.230972290039 -139.188369750977 2.891748189926
-4.792685031891 -68.655761718750 -219.086364746094 1.350965619087
-168.467437744141 -73.874450683594 -277.821075439453 1.212469577789
-98.776947021484 -60.781589508057 -153.018432617188 3.237206935883
-35.319168090820 -78.091575622559 -241.589218139648 1.876523375511
-64.491958618164 -76.034889221191 -99.754692077637 2.235545158386
100.693450927734 -71.613616943359 -87.787223815918 1.696965694427
104.494606018066 -62.176883697510 -84.497230529785 1.681626081467
-147.263656616211 -72.518203735352 -311.533325195313 1.514582395554
4.509852886200 -88.155868530273 -273.139587402344 3.609905958176
-13.487664222717 -79.025077819824 -261.275665283203 2.771969556808
-146.017578125000 -75.822845458984 -187.208236694336 0.893196463585
-27.735197067261 -77.350006103516 -194.275527954102 1.711795568466
-62.887969970703 -77.289596557617 -176.194152832031 1.556281685829
-50.445743560791 -69.054512023926 -156.534378051758 2.162007808685
20.474010467529 -72.303588867188 -210.758926391602 1.260622739792
21.013952255249 -74.037193298340 -169.984542846680 3.368727207184
94.374328613281 -76.345855712891 -204.521240234375 1.332819581032
21.179759979248 -75.509857177734 -242.194015502930 1.665949940681
-58.860893249512 -76.391830444336 -292.003845214844 1.941139817238
-152.562789916992 -74.719917297363 -206.421875000000 2.428315639496
-14.276841163635 -65.055419921875 -207.223510742188 2.925760984421
-133.521011352539 -72.974517822266 -254.693344116211 1.377977967262
90.027687072754 -78.389274597168 -206.959930419922 4.255362033844
56.757186889648 -69.429756164551 -241.636032104492 0.503477692604
-91.899490356445 -55.217254638672 -55.607776641846 2.970483064651
-81.032920837402 -71.535118103027 -64.400169372559 4.031791687012
-35.928775787354 -71.234191894531 -171.107299804688 2.243804454803
-4.660175800323 -80.258346557617 -287.209747314453 3.308320283890
-167.844558715820 -68.092163085938 -206.078201293945 1.283140420914
-66.371902465820 -76.056602478027 -253.174148559570 3.109771490097
-84.007202148438 -62.131328582764 -58.805103302002 6.179111957550
25.473928451538 -65.695419311523 -159.072204589844 2.198805332184
15.866591453552 -75.867973327637 -210.446273803711 2.270982980728
13.977137565613 -84.646942138672 -216.419113159180 4.327681064606
-2.859149932861 -69.625015258789 -280.253540039063 3.293992042542
6.052089214325 -65.901161193848 -235.204116821289 0.890223860741
-164.068145751953 -69.348960876465 -256.768035888672 2.778523921967
-120.371734619141 -70.201576232910 -232.601669311523 2.940243482590
-25.990751266479 -70.682525634766 -179.896621704102 1.596624851227
-59.811588287354 -64.354026794434 -119.472496032715 2.125745296478
-20.420639038086 -80.802627563477 -223.830596923828 1.924612879753
-77.380264282227 -57.662578582764 -45.565444946289 2.028215169907
-16.664930343628 -82.680709838867 -192.602127075195 4.405910015106
35.746356964111 -59.648464202881 -38.748897552490 2.299497604370
-34.405567169189 -70.150154113770 -181.007705688477 2.265070199966
-12.659751892090 -75.488082885742 -248.903091430664 1.696972131729
-146.023681640625 -67.080757141113 -262.758392333984 2.221350908279
-128.921264648438 -74.970878601074 -230.495986938477 0.820539653301
-38.948173522949 -68.508117675781 -167.340530395508 1.672946572304
2.730909109116 -90.659500122070 -267.423858642578 4.088691234589
70.985885620117 -56.401657104492 -62.423171997070 2.598268747330
103.232635498047 -75.753814697266 -183.595916748047 1.768839836121
96.921607971191 -70.754951477051 -208.294479370117 2.483672857285
-147.817337036133 -80.295761108398 -189.186325073242 2.500992298126
90.422241210938 -72.137405395508 -77.586067199707 3.896154880524
-61.097347259521 -69.046066284180 -129.163970947266 1.224650263786
11.881855010986 -85.473411560059 -255.609268188477 1.124181985855
-152.223541259766 -66.608024597168 -181.675384521484 1.380991220474
109.099998474121 -71.419601440430 -179.988861083984 2.643717765808
42.131645202637 -61.043373107910 -30.637935638428 2.376701354980
-148.456497192383 -79.116989135742 -277.616516113281 1.923935890198
-19.685783386230 -74.706901550293 -222.627151489258 1.649278402328
-44.005931854248 -79.163894653320 -80.406333923340 4.069819927216
36.633396148682 -59.123474121094 -123.173385620117 1.980412840843
20.573099136353 -74.886909484863 -157.875869750977 0.928542554379
112.497276306152 -68.865142822266 -132.313873291016 1.614609718323
102.141258239746 -59.931835174561 -103.746482849121 2.576569557190
-73.645240783691 -79.292427062988 -83.402275085449 3.550014495850
-88.157112121582 -61.881435394287 -117.010314941406 1.766048431396
-146.148956298828 -69.656829833984 -266.340972900391 1.414514899254
-6.162816047668 -70.990974426270 -236.484451293945 1.365730166435
106.231201171875 -69.123847961426 -165.465560913086 3.319977521896
-25.227338790894 -72.460006713867 -192.724792480469 0.849013626575
105.129959106445 -65.191825866699 -88.974998474121 2.369323492050
-68.060913085938 -78.432640075684 -250.773544311523 2.034429550171
13.956506729126 -81.892906188965 -229.887496948242 2.382038593292
-163.478622436523 -65.857223510742 -213.161361694336 1.744913101196
-77.903038024902 -68.717681884766 -134.351486206055 1.088158845901
86.395019531250 -73.900520324707 -223.641235351563 1.178024768829
-50.849681854248 -76.852401733398 -193.647628784180 2.280860662460
117.755065917969 -75.004364013672 -124.736465454102 2.197441816330
-72.537582397461 -67.996818542480 -155.287826538086 2.755714654922
-62.964633941650 -77.491508483887 -180.067535400391 3.563518524170
25.063026428223 -65.322479248047 -164.691238403320 3.050127029419
-15.521757125854 -69.387641906738 -214.432266235352 1.114125609398
72.133949279785 -77.654052734375 -233.998764038086 3.353444814682
-139.539428710938 -64.997108459473 -224.139556884766 2.713695049286
-12.914320945740 -76.067726135254 -203.781463623047 1.969292163849
18.244226455688 -72.839607238770 -177.062286376953 1.584375023842
-154.033554077148 -75.563568115234 -203.110855102539 2.556977748871
15.366415023804 -84.063194274902 -246.318618774414 1.533059120178
35.804454803467 -59.050510406494 -122.667526245117 1.943114876747
-92.213172912598 -72.377243041992 -252.339569091797 1.744653701782
103.338417053223 -65.874198913574 -93.696060180664 1.905509114265
33.929454803467 -55.335918426514 -39.974655151367 2.365143537521
-123.582229614258 -65.247535705566 -201.374694824219 1.597191452980
5.503969192505 -70.105506896973 -291.048248291016 1.943161487579
19.436468124390 -69.959770202637 -185.887161254883 1.400562882423
-158.176132202148 -67.409225463867 -198.985198974609 2.140711307526
-91.393531799316 -65.755836486816 -65.908317565918 3.992650032043
-22.922405242920 -83.036621093750 -181.847015380859 1.786581039429
101.827392578125 -77.231857299805 -207.502944946289 3.160015344620
-144.433578491211 -74.236488342285 -267.273925781250 2.621295690536
13.025425910950 -91.204895019531 -257.114562988281 6.692516326904
-97.393836975098 -61.671455383301 -115.833091735840 1.376337766647
-64.014434814453 -75.121734619141 -156.878707885742 1.536235928535
24.846954345703 -73.112327575684 -141.400650024414 1.444129705429
-159.660781860352 -77.178054809570 -262.146911621094 3.402469396591
17.766036987305 -72.593338012695 -234.077621459961 1.144518852234
21.317262649536 -63.735992431641 -252.396606445313 2.156291961670
-65.659317016602 -60.768630981445 -93.348999023438 2.283719778061
32.468883514404 -79.650917053223 -140.492614746094 1.407589197159
-45.394165039063 -69.262161254883 -160.019348144531 1.505892276764
44.956775665283 -74.286499023438 -123.942611694336 2.274751424789
-62.452747344971 -69.821258544922 -139.697265625000 2.216323137283
-144.536346435547 -76.897270202637 -262.756622314453 2.739354372025
18.384328842163 -75.572189331055 -191.929244995117 2.649542331696
77.603118896484 -74.104965209961 -95.913261413574 1.402471423149
-32.195484161377 -71.313026428223 -163.571044921875 0.936941087246
-156.495239257813 -75.704093933105 -292.646057128906 1.342034935951
-13.318756103516 -81.592041015625 -263.010467529297 4.788927078247
-19.148302078247 -68.696746826172 -206.331710815430 0.577390849590
-120.485740661621 -78.567260742188 -290.015380859375 2.933889150620
-85.563552856445 -59.426963806152 -122.232894897461 3.950226783752
-19.781623840332 -70.715583801270 -202.590744018555 1.148395895958
-48.463642120361 -67.029457092285 -138.247085571289 2.744649171829
13.327226638794 -69.335815429688 -288.112030029297 1.823351860046
-41.948757171631 -72.346977233887 -83.020988464355 0.964058518410
61.196929931641 -74.364593505859 -239.573516845703 2.109569311142
-149.767074584961 -60.266323089600 -198.861022949219 1.933833241463
-47.603916168213 -81.594650268555 -191.684326171875 3.150556325912
12.536260604858 -68.519790649414 -150.902145385742 1.751452445984
-131.371643066406 -66.034759521484 -228.164443969727 1.649362564087
-15.328061103821 -73.131416320801 -213.083419799805 1.715267181396
-126.703315734863 -76.142860412598 -264.191711425781 2.542974710464
116.417068481445 -70.436614990234 -120.305725097656 2.327975749969
24.602716445923 -74.354057312012 -186.734832763672 1.502020001411
88.257797241211 -78.139831542969 -91.661941528320 2.159825325012
-44.456287384033 -77.961959838867 -245.330398559570 2.128260374069
7.944756984711 -69.414360046387 -158.381164550781 2.006330251694
-79.331115722656 -70.009475708008 -125.520431518555 1.863856196404
102.041473388672 -60.862186431885 -72.789947509766 2.078213691711
-5.894534111023 -73.913551330566 -286.120086669922 1.100942611694
-67.969612121582 -74.074554443359 -70.476966857910 6.568192481995
16.256519317627 -83.985336303711 -238.936218261719 1.267588615417
31.563285827637 -69.271522521973 -167.946289062500 4.069399356842
27.593748092651 -67.499526977539 -31.488243103027 1.240952610970
39.523803710938 -75.241455078125 -107.929595947266 2.213326692581
99.634185791016 -69.623840332031 -81.034156799316 2.340677261353
-140.136474609375 -73.697113037109 -199.529937744141 1.465100049973
-64.629241943359 -56.614498138428 -86.149131774902 3.537319660187
43.586200714111 -64.446357727051 -13.754173278809 1.751629233360
-21.465513229370 -80.410820007324 -194.276535034180 1.013557791710
-17.279977798462 -82.093345642090 -255.976837158203 5.748226642609
-156.267974853516 -74.679283142090 -303.534179687500 2.022296667099
7.720904827118 -76.606391906738 -246.026794433594 1.074366092682
17.172786712646 -80.702445983887 -212.695236206055 3.146894693375
-70.661186218262 -66.401206970215 -138.177261352539 2.870178461075
49.657566070557 -68.642974853516 -96.854827880859 1.359433054924
-22.402669906616 -71.843544006348 -239.127044677734 1.363723397255
-54.709194183350 -61.785369873047 -46.640625000000 2.291594505310
-60.314270019531 -66.102035522461 -127.398628234863 1.518042683601
-67.087532043457 -77.507392883301 -70.836753845215 3.481880187988
46.454631805420 -64.934150695801 -25.911907196045 3.626026153564
-67.330070495605 -59.443878173828 -112.917320251465 1.991731166840
-146.110290527344 -63.066268920898 -201.593612670898 1.199551939964
-109.245285034180 -70.212097167969 -182.915069580078 2.038916587830
-143.449005126953 -63.914009094238 -189.622192382813 1.870827555656
-4.422047138214 -64.484725952148 -241.562866210938 1.420316338539
-127.053428649902 -65.144264221191 -202.419876098633 1.416963458061
-86.385879516602 -67.675971984863 -118.784187316895 2.117020130157
30.290590286255 -66.577552795410 -151.812637329102 3.297884941101
-13.084742546082 -79.638099670410 -293.831695556641 3.323155641556
-147.933914184570 -85.526046752930 -222.769378662109 2.151861429214
111.086441040039 -75.472579956055 -120.109352111816 0.865095376968
-145.619415283203 -82.803268432617 -222.026458740234 1.972754001617
20.258920669556 -69.586074829102 -282.316497802734 2.298162460327
-16.288635253906 -67.934463500977 -206.048141479492 1.872635006905
-84.902915954590 -70.873603820801 -67.702377319336 3.360370397568
102.840705871582 -68.425804138184 -101.784667968750 2.295773267746
-64.281028747559 -83.438903808594 -212.725433349609 2.528644084930
-16.513145446777 -74.887550354004 -223.690307617188 1.302484989166
-166.083236694336 -72.834152221680 -226.782196044922 0.781246304512
6.211593151093 -72.889060974121 -216.364471435547 1.394419074059
-64.365081787109 -78.890586853027 -170.094833374023 2.324966907501
-34.468227386475 -59.579471588135 -51.618282318115 5.235301494598
-67.875579833984 -71.256065368652 -145.497894287109 2.210838079453
27.035772323608 -67.274978637695 -154.529617309570 1.860000491142
-20.081787109375 -74.220252990723 -212.904876708984 2.094236373901
12.580703735352 -68.237709045410 -211.956130981445 1.075380444527
-109.353462219238 -63.999202728271 -178.195297241211 1.031015157700
-132.069778442383 -73.499046325684 -196.995101928711 1.499465584755
-58.954467773438 -82.529685974121 -83.526695251465 3.227689027786
-57.105079650879 -73.517433166504 -133.440887451172 0.744911611080
92.513183593750 -72.004669189453 -210.137176513672 1.945717453957
6.179168224335 -82.586692810059 -223.154525756836 3.424231767654
-76.490570068359 -81.333564758301 -88.147407531738 2.335983276367
-21.369075775146 -78.063827514648 -179.668029785156 2.121186017990
86.123291015625 -72.832611083984 -76.872375488281 1.590951561928
-78.532394409180 -68.270523071289 -98.753036499023 0.778730928898
-114.939643859863 -70.701843261719 -195.639541625977 1.830100893974
1.389842033386 -68.204452514648 -235.424270629883 1.475131630898
102.145019531250 -61.326404571533 -103.812843322754 3.320219755173
26.476814270020 -68.455169677734 -154.921279907227 2.202996492386
-57.365940093994 -67.336601257324 -47.595050811768 2.578488349915
-15.852467536926 -79.560478210449 -287.205871582031 3.163710594177
-148.046752929688 -81.941024780273 -302.656280517578 2.861606836319
-153.304016113281 -66.908737182617 -264.987365722656 2.441324949265
26.996580123901 -70.879066467285 -147.440612792969 1.217607498169
-56.918544769287 -59.413951873779 -118.206298828125 1.425348520279
94.178344726563 -78.725799560547 -210.068389892578 2.968739032745
-60.923049926758 -62.820423126221 -92.067810058594 3.788757801056
-65.225601196289 -66.346923828125 -49.053833007813 3.381036520004
-51.564846038818 -80.746536254883 -85.479354858398 2.958453893661
109.007507324219 -67.155647277832 -120.357315063477 1.355050563812
94.899642944336 -59.053688049316 -66.618217468262 3.795995712280
-49.447952270508 -71.951484680176 -142.044250488281 3.207825899124
-77.749160766602 -75.119125366211 -210.317016601563 1.577988982201
-168.482940673828 -75.266021728516 -282.003112792969 2.874332904816
29.340662002563 -58.846416473389 -36.878330230713 2.982904672623
-38.342464447021 -74.181610107422 -181.732101440430 2.943849802017
-77.490821838379 -70.617126464844 -138.629196166992 2.602693080902
-112.470870971680 -73.971000671387 -292.110687255859 1.481556415558
-50.002635955811 -72.941009521484 -155.891540527344 1.715941905975
-59.055484771729 -77.888267517090 -169.864852905273 1.205606579781
-127.977363586426 -72.113380432129 -284.334075927734 2.188706874847
-16.388477325439 -72.273704528809 -229.886123657227 1.695964455605
27.158163070679 -62.799686431885 -11.788878440857 3.057322263718
-150.812088012695 -71.641059875488 -290.153137207031 1.761985778809
-145.680847167969 -76.378959655762 -284.269104003906 2.059694766998
-60.260913848877 -58.479969024658 -121.034080505371 2.026857614517
21.076183319092 -77.040267944336 -189.273284912109 1.711567282677
-70.958427429199 -65.725830078125 -47.875133514404 2.103062391281
-41.377326965332 -71.531715393066 -57.176517486572 2.503840684891
54.525035858154 -57.977531433105 -91.455604553223 0.969196081161
-56.872459411621 -64.984550476074 -145.622100830078 1.919753909111
30.815420150757 -62.875728607178 -38.277568817139 2.479213953018
-88.565078735352 -73.063209533691 -216.013061523438 1.964165687561
100.814735412598 -70.582916259766 -78.493064880371 1.544620752335
-45.798755645752 -61.934120178223 -84.499504089355 3.178897142410
-4.010850906372 -82.611289978027 -273.073852539063 1.996374845505
21.852005004883 -72.006126403809 -166.049606323242 1.642655491829
38.126491546631 -58.697589874268 -17.571794509888 4.190395355225
114.895851135254 -77.211822509766 -170.082427978516 2.114656209946
77.768928527832 -75.590858459473 -93.969642639160 1.888872027397
11.062032699585 -83.396049499512 -216.083374023438 3.587280511856
-71.572418212891 -61.212978363037 -47.149154663086 3.610556602478
-128.898132324219 -76.684349060059 -230.615722656250 2.268371820450
-24.935211181641 -70.114265441895 -198.245880126953 1.905603528023
115.336929321289 -69.296195983887 -146.951675415039 0.628421425819
-151.506408691406 -80.371795654297 -197.650466918945 1.184325814247
-15.655010223389 -77.230590820313 -219.724563598633 2.323011636734
-37.730274200439 -74.723411560059 -213.913894653320 4.635404586792
-140.143554687500 -77.333633422852 -288.635375976563 1.698329925537
64.299728393555 -61.792575836182 -68.803062438965 2.614838600159
-142.521133422852 -85.133979797363 -254.476348876953 3.522516727448
19.032169342041 -75.103622436523 -174.126693725586 1.657789468765
-24.220806121826 -66.821670532227 -185.559097290039 2.924324750900
-57.730934143066 -66.136375427246 -90.007843017578 2.167728185654
-41.200572967529 -76.419380187988 -67.226982116699 3.109149694443
19.376062393188 -74.509513854980 -218.790451049805 2.356441736221
-82.377502441406 -70.607864379883 -103.557083129883 3.173516035080
14.622132301331 -82.436782836914 -272.791595458984 2.694605827332
-126.789855957031 -70.372520446777 -223.010879516602 1.732822537422
-103.260856628418 -74.349601745605 -257.478851318359 2.530997276306
21.081951141357 -70.491737365723 -165.061065673828 0.965192556381
26.530696868896 -68.491683959961 -254.798614501953 2.870186805725
24.531032562256 -71.174255371094 -153.837600708008 0.658071100712
10.654329299927 -80.110450744629 -227.610031127930 1.994120955467
-35.601993560791 -76.401626586914 -82.346717834473 1.111980080605
-142.967483520508 -77.155632019043 -291.396911621094 1.040059328079
53.728298187256 -62.787631988525 -90.383842468262 1.806916236877
11.388790130615 -71.516838073730 -209.563613891602 1.885250210762
-42.393905639648 -77.949668884277 -154.683670043945 0.309655785561
93.577735900879 -73.658393859863 -96.063125610352 1.983160257339
2.797396898270 -70.881919860840 -226.277679443359 0.763414740562
31.351831436157 -74.698921203613 -127.460388183594 3.204550981522
-58.838356018066 -71.466178894043 -56.186779022217 4.439286708832
0.474465996027 -73.664459228516 -236.912948608398 0.875735044479
26.062921524048 -69.930076599121 -164.301147460938 1.194995880127
-155.793319702148 -73.859504699707 -271.740325927734 3.316524028778
-152.338241577148 -86.912605285645 -280.375335693359 3.548717737198
-11.108974456787 -57.580741882324 -62.757606506348 1.573009133339
112.081939697266 -69.121925354004 -110.189399719238 1.519653081894
-27.411422729492 -78.865074157715 -239.308166503906 2.012473344803
-147.936294555664 -85.297035217285 -230.898895263672 1.581613898277
112.176094055176 -72.804382324219 -141.919235229492 1.661416053772
5.985232830048 -78.099555969238 -228.202499389648 0.655446112156
23.662811279297 -68.600311279297 -164.208206176758 1.815166473389
-102.224517822266 -75.151039123535 -260.124450683594 1.925073742867
29.560552597046 -60.816268920898 -35.663597106934 1.286893963814
88.071968078613 -75.539382934570 -214.839675903320 2.223069190979
-131.524276733398 -77.560623168945 -231.003799438477 3.663785219193
-84.263702392578 -60.986587524414 -47.157241821289 1.837569355965
29.470579147339 -57.787384033203 -36.585620880127 3.006339073181
11.984740257263 -83.575607299805 -279.221588134766 2.978657007217
-112.363822937012 -63.773658752441 -199.232238769531 1.162300944328
-1.636562943459 -81.690292358398 -234.413406372070 4.049776554108
-48.946224212646 -72.883590698242 -289.293609619141 3.114353895187
-84.713752746582 -74.520500183105 -249.004394531250 1.961241245270
111.567924499512 -74.014343261719 -131.993133544922 2.237244606018
-153.114196777344 -76.909202575684 -295.694061279297 1.401737689972
-154.440765380859 -74.798385620117 -287.525054931641 2.474001407623
66.564926147461 -74.258666992188 -235.708694458008 1.337550401688
6.722578048706 -82.126983642578 -238.304473876953 3.117468833923
40.492465972900 -74.590057373047 -128.693481445313 1.588677525520
40.311904907227 -76.267738342285 -252.891174316406 5.760709285736
34.357036590576 -63.990070343018 -11.626369476318 2.269545078278
38.632526397705 -70.648529052734 -113.356880187988 1.759548306465
18.737245559692 -76.646484375000 -207.456863403320 1.352254748344
8.731364250183 -73.078514099121 -160.211532592773 1.574539542198
68.267456054688 -64.157264709473 -70.368316650391 1.321567654610
91.739440917969 -73.492614746094 -94.753707885742 2.150026798248
4.427919864655 -77.429435729980 -158.125183105469 2.251005411148
22.041824340820 -76.779228210449 -193.127868652344 2.350741863251
21.723459243774 -76.287475585938 -254.443725585938 2.156755924225
-49.425716400146 -78.402984619141 -86.895622253418 2.071823596954
-41.317630767822 -72.754241943359 -83.311996459961 1.728455305099
33.854999542236 -73.629341125488 -155.262924194336 1.298079729080
-29.472246170044 -81.682785034180 -173.636047363281 4.562979698181
-146.035629272461 -81.333007812500 -269.721221923828 2.715277910233
-136.507064819336 -86.713676452637 -225.890945434570 3.814676046371
-78.208305358887 -84.937194824219 -101.363807678223 1.720050692558
-18.946489334106 -74.276947021484 -214.282119750977 2.555565357208
-13.433651924133 -80.837471008301 -215.555694580078 3.418980836868
-104.038040161133 -77.982505798340 -292.889617919922 5.091067314148
-81.467514038086 -62.639053344727 -126.569145202637 1.799416899681
-150.384201049805 -61.637844085693 -220.559906005859 0.688488304615
-146.979095458984 -68.651184082031 -190.537902832031 3.830482482910
-30.767677307129 -79.179931640625 -191.492111206055 1.040655612946
73.569976806641 -73.245124816895 -237.398666381836 1.418615579605
55.765430450439 -69.086212158203 -250.214584350586 1.979876995087
-14.132907867432 -77.434410095215 -226.616943359375 1.801468133926
-96.535980224609 -75.887611389160 -260.551605224609 4.732493400574
69.399230957031 -73.716125488281 -235.531707763672 2.213480710983
-2.742309093475 -69.268569946289 -229.781738281250 1.736896038055
91.850502014160 -60.671607971191 -60.872634887695 2.068734884262
18.114583969116 -66.396919250488 -177.635742187500 2.943706274033
3.797986984253 -61.804607391357 -241.948059082031 0.704686045647
-139.656845092773 -86.068977355957 -285.282226562500 2.647907495499
-145.546859741211 -80.963478088379 -257.729278564453 2.137729167938
19.321758270264 -70.044265747070 -188.264923095703 2.715555667877
36.407707214355 -67.821151733398 -133.548690795898 2.553156614304
-16.481971740723 -74.501678466797 -290.324462890625 2.302871942520
-77.061660766602 -62.572086334229 -129.246017456055 1.630724668503
-158.963928222656 -69.891296386719 -221.219116210938 2.660699605942
-2.316656112671 -80.366638183594 -219.554367065430 1.702466249466
-146.947128295898 -90.062042236328 -288.317260742188 4.891716957092
-171.265853881836 -68.972312927246 -260.439147949219 3.478253841400
72.250946044922 -64.296226501465 -104.629226684570 1.541346073151
86.403633117676 -70.208145141602 -209.820220947266 2.882136583328
24.012008666992 -61.878273010254 -136.287780761719 2.432039260864
-153.303161621094 -65.731796264648 -202.867370605469 2.756347417831
22.923833847046 -67.876510620117 -162.128677368164 1.177683472633
-47.576400756836 -82.030128479004 -189.692382812500 4.163400173187
-47.183780670166 -70.956314086914 -137.228424072266 1.413017392159
-14.053960800171 -68.482154846191 -210.072463989258 1.297909498215
-73.963211059570 -74.841949462891 -257.516265869141 3.322399139404
-157.503463745117 -72.367080688477 -203.212951660156 3.109138250351
-149.961898803711 -72.366569519043 -306.321533203125 4.673864841461
-105.452621459961 -73.743606567383 -290.887756347656 1.143136262894
7.284095764160 -75.612808227539 -243.538467407227 1.025409221649
-154.728027343750 -68.034904479980 -222.158386230469 2.193559169769
-62.388866424561 -63.192481994629 -90.049880981445 2.304130077362
-25.646898269653 -79.095970153809 -199.383026123047 3.720699548721
87.694374084473 -58.782539367676 -111.908607482910 3.480075120926
-123.288673400879 -73.352912902832 -205.941650390625 2.944276809692
-141.697921752930 -77.039154052734 -199.539932250977 1.964872598648
-27.403671264648 -77.239044189453 -175.330169677734 1.538918256760
-62.677581787109 -82.128295898438 -93.004814147949 3.781115055084
-158.559860229492 -72.590682983398 -217.155181884766 3.284325361252
8.223875045776 -70.956802368164 -242.708221435547 0.427665084600
-78.897056579590 -61.509498596191 -126.050437927246 1.133418679237
-70.689857482910 -64.101509094238 -107.363395690918 2.021800994873
-52.356346130371 -77.628890991211 -292.869476318359 3.587962150574
-148.404373168945 -66.504035949707 -227.172576904297 2.112449407578
-146.198074340820 -61.382793426514 -199.282409667969 2.055768966675
97.729072570801 -72.736686706543 -204.425949096680 2.118285417557
19.843362808228 -66.601211547852 -180.129943847656 0.408463418484
115.688667297363 -67.621726989746 -132.093902587891 1.817417860031
21.742238998413 -64.200263977051 -23.309146881104 1.646944403648
95.992149353027 -67.271476745605 -103.921318054199 1.978370547295
-140.531814575195 -59.839340209961 -204.801162719727 2.758639097214
-22.828615188599 -72.164779663086 -214.270492553711 2.623305797577
-30.297885894775 -82.191673278809 -191.513656616211 1.350040555000
-74.585273742676 -61.202152252197 -134.409973144531 4.121256828308
53.293552398682 -75.259757995605 -100.618232727051 2.347722530365
-7.393918991089 -83.204902648926 -273.520904541016 3.319110631943
-61.599987030029 -68.984512329102 -56.882450103760 6.960351943970
-43.870109558105 -69.422996520996 -147.297088623047 1.256473541260
-155.638610839844 -67.152549743652 -291.552368164063 2.434071540833
-3.965099096298 -81.480346679688 -223.866348266602 2.592758655548
-56.077991485596 -87.883773803711 -204.593887329102 2.260612726212
-47.189628601074 -71.381690979004 -144.819305419922 0.879016160965
102.687126159668 -62.660507202148 -98.769332885742 1.769855618477
23.900058746338 -71.065849304199 -192.877105712891 1.208766341209
106.975784301758 -70.500038146973 -120.553230285645 2.063816070557
-145.286712646484 -62.782024383545 -216.871429443359 2.135870933533
-73.288757324219 -68.445114135742 -100.136871337891 1.427999854088
-10.320533752441 -76.087615966797 -234.383682250977 1.922162771225
-134.241455078125 -66.796386718750 -264.425628662109 1.267127633095
-55.194339752197 -62.758182525635 -138.965682983398 0.481857180595
-29.145315170288 -70.803642272949 -187.860458374023 2.528504133224
102.126533508301 -60.904445648193 -100.642677307129 1.712968230247
-147.297454833984 -82.020881652832 -204.960494995117 1.279484868050
59.781120300293 -70.807861328125 -239.832336425781 2.106868743896
19.559331893921 -70.376136779785 -178.733261108398 1.354096412659
-147.490142822266 -69.113304138184 -258.615875244141 0.379991948605
12.115238189697 -61.656173706055 -242.705566406250 1.062518954277
-78.389266967773 -66.957901000977 -119.156814575195 0.790178894997
-133.379867553711 -72.554794311523 -293.334960937500 1.491411685944
-142.698196411133 -80.938140869141 -291.443145751953 2.141971826553
-90.585662841797 -69.024749755859 -66.949035644531 1.818658709526
53.383922576904 -71.497100830078 -94.326087951660 2.157859802246
-23.193859100342 -80.371368408203 -222.516036987305 2.419154405594
-46.003036499023 -80.304061889648 -247.489181518555 2.845629215240
-33.350151062012 -63.365982055664 -80.847854614258 4.464932918549
3.128545045853 -66.811302185059 -274.775054931641 3.563891172409
51.445537567139 -67.626441955566 -108.359657287598 0.700614452362
-28.789327621460 -82.058624267578 -179.789688110352 2.708406209946
-34.468528747559 -69.961105346680 -58.348167419434 4.035769939423
22.809846878052 -70.411750793457 -178.550308227539 1.227715015411
-27.973697662354 -74.059608459473 -180.982788085938 2.693086862564
15.239789962769 -84.772026062012 -240.229187011719 2.918885469437
20.402839660645 -55.556884765625 -33.077102661133 2.846921682358
-153.360412597656 -80.653900146484 -231.041656494141 1.365922331810
44.810371398926 -67.700302124023 -23.991468429565 1.759617686272
20.753301620483 -71.485748291016 -189.335037231445 2.360461711884
-37.673473358154 -72.680671691895 -155.214553833008 1.603899002075
24.191308975220 -74.005020141602 -142.142105102539 0.310420721769
-134.266357421875 -72.563003540039 -282.638336181641 2.228718996048
35.178279876709 -66.166809082031 -120.895858764648 3.825401544571
99.067535400391 -67.564346313477 -97.379722595215 0.568835318089
-32.927913665771 -78.439994812012 -179.751342773438 1.050757050514
-139.728500366211 -78.118988037109 -200.159393310547 2.551848888397
-72.718231201172 -66.460060119629 -133.604507446289 0.965936183929
53.525333404541 -76.415328979492 -245.029724121094 4.166162967682
4.027387142181 -81.352569580078 -236.958053588867 2.535369396210
-147.528869628906 -77.823410034180 -217.332931518555 2.201784849167
-118.550148010254 -75.304229736328 -293.897766113281 2.459827184677
39.152790069580 -58.265731811523 -120.307678222656 2.514629840851
-60.732414245605 -75.183021545410 -71.378692626953 5.291574478149
-46.607704162598 -67.404617309570 -155.236923217773 2.599805355072
-124.921775817871 -74.688697814941 -200.717483520508 1.794403910637
-13.401172637939 -78.799797058105 -225.772888183594 1.851386666298
-59.052307128906 -76.516937255859 -174.835678100586 1.799938797951
-42.504631042480 -79.488044738770 -163.717147827148 0.705999195576
-113.390975952148 -75.149795532227 -293.770172119141 2.706303119659
-103.491043090820 -74.861045837402 -288.237304687500 0.649596631527
-25.623750686646 -79.102973937988 -192.706497192383 2.044941186905
-2.842644929886 -71.426658630371 -279.609497070313 4.690809249878
-92.323104858398 -69.938346862793 -289.413482666016 1.545003175735
7.046352863312 -75.918449401855 -157.888366699219 1.526125788689
-113.653282165527 -75.675148010254 -294.259033203125 3.118461370468
-53.358467102051 -60.490779876709 -78.557685852051 1.115443229675
-77.203422546387 -65.342864990234 -134.545364379883 1.780731916428
45.104248046875 -67.647613525391 -111.692306518555 1.324211001396
-86.123428344727 -59.561546325684 -117.286170959473 1.823164105415
41.532867431641 -55.319480895996 -41.564235687256 2.101139068604
-92.061378479004 -69.456069946289 -118.987281799316 1.985050201416
-20.136169433594 -73.673912048340 -191.479980468750 1.821169257164
46.291786193848 -74.200469970703 -104.230133056641 2.388629913330
-58.343296051025 -65.278175354004 -127.807754516602 2.141180515289
-147.345748901367 -75.725799560547 -210.875167846680 1.413200497627
55.762279510498 -66.134292602539 -103.598632812500 3.985320568085
-151.259841918945 -79.417274475098 -247.654800415039 0.791528522968
31.408203125000 -77.757781982422 -158.484497070313 2.416697502136
-39.317905426025 -63.128395080566 -81.403038024902 2.205538749695
-148.436706542969 -77.582015991211 -237.354705810547 2.415006160736
51.400711059570 -59.864250183105 -21.752380371094 1.906471371651
-155.637084960938 -77.973289489746 -301.260681152344 1.836413383484
28.248043060303 -70.971313476563 -257.375091552734 1.614076614380
-131.339172363281 -72.007110595703 -286.874511718750 2.996507167816
-39.289585113525 -67.723823547363 -168.122497558594 2.317740201950
112.456253051758 -70.502326965332 -127.593711853027 1.154138445854
-43.272586822510 -76.672546386719 -63.287841796875 1.638259768486
-150.262985229492 -81.860229492188 -253.554275512695 2.150498628616
32.140068054199 -69.296112060547 -41.460311889648 1.938566088676
-147.222671508789 -75.265144348145 -222.208526611328 1.281131029129
28.936408996582 -77.461860656738 -161.952758789063 2.006846904755
-25.337648391724 -75.601333618164 -221.057891845703 2.467069625854
-21.882347106934 -79.887054443359 -240.752197265625 0.778156995773
-2.365238904953 -75.639915466309 -232.276794433594 1.539951682091
24.043432235718 -67.827476501465 -25.184244155884 1.719914793968
-135.763748168945 -74.599800109863 -233.581924438477 2.398405313492
22.844051361084 -60.499923706055 -31.306417465210 1.473777055740
-80.365653991699 -57.876556396484 -124.378616333008 2.771057367325
9.779923439026 -67.290939331055 -244.734664916992 1.686226129532
24.564731597900 -75.881896972656 -183.222625732422 0.760164082050
-78.052642822266 -60.437488555908 -121.836639404297 0.957893610001
46.397941589355 -77.144302368164 -116.255447387695 1.593089699745
-164.150451660156 -73.573562622070 -215.442428588867 0.840271294117
108.971069335938 -73.989578247070 -116.251731872559 2.787549495697
108.680366516113 -66.905220031738 -116.198951721191 2.425390481949
-11.626329421997 -80.933044433594 -211.282394409180 1.117413043976
-81.409873962402 -77.746322631836 -91.570144653320 5.254018783569
4.741805076599 -65.465881347656 -258.955200195313 3.509275674820
-147.003692626953 -70.614601135254 -200.409011840820 1.342262268066
-50.434337615967 -74.726997375488 -149.880218505859 1.611188292503
-23.358663558960 -79.851821899414 -189.992599487305 1.573743700981
0.924848020077 -66.034149169922 -232.435592651367 1.743244409561
-29.754697799683 -76.864128112793 -192.607330322266 1.648721933365
-22.251829147339 -68.567626953125 -204.635986328125 1.523843050003
26.318576812744 -76.519142150879 -259.999481201172 3.816157102585
-145.066040039063 -78.503768920898 -246.084182739258 2.199053287506
-71.024459838867 -75.133041381836 -250.019775390625 1.220209121704
-23.774360656738 -78.921073913574 -181.070434570313 1.066013097763
-95.327293395996 -70.811271667480 -220.966094970703 1.835739016533
-144.773788452148 -79.617843627930 -284.190917968750 1.810103297234
65.399887084961 -64.122703552246 -98.135940551758 2.585025548935
-97.390480041504 -56.850666046143 -75.776535034180 1.923718094826
-149.190811157227 -76.966873168945 -257.712829589844 1.088168144226
53.094398498535 -71.244796752930 -101.873374938965 1.379258036613
-33.377937316895 -73.226440429688 -65.749435424805 5.001728534698
-140.907302856445 -64.332206726074 -178.334991455078 2.163550853729
55.916782379150 -66.835960388184 -102.594024658203 3.060717344284
101.345054626465 -74.913391113281 -203.654525756836 2.261422634125
108.298439025879 -73.110649108887 -175.842208862305 2.726830005646
-102.434066772461 -64.867393493652 -156.465301513672 0.915147185326
-75.335571289063 -70.965492248535 -138.641769409180 1.566127419472
-84.769470214844 -60.995971679688 -117.320968627930 1.857594370842
-96.601219177246 -69.891227722168 -153.639739990234 2.396675586700
39.289093017578 -68.286895751953 -38.942268371582 2.763222455978
20.764225006104 -70.357307434082 -196.672500610352 0.786057889462
109.241821289063 -72.345298767090 -158.740005493164 1.202646374702
-57.137840270996 -76.498725891113 -68.116836547852 3.575539827347
-120.273803710938 -69.509223937988 -201.165969848633 2.566582202911
28.786373138428 -69.460678100586 -164.868438720703 2.927984952927
-53.651176452637 -83.393066406250 -87.939231872559 2.197183847427
-33.310230255127 -81.897041320801 -241.867492675781 1.693281650543
-28.361967086792 -85.470916748047 -190.022155761719 2.801382541656
75.316047668457 -61.704189300537 -64.388999938965 3.950089216232
-83.370635986328 -79.818435668945 -96.810028076172 2.327492475510
-49.456985473633 -74.450942993164 -287.380645751953 2.575407266617
42.670608520508 -70.607452392578 -103.063674926758 1.343909859657
-76.467147827148 -58.020099639893 -107.364021301270 2.224294424057
-163.867736816406 -79.516815185547 -288.334320068359 4.721434116364
-6.762813091278 -76.233940124512 -212.896820068359 0.966964304447
28.021291732788 -63.409126281738 -17.610412597656 2.897296667099
-59.965526580811 -81.482559204102 -179.408493041992 3.678671598434
-74.094230651855 -78.220069885254 -210.406295776367 2.051933526993
16.226337432861 -83.538757324219 -247.790542602539 0.257126331329
-11.171040534973 -77.601806640625 -232.617950439453 2.446218013763
-145.845321655273 -75.962135314941 -298.730041503906 2.070034503937
-84.619850158691 -60.017997741699 -107.981712341309 4.373877525330
-17.476163864136 -76.067451477051 -227.561187744141 2.173741817474
27.919054031372 -77.320999145508 -152.168319702148 1.519300460815
43.847877502441 -75.263977050781 -134.544494628906 3.695604801178
34.509826660156 -64.005973815918 -14.444965362549 2.194839477539
-77.229278564453 -70.231376647949 -57.200954437256 3.194203138351
-150.684783935547 -67.389907836914 -285.905059814453 1.458524823189
-70.953308105469 -83.450057983398 -212.921142578125 2.464893579483
-14.996687889099 -71.219902038574 -231.465240478516 1.609685182571
-29.174180984497 -69.456001281738 -58.235569000244 3.978420257568
96.779762268066 -73.032791137695 -201.343063354492 2.516782283783
-150.720642089844 -67.906044006348 -269.923828125000 2.503997802734
-82.362403869629 -59.160324096680 -49.950069427490 3.110590219498
-80.389457702637 -79.443473815918 -214.719528198242 1.110495686531
-153.822326660156 -65.174133300781 -256.111846923828 1.021150708199
-39.074542999268 -73.057273864746 -170.551635742188 1.874790668488
14.182567596436 -85.845687866211 -272.615814208984 3.996354818344
-75.943168640137 -64.919670104980 -125.734832763672 1.673290967941
50.768486022949 -63.801189422607 -247.926742553711 1.289633035660
-44.680404663086 -80.614959716797 -156.763824462891 2.626179695129
-46.238079071045 -73.530616760254 -149.898040771484 2.283489227295
-9.862238883972 -78.510917663574 -252.250656127930 1.852299571037
58.128131866455 -74.457756042480 -242.544464111328 1.185629606247
20.031362533569 -78.476524353027 -209.718444824219 3.569222927094
-150.176223754883 -87.817245483398 -264.958099365234 2.305590152740
9.387578964233 -82.577362060547 -247.048004150391 2.329659223557
17.144067764282 -84.889106750488 -262.062652587891 2.803695201874
-29.459671020508 -70.047760009766 -176.592895507813 1.247797489166
8.347406387329 -69.842597961426 -147.479980468750 2.662905454636
-136.996246337891 -74.903831481934 -201.604492187500 1.266217350960
-40.506084442139 -81.082054138184 -203.429855346680 2.376227140427
-47.612483978271 -69.193809509277 -133.469268798828 1.533302426338
43.613094329834 -74.342765808105 -123.277915954590 1.499262332916
33.473693847656 -74.948760986328 -124.974830627441 1.415821552277
7.419030189514 -64.708473205566 -242.166854858398 2.369257926941
-52.229175567627 -79.473457336426 -241.550292968750 2.894484519958
-159.194107055664 -68.842109680176 -205.722595214844 0.848397910595
-11.519991874695 -79.430656433105 -174.109146118164 2.317294836044
108.477508544922 -79.026268005371 -182.775253295898 3.507335424423
104.724693298340 -74.030570983887 -176.923080444336 1.503130793571
-7.105797767639 -74.125358581543 -206.063537597656 2.127708196640
19.416503906250 -77.025192260742 -169.803176879883 2.119091033936
-44.188652038574 -73.943664550781 -59.188190460205 2.820940017700
104.428077697754 -74.864784240723 -178.935333251953 2.542515754700
-66.752426147461 -80.921195983887 -286.696624755859 4.003578186035
-126.829139709473 -77.186241149902 -285.296447753906 1.135275721550
-76.654342651367 -61.363224029541 -105.824630737305 1.637216329575
2.497349977493 -79.714736938477 -222.671875000000 3.737876176834
-101.565032958984 -60.942771911621 -80.305702209473 2.509971618652
-78.680625915527 -80.466911315918 -83.578033447266 2.124213933945
28.005136489868 -66.328498840332 -262.542419433594 1.645726442337
23.417224884033 -65.271469116211 -143.462585449219 2.084945917130
23.891256332397 -67.454315185547 -36.939411163330 2.755700349808
-159.390151977539 -73.484916687012 -261.699951171875 0.946084260941
70.397888183594 -66.366867065430 -77.641326904297 3.673401117325
-29.226428985596 -71.040229797363 -77.564895629883 1.042788505554
-21.567520141602 -82.340034484863 -190.367858886719 2.971557855606
42.056427001953 -80.446197509766 -123.607154846191 1.948587656021
-9.690925598145 -55.551670074463 -56.882251739502 2.287394046783
-49.982715606689 -74.377799987793 -87.545356750488 2.043932437897
26.761333465576 -69.109649658203 -266.834197998047 2.470757484436
23.830781936646 -71.435310363770 -152.477691650391 1.330038905144
27.298696517944 -72.542396545410 -138.308609008789 1.493110775948
-101.652030944824 -73.721420288086 -223.738891601563 0.893320322037
17.027610778809 -82.741058349609 -237.246749877930 1.436951994896
100.474990844727 -67.556976318359 -71.998970031738 1.582353234291
8.336025238037 -72.339874267578 -235.578170776367 1.743739962578
-7.164045810699 -67.910697937012 -211.324050903320 2.085292100906
100.684394836426 -71.959793090820 -199.321777343750 0.773634850979
-59.605690002441 -66.621215820313 -90.140991210938 2.429335832596
102.370689392090 -62.128093719482 -102.487426757813 2.086876392365
-156.871810913086 -73.171569824219 -228.884780883789 2.228870153427
20.199724197388 -66.785537719727 -28.053829193115 3.392788648605
12.645354270935 -69.368614196777 -288.002502441406 1.813731789589
-145.360580444336 -77.661880493164 -297.237304687500 2.462216615677
-143.801940917969 -74.924301147461 -227.961914062500 2.539811134338
-84.929016113281 -60.249198913574 -52.160747528076 3.318736314774
62.384063720703 -62.655998229980 -93.088027954102 0.991810142994
-111.260444641113 -76.685874938965 -287.785583496094 3.035459756851
-144.963943481445 -80.054031372070 -211.926040649414 1.735608339310
-70.812332153320 -83.642623901367 -210.517166137695 1.546638965607
24.753236770630 -75.580337524414 -140.869140625000 2.354188442230
40.317005157471 -64.742095947266 -23.324295043945 2.782059669495
-7.992224216461 -77.145690917969 -211.523040771484 2.389830350876
-29.127866744995 -81.218231201172 -180.774917602539 2.871422290802
-82.005401611328 -72.858718872070 -109.456382751465 3.151212692261
-158.608398437500 -73.124801635742 -286.523681640625 2.381354331970
-149.262191772461 -68.688835144043 -259.061218261719 0.986076116562
57.714580535889 -78.476760864258 -248.674682617188 7.101104736328
-40.107570648193 -77.982681274414 -246.039627075195 0.820808887482
-22.431589126587 -79.883178710938 -221.739120483398 1.364931225777
-55.816898345947 -74.742271423340 -141.887390136719 2.717154264450
-153.636932373047 -76.176612854004 -196.725311279297 1.209131240845
-148.358322143555 -71.942008972168 -295.757415771484 2.182685136795
