-28.374975204468 -73.149856567383 -191.038238525391 1.313296079636
103.336128234863 -65.364807128906 -89.050674438477 2.760924577713
-71.974258422852 -79.503440856934 -248.473251342773 3.797290086746
10.296331405640 -83.029640197754 -228.619354248047 2.372661828995
-166.859420776367 -66.305740356445 -209.743606567383 2.714484453201
-80.278907775879 -68.732192993164 -132.024307250977 2.085773944855
82.832855224609 -75.203536987305 -223.381088256836 0.912707328796
-54.019920349121 -77.472023010254 -191.590835571289 2.219155550003
115.468070983887 -75.530815124512 -124.884056091309 2.364532709122
-75.183006286621 -68.212356567383 -153.033798217773 3.444614887238
-65.959770202637 -77.954376220703 -177.850143432617 4.968036651611
22.295063018799 -65.918869018555 -163.721435546875 2.961936473846
-18.942413330078 -70.298667907715 -212.895721435547 2.328868865967
68.427848815918 -79.004737854004 -233.519729614258 3.441146612167
-143.062026977539 -65.615516662598 -221.037536621094 2.462930679321
-16.216859817505 -76.892501831055 -202.220779418945 1.977370977402
15.294537544250 -73.523956298828 -175.936248779297 2.442667722702
-157.313507080078 -75.951850891113 -199.730453491211 3.025935649872
11.486900329590 -85.349029541016 -245.047470092773 2.220373868942
33.598323822021 -59.309352874756 -121.897300720215 2.213510751724
-96.126899719238 -73.388427734375 -249.780517578125 2.939062356949
101.481582641602 -66.083320617676 -93.741958618164 2.815932273865
32.805561065674 -54.859954833984 -39.223228454590 2.742981433868
-126.812080383301 -65.713867187500 -198.479522705078 1.969408273697
1.086907029152 -71.756301879883 -289.767761230469 2.964786529541
16.380819320679 -70.725708007813 -184.800964355469 1.914632678032
-161.378341674805 -67.748840332031 -195.623977661133 1.616464138031
-92.872940063477 -65.125732421875 -63.441356658936 3.756139516830
-25.960399627686 -83.637123107910 -180.097915649414 3.642003297806
98.463134765625 -78.439498901367 -207.414749145508 2.793108940125
-148.541625976563 -75.219947814941 -264.021514892578 3.077426910400
8.985296249390 -92.578491210938 -255.748580932617 7.316529750824
-99.507423400879 -61.463485717773 -113.318618774414 2.332426309586
-66.702140808105 -75.377006530762 -154.671569824219 1.699658274651
22.357826232910 -73.502334594727 -140.361923217773 2.488022089005
-163.709716796875 -78.069717407227 -258.672241210938 4.491753578186
14.078561782837 -73.779045104980 -232.940582275391 2.441690683365
17.418191909790 -65.094459533691 -251.381698608398 5.037659645081
-67.481788635254 -60.459251403809 -91.255516052246 2.555027246475
29.971645355225 -80.055885314941 -139.494613647461 1.426279783249
-48.106983184814 -69.602195739746 -158.104431152344 0.894967854023
42.688575744629 -74.583854675293 -123.155586242676 0.901599884033
-64.902465820313 -69.930000305176 -137.559371948242 3.307849884033
-148.593673706055 -77.840469360352 -259.479858398438 2.622808456421
15.234020233154 -76.387954711914 -190.778991699219 1.101810693741
75.695663452148 -74.254760742188 -95.553298950195 1.858227372169
-34.961494445801 -71.724563598633 -161.808151245117 1.401651144028
-160.935195922852 -76.874443054199 -289.221588134766 1.723742485046
-17.404708862305 -82.937660217285 -261.388336181641 6.616581916809
-22.461677551270 -69.525299072266 -204.755416870117 1.032381653786
-124.903190612793 -79.824165344238 -287.031402587891 2.789241790771
-87.754486083984 -59.311626434326 -119.890457153320 1.202235817909
-23.052413940430 -71.509124755859 -200.988830566406 2.103823900223
-50.887607574463 -67.168220520020 -136.314926147461 1.569493055344
8.949771881104 -70.984626770020 -286.939849853516 3.059195518494
-43.673538208008 -72.018371582031 -81.132720947266 2.048452854156
57.429241180420 -75.731208801270 -238.981567382813 3.050181865692
-152.947433471680 -60.630805969238 -195.671783447266 1.249761939049
-50.762935638428 -82.206657409668 -189.627731323242 4.030392169952
9.938626289368 -68.956214904785 -149.743804931641 1.197122454643
-134.950134277344 -66.713539123535 -225.158325195313 1.051583647728
-18.742256164551 -74.030975341797 -211.516387939453 0.707266509533
-130.778594970703 -77.153160095215 -261.151977539063 1.980609893799
114.200996398926 -70.920112609863 -120.477020263672 1.830445766449
21.522726058960 -75.143051147461 -185.676391601563 2.399277210236
86.392623901367 -78.284469604492 -91.404495239258 0.883001565933
-48.299819946289 -79.056808471680 -243.340087890625 1.102806568146
5.248020172119 -69.902694702148 -157.154617309570 0.589643597603
-81.596260070801 -69.941696166992 -123.164421081543 1.122312903404
100.470283508301 -60.883201599121 -72.866035461426 3.159388303757
-10.257939338684 -75.485946655273 -284.659118652344 2.103611707687
-69.534683227539 -73.555854797363 -68.238563537598 5.946780681610
12.472783088684 -85.208793640137 -237.678176879883 2.049041032791
28.740989685059 -69.916282653809 -167.025146484375 1.598053097725
26.544618606567 -66.928871154785 -30.548215866089 2.365013122559
37.460700988770 -75.380981445313 -107.065841674805 2.890676498413
97.930686950684 -69.709838867188 -81.000511169434 3.449733495712
-143.365783691406 -74.096305847168 -196.346145629883 1.861358284950
-66.346336364746 -56.244949340820 -84.106643676758 5.857254028320
42.774353027344 -63.768241882324 -13.050099372864 1.585935235023
-24.656930923462 -81.125488281250 -192.567993164063 2.334381341934
-21.275943756104 -83.364830017090 -254.299942016602 9.965881347656
-160.845962524414 -75.946388244629 -300.120422363281 5.761158466339
3.867743015289 -77.866653442383 -244.722915649414 1.593106508255
13.738525390625 -81.697425842285 -211.481338500977 1.736182212830
-73.080451965332 -66.471649169922 -135.963729858398 0.666069686413
47.756408691406 -68.716033935547 -96.181877136230 1.176731348038
-26.149816513062 -72.951240539551 -237.476776123047 2.102921009064
-55.930580139160 -61.097454071045 -44.685417175293 2.356103181839
-62.593940734863 -66.109008789063 -125.322830200195 1.360875725746
-68.667427062988 -76.994407653809 -68.579307556152 3.146917581558
45.483612060547 -64.371978759766 -25.239103317261 2.853739261627
-69.401985168457 -59.302024841309 -110.811576843262 1.458617210388
-149.334594726563 -63.465885162354 -198.426513671875 1.856554269791
-112.251853942871 -70.559165954590 -180.163513183594 3.122956991196
-146.520950317383 -64.216140747070 -186.483459472656 2.372550725937
-8.180717468262 -65.669090270996 -240.209915161133 1.357753515244
-130.296203613281 -65.609222412109 -199.480621337891 2.661905288696
-88.556289672852 -67.527351379395 -116.358474731445 0.953382194042
27.685304641724 -67.076263427734 -150.900878906250 1.424564957619
-17.564220428467 -81.256317138672 -292.226135253906 3.676484346390
-151.498321533203 -86.105880737305 -219.377182006836 4.587406635284
108.858596801758 -75.937858581543 -120.167160034180 1.291276216507
-149.166397094727 -83.383720397949 -218.688369750977 1.817887306213
15.955192565918 -71.204917907715 -281.232421875000 1.821928024292
-19.596351623535 -68.769271850586 -204.515594482422 2.025105476379
-86.421157836914 -70.278907775879 -65.273773193359 1.999118804932
100.871650695801 -68.704627990723 -101.800537109375 1.215604424477
-67.716552734375 -84.185493469238 -210.434341430664 0.904251575470
-20.069789886475 -75.876960754395 -222.091094970703 0.851036787033
-169.660751342773 -73.394538879395 -223.267303466797 3.242598533630
2.753712892532 -73.883293151855 -215.077636718750 3.573572158813
-67.235015869141 -79.261169433594 -167.848159790039 1.366122841835
-35.749389648438 -58.997306823730 -49.943660736084 3.935264825821
-70.404174804688 -71.399360656738 -143.276473999023 1.903553485870
24.393529891968 -67.787689208984 -153.569290161133 1.300271630287
-23.496448516846 -75.103691101074 -211.266769409180 1.593636751175
9.193026542664 -69.212692260742 -210.793365478516 1.069438695908
-112.280639648438 -64.304595947266 -175.497970581055 2.795518875122
-135.266387939453 -73.900497436523 -193.917663574219 3.175723552704
-60.714210510254 -82.153205871582 -81.328346252441 2.293755054474
-59.485080718994 -73.587165832520 -131.340148925781 2.479799032211
89.130973815918 -73.207344055176 -209.974548339844 0.874919533730
2.604855060577 -83.640281677246 -221.780548095703 5.002886295319
-78.305107116699 -80.944381713867 -85.732398986816 3.780684232712
-24.364377975464 -78.650070190430 -177.983322143555 2.421537399292
84.465461730957 -72.840545654297 -76.636161804199 1.269860863686
-80.445770263672 -67.969200134277 -96.426033020020 3.439711570740
-118.111984252930 -71.143730163574 -192.808486938477 2.158190250397
-2.300746917725 -69.352256774902 -234.114257812500 1.633649468422
100.170600891113 -61.621295928955 -103.882354736328 1.806324601173
23.826082229614 -68.969581604004 -153.943222045898 0.600531578064
-58.615756988525 -66.648757934570 -45.556209564209 2.716805219650
-20.245647430420 -81.111824035645 -285.566040039063 3.884851694107
-152.635437011719 -83.225158691406 -299.284576416016 1.189208745956
-157.360137939453 -67.845283508301 -261.685485839844 2.032846212387
24.435583114624 -71.328987121582 -146.448715209961 1.710495114326
-59.059799194336 -59.350513458252 -116.234764099121 1.665201783180
90.777137756348 -79.932662963867 -209.867767333984 3.760892868042
-62.735370635986 -62.514110565186 -90.017539978027 2.477937221527
-66.490715026855 -65.648002624512 -46.921977996826 2.822469711304
-53.345291137695 -80.409904479980 -83.392082214355 4.638858318329
106.801055908203 -67.617126464844 -120.461883544922 1.531050801277
93.414337158203 -58.998561859131 -66.618759155273 4.434812068939
-51.935470581055 -72.120521545410 -140.055313110352 2.201205730438
-81.127861022949 -75.803741455078 -207.925796508789 3.009058952332
-172.782684326172 -76.305953979492 -278.428894042969 5.814632892609
28.246973037720 -58.328994750977 -36.036869049072 2.899739980698
-41.351608276367 -74.734428405762 -179.862106323242 2.674321889877
-79.927711486816 -70.670532226563 -136.289978027344 2.384027719498
-116.902671813965 -75.271034240723 -289.270782470703 1.402899384499
-52.672382354736 -73.230415344238 -153.884963989258 1.653416395187
-61.919967651367 -78.273071289063 -167.695709228516 0.955687642097
-132.301605224609 -73.297599792480 -281.311096191406 3.365230560303
-20.017715454102 -73.318244934082 -228.310928344727 2.723450899124
26.378051757813 -62.054180145264 -10.887264251709 3.590227127075
-155.208312988281 -72.806938171387 -286.838470458984 2.737583160400
-150.015213012695 -77.508407592773 -280.979522705078 2.826479196548
-62.435760498047 -58.431308746338 -119.027259826660 2.825466156006
17.955730438232 -77.840766906738 -188.145156860352 1.199093222618
-72.205947875977 -64.999053955078 -45.674816131592 0.782514035702
-42.764984130859 -70.976974487305 -55.306034088135 4.060625076294
52.724712371826 -58.018287658691 -90.940711975098 2.747663497925
-59.385211944580 -65.162780761719 -143.598464965820 2.099932909012
29.691640853882 -62.374973297119 -37.419311523438 1.806822657585
-92.010581970215 -73.765144348145 -213.499542236328 0.633815050125
99.141227722168 -70.650062561035 -78.466499328613 2.306120395660
-47.511768341064 -61.607250213623 -82.653518676758 0.824450850487
-8.230972290039 -84.074012756348 -271.561798095703 4.061881542206
19.047100067139 -72.604408264160 -164.978942871094 1.126534223557
37.282550811768 -58.036724090576 -16.847593307495 4.303195476532
112.015235900879 -78.129348754883 -170.167953491211 2.042512893677
75.882270812988 -75.723953247070 -93.598907470703 0.632808804512
7.576508998871 -84.402145385742 -214.766204833984 4.865113258362
-72.797225952148 -60.478118896484 -44.980964660645 2.421009302139
-132.539886474609 -77.391838073730 -227.546936035156 0.197939828038
-28.147502899170 -70.853797912598 -196.583206176758 1.801116108894
112.779144287109 -70.011421203613 -147.115844726563 1.771081209183
-154.729965209961 -80.719429016113 -194.260818481445 4.013380050659
-19.167242050171 -78.187545776367 -218.116195678711 1.729604840279
-41.157928466797 -75.561874389648 -212.043060302734 5.391372203827
-144.537765502930 -78.518432617188 -285.408355712891 1.840983629227
62.780773162842 -61.663230895996 -68.383506774902 3.673925161362
-146.495559692383 -86.009956359863 -251.153686523438 1.773118376732
16.113786697388 -75.764389038086 -172.991149902344 2.726112365723
-27.259149551392 -67.451644897461 -183.936370849609 1.233750343323
-59.526588439941 -65.821495056152 -87.969718933105 0.631549417973
-42.732788085938 -75.953598022461 -65.314254760742 3.092895030975
15.880840301514 -75.565238952637 -217.659149169922 2.072047948837
-84.359634399414 -70.337074279785 -101.159088134766 4.188703060150
10.404541015625 -83.953872680664 -271.521972656250 3.200325250626
-130.314743041992 -71.019645690918 -220.026184082031 4.546294689178
-107.245971679688 -75.372306823730 -254.758880615234 3.180423974991
18.294364929199 -71.079017639160 -163.993988037109 1.716696739197
22.586084365845 -69.887039184570 -253.808670043945 1.527415990829
21.886524200439 -71.673049926758 -152.810424804688 1.652130961418
7.029181003571 -81.217094421387 -226.315277099609 3.028049707413
-37.330505371094 -76.086257934570 -80.504669189453 1.743589639664
-147.396713256836 -78.356178283691 -288.134613037109 2.264703512192
51.927803039551 -62.816303253174 -89.816169738770 2.491302728653
8.022581100464 -72.466949462891 -208.356689453125 0.713007748127
-45.063388824463 -78.251426696777 -152.731246948242 1.864479184151
91.668235778809 -73.858276367188 -95.913612365723 1.174987792969
-0.782697975636 -71.953239440918 -224.963272094727 0.868770241737
29.038049697876 -74.985771179199 -126.493408203125 2.238017320633
-60.211463928223 -70.849433898926 -54.091274261475 5.029805183411
-3.251362085342 -74.822357177734 -235.542556762695 2.164186000824
23.286392211914 -70.525878906250 -163.303512573242 2.053984165192
-159.957107543945 -74.847709655762 -268.343841552734 3.503834962845
-156.652526855469 -87.986938476563 -276.906829833984 5.735342502594
-12.530616760254 -57.168174743652 -61.401287078857 3.372724294662
110.001159667969 -69.503036499023 -110.317535400391 2.342627048492
-31.181097030640 -79.958786010742 -237.530929565430 1.633254647255
-151.605331420898 -85.948554992676 -227.507690429688 1.869799733162
109.673469543457 -73.465438842773 -142.012069702148 2.290097236633
2.358726024628 -79.197265625000 -226.865127563477 2.429678916931
20.891599655151 -69.188026428223 -163.191329956055 2.260545492172
-106.246345520020 -76.200210571289 -257.410461425781 1.233041405678
28.476793289185 -60.288722991943 -34.807678222656 2.262910366058
84.618850708008 -76.769828796387 -214.587768554688 1.791065931320
-135.173385620117 -78.263481140137 -227.893264770508 2.818809986115
-85.486831665039 -60.213085174561 -44.826992034912 3.436462640762
28.383779525757 -57.267826080322 -35.755252838135 2.121956110001
7.680745124817 -85.141311645508 -277.907012939453 2.945379495621
-115.562576293945 -64.255393981934 -196.495407104492 0.639797031879
-5.353397846222 -82.819366455078 -232.944946289063 3.782059431076
-53.343925476074 -74.352653503418 -287.284851074219 1.549552917480
-88.591232299805 -75.525062561035 -246.523696899414 5.259356021881
109.190376281738 -74.585952758789 -132.068618774414 2.185221910477
-157.597457885742 -78.116691589355 -292.302276611328 2.948705673218
-158.811889648438 -75.929878234863 -284.135833740234 3.698131322861
62.847141265869 -75.607582092285 -235.187545776367 4.487552165985
2.953321933746 -83.315856933594 -236.939727783203 3.876901388168
38.162223815918 -74.915672302246 -127.845474243164 2.479374885559
36.367950439453 -77.687988281250 -252.010742187500 6.174973487854
33.574901580811 -63.265048980713 -10.807291030884 2.291758537292
36.512687683105 -70.833389282227 -112.521621704102 1.502388477325
15.382615089417 -77.600212097168 -206.299743652344 1.499716997147
6.000085830688 -73.585227966309 -158.962478637695 1.751506209373
66.720932006836 -64.053726196289 -69.978919982910 1.427835106850
89.847557067871 -73.675338745117 -94.582054138184 2.179889202118
1.711267948151 -77.904434204102 -156.782211303711 2.901601552963
18.872123718262 -77.616676330566 -192.014053344727 2.011332035065
17.760972976685 -77.664695739746 -253.322647094727 1.619661211967
-51.217815399170 -78.085472106934 -84.856590270996 2.987653732300
-43.047431945801 -72.430107116699 -81.428245544434 1.647209167480
31.183998107910 -74.169052124023 -154.334365844727 1.698018312454
-32.399330139160 -82.190940856934 -171.815277099609 1.678698182106
-150.196075439453 -82.332862854004 -266.384918212891 3.049347877502
-140.116394042969 -87.355850219727 -222.635559082031 4.979186058044
-80.204475402832 -84.659172058105 -98.893051147461 2.037875652313
-22.379257202148 -75.175994873047 -212.658020019531 2.192920207977
-16.902669906616 -81.764282226563 -213.944595336914 3.786909103394
-108.492446899414 -79.314964294434 -290.123077392578 4.336313247681
-83.724403381348 -62.574317932129 -124.250663757324 2.035107374191
-153.849609375000 -62.191741943359 -217.347885131836 4.887536525726
-150.076507568359 -68.950416564941 -187.311462402344 0.986858248711
-33.918594360352 -79.841712951660 -189.674575805664 2.274380445480
69.832664489746 -74.630363464355 -236.976852416992 1.438572168350
51.875881195068 -70.530319213867 -249.597869873047 1.873407959938
-17.735153198242 -78.456779479980 -225.025588989258 1.984198927879
-100.566009521484 -76.957870483398 -257.904541015625 3.051106691360
65.685081481934 -75.072151184082 -235.052017211914 2.397753238678
-6.362568855286 -70.353950500488 -228.409576416016 1.607316970825
90.435142517090 -60.556442260742 -60.820133209229 2.611886739731
15.176399230957 -67.086212158203 -176.565017700195 2.933458089828
0.041476000100 -63.017562866211 -240.725051879883 2.158593416214
-144.033325195313 -87.225318908691 -281.984558105469 3.037998437881
-149.550918579102 -81.859085083008 -254.404052734375 2.093758583069
16.235069274902 -70.830818176270 -187.176193237305 1.022930622101
34.034812927246 -68.177406311035 -132.707244873047 1.738469004631
-20.900634765625 -76.078826904297 -288.720916748047 2.150070905685
-79.353424072266 -62.544403076172 -126.984756469727 0.357084840536
-162.461349487305 -70.424468994141 -217.822998046875 3.547048807144
-5.837066173553 -81.362655639648 -218.090652465820 2.017659425735
-151.374008178711 -91.222732543945 -284.889617919922 5.527474403381
-175.267547607422 -69.813858032227 -256.887329101563 7.686276435852
70.259864807129 -64.506980895996 -104.285896301270 1.654343366623
83.031341552734 -71.389465332031 -209.594589233398 5.330772876740
21.622179031372 -62.221122741699 -135.338394165039 1.065666079521
-156.551147460938 -66.120582580566 -199.583526611328 2.970477104187
20.181751251221 -68.443656921387 -161.108917236328 2.081791162491
-50.710895538330 -82.624633789063 -187.632522583008 2.935127735138
-49.606193542480 -71.089828491211 -135.278152465820 0.421827912331
-17.415611267090 -69.359252929688 -208.563446044922 1.207210302353
-77.952835083008 -75.954360961914 -255.170669555664 2.414925813675
-160.775054931641 -72.745811462402 -199.815979003906 2.804562091827
-154.569763183594 -73.677597045898 -303.009429931641 2.172859668732
-109.868530273438 -75.054275512695 -288.140716552734 1.900107979774
3.466123104095 -76.849838256836 -242.238037109375 1.581383824348
-158.232543945313 -68.589370727539 -218.833358764648 2.820574760437
-64.176010131836 -62.863887786865 -87.977607727051 2.040684461594
-28.900234222412 -79.842971801758 -197.631454467773 4.649855613708
85.623832702637 -59.104843139648 -111.812850952148 3.368895530701
-126.601509094238 -73.860061645508 -202.977920532227 2.426779031754
-144.937042236328 -77.433525085449 -196.306365966797 2.269712448120
-30.339828491211 -77.768646240234 -173.575286865234 2.777391910553
-64.558593750000 -81.824066162109 -90.760726928711 5.108263969421
-162.012619018555 -73.089134216309 -213.740875244141 2.414094209671
4.430247783661 -72.189567565918 -241.461273193359 1.310784935951
-81.144142150879 -61.448078155518 -123.775260925293 0.311273664236
-72.703216552734 -63.900222778320 -105.173645019531 2.791402578354
-56.814002990723 -79.118881225586 -290.774169921875 3.273428201675
-151.969909667969 -67.122077941895 -223.942230224609 1.858094334602
-149.387481689453 -61.761833190918 -196.129364013672 0.934996604919
94.418235778809 -73.904884338379 -204.324981689453 2.674035549164
16.872117996216 -67.317764282227 -179.079452514648 2.533388614655
113.328231811523 -68.207077026367 -132.279266357422 2.483336925507
20.809263229370 -63.539768218994 -22.323701858521 0.851048648357
93.999404907227 -67.548294067383 -103.858619689941 1.880916714668
-143.788665771484 -60.284404754639 -201.734359741211 1.852393984795
-26.254688262939 -73.051963806152 -212.614913940430 2.135706424713
-33.457969665527 -82.854949951172 -189.675506591797 2.319450855255
-76.940124511719 -61.227622985840 -132.192230224609 2.824357509613
51.323894500732 -75.376815795898 -99.933219909668 2.274908781052
-11.621276855469 -84.661216735840 -271.959808349609 5.789371490479
-62.974575042725 -68.365577697754 -54.773143768311 6.086108684540
-46.418735504150 -69.655479431152 -145.402008056641 1.519070506096
-160.039352416992 -68.316230773926 -288.214874267578 1.957222700119
-7.544490814209 -82.509307861328 -222.370941162109 3.670372247696
-59.421958923340 -88.583496093750 -202.370452880859 4.301045894623
-49.711620330811 -71.582107543945 -142.864257812500 2.630216836929
100.774070739746 -62.912517547607 -98.834655761719 1.241637110710
20.750223159790 -71.907005310059 -191.837951660156 2.707766056061
104.757156372070 -70.956909179688 -120.601882934570 1.877623677254
-148.708145141602 -63.318897247314 -213.715621948242 2.665112495422
-75.221031188965 -68.171989440918 -97.875938415527 2.079153537750
-14.019765853882 -77.190170288086 -232.852600097656 3.747128963470
-138.291656494141 -67.786155700684 -261.371215820313 2.130989074707
-57.614475250244 -62.882926940918 -136.984268188477 1.269058465958
-32.224731445313 -71.438713073730 -186.138519287109 1.472175359726
100.194419860840 -61.171344757080 -100.716072082520 3.205348968506
-150.620925903320 -82.445747375488 -201.609756469727 0.617070376873
56.020648956299 -72.172592163086 -239.253555297852 3.001156568527
16.595117568970 -71.079345703125 -177.645843505859 1.802448511124
-151.470703125000 -70.011306762695 -255.370376586914 1.436632514000
8.348619461060 -62.901191711426 -241.591308593750 2.236720085144
-80.563095092773 -66.837005615234 -116.840789794922 2.947691440582
-137.821517944336 -73.801887512207 -290.237152099609 2.212504625320
-147.139144897461 -82.139747619629 -288.150848388672 1.849099159241
-92.088218688965 -68.406150817871 -64.463439941406 2.743479013443
51.506813049316 -71.559104919434 -93.676338195801 0.615744292736
-26.750810623169 -81.329803466797 -220.782043457031 4.455128192902
-49.881275177002 -81.413124084473 -245.457870483398 2.061679363251
-35.021160125732 -63.044834136963 -79.150558471680 3.324556827545
-1.067836999893 -68.311492919922 -273.495025634766 2.787114143372
49.398178100586 -67.806465148926 -107.717414855957 1.855681061745
-31.797285079956 -82.623123168945 -177.973648071289 3.922491788864
-35.867359161377 -69.437843322754 -56.580760955811 4.803525924683
19.847608566284 -71.123260498047 -177.504623413086 1.457545757294
-30.973688125610 -74.637458801270 -179.248001098633 2.861395120621
11.437084197998 -86.003746032715 -238.950881958008 3.600644350052
19.368837356567 -54.978813171387 -32.149703979492 1.862370133400
-157.017181396484 -81.290328979492 -227.621444702148 4.075395584106
43.856246948242 -67.116058349609 -23.273141860962 2.134507656097
17.648391723633 -72.286048889160 -188.251922607422 2.615185499191
-40.334770202637 -73.001747131348 -153.369750976563 1.992379188538
21.690013885498 -74.399520874023 -141.086898803711 2.592024326324
-138.569396972656 -73.713058471680 -279.530303955078 6.180778980255
32.974250793457 -66.407806396484 -120.054718017578 3.401014328003
97.158401489258 -67.792854309082 -97.354988098145 2.145383596420
-35.924381256104 -78.991683959961 -177.913864135742 1.059693455696
-142.978988647461 -78.524780273438 -196.941650390625 2.418878078461
-75.078254699707 -66.483901977539 -131.364425659180 2.248618364334
49.681617736816 -77.806564331055 -244.319763183594 6.373849868774
0.278082996607 -82.521377563477 -235.565490722656 3.712190151215
-151.000259399414 -78.356864929199 -214.014846801758 3.207071781158
-123.008476257324 -76.601409912109 -290.967224121094 2.095211267471
36.979236602783 -58.514011383057 -119.587974548340 1.399786591530
-62.313060760498 -74.694313049316 -69.223922729492 5.076404571533
-49.253009796143 -67.698852539063 -153.323364257813 2.212233781815
-128.170715332031 -75.144737243652 -197.721450805664 3.191592454910
-16.996559143066 -79.816902160645 -224.179000854492 2.960219144821
-61.977153778076 -76.945648193359 -172.678131103516 1.336128473282
-45.295635223389 -79.869064331055 -161.748550415039 3.165221929550
-117.847656250000 -76.461601257324 -290.907714843750 1.833750963211
-107.876068115234 -76.154281616211 -285.506042480469 4.172301292419
-28.790622711182 -79.791168212891 -190.955978393555 1.646531581879
-7.114679813385 -72.951065063477 -278.210815429688 2.029471158981
-96.709892272949 -71.276245117188 -286.870056152344 1.581109762192
4.336977005005 -76.399414062500 -156.592651367188 1.748484015465
-118.117813110352 -76.990440368652 -291.388458251953 2.422401666641
-54.989604949951 -60.088508605957 -76.627487182617 1.922411561012
-79.571952819824 -65.361366271973 -132.257095336914 2.260494470596
43.014217376709 -67.837669372559 -110.967498779297 1.238035678864
-88.250633239746 -59.400871276855 -114.935905456543 2.595972299576
40.387763977051 -54.880737304688 -40.911048889160 2.375083684921
-94.239151000977 -69.291847229004 -116.472404479980 2.131880283356
-23.271694183350 -74.368263244629 -189.848648071289 2.617500543594
44.279067993164 -74.328063964844 -103.463546752930 1.054030179977
-60.626018524170 -65.294807434082 -125.764678955078 2.964572429657
-150.727340698242 -76.202949523926 -207.578842163086 2.665720701218
53.780597686768 -66.285560607910 -103.025993347168 2.670693874359
-155.128356933594 -80.206680297852 -244.270660400391 4.716324329376
28.683559417725 -78.318260192871 -157.487335205078 1.815258979797
-40.994884490967 -62.793941497803 -79.630630493164 1.886902332306
-152.166656494141 -78.289276123047 -234.024566650391 1.676379084587
50.498023986816 -59.280708312988 -21.188930511475 1.745185971260
-160.195358276367 -79.222129821777 -297.826171875000 7.027365207672
24.262624740601 -72.394515991211 -256.385101318359 1.712246060371
-135.695709228516 -73.203475952148 -283.808715820313 2.561726570129
-42.103385925293 -68.154006958008 -166.299118041992 3.562410116196
110.145927429199 -71.038002014160 -127.712333679199 1.805037260056
-44.754341125488 -76.165695190430 -61.346572875977 2.384501218796
-154.215179443359 -82.704589843750 -250.160659790039 3.969701290131
30.956089019775 -68.827194213867 -40.561920166016 0.425617486238
-150.749740600586 -75.842636108398 -218.916473388672 1.842966079712
26.167924880981 -78.045394897461 -160.925857543945 2.115624427795
-28.861515045166 -76.540573120117 -219.338607788086 1.589514017105
-25.674215316772 -81.010322570801 -239.037216186523 2.650624275208
-6.036563873291 -76.748184204102 -230.852767944336 1.137128949165
23.075311660767 -67.190383911133 -24.196189880371 3.127940416336
-139.437179565430 -75.312583923340 -230.442504882813 2.052607774734
21.818252563477 -59.913471221924 -30.367012023926 1.522244572639
-82.580284118652 -57.796070098877 -122.116836547852 2.588660240173
5.970675945282 -68.546485900879 -243.540054321289 2.632321596146
21.525753021240 -76.639732360840 -182.150588989258 1.561162590981
-80.242073059082 -60.341533660889 -119.582389831543 2.067587137222
44.220798492432 -77.378143310547 -115.462684631348 0.917851328850
-167.583419799805 -74.039810180664 -211.947357177734 3.013797998428
106.797729492188 -74.414443969727 -116.295799255371 2.695393085480
106.528549194336 -67.329040527344 -116.302017211914 1.427520871162
-15.040432929993 -81.827682495117 -209.694335937500 2.394759178162
-83.257781982422 -77.372467041016 -89.122894287109 4.383734226227
0.754154980183 -66.831535339355 -257.709869384766 3.105099916458
-150.234741210938 -71.000717163086 -197.163650512695 1.456930518150
-53.031421661377 -74.962005615234 -147.852981567383 1.140045404434
-26.492782592773 -80.522956848145 -188.265060424805 0.961195766926
-2.720612049103 -67.154273986816 -231.139160156250 1.287306666374
-32.913349151611 -77.538940429688 -190.823242187500 2.040966272354
-25.542589187622 -69.371765136719 -203.020919799805 2.527112245560
22.283039093018 -77.959365844727 -258.935058593750 2.357570409775
-148.912078857422 -79.298255920410 -242.788391113281 1.447693705559
-74.918090820313 -76.188301086426 -247.710494995117 2.518167495728
-26.790134429932 -79.512298583984 -179.346862792969 2.161649227142
-98.829750061035 -71.536346435547 -218.384490966797 0.933318793774
-149.116744995117 -80.749221801758 -280.884368896484 1.767638325691
63.494026184082 -64.255287170410 -97.706375122070 3.685140132904
-98.971031188965 -56.289669036865 -73.309722900391 2.078462362289
-153.182601928711 -77.851387023926 -254.375900268555 2.292408704758
51.120288848877 -71.372489929199 -101.221191406250 3.423299789429
-34.882324218750 -72.771636962891 -63.966297149658 5.148879051208
-143.834487915039 -64.542541503906 -175.226791381836 1.168459653854
53.946037292480 -66.978813171387 -102.017288208008 1.775837659836
98.037498474121 -76.085723876953 -203.581115722656 2.417357683182
105.355834960938 -74.059013366699 -175.878051757813 0.390842974186
-105.082923889160 -65.002227783203 -153.852386474609 3.891352653503
-77.773841857910 -71.025573730469 -136.327331542969 1.951354742050
-86.901451110840 -60.839675903320 -114.975494384766 0.832335889339
-99.228736877441 -70.018730163574 -151.058074951172 1.966339111328
38.140068054199 -67.817619323730 -38.145538330078 3.323431491852
17.567581176758 -71.222396850586 -195.598632812500 2.006657838821
106.522918701172 -73.145751953125 -158.796920776367 2.670881748199
-58.680416107178 -75.992164611816 -65.997276306152 2.592877149582
-123.513755798340 -69.983627319336 -198.275848388672 1.241751670837
26.003633499146 -70.069808959961 -163.910095214844 1.597849369049
-55.471076965332 -83.071647644043 -85.801254272461 4.160224914551
-37.121444702148 -82.995193481445 -239.986831665039 3.429328918457
-31.512531280518 -86.126808166504 -188.180175781250 1.056937217712
73.853553771973 -61.569534301758 -64.113182067871 3.323017597198
-85.292327880859 -79.484718322754 -94.318428039551 3.708289146423
-53.834465026855 -75.901512145996 -285.351654052734 2.371352434158
40.683868408203 -70.713859558105 -102.282241821289 1.487348318100
-78.462142944336 -57.801456451416 -105.153450012207 3.035502910614
-168.262390136719 -80.626480102539 -284.781311035156 6.190814495087
-10.184455871582 -77.157859802246 -211.413055419922 0.963684201241
27.163906097412 -62.717563629150 -16.713844299316 2.738741874695
-62.964111328125 -81.948593139648 -177.194580078125 4.421034336090
-77.483520507813 -78.916488647461 -208.034851074219 1.828019857407
12.329221725464 -84.840217590332 -246.534973144531 1.124543547630
-14.851772308350 -78.686126708984 -231.062667846680 4.523244380951
-150.365768432617 -77.218620300293 -295.440246582031 1.845937490463
-86.627990722656 -59.779838562012 -105.647979736328 5.316126823425
-21.086330413818 -77.088005065918 -225.938613891602 1.132214665413
25.277816772461 -77.815147399902 -151.130706787109 1.749294757843
41.439571380615 -75.651397705078 -133.733184814453 2.339781999588
33.691120147705 -63.306270599365 -13.627375602722 1.249775648117
-78.610275268555 -69.567512512207 -54.878524780273 4.076145172119
-155.013504028320 -68.518898010254 -282.630187988281 2.877199411392
-74.390815734863 -84.178016662598 -210.543670654297 1.348185896873
-18.643407821655 -72.282661437988 -229.917175292969 1.874843478203
-30.570533752441 -68.947921752930 -56.541091918945 3.463719129562
93.508071899414 -74.170890808105 -201.227569580078 1.828418135643
-154.843856811523 -68.893966674805 -266.645874023438 2.817243099213
-83.616516113281 -58.417331695557 -47.660232543945 2.685123920441
-83.837661743164 -80.158676147461 -212.255340576172 2.781829357147
-157.758331298828 -66.030906677246 -252.819702148438 3.690731525421
-41.935493469238 -73.509307861328 -168.683502197266 2.208221435547
9.957280158997 -87.359741210938 -271.310363769531 4.752163410187
-78.196441650391 -64.864334106445 -123.467674255371 0.862658560276
46.924533843994 -65.210098266602 -247.292510986328 1.945898890495
-47.384456634521 -80.927978515625 -154.757980346680 1.338003396988
-48.832252502441 -73.778640747070 -147.935638427734 3.427414894104
-13.800067901611 -79.772323608398 -250.701828002930 4.918454647064
54.321952819824 -75.841201782227 -241.911651611328 2.748358488083
16.641946792603 -79.454071044922 -208.561569213867 2.027864933014
-154.293640136719 -88.762176513672 -261.511444091797 5.299216270447
5.503506183624 -83.851455688477 -245.712631225586 4.000673770905
13.058029174805 -86.319175720215 -260.805267333984 2.982885360718
-32.390884399414 -70.582542419434 -174.874984741211 1.707809209824
5.790585041046 -70.236007690430 -146.256179809570 4.800228595734
-140.256240844727 -75.330848693848 -198.450363159180 1.083752751350
-43.816364288330 -81.819320678711 -201.468109130859 2.543246030807
-49.980987548828 -69.292945861816 -131.529525756836 1.938041567802
41.353458404541 -74.630157470703 -122.473106384277 1.635836601257
31.191188812256 -75.220153808594 -124.033370971680 2.428491592407
3.650836944580 -65.934280395508 -240.964920043945 2.108079671860
-56.027500152588 -80.511192321777 -239.446578979492 3.678589820862
-162.487686157227 -69.237968444824 -202.334701538086 1.904130578041
-14.448167800903 -79.997863769531 -172.540328979492 1.264026999474
105.427703857422 -80.036064147949 -182.760162353516 2.736358880997
101.765701293945 -74.977523803711 -176.904449462891 4.089046478271
-10.432703018188 -74.988059997559 -204.594848632813 1.649958729744
16.548448562622 -77.648925781250 -168.656112670898 2.803852796555
-45.609207153320 -73.397979736328 -57.259750366211 3.314899921417
101.440597534180 -75.828536987305 -178.905227661133 3.823103904724
-71.138534545898 -82.312683105469 -284.386810302734 6.287247180939
-131.180847167969 -78.382225036621 -282.243255615234 3.803401708603
-78.639198303223 -61.130287170410 -103.582221984863 1.063159584999
-1.061952948570 -80.752960205078 -221.275787353516 0.606745898724
-103.215904235840 -60.408805847168 -77.748123168945 4.496440887451
-80.433235168457 -80.030792236328 -81.142944335938 1.994449853897
23.966440200806 -67.796737670898 -261.589752197266 2.599131584167
20.924543380737 -65.675628662109 -142.474578857422 2.150146484375
22.771974563599 -66.920433044434 -35.951251983643 2.366621494293
-163.422470092773 -74.373626708984 -258.261535644531 2.248454093933
68.750473022461 -66.333877563477 -77.259010314941 2.865451574326
-30.877813339233 -70.702384948730 -75.853332519531 2.937674045563
-24.713962554932 -83.019844055176 -188.641387939453 1.645084977150
39.774734497070 -80.731475830078 -122.728118896484 2.277054548264
-11.030627250671 -55.091701507568 -55.562953948975 1.527813434601
-51.771362304688 -74.064483642578 -85.534698486328 2.860143184662
22.658985137939 -70.611816406250 -265.840301513672 2.728021621704
21.203182220459 -71.919967651367 -151.439315795898 1.883085966110
24.851079940796 -72.912635803223 -137.306991577148 2.417087316513
-105.198387145996 -74.451522827148 -221.049423217773 2.493671417236
13.269345283508 -83.952018737793 -236.009902954102 1.161631703377
98.894523620605 -67.565948486328 -71.995605468750 1.362514853477
4.630687236786 -73.510047912598 -234.321304321289 1.882576942444
-10.540836334229 -68.819877624512 -209.909011840820 2.283923149109
97.441696166992 -73.092033386230 -199.266525268555 1.293488621712
-61.404327392578 -66.301765441895 -88.074317932129 1.650983452797
100.411071777344 -62.411949157715 -102.552917480469 2.465330123901
-160.478347778320 -73.778587341309 -225.485702514648 2.193900108337
19.197830200195 -66.162063598633 -27.024963378906 3.094613313675
8.269281387329 -71.014373779297 -286.821228027344 2.640763044357
-149.866729736328 -78.906608581543 -293.938903808594 2.672202587128
-147.402832031250 -75.562988281250 -224.716384887695 2.843609571457
-86.214736938477 -59.517822265625 -49.827816009521 2.818694591522
60.548164367676 -62.734931945801 -92.633087158203 1.574845314026
-115.644294738770 -77.951339721680 -284.937805175781 3.065835714340
-148.372070312500 -80.547531127930 -208.622024536133 2.039288759232
-74.219276428223 -84.349807739258 -208.140106201172 2.507825136185
22.263753890991 -75.965255737305 -139.807418823242 2.918729305267
39.380607604980 -64.138381958008 -22.574165344238 3.352433204651
-11.398641586304 -78.053695678711 -210.015487670898 1.486748099327
-32.146087646484 -81.790420532227 -178.961822509766 2.675281763077
-84.070594787598 -72.640991210938 -107.042533874512 1.005429744720
-162.961273193359 -74.234817504883 -283.095520019531 2.953200340271
-153.247131347656 -69.585380554199 -255.796508789063 1.718826532364
53.817230224609 -79.912834167480 -248.000167846680 6.985443115234
-43.960735321045 -79.097053527832 -244.105270385742 1.572881340981
-25.977109909058 -80.837112426758 -220.019393920898 3.402733802795
-58.310024261475 -74.890365600586 -139.791427612305 1.389145255089
-156.835998535156 -76.509765625000 -193.345397949219 4.593635559082
-152.828231811523 -73.164787292480 -292.471099853516 2.285544395447
-10.334911346436 -81.557693481445 -217.947555541992 1.249704241753
-52.159347534180 -84.928985595703 -199.642898559570 2.441718816757
-44.985462188721 -79.934135437012 -160.781127929688 3.107132673264
12.069184303284 -84.435478210449 -234.448425292969 2.533909082413
-154.880462646484 -66.430992126465 -212.698791503906 2.904381513596
35.401897430420 -78.638282775879 -133.356277465820 1.763788580894
58.346054077148 -75.179748535156 -239.607971191406 2.021628856659
-25.227460861206 -76.846595764160 -180.050552368164 1.028234958649
-169.582855224609 -75.694541931152 -237.225067138672 4.729718208313
4.893209934235 -78.079940795898 -242.761795043945 1.112111210823
-51.736408233643 -75.858673095703 -140.451232910156 1.990192413330
-156.493362426758 -69.672660827637 -175.390655517578 4.497044563293
-44.200691223145 -78.349449157715 -163.707534790039 1.797818183899
101.124343872070 -71.550216674805 -102.081695556641 1.700047731400
36.054298400879 -79.106506347656 -125.643653869629 1.348146080971
22.279029846191 -77.022872924805 -143.895248413086 2.947940111160
-37.393245697021 -70.151931762695 -176.484283447266 1.390477538109
56.994495391846 -72.543067932129 -235.811904907227 4.321209907532
67.788932800293 -73.753753662109 -79.140892028809 2.846664190292
-154.558197021484 -84.878608703613 -282.888153076172 2.822202920914
64.727790832520 -72.985397338867 -240.706619262695 1.430956840515
110.128974914551 -71.735527038574 -144.268508911133 1.714362978935
-54.484050750732 -80.474212646484 -195.465713500977 4.945204257965
56.879032135010 -77.427162170410 -243.917663574219 3.347686290741
29.335269927979 -55.975841522217 -13.995712280273 1.728283166885
-101.868141174316 -72.634757995605 -221.952041625977 0.970882833004
-62.216567993164 -61.234683990479 -135.241790771484 2.026190996170
-99.929809570313 -76.297142028809 -283.489624023438 2.658477067947
-61.212257385254 -79.533645629883 -74.760047912598 3.378237724304
-150.274749755859 -90.325263977051 -285.474029541016 4.292768955231
-59.903659820557 -72.940803527832 -53.312282562256 3.885941028595
23.749086380005 -75.485160827637 -182.003723144531 1.380934596062
-75.049209594727 -68.574867248535 -134.532104492188 1.777846693993
-58.959869384766 -82.990562438965 -204.361892700195 1.310029387474
12.604595184326 -72.580894470215 -238.151062011719 1.719534516335
-48.621093750000 -72.568489074707 -54.978931427002 2.352811336517
-64.291496276855 -79.527992248535 -82.538055419922 4.778790950775
49.107631683350 -60.894027709961 -27.442014694214 0.417570024729
5.440372943878 -78.305923461914 -208.619064331055 2.134774446487
-152.896575927734 -70.716758728027 -242.988891601563 2.928329467773
72.082801818848 -72.460311889648 -99.173866271973 1.896351218224
-152.997192382813 -81.244659423828 -185.907470703125 3.780152320862
-26.529384613037 -81.840522766113 -235.934585571289 3.738625288010
20.189558029175 -70.115394592285 -175.345046997070 1.749229788780
38.754165649414 -78.207557678223 -128.321578979492 2.674758434296
-107.809204101563 -74.012199401855 -289.239715576172 1.385999202728
0.656681001186 -79.420204162598 -240.329666137695 2.602485895157
-41.896965026855 -79.191154479980 -197.893417358398 0.911089658737
-79.644973754883 -59.256065368652 -122.592025756836 1.222047567368
-12.814107894897 -83.720855712891 -272.577606201172 5.746761798859
75.229850769043 -78.698219299316 -226.318237304688 4.311522960663
91.933341979980 -81.001930236816 -202.968399047852 4.563819408417
25.043254852295 -78.834175109863 -158.636444091797 2.769216299057
-39.460678100586 -85.240486145020 -192.668502807617 2.466766357422
-155.299926757813 -62.240917205811 -176.538833618164 3.375547885895
41.652690887451 -60.627651214600 -37.295276641846 2.639461278915
-153.293975830078 -71.138328552246 -186.970092773438 2.793627977371
45.515003204346 -59.325565338135 -35.504920959473 1.628719687462
-0.849002003670 -90.195999145508 -261.822723388672 5.109825134277
-41.455978393555 -77.199172973633 -160.528686523438 1.202383399010
-69.280807495117 -82.903106689453 -207.912490844727 1.290317416191
23.667816162109 -67.650001525879 -19.692821502686 3.176059484482
-52.130329132080 -68.325942993164 -142.475982666016 1.623842000961
-40.683311462402 -77.416885375977 -205.779937744141 1.484819650650
-33.576213836670 -80.876838684082 -214.131439208984 2.928524494171
67.355224609375 -70.598960876465 -73.821510314941 2.518374681473
-156.801513671875 -76.559768676758 -266.508880615234 2.583738088608
59.498077392578 -64.474327087402 -86.254730224609 1.296332240105
-164.571960449219 -77.364196777344 -291.099395751953 2.339385032654
-46.049514770508 -67.538978576660 -53.320262908936 4.395213127136
-73.544532775879 -74.682067871094 -151.901412963867 1.114730834961
18.805669784546 -68.462844848633 -184.890350341797 1.773131966591
-56.556682586670 -63.361877441406 -141.384490966797 1.431269764900
-23.848146438599 -81.266670227051 -202.814758300781 3.577248573303
14.131411552429 -79.273483276367 -200.588821411133 2.916598558426
2.493879079819 -70.038688659668 -241.147979736328 1.723334908485
88.236091613770 -74.570487976074 -87.072929382324 3.591231107712
-40.096408843994 -80.155723571777 -284.519042968750 4.197859764099
-88.919021606445 -64.691390991211 -58.740211486816 3.166836500168
-154.790283203125 -69.930824279785 -242.972961425781 2.332595348358
-159.731231689453 -77.493347167969 -292.826110839844 3.995163440704
-132.208282470703 -77.628791809082 -252.004898071289 5.266375541687
29.032543182373 -63.681442260742 -35.651123046875 2.403161287308
-57.460151672363 -72.275871276855 -90.354263305664 2.205107212067
-55.620597839355 -60.043498992920 -77.306304931641 2.323578596115
14.137478828430 -84.013343811035 -190.644851684570 6.171473979950
-147.632888793945 -75.611015319824 -187.650527954102 1.420876860619
-78.078033447266 -77.905502319336 -77.948379516602 2.855935811996
71.761062622070 -80.062667846680 -232.698303222656 5.209279537201
-33.466205596924 -77.388214111328 -174.527206420898 1.901367425919
-96.370033264160 -58.960361480713 -79.064788818359 3.191401243210
-50.064636230469 -78.289733886719 -155.147171020508 1.981164693832
-154.529983520508 -82.002670288086 -190.282882690430 5.011342048645
-144.879486083984 -90.230323791504 -287.357635498047 4.678024291992
-153.824386596680 -84.381683349609 -229.238601684570 1.868617296219
-80.728225708008 -66.283554077148 -114.337562561035 1.611357092857
10.847130775452 -86.048370361328 -243.620254516602 3.795110225677
-47.037631988525 -79.988449096680 -158.725097656250 2.682266235352
47.568408966064 -61.091728210449 -95.651000976563 2.623008966446
17.466911315918 -70.804061889648 -183.758041381836 2.247742652893
-158.434295654297 -85.867645263672 -254.150543212891 4.314193725586
-4.112840175629 -71.914131164551 -265.546783447266 5.210795879364
-155.303283691406 -85.652496337891 -282.040954589844 4.160915374756
30.479188919067 -56.573822021484 -18.030546188354 3.218015670776
29.011070251465 -75.447967529297 -161.887756347656 2.139126062393
-47.468906402588 -73.382118225098 -147.635894775391 3.012555599213
87.141807556152 -64.220985412598 -60.385627746582 2.862236738205
-149.737777709961 -82.668899536133 -291.598144531250 2.045314550400
-152.515991210938 -77.175064086914 -256.927062988281 3.526535987854
-76.793113708496 -61.675140380859 -98.789077758789 4.223598957062
26.280330657959 -78.701850891113 -134.489410400391 3.016725301743
77.350784301758 -60.733661651611 -63.473243713379 4.423001766205
13.698545455933 -80.352416992188 -223.355438232422 1.598518490791
-33.627178192139 -75.844558715820 -168.456146240234 2.211984157562
-154.684066772461 -74.647483825684 -295.680938720703 1.851931333542
75.192268371582 -67.354904174805 -105.568031311035 1.859031915665
-150.849639892578 -85.995498657227 -290.272369384766 1.685717463493
-7.011682987213 -64.744094848633 -245.486282348633 2.359302759171
-45.862724304199 -78.883888244629 -153.145935058594 1.428493976593
-87.955818176270 -63.808998107910 -127.763145446777 0.964580953121
40.031261444092 -63.254867553711 -13.528624534607 1.686544656754
-136.386672973633 -74.311454772949 -291.585235595703 1.345587372780
33.516426086426 -65.191261291504 -17.639450073242 1.868682980537
25.462665557861 -59.282951354980 -23.238338470459 2.422347068787
-49.215927124023 -74.145423889160 -163.539840698242 2.142390489578
-79.715469360352 -56.048313140869 -107.484313964844 4.440322875977
-40.333660125732 -58.581638336182 -45.237583160400 0.899327456951
-30.576761245728 -83.065017700195 -209.021606445313 3.790657520294
-18.980714797974 -77.548400878906 -257.889587402344 4.693729400635
-66.906143188477 -53.173274993896 -42.323692321777 2.872254848480
-133.499984741211 -68.266677856445 -257.620269775391 1.843169450760
20.941028594971 -73.289642333984 -174.620010375977 2.723919391632
103.527549743652 -57.656219482422 -73.551506042480 2.165548324585
8.081827163696 -76.411293029785 -190.913177490234 3.601672410965
11.484946250916 -75.267639160156 -157.389068603516 1.443897485733
-97.204071044922 -65.624717712402 -63.439868927002 3.587491273880
-30.447935104370 -68.743080139160 -179.195510864258 1.579174637794
0.517407000065 -69.069419860840 -263.314880371094 3.508659362793
-58.068038940430 -61.518802642822 -40.291862487793 3.403251647949
14.870866775513 -77.754310607910 -189.388626098633 1.681182622910
109.622344970703 -74.130828857422 -142.436645507813 1.881352305412
-57.056743621826 -76.007049560547 -173.307968139648 1.981305480003
-144.467544555664 -81.164428710938 -257.556579589844 2.185593605042
86.440483093262 -78.512260437012 -212.789138793945 3.375627994537
35.040493011475 -76.161857604980 -256.896667480469 5.426720619202
-153.126144409180 -69.172157287598 -224.621795654297 1.626740932465
15.379849433899 -83.447715759277 -225.766204833984 2.192963838577
24.795875549316 -66.845062255859 -145.442932128906 1.974359512329
-9.251200675964 -77.237281799316 -209.067169189453 1.413105130196
56.773002624512 -55.609245300293 -84.310646057129 3.585109949112
29.143049240112 -74.140281677246 -158.138854980469 3.043594360352
-24.208436965942 -57.867126464844 -50.285274505615 1.857584118843
101.859992980957 -63.292747497559 -94.989089965820 2.312514781952
17.485500335693 -67.302322387695 -183.210922241211 2.682420969009
