# This PCD file was generated using the MATLAB® pcwrite function
# from Computer Vision Toolbox®.
# .PCD v.7 - Point Cloud Data file format
VERSION .7
FIELDS x y z
SIZE 4 4 4
TYPE F F F
COUNT 1 1 1
WIDTH 1457
HEIGHT 1
VIEWPOINT 0 0 0 1 0 0 0
POINTS 1457
DATA ascii
185.558273 -73.754646 -19.087172
111.357262 -72.655228 -60.460716
69.233078 -71.167549 -95.953354
62.381443 -70.813354 -104.865089
108.661263 -70.981834 -78.481926
82.592331 -72.428177 -91.371101
55.552284 -71.808151 -109.975624
182.514389 -73.824860 -21.591230
111.314224 -71.975365 -72.691521
-14.302754 -69.771729 -157.937393
63.117313 -72.450333 -104.837753
184.439484 -72.791901 -36.821209
-22.330477 -73.974678 -168.092804
114.333511 -71.877350 -73.952003
69.233711 -69.994057 -114.844666
76.476311 -71.303436 -109.133873
73.558113 -70.103271 -113.190948
63.657398 -70.671715 -108.700020
187.409134 -72.858238 -37.755287
87.176384 -70.690323 -101.776489
-22.760006 -69.452377 -172.596283
119.196938 -70.824020 -85.592644
42.260071 -72.409897 -136.624924
-20.739237 -69.098770 -176.401672
189.186630 -70.703178 -45.867466
78.281998 -70.016136 -112.242599
85.299828 -69.688263 -116.636314
114.478195 -71.675323 -94.741379
48.518452 -70.268578 -137.212936
82.492020 -70.609329 -113.472755
105.796783 -69.936867 -103.404228
45.959629 -71.502602 -140.837860
98.655090 -69.966362 -111.245316
116.461540 -69.502281 -96.318604
126.903564 -70.924393 -96.177544
-15.024407 -68.537994 -180.130615
103.815887 -69.954300 -105.328712
32.624210 -66.227715 -155.941864
94.387535 -68.924583 -117.382080
186.489182 -72.040596 -50.334995
121.504822 -69.825066 -109.038391
124.522163 -69.231873 -94.692772
183.159180 -70.251656 -63.956211
116.824234 -68.747429 -110.803642
184.838089 -71.124298 -58.348179
99.541908 -69.831963 -116.067429
125.406067 -70.895546 -98.304039
-9.001978 -69.288292 -185.513062
98.813217 -70.402855 -119.373581
117.516731 -71.126244 -110.953667
-14.540438 -69.418816 -194.394669
1.314130 -66.733315 -184.608521
122.796150 -69.683578 -106.940018
115.683952 -69.460594 -118.716187
3.227170 -67.109360 -187.075378
-3.064643 -68.410278 -195.217087
-3.346672 -66.810921 -196.808975
94.256966 -68.416794 -139.164383
-0.503353 -66.246712 -201.562408
141.838776 -68.261047 -113.355034
128.507462 -68.710793 -122.656898
-6.595692 -66.589699 -198.058075
-1.887858 -67.365471 -203.426010
83.424690 -68.239815 -149.179230
98.557770 -68.973030 -142.538010
131.265686 -70.399986 -125.579201
92.652489 -68.003845 -147.959000
146.664200 -69.101013 -117.083275
123.565140 -70.088951 -132.821915
1.914874 -65.997002 -212.572250
122.799797 -69.626778 -136.021133
4.717105 -66.361115 -210.482437
70.198975 -67.472496 -166.427612
6.353810 -71.531532 -219.177689
26.236399 -65.086723 -205.218018
7.476217 -62.328178 -218.911896
125.189644 -65.441757 -151.225433
11.893483 -66.700058 -221.382477
8.689396 -65.611610 -223.685669
130.433990 -68.455536 -153.397186
14.487366 -65.508438 -226.927322
140.866516 -66.806038 -158.200653
108.350952 -65.056816 -187.158051
34.910912 -63.891487 -234.377853
34.436619 -62.913143 -231.818924
40.240005 -63.546719 -229.174591
102.216621 -64.390099 -190.578568
50.423744 -61.658619 -224.673447
162.244247 -65.680733 -156.528000
97.604370 -64.318153 -196.026337
28.855057 -62.655674 -240.181946
96.662262 -63.863831 -197.878677
28.700123 -64.957062 -241.275467
49.364349 -63.492550 -227.193604
109.278030 -64.193535 -190.631256
119.680153 -65.210083 -184.528809
36.310745 -63.631042 -236.362762
140.804291 -65.351830 -171.671616
150.649170 -65.493896 -165.880661
155.735611 -65.454262 -163.507736
163.883453 -65.690636 -160.241226
25.180489 -62.979740 -248.947952
28.551485 -62.464581 -251.623489
-31.267134 -80.065681 -7.018540
110.002708 -79.026382 63.107590
103.284843 -79.576569 57.713909
14.705635 -79.023216 1.467974
108.898117 -78.755859 60.285728
8.862257 -78.275780 -6.060147
112.623116 -80.355164 60.509663
118.529694 -79.597870 59.919331
-10.045738 -71.798737 -32.274094
110.015968 -78.238106 41.438728
116.167908 -78.227493 41.187012
123.907646 -78.645058 49.359364
95.193016 -77.717079 26.422596
-14.614013 -79.281143 -45.804054
-13.740783 -72.105492 -44.988735
93.669266 -77.968224 16.849777
-25.349693 -77.416153 -57.033684
96.086716 -77.009369 5.153213
152.558762 -76.533913 39.032539
161.283127 -76.502525 27.880177
92.700218 -74.602478 -22.542521
156.896561 -76.251778 31.643778
90.159264 -75.727158 -19.509069
161.146591 -75.871628 31.562302
100.361565 -75.898781 -12.969475
29.183340 -75.352936 -68.353539
100.591812 -73.363075 -20.896927
162.653702 -74.745392 21.405060
29.792343 -73.887459 -68.836304
101.820587 -75.035469 -27.676363
22.357048 -73.208847 -66.806862
29.665398 -74.653969 -72.598137
32.716877 -73.904457 -72.673035
23.817116 -73.642036 -86.234398
172.785599 -75.297340 15.291904
35.522034 -73.541924 -77.754745
96.338882 -74.352684 -39.037060
172.639526 -74.855408 5.857812
22.286697 -71.838043 -87.507713
38.083389 -73.610847 -76.697609
85.188408 -72.044441 -46.440521
23.904615 -71.580482 -90.318649
29.919804 -72.397438 -88.595924
80.855560 -73.243729 -57.444786
49.640797 -72.740623 -82.768707
109.392395 -72.277557 -41.969704
31.232244 -72.335358 -92.271683
36.606899 -72.142036 -92.535416
98.480705 -73.434418 -45.494427
59.310314 -72.711327 -79.616852
58.933350 -73.530327 -77.419655
103.115631 -72.654587 -58.287926
53.579006 -72.576790 -87.095749
77.481400 -71.954071 -72.463921
36.730904 -70.948051 -97.282692
82.386421 -70.982857 -66.957169
71.474937 -72.334526 -83.914665
112.224579 -71.816704 -59.997517
54.071541 -71.298653 -85.733170
106.019089 -71.504913 -60.951889
73.481956 -69.261429 -86.424454
64.999832 -71.894440 -90.781479
-30.318821 -70.095673 -154.634674
75.984184 -71.745216 -88.956856
-27.077099 -69.510201 -154.889145
-31.901861 -68.556137 -156.888931
54.772919 -70.134132 -102.382378
182.548965 -71.730469 -32.294437
-24.404430 -69.417030 -159.337433
-29.932405 -70.002075 -166.886856
118.773712 -70.955963 -76.103584
-14.225505 -67.753853 -158.623856
117.133621 -70.323914 -77.200325
-18.844418 -67.704643 -161.130127
111.093224 -70.487320 -78.878189
-12.371962 -67.779671 -161.286850
112.223083 -70.493637 -90.751900
-21.521658 -67.791313 -172.842773
183.132126 -71.057350 -42.783020
90.606949 -71.080147 -98.565742
79.820648 -69.252312 -110.486488
96.779800 -70.455841 -98.984520
-18.643353 -67.880058 -177.766098
75.150673 -69.634155 -112.684631
38.413361 -70.123528 -140.785904
84.553909 -70.114807 -111.483879
122.687126 -69.821701 -86.898544
-16.920534 -68.488701 -177.710693
32.018131 -67.690750 -149.032562
83.254677 -68.396278 -115.502373
89.835884 -67.626617 -117.654633
96.938522 -69.627098 -108.066826
85.355957 -68.752907 -114.175606
41.808914 -67.949501 -145.368729
38.071972 -68.735580 -149.296555
91.571297 -69.002426 -117.717644
111.323021 -68.828880 -108.033386
-15.973411 -66.969589 -182.039230
109.634430 -70.299255 -105.673767
185.905243 -70.107574 -64.212013
-6.021657 -68.467178 -185.363312
106.288696 -69.750420 -114.339386
-4.292056 -67.634476 -186.218460
-8.496440 -72.807693 -189.833359
111.863762 -67.114769 -117.832680
127.017159 -68.677757 -99.147087
-2.421400 -66.539726 -188.252274
104.404091 -68.004494 -121.849327
183.066299 -69.576843 -70.928032
183.744522 -68.626045 -74.564377
125.347000 -68.422989 -111.217323
99.390427 -68.901588 -135.181229
107.629578 -68.881248 -132.628418
129.664368 -66.499763 -122.216866
83.217239 -66.386818 -149.565186
104.665848 -67.411133 -137.542053
131.741684 -67.595131 -121.757065
71.819176 -66.616463 -160.794388
98.717384 -66.873756 -142.048553
88.940292 -65.176888 -149.664001
-1.309521 -65.719757 -207.350586
86.688347 -67.520378 -153.470627
81.822609 -66.876022 -158.176941
71.816681 -66.591133 -167.192062
119.628555 -66.709290 -137.997971
60.508259 -65.408928 -176.099945
0.326082 -67.608902 -218.804321
11.213809 -66.289383 -212.050720
27.608709 -64.683830 -207.155136
5.360605 -61.848797 -224.116608
153.247116 -67.294228 -131.188339
127.256866 -66.469711 -153.142761
11.698407 -65.400154 -228.714813
14.828442 -65.655029 -234.066711
24.170321 -66.837906 -236.740372
98.173683 -62.687302 -191.895874
114.924149 -64.145470 -182.338745
125.737762 -62.739986 -175.554657
136.925873 -64.575218 -169.121262
92.449699 -63.964371 -197.294067
80.704117 -62.721786 -204.323776
144.899338 -65.040947 -165.258255
155.488907 -64.606598 -159.080002
34.334000 -62.392864 -237.011902
82.856361 -63.397835 -205.322052
23.402592 -62.920296 -241.927826
68.909248 -62.621147 -213.667175
82.619896 -63.130264 -205.983170
78.801971 -62.287476 -209.813477
98.916512 -63.203201 -197.086700
128.079559 -63.011688 -180.339035
147.525391 -63.767651 -168.843933
21.133041 -60.929798 -249.824570
25.569307 -61.891045 -253.577637
31.219345 -63.058800 -251.669891
27.054438 -61.457466 -261.432068
-23.408453 -78.917381 3.863425
-13.876041 -77.687347 11.850445
-7.023142 -78.127655 13.193999
-36.771442 -78.345963 -8.925678
5.013417 -78.439453 13.072380
12.409666 -77.851265 -2.399511
102.990189 -79.135124 52.966194
103.901268 -80.156914 51.122578
104.848076 -79.392998 48.995720
125.339737 -77.908463 55.538464
106.177231 -78.807724 43.449356
91.077713 -77.270294 30.233850
89.200119 -78.889275 21.601555
-8.384235 -76.280510 -39.348579
-11.176637 -70.019669 -42.752769
89.311646 -77.459778 16.872532
-16.357948 -77.643806 -54.809811
-23.824312 -73.560272 -64.012741
95.191818 -76.260422 18.207909
145.696762 -76.361397 44.538403
86.958328 -76.961113 -3.691150
98.132530 -76.006554 4.228395
99.115532 -76.629341 -3.484430
87.773300 -75.783279 -10.016800
151.420288 -76.309395 37.563980
97.612061 -75.247124 -7.086446
90.577324 -73.855461 -13.971149
32.697338 -73.450317 -66.655251
11.874911 -72.361923 -81.239845
25.618904 -71.615761 -70.001373
13.547553 -72.247307 -80.326340
38.253975 -71.259361 -65.703941
168.019058 -72.356667 11.224642
17.037235 -72.228699 -88.471596
95.867920 -73.076004 -33.277702
105.622925 -74.155540 -31.518696
177.686035 -74.223671 6.907840
87.853012 -72.026375 -49.501221
104.860909 -72.817886 -34.349472
24.671804 -70.987144 -88.241203
47.820827 -71.655716 -84.959457
98.297127 -70.737198 -47.672546
28.790026 -70.426483 -91.838226
25.661087 -71.826904 -94.975098
175.136398 -73.383873 -3.152402
79.265823 -71.226067 -66.005394
37.363041 -71.118584 -101.486145
62.675335 -71.336815 -78.701408
40.860767 -69.896278 -95.968277
108.874306 -72.415031 -47.581814
180.831039 -72.580597 -7.637316
180.560074 -72.414314 -20.467201
187.361221 -72.284882 -22.891098
181.605103 -72.044533 -13.451132
49.563637 -70.000961 -106.420753
48.577160 -69.145645 -100.953201
114.485901 -72.274506 -60.711231
53.385342 -68.477211 -105.699638
76.910881 -71.371300 -86.432312
54.362148 -69.688400 -108.340675
-28.970415 -68.723747 -162.255234
184.780319 -71.030800 -29.425459
59.470882 -68.558128 -106.174599
85.671043 -70.789261 -95.489563
-19.321516 -69.955421 -160.646027
60.862656 -68.271133 -109.336876
188.620163 -71.606689 -32.261517
184.698502 -71.495674 -21.485519
61.110500 -69.468674 -111.203842
79.140182 -70.943687 -98.192833
-25.053463 -73.260178 -167.149872
80.070160 -71.102180 -100.980949
-29.203232 -69.600487 -169.678741
-26.702238 -70.283592 -171.487061
-16.928539 -69.555199 -164.802719
68.381699 -69.505051 -107.369537
186.683640 -70.490646 -35.136925
68.068214 -68.106697 -108.863518
-18.209497 -70.409729 -169.479416
72.378326 -67.604721 -114.231201
91.181999 -70.053879 -106.998573
185.568008 -70.116127 -41.720070
186.443130 -69.589394 -49.000557
84.808220 -67.798218 -119.195007
34.999001 -68.040428 -144.679291
43.774097 -67.693611 -138.513611
96.887444 -68.441742 -114.308784
-19.166758 -66.176323 -177.415253
183.408936 -70.748146 -52.913509
187.693771 -70.365791 -57.169594
188.862503 -68.566940 -56.854370
27.461109 -65.398270 -161.396088
-13.731808 -68.639885 -188.354919
96.162766 -68.286842 -116.630013
181.352905 -68.939949 -67.411079
-10.048375 -68.133530 -190.350479
90.779518 -68.287971 -120.826080
4.656855 -65.709366 -183.067001
105.589844 -69.018997 -118.849449
128.471252 -68.756958 -97.622139
134.624603 -68.521744 -105.530449
-11.539520 -68.835770 -197.686905
13.056119 -64.748726 -182.427078
113.150703 -66.244270 -122.176224
120.950546 -67.084427 -119.545036
179.343811 -67.833885 -82.012917
182.551056 -67.194298 -80.810547
122.576172 -67.428749 -123.057915
136.802521 -65.893578 -112.737381
98.359772 -65.503799 -136.883942
92.839897 -66.361259 -141.517929
86.865211 -65.003227 -147.967026
92.421417 -65.275490 -144.326508
107.997597 -67.592346 -134.575378
79.338432 -65.340828 -153.248703
127.134529 -66.361862 -125.415291
68.502014 -63.754200 -163.486343
143.042908 -66.478790 -118.014961
1.926514 -66.125908 -205.917542
66.329277 -66.763138 -168.121964
138.663910 -68.763573 -122.088158
-9.249036 -63.662525 -216.163742
144.113205 -67.545929 -122.577209
61.154594 -65.538818 -173.423157
65.905449 -66.035789 -171.524628
149.542587 -66.369461 -124.996742
55.052120 -64.261597 -181.385208
24.841629 -64.008797 -202.515198
17.554295 -63.307259 -209.383972
19.292147 -64.630226 -208.482574
8.152035 -62.075413 -217.285614
12.811307 -63.591633 -213.793808
19.062231 -62.587254 -212.789612
-2.929027 -63.020573 -226.154709
29.279823 -61.510780 -209.564667
21.047567 -63.972813 -211.978867
-5.491217 -62.314072 -229.871902
0.768435 -62.026901 -226.223389
7.774343 -62.420883 -223.900009
11.713133 -62.899040 -221.902008
156.226578 -66.714317 -146.231064
-2.344257 -62.165443 -234.808105
11.015881 -61.741882 -231.610809
134.876266 -68.742775 -154.867569
1.564680 -62.096157 -231.811737
154.418945 -67.622978 -149.650604
16.611736 -61.822994 -238.734421
9.650508 -61.329941 -247.700195
15.239925 -61.396164 -241.194443
6.039353 -61.553402 -249.068481
150.275436 -63.751762 -161.692505
152.958496 -65.784103 -157.016479
65.716202 -61.893761 -214.498718
20.162992 -61.215794 -242.524750
21.543419 -61.197979 -241.246658
55.612637 -61.439823 -221.685577
21.360144 -61.032139 -244.665710
23.203083 -61.026077 -243.972595
92.271248 -62.169819 -201.595764
11.519951 -61.341713 -251.257599
44.571274 -61.006355 -231.580170
112.675720 -63.354477 -188.978745
16.221870 -61.200081 -247.566788
35.467819 -59.401249 -239.303726
136.323059 -62.058220 -175.352036
44.038506 -61.541519 -235.146622
155.128784 -63.352856 -164.791687
163.749283 -62.885647 -158.770157
37.130589 -61.858295 -238.549301
27.857700 -60.964062 -246.353760
28.111515 -58.832783 -265.697784
-38.195358 -75.468391 -1.383160
8.574264 -76.061127 17.407726
12.307722 -77.439819 14.315845
98.871948 -77.363365 57.394459
114.060814 -78.825104 65.621391
4.616037 -75.651131 -4.991514
99.719757 -78.255318 54.483807
113.981506 -79.974907 58.871086
99.316078 -76.948212 48.577236
102.213722 -77.806488 46.197292
0.955695 -78.090462 -20.219351
-36.057842 -76.041771 -41.308697
94.434395 -76.516190 32.161903
89.468719 -76.073296 24.832899
127.308884 -77.382927 50.196182
-30.156740 -73.299660 -55.483738
119.299156 -77.447548 43.221195
111.483643 -76.327644 37.724419
126.381088 -76.493568 46.252384
118.854088 -75.220421 39.619732
121.184547 -78.434372 43.867588
-18.332260 -75.628189 -48.511002
87.914268 -76.634407 9.018217
144.700089 -75.973518 43.454208
147.875626 -75.913872 45.220993
96.041664 -75.192169 6.483942
152.857895 -74.929695 33.588329
165.107574 -74.983398 27.974480
22.392406 -72.332245 -60.868626
89.470093 -73.220154 -18.407932
100.286407 -73.711487 -10.934934
94.070404 -71.052689 -27.209675
166.384323 -73.772141 21.808315
162.248703 -73.706512 26.586767
11.967809 -71.786400 -83.814766
35.809151 -72.123680 -67.014496
14.761584 -70.338875 -83.300873
94.719681 -72.406342 -36.766190
172.298599 -73.319031 12.398078
30.038246 -71.505501 -73.496986
15.877128 -70.026505 -82.267296
45.097916 -73.803734 -70.294868
104.801430 -70.174919 -30.232878
171.723175 -72.932358 10.959709
175.809250 -72.308456 6.404070
19.387480 -69.156479 -85.294449
23.498329 -70.215096 -93.604240
100.466652 -71.962021 -45.975483
33.432137 -69.398560 -91.851700
52.931370 -71.548332 -73.232796
87.703400 -71.226410 -53.243198
175.936386 -72.727821 2.276209
86.969292 -71.451538 -56.431168
55.117138 -71.015945 -77.027390
84.999313 -70.646980 -60.763260
178.621262 -71.687027 -5.561068
50.643028 -68.333191 -83.623291
109.284325 -68.854225 -48.781639
181.203186 -71.379013 -6.797685
41.020603 -68.185570 -99.554802
63.242458 -70.512970 -81.083138
177.071701 -70.728325 -10.678000
111.783249 -70.609695 -50.253578
183.619370 -73.195313 -7.310803
58.041481 -69.521812 -88.251884
181.689224 -70.839714 -15.933796
39.485947 -69.414421 -101.345238
70.336884 -71.478783 -85.607788
-30.328157 -67.406494 -150.170532
47.004215 -68.712021 -103.438309
-29.422539 -67.852112 -155.252914
67.630150 -68.170578 -95.315704
114.563873 -69.880913 -64.910385
184.138397 -70.574028 -17.232538
69.406586 -70.867912 -93.737152
106.962524 -70.080719 -74.474663
118.426239 -68.648552 -78.910957
-26.189255 -67.939049 -159.891983
186.372131 -69.735725 -30.043499
83.231476 -66.765663 -92.791077
183.689728 -70.095390 -26.007036
107.731743 -68.837677 -70.734299
-9.680056 -66.465607 -158.957596
-16.892775 -67.665871 -163.780914
184.804733 -69.329277 -38.113121
92.402649 -70.138802 -96.220482
89.836266 -69.776054 -97.307533
113.597595 -69.001869 -89.921822
-22.562656 -63.884106 -172.678909
-18.624540 -67.775055 -170.928513
187.108566 -69.148682 -39.078876
40.496216 -66.513695 -137.980545
72.140228 -67.290680 -111.358147
121.725723 -68.490005 -88.741608
85.894554 -67.671753 -112.385063
40.910568 -66.253685 -140.063538
184.902237 -68.734146 -49.686047
38.821220 -65.782600 -143.054871
-12.701159 -66.977379 -181.286560
42.285454 -66.741447 -142.980728
95.794243 -66.128502 -108.437622
93.186668 -66.105965 -114.142296
123.729340 -66.822807 -88.191956
105.147202 -68.248421 -105.114960
36.959309 -64.937820 -150.715851
187.054794 -68.418274 -51.308392
29.347885 -66.828476 -153.058746
-13.191845 -66.777061 -186.848526
97.449425 -65.797913 -117.660889
124.204025 -66.888542 -94.277298
26.236118 -65.158432 -159.485062
119.488708 -67.601288 -102.561676
91.327019 -67.581215 -115.614433
185.178070 -67.767250 -64.107216
-10.652536 -66.412643 -185.071594
119.177383 -65.007889 -108.078529
105.730995 -68.361412 -112.718246
127.537926 -65.651527 -97.253784
183.923492 -67.890198 -62.988739
106.082497 -66.183136 -118.426231
4.753741 -64.781898 -179.806091
104.950584 -67.709656 -116.267097
134.291656 -68.031136 -108.745537
10.425705 -65.491806 -178.279984
-9.881145 -63.063992 -190.410095
-2.790198 -64.438103 -187.660660
3.733066 -64.234573 -185.633560
102.808746 -66.683487 -119.858910
178.597900 -67.035202 -75.997604
-1.449436 -63.793098 -190.186356
180.593475 -68.610435 -74.646095
99.980614 -67.883011 -122.041046
-1.757199 -68.189980 -190.428879
183.504822 -66.905945 -71.050591
128.463196 -67.434532 -114.345879
-2.149690 -68.853951 -193.928467
-7.460051 -63.544731 -198.214386
132.428421 -65.589539 -108.212296
118.046738 -65.914497 -120.353912
100.999901 -66.002090 -133.880783
121.324394 -63.901623 -123.229446
-14.996534 -63.794003 -205.739182
135.229797 -66.730141 -120.854904
-18.941681 -63.296097 -205.846512
110.048225 -66.800316 -128.532120
178.492767 -67.016899 -87.229607
112.892860 -65.914688 -129.662186
102.018921 -64.191635 -135.520416
101.985542 -64.915039 -137.926941
110.692162 -64.514793 -132.944473
-3.465709 -63.740292 -195.986145
132.221085 -66.006996 -121.331169
178.802750 -65.824913 -90.193031
136.956985 -65.325584 -119.885033
-14.079598 -63.027630 -207.772568
83.723106 -64.166519 -151.715973
128.722260 -70.826729 -127.637756
140.150360 -65.059128 -118.778000
80.133354 -63.410011 -157.381805
122.404213 -64.411621 -129.416916
144.725250 -66.055527 -116.956604
-12.465512 -62.853214 -216.857788
66.385178 -65.427582 -165.932358
84.072746 -65.008858 -155.151840
61.082108 -64.753204 -171.863358
-8.157744 -62.665615 -213.699753
1.485642 -62.999073 -212.750992
77.708435 -65.130730 -162.036011
70.754745 -64.334747 -168.980942
-0.026446 -62.339222 -215.388977
0.845765 -62.430004 -213.636475
64.387207 -63.933205 -175.187637
50.853294 -63.159245 -183.085281
-12.479278 -62.461784 -219.173996
-0.057725 -62.188068 -219.865433
17.588615 -62.982944 -206.409042
60.066563 -64.507095 -178.167542
-8.778725 -62.541805 -218.870483
11.129897 -62.865685 -211.717285
58.144268 -63.120277 -181.129807
51.592693 -60.995106 -188.424210
6.590057 -62.628918 -215.547745
51.250828 -62.867073 -187.079300
5.248368 -62.299728 -216.220688
47.256924 -62.784237 -190.023529
-6.719326 -62.416668 -226.246964
-2.942310 -62.162880 -223.680588
26.987026 -62.662430 -202.988739
5.634624 -61.806412 -218.501846
36.465324 -62.480537 -200.914261
121.895927 -64.605659 -148.987534
13.415504 -62.235699 -216.610443
28.400824 -62.684254 -205.475830
2.656321 -61.996605 -223.240753
156.694153 -64.434135 -135.371170
18.107460 -62.339600 -232.354279
0.673231 -61.174351 -242.476425
137.798645 -65.323883 -159.544952
20.589705 -62.063793 -236.321747
139.060211 -62.592571 -162.726685
157.786652 -62.120010 -154.000305
32.239151 -61.631050 -233.737686
86.778030 -61.850422 -199.643417
119.192688 -62.603134 -179.377899
51.577328 -60.481632 -222.701385
71.313477 -61.815041 -214.579529
72.735023 -60.840004 -214.253876
109.155861 -62.407124 -191.114655
51.643070 -61.124977 -227.009979
55.704388 -61.172581 -223.883270
122.997772 -61.545395 -183.003159
54.260254 -59.614563 -226.350037
44.661678 -59.391647 -232.968979
28.827345 -60.497757 -242.875259
157.176895 -61.408504 -163.243225
163.749496 -63.434792 -160.929672
18.190247 -60.581276 -251.500793
23.795858 -61.488632 -255.951614
38.188004 -59.832310 -259.664856
33.529907 -57.485081 -262.905273
32.129131 -62.080627 -264.533600
30.612038 -79.387375 82.489410
26.296518 -79.313553 80.030167
26.760632 -79.070244 73.204956
41.316586 -77.849213 62.399899
-26.013630 -75.062386 9.287388
-33.344879 -75.111565 4.127827
-8.374129 -76.064499 16.066326
-41.367386 -76.278618 -11.714951
104.712982 -78.562347 63.171169
17.407995 -77.305267 10.716488
109.451859 -78.167587 67.203789
120.745781 -76.348259 65.338570
-41.286621 -73.826294 -35.321918
98.454803 -76.014847 50.017616
4.410450 -77.756950 -13.187592
125.474907 -74.313049 62.537018
-1.251613 -75.425484 -22.890837
88.940430 -75.335564 32.249840
106.361412 -76.554596 41.142773
96.890976 -75.408249 28.954273
93.254837 -76.700562 25.642746
108.385529 -76.889160 38.856510
87.955902 -75.556465 19.756807
136.971954 -76.091911 52.215630
142.372604 -76.279663 48.861874
121.547104 -72.124390 38.156521
125.117203 -76.086105 42.017597
134.568863 -75.495750 52.007847
142.937180 -74.526222 51.327526
85.459686 -75.817062 12.147203
153.871475 -72.487480 38.033134
154.280487 -75.047722 40.597389
89.071297 -73.497124 -4.870517
98.029457 -74.026787 3.031854
161.197433 -73.534569 34.256657
96.889404 -73.369354 -5.282206
159.877060 -73.586609 31.279587
154.393341 -73.940186 35.784233
90.940956 -70.767418 -22.690653
25.951048 -71.557632 -60.032574
23.965302 -70.662750 -61.838257
161.533875 -72.338875 26.114452
10.839257 -71.497887 -77.481178
7.057374 -71.752785 -77.686607
24.132257 -71.641571 -71.615082
99.850830 -70.759315 -20.970442
167.250519 -72.364868 18.054552
15.856343 -69.586815 -78.871758
33.955807 -69.534706 -65.886147
104.377289 -72.530182 -27.009096
17.262884 -71.078041 -80.417664
168.812759 -72.439819 19.325769
175.106201 -71.280075 7.656530
174.789810 -73.053543 14.776526
45.668941 -70.959702 -69.807510
26.487352 -70.351402 -91.786667
17.678110 -70.223885 -89.874313
102.960098 -72.128151 -29.041426
80.608444 -71.507332 -57.819492
172.544937 -72.827148 2.540109
172.275040 -71.601898 9.401570
173.954895 -71.034454 7.531925
27.463490 -67.257690 -91.615570
42.904659 -70.845856 -80.349159
83.415558 -69.082108 -58.858421
66.403267 -68.327454 -80.933479
174.668228 -71.327049 -3.299945
49.959419 -70.251350 -74.506699
179.882523 -70.549225 -4.304816
52.363853 -69.975754 -87.313713
177.582275 -70.640358 -1.952190
-33.492786 -67.654129 -151.775452
64.886436 -67.754890 -82.993736
74.572601 -68.112366 -84.824768
111.729515 -70.357162 -56.025997
106.472755 -70.377014 -64.525909
115.510498 -69.099922 -60.548214
183.440002 -69.743401 -16.686546
-32.802345 -66.440437 -157.353195
78.945084 -69.797676 -89.997231
178.834564 -69.340485 -15.229158
185.055496 -69.137329 -25.529488
181.912338 -69.799232 -14.785132
181.848541 -70.285675 -32.413151
-29.807308 -69.567673 -164.114838
189.647003 -69.459671 -38.482361
75.261696 -66.139305 -98.744209
185.184601 -68.556396 -33.795082
-4.799138 -66.471283 -152.551804
73.670364 -70.658554 -97.937279
-18.273050 -65.343224 -161.571182
182.142380 -69.048958 -38.482365
108.905617 -69.474747 -82.039078
118.383957 -68.878944 -71.430344
-22.133804 -63.909302 -166.709015
-16.858387 -64.960014 -164.092789
94.787491 -67.059387 -97.261429
-2.907367 -66.522362 -155.257889
-17.027472 -69.116341 -167.680054
109.407959 -67.467453 -85.048103
85.133499 -68.813095 -102.119446
121.132904 -68.172791 -81.093094
114.422508 -67.266190 -92.315926
182.257217 -69.099083 -47.513893
91.933632 -65.333275 -108.499710
185.115524 -67.639908 -46.800900
186.657059 -67.867401 -43.773602
-16.964767 -64.355713 -181.378189
189.656296 -67.775917 -47.231014
112.380402 -68.108383 -92.966591
114.253128 -68.412109 -97.807472
77.486839 -66.466263 -114.206963
33.424725 -65.216316 -147.252426
84.671310 -66.006386 -113.769707
181.788971 -68.282379 -56.581837
186.203735 -66.957146 -58.482338
81.482399 -66.451469 -116.943855
38.318275 -64.795067 -147.545914
109.174454 -68.138481 -104.699425
184.363785 -67.237732 -55.155071
-13.907413 -63.628696 -187.532928
-30.221888 -63.847649 -187.869080
-21.072041 -63.311417 -192.473648
98.357727 -64.798851 -122.075584
-14.894691 -63.288586 -188.997055
108.976593 -67.896011 -114.159988
118.204155 -65.882706 -99.702705
-23.931759 -63.416771 -195.903107
-21.186832 -64.163315 -196.065201
185.995499 -67.503632 -71.606216
119.243248 -63.979702 -110.317032
-15.477930 -63.146709 -192.078949
-4.399191 -63.331116 -185.928848
98.073341 -66.490952 -119.524139
117.463875 -69.276253 -108.828827
182.839767 -66.780838 -65.720322
-20.207687 -63.246883 -197.676834
-7.998421 -63.435341 -189.996475
12.657788 -63.649197 -179.145966
184.520401 -65.835587 -69.214882
19.585209 -63.457005 -173.793549
-9.837851 -63.641621 -192.491592
-8.461269 -62.904285 -193.338455
-6.995770 -63.789463 -192.261978
-14.742599 -63.096760 -195.531479
-22.285496 -63.135818 -201.325531
4.685034 -62.166191 -187.645264
6.253569 -64.509430 -186.569489
-12.543811 -62.882484 -197.354172
-2.403593 -61.547108 -194.876099
-8.924021 -62.799416 -198.592438
181.073669 -66.197586 -75.219437
179.557022 -64.983704 -84.461174
-14.490437 -62.849171 -202.922958
179.256805 -65.019043 -79.502289
106.031357 -65.463371 -129.502823
129.015594 -65.102608 -112.996384
126.080414 -65.983322 -116.031433
-3.420991 -62.507202 -207.060913
134.396072 -64.784126 -116.079124
175.776672 -66.037254 -85.884506
133.616882 -64.576630 -112.620583
129.892838 -65.932045 -120.432510
118.853569 -65.254463 -126.783951
107.765686 -64.222153 -135.049286
124.975067 -64.253181 -125.741814
127.001060 -65.742752 -123.563156
173.429398 -65.362259 -93.942406
77.836800 -63.456055 -156.058731
142.165054 -64.051865 -117.591255
73.421608 -64.979752 -158.592453
119.921959 -64.092072 -133.081345
73.557961 -62.133095 -164.685318
56.107487 -64.151909 -177.871552
57.869492 -62.700764 -174.127136
119.151527 -63.559284 -139.020798
25.726496 -61.574455 -200.970078
119.311882 -64.706871 -142.728439
33.138355 -62.638168 -198.849213
35.820744 -62.045334 -198.270081
46.042656 -61.991688 -193.223572
13.209425 -61.558136 -219.505920
13.225102 -60.554600 -221.042633
-6.288110 -61.050423 -231.747757
158.233612 -63.884277 -147.238770
101.291992 -60.752075 -189.907227
91.843285 -60.405457 -195.914322
111.944839 -62.298912 -183.529999
121.731255 -62.835205 -176.393204
65.501442 -60.357716 -213.346344
123.307930 -60.390644 -177.883301
144.042130 -62.489891 -164.772842
6.859560 -59.082970 -252.126892
138.193893 -62.318851 -168.024658
155.297714 -62.529018 -158.882233
161.234085 -63.133335 -156.051666
101.918396 -60.490231 -195.407700
124.399376 -60.040379 -180.978683
162.465332 -60.557076 -158.688934
91.132973 -60.639698 -202.504242
118.783012 -60.506310 -184.889618
135.290314 -60.126377 -174.575104
163.510132 -62.634640 -156.132492
141.629776 -61.148724 -171.803116
153.351761 -60.245571 -164.621536
163.329086 -61.086136 -160.159378
37.613388 -58.579044 -239.740631
32.782173 -60.500404 -250.656662
36.878017 -59.984608 -261.972656
37.905022 -78.943794 91.390640
29.249605 -79.013153 87.066635
37.523636 -78.911537 87.478142
24.717411 -78.182678 75.149200
45.159313 -78.662605 86.474091
29.382456 -79.094643 75.051094
32.529964 -78.590256 69.153168
33.549507 -78.359390 63.609718
49.373165 -77.750435 77.859184
37.774338 -78.260689 65.950348
50.549679 -77.803215 73.877014
42.874508 -78.031509 66.434021
46.784721 -77.913155 68.896431
44.363407 -77.995384 63.890038
52.725960 -77.446907 69.150604
48.778339 -77.595474 64.905685
-10.111969 -73.381866 18.672340
-2.557533 -72.894272 21.124807
-48.150597 -70.745811 -13.281888
-43.355740 -75.531433 -20.029551
100.866081 -77.265144 63.588482
106.033340 -77.555748 64.575554
19.159016 -73.564461 11.271648
-40.945000 -76.770721 -26.230669
15.590936 -75.084785 2.485050
-0.705777 -73.853165 -17.775858
97.578812 -71.564804 43.408737
90.738235 -74.621246 31.513681
129.011261 -74.505135 56.710773
106.681824 -74.024879 37.087791
-9.310000 -75.867844 -33.387718
-8.464711 -74.104546 -35.629742
86.145477 -75.806984 22.643835
116.296806 -74.028915 35.285255
96.938240 -76.476883 20.860992
133.553955 -74.212753 51.192043
-28.533009 -70.992088 -60.293674
87.510406 -74.511337 5.634634
143.194595 -73.872185 46.754063
94.997162 -72.653381 12.452677
140.643341 -73.746765 44.664639
-17.631004 -72.879051 -60.011543
85.481804 -74.809105 6.859227
147.477554 -73.912460 38.217144
145.821396 -72.267769 39.418869
148.616943 -73.608414 41.157192
150.184753 -73.703728 41.538185
88.402740 -71.893677 5.451884
86.419418 -73.859741 -3.703344
94.996094 -72.636551 5.477784
154.056458 -72.895691 35.092144
95.523026 -71.738159 -5.021430
157.207275 -72.656281 27.279938
160.754974 -72.033257 30.096333
90.179245 -71.865913 -5.923810
-0.984454 -69.262390 -69.053864
166.071472 -72.371414 28.336498
20.368404 -70.478127 -64.398926
98.997543 -71.981903 -14.438731
7.523178 -70.494667 -74.576782
91.978333 -71.319244 -17.308479
5.058399 -69.637085 -79.651955
32.952236 -72.190742 -63.215076
8.045799 -68.274635 -73.283585
164.145767 -71.631477 23.186306
167.093292 -71.473213 20.727333
171.292831 -73.364456 20.589314
11.012011 -67.533722 -79.400711
84.447784 -68.115913 -41.402229
30.526703 -70.136406 -76.313766
36.985802 -69.421089 -77.137642
172.055481 -70.345566 3.837561
39.868126 -69.752350 -69.278542
90.128723 -69.783531 -44.704178
98.506744 -70.043243 -41.264153
180.360016 -71.782600 3.337441
107.128304 -70.195328 -42.062912
81.474884 -69.854797 -57.672905
108.494286 -70.611076 -39.179474
23.085775 -67.116249 -90.551353
25.561733 -67.867233 -88.045105
25.930666 -68.970551 -94.307007
178.759399 -69.496094 5.888209
44.734993 -68.410767 -80.465424
101.164146 -69.838470 -49.220585
31.326450 -68.484673 -96.305893
35.265320 -68.247169 -96.038391
47.756138 -68.504280 -74.392715
59.211548 -68.102287 -79.855843
182.947693 -70.508575 -3.461185
58.550503 -67.623436 -87.893021
101.927689 -69.558975 -58.336887
186.256302 -70.593498 -13.881054
-36.499535 -67.695183 -146.675934
-33.858845 -67.413292 -145.048416
-38.413628 -66.163422 -149.367264
-29.641277 -65.775208 -147.517380
69.066795 -67.241806 -93.106598
75.387398 -66.826714 -88.732094
115.455666 -67.731255 -67.091515
-25.889523 -65.493385 -152.803177
-28.401777 -65.866180 -155.756821
78.601677 -64.941132 -88.852676
104.225159 -69.570198 -66.402061
-27.611000 -65.889404 -160.198166
67.833092 -69.304741 -93.207077
181.198257 -68.377975 -25.189064
188.113174 -69.752762 -22.633223
118.007179 -66.294762 -70.625076
80.442467 -68.244415 -88.454346
76.730392 -68.285065 -97.566666
-30.678768 -64.436348 -166.176056
-11.699142 -65.955688 -155.831650
-5.773400 -64.869110 -150.487518
-2.918808 -64.031616 -151.323669
81.039597 -64.496407 -98.860771
107.094208 -67.744087 -77.030716
182.672852 -67.379959 -39.158165
-24.992039 -64.171684 -164.353241
-22.887337 -64.499649 -164.503601
-25.508913 -63.696659 -166.285690
-29.977373 -63.988083 -169.712234
79.757874 -67.435959 -101.825241
87.927094 -69.430115 -92.986992
-23.555758 -64.380394 -167.796036
88.278580 -66.394341 -96.123695
-36.594250 -64.172112 -173.268845
-11.657747 -65.309654 -159.100021
120.211281 -65.595741 -85.546692
-35.093971 -63.937130 -178.274216
-18.313868 -64.414078 -170.659088
111.176979 -66.580406 -83.149925
-26.622786 -63.832901 -172.402771
82.556168 -67.157173 -101.002785
189.049042 -67.684410 -33.988506
-22.172663 -63.446232 -184.033585
-32.503876 -64.009277 -183.884354
41.192535 -64.411133 -139.346786
182.304092 -66.793449 -50.762295
107.433449 -64.316940 -103.995468
-19.396851 -63.426136 -179.488358
34.976955 -63.632786 -147.570236
101.319870 -66.338943 -102.986603
126.699791 -65.936935 -99.907440
-12.115472 -64.250008 -181.593445
110.703987 -65.754265 -107.809425
94.273651 -63.722641 -118.070961
99.553329 -63.304974 -112.154282
185.339996 -66.672340 -55.198936
92.994102 -64.721069 -115.382294
85.972549 -65.209961 -117.091858
23.443546 -63.515186 -164.989227
100.684517 -64.487640 -115.456818
188.499496 -65.282333 -57.029984
180.932480 -66.324593 -61.277306
117.337273 -66.231895 -103.175255
106.407532 -65.778572 -115.502045
180.205322 -67.455521 -66.575188
10.090559 -63.354580 -175.066147
94.072701 -64.225143 -119.927788
30.168108 -62.985809 -161.581741
26.617266 -63.601894 -166.455551
2.234932 -64.074478 -183.264801
184.282135 -65.338364 -65.929001
11.160556 -63.026306 -176.954254
121.614647 -65.349091 -109.246819
182.787933 -65.478378 -66.485077
103.362503 -65.031509 -117.906181
108.049973 -64.859222 -121.026352
113.647041 -65.606743 -116.379456
123.262619 -65.013870 -106.924713
188.023956 -66.492767 -63.977489
128.394775 -64.191589 -109.758453
120.257469 -66.054634 -111.340904
110.411484 -64.963074 -118.779976
113.964363 -63.970581 -120.411934
132.870697 -64.090744 -106.474403
109.545677 -64.187737 -123.697342
182.720093 -65.501633 -83.034210
115.100647 -62.759003 -124.608353
136.744293 -65.728020 -109.170410
-17.172415 -62.451511 -211.825439
118.596352 -63.750786 -124.204918
116.201759 -62.428040 -128.912704
-13.319958 -60.367588 -220.951797
117.090179 -63.881397 -132.356140
140.903625 -63.195900 -118.966759
5.087585 -63.031628 -210.114120
68.812782 -61.051178 -165.420502
75.163399 -62.264225 -160.051117
172.607269 -64.623329 -99.589867
61.824390 -62.579742 -170.087189
143.570023 -64.762306 -120.469254
67.181618 -60.926445 -171.585449
116.694580 -63.685246 -139.376022
6.259356 -62.013226 -210.505264
169.096634 -64.058342 -103.819931
63.789742 -61.001690 -175.544006
44.281452 -61.060192 -188.628632
48.236382 -63.047169 -186.843216
31.654076 -62.605614 -197.648315
42.703049 -62.505695 -192.442886
42.535248 -62.301067 -195.373795
153.067642 -64.682594 -127.876793
28.070436 -60.111916 -210.848785
132.842621 -62.342808 -159.341644
21.469257 -59.425873 -234.879150
2.953306 -59.306763 -248.464951
41.495720 -59.851120 -227.443909
50.934948 -58.297867 -222.524597
83.985382 -57.717197 -202.114975
99.421272 -58.936390 -191.963135
111.187553 -60.183674 -184.710373
135.479019 -60.344128 -170.734787
137.068161 -59.525047 -171.318512
116.851212 -59.357555 -183.769928
119.824318 -59.576962 -181.840042
133.287842 -59.662495 -173.748978
91.051933 -59.063580 -202.209747
103.798378 -59.549950 -193.898911
136.726028 -59.331928 -173.717850
138.485153 -60.366505 -172.792191
146.363815 -59.477272 -167.326797
151.874039 -60.026604 -164.511963
74.362526 -59.665848 -213.776077
30.037544 -57.692299 -242.344833
50.792740 -59.634743 -229.136948
22.577621 -59.971199 -252.202194
23.347620 -57.981972 -254.572098
30.804413 -59.339794 -250.075729
45.640110 -78.622734 89.611832
25.455828 -77.815903 71.492378
51.912678 -78.145363 84.143341
54.273296 -77.772110 77.132538
105.449295 -75.877998 69.564301
115.307106 -76.067238 69.508186
124.346161 -73.529327 66.235847
123.147812 -76.571930 63.386162
92.405640 -74.713127 37.217182
87.054237 -75.359520 27.200779
97.696243 -73.019485 37.725716
-10.143937 -69.146683 -30.748234
101.744034 -75.589241 42.347008
134.666306 -72.884277 52.444069
112.331581 -75.291656 35.977432
131.062775 -73.513268 46.152031
-19.056549 -72.348381 -47.211891
87.295906 -73.476074 18.062210
-19.084551 -71.681900 -53.196941
97.475563 -74.241165 13.688183
85.205200 -72.932472 13.433130
141.001068 -73.407814 49.822563
85.881477 -71.603828 9.402205
89.989273 -70.959587 4.505017
92.720413 -70.799141 8.214426
147.835632 -72.306511 41.432587
-9.958638 -69.641335 -65.057228
157.170288 -71.481735 32.796795
93.297493 -70.849953 -4.173354
95.240944 -70.016670 0.676715
91.608406 -70.935326 -3.777540
16.533566 -70.448807 -59.313923
87.987045 -71.140770 -7.632298
3.618392 -70.820320 -75.472481
19.017193 -69.720116 -61.337387
-0.005908 -68.508652 -75.362679
92.631805 -70.206779 -10.336161
16.910189 -68.534660 -63.802570
96.634239 -69.917816 -14.228707
7.821166 -68.157074 -76.089630
18.988449 -70.807678 -67.538391
94.471657 -69.683754 -21.970032
164.657181 -72.334145 16.978966
166.502518 -70.274384 26.730337
96.329956 -69.288696 -20.587982
32.176800 -67.932281 -62.683128
169.213470 -69.791115 10.625079
9.569219 -68.365631 -80.496246
21.696177 -69.118195 -71.187035
101.939491 -69.931702 -29.493401
8.922123 -68.382965 -83.752731
15.639754 -68.887749 -84.907677
174.338699 -70.722992 15.417027
22.581022 -69.306572 -84.287033
44.077312 -68.435448 -69.718643
98.052040 -68.222275 -30.160673
11.433237 -67.937256 -85.539886
86.632896 -70.104248 -40.996815
104.716812 -68.360046 -33.224564
99.885017 -68.918640 -28.099926
88.128799 -71.099976 -44.463181
36.224186 -67.475098 -75.121132
100.496155 -67.605423 -34.303226
36.647320 -67.995636 -68.838654
83.307030 -69.113480 -45.825508
94.296158 -68.981827 -34.448456
17.513895 -68.177597 -89.089516
38.921146 -66.684265 -73.765594
21.701962 -66.470299 -87.765236
92.126976 -68.114662 -45.466377
96.844574 -68.775627 -33.008827
83.482117 -68.070099 -54.421059
95.930748 -70.295013 -40.809650
109.256989 -69.362305 -42.281097
41.313950 -69.267914 -81.520111
52.506996 -68.317551 -73.788765
47.315575 -67.226418 -75.945679
104.700089 -68.056984 -40.478870
47.615063 -67.849129 -84.491287
47.403065 -66.928352 -78.228302
101.531639 -68.095535 -49.405502
53.455803 -67.126976 -87.232414
110.471741 -67.849419 -48.101460
181.139801 -68.680618 -0.798075
59.411377 -66.583176 -81.756569
178.234787 -67.955963 -8.985239
60.024937 -66.349792 -87.104080
60.336670 -67.241104 -91.274414
104.039513 -68.931519 -57.754417
180.982819 -67.325493 -18.095930
69.161728 -65.805260 -90.923317
59.331524 -66.000160 -84.422737
73.819572 -65.694206 -89.237099
-30.983313 -65.702835 -157.161819
106.369392 -67.109627 -66.155197
186.319992 -66.759148 -23.058289
-33.449257 -63.851337 -166.232101
74.940689 -65.892159 -95.796143
1.687873 -64.622177 -146.725784
-13.425666 -64.464073 -157.257339
7.851579 -63.594646 -146.138733
7.124532 -64.474472 -147.989059
87.651344 -65.441841 -93.189819
117.309769 -67.082832 -74.840240
89.178062 -63.726791 -98.168869
-1.148680 -64.042648 -158.050812
86.563522 -63.853443 -105.221596
-8.449649 -65.070259 -160.909119
91.953217 -66.012405 -98.247131
-18.022997 -63.215153 -169.290421
183.496948 -65.561790 -46.177845
-37.329136 -63.623631 -177.781952
105.446091 -67.153809 -102.545761
115.147446 -64.782242 -91.023788
119.374374 -63.810230 -97.101357
181.752457 -64.940155 -59.747543
114.143661 -65.093666 -95.650459
121.738060 -64.517845 -92.911507
97.182915 -66.786987 -111.468208
33.945717 -62.411114 -151.214233
27.985905 -63.612560 -153.907471
109.371262 -63.004467 -108.380257
-27.072947 -62.307625 -196.325974
124.714699 -64.049072 -100.524315
-8.552011 -62.008129 -184.713272
124.929710 -63.788273 -103.617432
1.453056 -62.417191 -180.193726
15.881930 -63.148708 -171.816513
126.783760 -63.509384 -98.938469
179.582855 -64.579788 -69.017975
120.400208 -62.817635 -104.127846
22.806046 -62.749897 -173.166473
182.008560 -64.406082 -72.026398
186.378937 -64.495834 -70.757118
14.065066 -62.232483 -181.058212
21.516266 -62.782116 -175.505264
108.410622 -63.158066 -120.775635
177.945511 -65.210442 -75.055283
175.101379 -64.538475 -83.970512
182.078857 -63.991276 -75.402153
6.935512 -61.011639 -188.391602
181.428955 -64.275314 -80.607658
177.497360 -63.663940 -83.720421
-24.266115 -62.230576 -201.233749
122.562843 -65.470062 -121.534523
137.505264 -63.319206 -113.790367
117.433319 -62.298519 -124.977913
134.024368 -62.193081 -114.796425
177.084549 -64.340118 -87.525810
133.090698 -62.964176 -117.545982
115.382439 -59.181171 -129.123291
124.582809 -61.496170 -122.380951
179.743744 -64.295685 -90.806458
129.292694 -64.309822 -122.049026
117.237656 -63.140488 -129.877380
136.848495 -62.912376 -119.339897
-18.580389 -60.401363 -212.028061
176.851303 -61.722763 -97.691223
170.928925 -61.871647 -101.315536
171.326553 -64.106834 -95.202835
116.835014 -62.593075 -135.691483
175.327103 -64.089958 -98.241417
65.320648 -60.943241 -167.889069
171.826141 -63.192612 -103.474770
51.994587 -62.122105 -180.656723
23.806164 -61.892773 -201.122467
17.206697 -59.987541 -204.928818
166.863998 -63.027939 -110.095909
15.876409 -61.277340 -207.724701
37.979538 -61.214333 -195.399872
35.153511 -59.091511 -196.778381
60.671314 -61.703098 -179.143448
38.978916 -61.672394 -199.436356
29.301552 -61.460144 -206.779037
13.267078 -58.141293 -221.258942
121.376160 -61.325047 -149.430511
-7.073779 -59.245831 -231.407349
127.715706 -61.448750 -157.096756
1.739797 -58.180779 -230.184769
11.788145 -57.789715 -233.055283
-0.367513 -58.677036 -243.091583
130.525833 -59.436020 -158.855942
32.421463 -59.496696 -230.450455
11.413328 -57.821507 -246.027115
21.390762 -58.248940 -234.813049
31.931679 -61.029488 -231.946548
139.568069 -58.185741 -165.017929
39.835930 -61.408051 -226.647003
26.468573 -59.079678 -235.735947
48.224506 -58.533546 -223.183975
83.024818 -59.314899 -201.877121
94.752792 -58.095314 -195.674255
143.562546 -59.724178 -166.246231
103.948494 -58.609093 -192.252411
99.206032 -58.090855 -194.385056
90.853912 -57.762211 -201.663544
76.416878 -59.134670 -211.859116
66.262405 -56.143898 -217.436493
12.155621 -56.157070 -251.614120
12.303370 -58.634346 -252.725006
45.072792 -59.019691 -235.408249
29.090801 -58.620277 -246.850937
22.819981 -58.506207 -256.556732
36.252129 -56.411701 -262.442566
45.511467 -77.139771 90.782646
27.229570 -78.095108 68.278816
48.938877 -76.833305 73.766823
17.125402 -76.390770 14.922033
100.418007 -74.600761 68.738205
103.691345 -73.610138 70.155914
96.112610 -74.458397 65.123543
94.878639 -74.622162 61.927399
112.603416 -77.640862 66.972336
-46.327477 -71.729530 -28.217346
96.243217 -75.558487 53.646893
5.325038 -71.345352 -3.686874
126.941872 -74.582314 60.094055
94.504326 -73.253387 35.841007
136.979568 -74.843254 55.352470
136.744415 -73.185493 53.366592
108.337158 -72.025520 33.880615
-17.107132 -73.456947 -44.393791
95.754044 -73.831467 23.211271
140.806763 -72.500595 47.524734
95.566406 -73.877388 13.481935
119.255051 -72.006790 35.107201
87.960594 -71.745216 12.792479
141.481064 -71.965141 49.619549
93.480446 -70.789116 14.869226
147.596436 -72.535530 44.325169
148.690948 -71.715446 42.119221
-10.255785 -69.801437 -57.022388
-11.878150 -69.731552 -62.170555
97.456955 -72.453377 1.788680
155.547348 -72.249931 40.610344
158.431686 -70.117172 36.346966
-8.295723 -68.812782 -71.653229
152.533569 -71.081558 32.945049
15.592829 -70.300949 -61.726608
-10.418723 -68.893517 -71.516235
-0.519219 -68.018745 -67.285698
13.966892 -66.540512 -56.686871
90.477776 -69.208427 -12.034199
99.686813 -71.478363 -10.913094
4.099688 -68.111107 -75.429199
90.458366 -69.880089 -16.488970
163.164337 -70.014381 20.475649
36.442486 -67.547096 -65.817711
95.770752 -66.665039 -30.634523
170.713181 -68.857346 18.476421
101.246109 -68.800575 -22.229210
165.969345 -68.835442 18.804007
29.422792 -69.061356 -73.461372
17.734480 -67.134712 -81.882858
34.448723 -67.759087 -77.515060
48.137413 -67.078728 -80.482735
84.063683 -66.725037 -47.767391
172.215408 -68.103539 9.079581
172.649109 -68.624809 5.381130
86.970390 -66.287529 -48.734798
86.591797 -68.796776 -54.064926
92.574463 -69.245674 -43.783344
99.521965 -67.388527 -37.712914
178.061890 -67.277145 -1.059032
176.016113 -69.045616 -4.757391
106.809074 -65.464546 -51.799343
103.744904 -67.117294 -42.187073
177.745483 -67.753532 3.805896
64.487762 -65.873688 -81.439156
178.037567 -67.404808 -3.796090
101.244469 -67.473206 -55.679977
102.130325 -66.853844 -47.500725
180.566956 -66.962769 -8.135465
108.078796 -66.493340 -50.395515
185.372284 -67.776398 -14.817921
56.311981 -65.209984 -86.987053
110.691292 -65.738365 -52.053646
183.223831 -66.493813 -17.153378
112.000137 -66.586281 -59.779572
-34.792744 -63.674576 -158.241608
71.096504 -63.663452 -93.547577
114.912216 -65.709587 -61.854874
2.750975 -63.920784 -139.594955
3.161979 -63.746674 -136.836670
114.858070 -65.507736 -68.175758
105.240730 -66.368805 -69.372200
73.652412 -65.077858 -93.817970
69.830673 -65.930244 -95.434814
71.491013 -65.197021 -90.133820
106.138275 -65.817726 -61.877472
-29.851072 -63.582863 -162.815445
-23.637302 -63.911621 -159.162811
-19.841320 -63.711151 -160.034409
78.591904 -64.453133 -92.491234
111.849991 -64.591438 -81.277161
183.394867 -66.313171 -31.360992
3.954972 -63.682365 -147.161285
119.463478 -65.227486 -76.561699
84.779243 -64.402115 -95.097054
85.465042 -63.145126 -97.334808
185.852280 -65.538712 -34.375244
110.092247 -64.457764 -84.394142
81.232964 -63.487301 -96.465302
-1.741557 -64.610672 -154.212494
-10.027807 -62.481579 -161.982086
6.781048 -62.449043 -151.175934
-16.975735 -63.353725 -166.706604
116.244019 -64.540199 -76.470428
185.563568 -64.788399 -42.155338
-37.957371 -61.195629 -179.557632
188.171371 -65.850357 -38.665546
89.476326 -64.137527 -104.650063
188.592087 -65.463524 -49.395309
184.011612 -63.950508 -54.636585
119.516739 -63.675827 -89.538712
122.694847 -64.624123 -87.834946
115.606575 -63.671890 -88.207657
103.247704 -63.640701 -111.575256
29.487514 -61.939911 -153.113602
102.611511 -63.925705 -104.447609
186.499847 -63.841461 -52.807827
33.704746 -62.321239 -153.797745
24.587851 -62.588638 -159.909042
34.591377 -64.711647 -154.272079
186.471222 -63.439838 -60.684509
0.727274 -60.992744 -180.788818
0.685726 -60.449001 -180.771683
15.548351 -60.933414 -171.458588
19.620604 -60.076771 -169.949783
1.357269 -61.942131 -181.626984
22.871449 -63.616409 -168.668961
19.649036 -62.530430 -171.985138
109.756317 -63.081295 -113.966225
99.333763 -62.810566 -117.315994
117.236252 -62.450836 -115.925125
107.153389 -61.943703 -117.204811
131.526093 -62.533813 -108.443481
102.748528 -62.237926 -121.572639
-26.951307 -60.043320 -197.654404
117.238953 -60.962395 -117.512711
185.553177 -63.110359 -71.223961
127.699837 -62.786682 -112.825851
113.779961 -61.645653 -120.805710
-11.462405 -59.117714 -202.932816
-0.181280 -60.465645 -191.193878
175.322723 -61.701950 -83.695229
115.588898 -62.944302 -121.944397
124.743889 -63.141102 -113.421394
178.935516 -62.841290 -81.714005
185.055084 -64.568153 -76.713066
182.125641 -63.130096 -85.362236
120.478401 -62.476604 -120.768547
171.364960 -62.542496 -92.381615
106.533752 -62.287159 -131.496719
109.278290 -61.788021 -132.570129
130.757111 -61.988270 -118.512184
178.857101 -63.234684 -87.649307
175.288162 -62.372559 -89.234024
169.790588 -61.589828 -101.344139
176.559799 -63.297199 -92.744965
114.950935 -61.452427 -140.096085
57.549351 -60.123390 -175.074127
63.772717 -59.534809 -172.972885
165.519333 -62.502415 -106.784958
6.129179 -59.118279 -209.053421
162.236053 -62.010334 -115.677284
51.286739 -60.003925 -180.939789
