3.886393070221 -71.687446594238 -159.173202514648 1.644518613815
24.015542984009 -73.509391784668 -157.399383544922 2.207630634308
31.893562316895 -72.090530395508 -165.177581787109 2.295953512192
-46.756076812744 -72.654556274414 -160.755081176758 1.084529638290
-31.920644760132 -70.563079833984 -159.671920776367 2.894968509674
-39.294979095459 -70.007194519043 -160.486450195313 1.753592014313
29.792224884033 -69.324806213379 -160.370468139648 2.321616649628
-42.962203979492 -68.971321105957 -165.004409790039 2.810580492020
-41.877433776855 -69.535835266113 -163.641891479492 2.964829921722
19.228034973145 -70.818458557129 -164.716934204102 2.241695880890
-39.229736328125 -67.427589416504 -174.818115234375 3.133863925934
28.865234375000 -76.131172180176 -171.026519775391 1.576844692230
112.185989379883 -71.680389404297 -167.162506103516 1.848194360733
-32.284709930420 -70.855468750000 -173.128051757813 1.604153513908
107.760765075684 -73.830329895020 -172.028915405273 1.120433330536
-36.064697265625 -71.787025451660 -178.173477172852 1.322657108307
-37.472797393799 -71.724998474121 -184.794891357422 3.299488544464
16.920028686523 -75.970222473145 -178.924255371094 2.233456373215
104.542106628418 -69.261833190918 -181.904647827148 3.059685945511
-24.950344085693 -67.785705566406 -185.407958984375 0.474432349205
-30.442005157471 -68.612617492676 -177.406387329102 2.152153730392
-24.514451980591 -70.721839904785 -186.444641113281 1.008697390556
-144.119598388672 -72.909194946289 -189.466400146484 2.358868360519
15.560978889465 -71.612197875977 -185.211105346680 1.993299961090
105.409324645996 -71.770156860352 -189.373672485352 1.370511889458
-153.943771362305 -71.076728820801 -198.247970581055 0.919699490070
-25.526891708374 -71.324234008789 -194.329330444336 1.605983614922
-113.416435241699 -72.569244384766 -195.254379272461 3.028911113739
-135.843109130859 -69.780403137207 -197.955947875977 3.222272872925
-110.992759704590 -72.862869262695 -199.162811279297 2.079077959061
-108.863296508789 -70.525062561035 -199.967666625977 2.510221958160
-11.711256027222 -71.240821838379 -196.805541992188 3.132834434509
21.383050918579 -69.419349670410 -194.047607421875 1.247950434685
-15.458663940430 -70.489784240723 -202.447952270508 1.201337456703
-120.534332275391 -70.955482482910 -205.436462402344 1.731044411659
-24.508701324463 -67.938804626465 -204.971313476563 2.277184009552
-132.761322021484 -70.189697265625 -202.557128906250 0.700132966042
-15.253006935120 -69.392570495605 -202.952072143555 1.424616456032
-142.651397705078 -70.312126159668 -206.546707153320 0.843622863293
93.621856689453 -70.618034362793 -209.674041748047 1.775483727455
-165.040176391602 -72.193725585938 -200.774627685547 1.171442627907
-3.098537921906 -76.013351440430 -212.467773437500 1.367787718773
9.809503555298 -72.929405212402 -207.649856567383 0.802969455719
8.011326789856 -70.279289245605 -216.022857666016 2.352960348129
82.001098632813 -73.120574951172 -218.441589355469 2.715429306030
5.059048175812 -70.365333557129 -214.253036499023 2.745391845703
11.503721237183 -70.618560791016 -213.580932617188 0.649463415146
-15.823531150818 -71.842834472656 -219.022018432617 2.213695287704
-91.158653259277 -69.535797119141 -218.766952514648 0.632193505764
-95.771377563477 -66.904907226563 -215.453475952148 4.001844882965
-6.222407341003 -72.165237426758 -220.656219482422 3.189253807068
-164.348953247070 -68.898170471191 -223.050003051758 1.334183096886
13.682560920715 -71.199829101563 -219.892242431641 1.390215635300
-143.451370239258 -70.177940368652 -226.344985961914 0.757898807526
14.821586608887 -67.666351318359 -229.055755615234 2.795355796814
-134.239288330078 -69.491111755371 -224.569778442383 1.033733725548
-118.518905639648 -69.953361511230 -225.507858276367 2.090756177902
13.483874320984 -67.552566528320 -221.959060668945 2.656217813492
79.511993408203 -69.613845825195 -223.062316894531 2.820121765137
7.517319202423 -73.259613037109 -220.595718383789 0.945430159569
-110.316421508789 -74.083000183105 -228.576950073242 2.493887901306
79.909988403320 -72.728988647461 -228.090499877930 1.654860019684
82.816986083984 -73.935119628906 -228.876968383789 1.901180148125
-124.403900146484 -72.373641967773 -231.388336181641 1.451582908630
-112.490333557129 -70.468772888184 -230.549865722656 1.914623618126
-14.207951545715 -69.419166564941 -231.143646240234 1.273865818977
71.697143554688 -68.078514099121 -227.302780151367 3.510499000549
67.366836547852 -69.824058532715 -235.248901367188 2.006956815720
75.409553527832 -72.804954528809 -231.919754028320 1.395537018776
-137.435897827148 -68.834686279297 -236.364456176758 3.274309635162
71.159988403320 -74.052551269531 -234.302612304688 0.390259295702
65.733337402344 -68.498138427734 -236.590484619141 2.302717685699
-166.790451049805 -71.654060363770 -226.933319091797 2.304503679276
-1.717768430710 -70.644058227539 -240.683914184570 1.632369041443
18.826013565063 -71.353263854980 -240.195281982422 2.692399978638
-2.997967243195 -71.566230773926 -237.756164550781 0.557183980942
18.173480987549 -68.343902587891 -241.608245849609 2.911386013031
63.349887847900 -74.546875000000 -239.480102539063 0.715892970562
16.678833007813 -69.784690856934 -239.854171752930 1.227893471718
-13.220503807068 -68.190582275391 -243.364273071289 2.863553762436
1.850607275963 -68.422996520996 -241.902404785156 1.765547037125
64.934188842773 -71.196380615234 -246.106353759766 3.685321331024
4.918042659760 -72.197692871094 -244.261108398438 1.219448924065
-7.854948997498 -70.267707824707 -243.899749755859 1.425780177116
13.417789459229 -70.374099731445 -244.415267944336 2.066059827805
-165.815231323242 -73.063339233398 -240.822692871094 2.047381877899
58.642169952393 -70.924301147461 -246.949829101563 1.472715973854
51.801944732666 -70.255371093750 -249.518707275391 1.767074465752
54.446666717529 -70.350692749023 -242.868835449219 1.868105530739
-13.070462226868 -73.306167602539 -249.220642089844 1.960726261139
52.782234191895 -72.504943847656 -247.435119628906 0.683036923409
-71.792259216309 -70.834335327148 -248.356811523438 1.387161970139
52.851730346680 -72.535697937012 -248.952911376953 0.907947361469
-92.226585388184 -72.322387695313 -253.868133544922 2.272842407227
-126.588874816895 -72.297622680664 -254.267120361328 2.243210077286
-132.890960693359 -70.857582092285 -253.239898681641 2.061342239380
46.462547302246 -72.169677734375 -253.555358886719 1.338125467300
-136.063446044922 -68.662216186523 -256.790039062500 2.027178764343
-109.322257995605 -70.547584533691 -257.377014160156 1.614325046539
-114.022666931152 -69.689094543457 -258.536987304688 1.588822841644
-83.982872009277 -71.764160156250 -256.521484375000 1.184273719788
-114.232414245605 -74.953407287598 -256.695251464844 2.826205968857
-122.657020568848 -74.086784362793 -260.378814697266 2.253468990326
-144.353103637695 -70.242607116699 -264.188232421875 1.164034008980
-16.729221343994 -72.356903076172 -261.498840332031 0.472825855017
-168.986312866211 -71.261062622070 -266.078216552734 3.628985404968
-13.361379623413 -71.119224548340 -270.629211425781 1.785559058189
-159.247756958008 -67.446235656738 -269.544891357422 2.717385292053
-153.416091918945 -69.515350341797 -276.343933105469 2.918215274811
-173.172592163086 -70.305221557617 -279.118164062500 6.234255790710
-13.182765007019 -66.956367492676 -277.803222656250 3.361714124680
-137.621841430664 -69.259216308594 -284.830627441406 1.931277751923
-158.635437011719 -73.185661315918 -282.345245361328 2.984489202499
-145.080947875977 -70.798294067383 -283.859222412109 1.104322195053
-140.656295776367 -76.260856628418 -284.411010742188 2.304589986801
-8.856024742126 -69.652969360352 -285.802337646484 1.531812429428
-126.194435119629 -74.027053833008 -280.839935302734 3.335560798645
-143.212875366211 -70.992355346680 -288.368408203125 3.061651706696
-115.212173461914 -72.288078308105 -285.957946777344 1.333213567734
-76.261909484863 -72.522697448730 -285.321746826172 2.151932716370
-61.411815643311 -70.162483215332 -285.150146484375 1.690844774246
-5.744705200195 -72.472946166992 -290.529510498047 1.448623180389
-57.209510803223 -71.598197937012 -291.621459960938 1.953219652176
-54.907272338867 -69.653266906738 -286.893005371094 2.808301448822
-72.898521423340 -71.230278015137 -291.897033691406 1.932450056076
-86.383666992188 -74.793251037598 -290.380187988281 2.485859632492
-96.571975708008 -69.191696166992 -288.566955566406 2.147001266479
-161.241470336914 -67.133361816406 -289.817504882813 2.205635786057
-163.812377929688 -69.844070434570 -292.371887207031 1.352844119072
-125.287361145020 -72.372421264648 -293.732696533203 0.914468824863
-143.966873168945 -74.050201416016 -294.942474365234 1.985168099403
-158.514862060547 -70.086517333984 -300.413055419922 3.565945863724
-150.653106689453 -70.978469848633 -314.174194335938 1.909293651581
49.366786956787 -70.346580505371 -19.444526672363 0.650362014771
19.357130050659 -75.010307312012 -24.467735290527 2.550849199295
38.997184753418 -70.006042480469 -34.122638702393 1.410896182060
-15.963120460510 -75.777122497559 -67.679252624512 2.057375431061
83.113273620605 -73.138824462891 -61.809047698975 4.353541851044
87.486946105957 -66.508300781250 -65.032188415527 1.733784914017
78.788810729980 -71.100631713867 -68.315399169922 2.222801446915
71.369216918945 -67.917335510254 -70.389984130859 1.195148944855
93.061630249023 -76.430389404297 -72.449790954590 3.068518877029
-97.504837036133 -71.249610900879 -67.873626708984 4.990597724915
71.452690124512 -71.173446655273 -71.945030212402 0.841570019722
-34.041160583496 -70.068778991699 -76.491256713867 1.923593878746
99.001029968262 -72.291053771973 -87.237716674805 0.921081185341
60.460487365723 -73.009223937988 -91.116142272949 2.491711378098
103.967636108398 -72.598815917969 -97.249237060547 1.453425288200
104.224472045898 -70.923118591309 -98.476730346680 1.281831383705
67.840980529785 -68.443344116211 -100.106971740723 1.821933507919
-78.814826965332 -72.446937561035 -96.852966308594 2.176084995270
52.918018341064 -71.603713989258 -100.826660156250 1.444935917854
108.573448181152 -71.082809448242 -106.348724365234 1.237590789795
49.698673248291 -73.138862609863 -108.984901428223 1.317382097244
81.328575134277 -70.373237609863 -102.082382202148 0.982972323895
42.186141967773 -72.002136230469 -105.417770385742 2.226927757263
105.559494018555 -71.052673339844 -106.844825744629 1.341609358788
48.192378997803 -69.490623474121 -103.865325927734 1.731100559235
109.106216430664 -71.954551696777 -113.615425109863 0.935975372791
108.252265930176 -70.308540344238 -114.151626586914 1.306166529655
-73.423034667969 -67.416999816895 -115.939895629883 3.659913301468
-81.172615051270 -71.746459960938 -119.745437622070 0.694244563580
43.486740112305 -70.671432495117 -121.084976196289 0.281497836113
115.242073059082 -72.675468444824 -116.684997558594 2.971398115158
114.524200439453 -68.526527404785 -125.335861206055 2.287023305893
-84.475120544434 -70.746124267578 -125.135635375977 1.445168733597
108.736351013184 -70.696800231934 -124.853836059570 2.008559703827
-57.494461059570 -72.617591857910 -131.929321289063 2.243029832840
-84.722427368164 -68.629508972168 -125.262435913086 2.640532970428
-74.877967834473 -70.331970214844 -128.714126586914 1.844083786011
-57.629379272461 -65.589767456055 -127.692321777344 1.972911834717
32.734378814697 -68.502273559570 -129.158325195313 2.193261146545
42.179180145264 -71.294166564941 -132.821914672852 3.272384166718
-79.023857116699 -70.273971557617 -139.117828369141 1.104527115822
30.135795593262 -72.183113098145 -134.258422851563 1.159753799438
109.747398376465 -67.930191040039 -138.537963867188 2.553510904312
-42.349174499512 -70.387008666992 -145.638595581055 0.443988621235
25.674980163574 -64.606758117676 -148.919189453125 4.028105258942
118.263252258301 -72.685615539551 -145.906585693359 2.326704025269
34.776576995850 -70.763244628906 -144.830032348633 1.810541152954
109.986030578613 -69.665954589844 -145.903732299805 3.086905717850
-50.744674682617 -72.870056152344 -146.296310424805 2.488014459610
-70.969116210938 -74.169181823730 -149.159286499023 1.069887995720
-52.548633575439 -72.415397644043 -153.815628051758 1.613847136497
-38.670661926270 -73.222572326660 -166.439117431641 3.394813776016
4.744867801666 -72.193367004395 -158.381164550781 0.690409243107
112.698310852051 -69.728805541992 -153.141296386719 1.055461525917
108.994934082031 -68.783729553223 -154.955657958984 3.677508592606
7.327791213989 -70.088127136230 -156.309722900391 0.845579206944
6.660107612610 -70.125465393066 -163.742294311523 2.975559949875
16.426519393921 -71.235824584961 -157.325347900391 0.568045139313
27.774705886841 -71.170829772949 -158.228332519531 2.055044174194
115.291030883789 -71.065521240234 -166.359497070313 2.067319154739
107.147354125977 -72.400527954102 -169.722457885742 0.714266061783
23.322011947632 -67.903030395508 -169.191574096680 1.744233846664
28.325235366821 -70.373191833496 -160.630264282227 1.672463893890
114.239128112793 -71.159629821777 -163.034729003906 2.667387247086
-29.068643569946 -71.541503906250 -171.675094604492 2.149199247360
109.692916870117 -68.240081787109 -166.285934448242 2.036816120148
15.337866783142 -72.054298400879 -174.546722412109 1.272628307343
25.824022293091 -68.741821289063 -167.570693969727 1.546856999397
108.885650634766 -68.163192749023 -173.985107421875 2.072748661041
25.514265060425 -70.961441040039 -171.864730834961 1.992369413376
110.821228027344 -71.352073669434 -181.901870727539 1.516275405884
-36.063999176025 -68.901954650879 -174.418136596680 0.533407568932
25.722921371460 -66.847984313965 -174.329986572266 1.962244629860
107.076324462891 -69.701957702637 -181.608520507813 2.105941057205
22.707696914673 -71.109733581543 -181.340225219727 2.886560201645
-150.672134399414 -69.959983825684 -189.110275268555 1.672263026237
-30.877283096313 -70.257606506348 -187.385803222656 1.322520375252
24.567174911499 -70.313079833984 -186.828247070313 1.790568232536
-111.087081909180 -70.840179443359 -192.538513183594 1.675807952881
-107.965156555176 -69.404037475586 -189.218460083008 0.982471406460
21.757421493530 -68.453323364258 -191.179931640625 2.611635208130
12.880537033081 -72.117485046387 -185.230026245117 0.560595810413
-27.370838165283 -65.958473205566 -189.223220825195 2.649889945984
-30.022340774536 -67.592086791992 -186.350357055664 1.738265633583
-26.838354110718 -70.788597106934 -184.324737548828 1.534900784492
18.629611968994 -68.419540405273 -180.795806884766 1.891437411308
-153.016494750977 -69.194671630859 -195.571136474609 2.397468566895
-145.765533447266 -71.896804809570 -197.963699340820 1.902136921883
-141.445159912109 -68.947128295898 -194.250396728516 0.696180641651
-17.249860763550 -73.154846191406 -191.386245727539 1.941115975380
13.953392028809 -74.485877990723 -198.033676147461 1.350801825523
102.354469299316 -71.640075683594 -197.060226440430 2.589106798172
-113.460319519043 -68.254463195801 -195.814392089844 1.218625187874
22.170148849487 -70.903358459473 -202.585998535156 1.728042960167
-18.522304534912 -70.521659851074 -196.297332763672 0.994950592518
-19.067417144775 -70.442649841309 -198.742599487305 2.277407169342
101.764282226563 -70.925895690918 -198.933319091797 2.041484594345
10.135423660278 -70.828170776367 -200.707366943359 1.268132448196
-17.181102752686 -70.918243408203 -196.195922851563 1.213130235672
-120.943672180176 -72.271934509277 -201.924072265625 0.573071062565
-136.556594848633 -67.970207214355 -204.518844604492 3.261243104935
-114.129966735840 -70.976501464844 -202.446044921875 0.951175689697
-141.812759399414 -70.928245544434 -203.659774780273 1.388472914696
17.494480133057 -69.521934509277 -198.714935302734 1.445606946945
95.186729431152 -69.264472961426 -204.264205932617 2.810431003571
-167.330184936523 -65.758155822754 -205.777496337891 2.850707054138
97.443092346191 -71.746673583984 -205.147094726563 1.650815486908
-17.467187881470 -72.855499267578 -208.922485351563 0.437495678663
96.608421325684 -71.645545959473 -216.113891601563 4.456139087677
90.636634826660 -68.955261230469 -213.271728515625 1.313485741615
16.584381103516 -70.955490112305 -215.097671508789 1.679686665535
20.010095596313 -71.876266479492 -215.622482299805 2.981586217880
9.746834754944 -67.243835449219 -206.843353271484 1.129204630852
-12.658168792725 -73.312843322754 -218.983581542969 2.638196229935
-96.249595642090 -71.762893676758 -219.108276367188 2.697375297546
-5.138110637665 -71.966995239258 -212.417007446289 1.217113971710
90.483093261719 -68.538314819336 -212.135375976563 0.742248117924
-90.922157287598 -70.047210693359 -218.247451782227 0.452477544546
-103.485649108887 -67.628395080566 -219.235183715820 1.701480627060
-89.724456787109 -72.501930236816 -219.934783935547 1.394383311272
85.252395629883 -69.306846618652 -223.435684204102 2.043314456940
-136.326019287109 -71.102745056152 -226.796981811523 2.395058393478
-135.838943481445 -66.891059875488 -224.039566040039 2.289107322693
-118.711685180664 -68.677474975586 -224.001968383789 2.684139966965
-111.146080017090 -69.005790710449 -222.998321533203 2.446157693863
-134.833847045898 -69.739463806152 -226.344299316406 1.394400358200
-110.670242309570 -72.260459899902 -224.054763793945 1.464293718338
-112.019386291504 -70.813514709473 -225.489227294922 1.315002679825
-9.674106597900 -69.395797729492 -222.934417724609 2.495565652847
-15.984894752502 -66.879135131836 -220.055679321289 3.563662290573
-0.712856352329 -69.500503540039 -231.618499755859 1.646470069885
-10.286064147949 -66.945404052734 -228.220199584961 2.276170492172
17.265428543091 -70.758743286133 -234.713363647461 1.853125214577
-15.175688743591 -69.355346679688 -231.484359741211 1.738811612129
-168.988143920898 -71.811286926270 -223.457077026367 3.020237207413
-3.230154514313 -67.293472290039 -230.271469116211 2.311685562134
80.025238037109 -67.161216735840 -227.532058715820 1.543005466461
6.330253601074 -69.447921752930 -232.954513549805 1.377595901489
-6.860787868500 -73.315025329590 -235.728622436523 1.721848607063
-154.415252685547 -68.090393066406 -238.308441162109 3.662598133087
-140.311508178711 -66.441261291504 -233.470062255859 2.085876941681
67.169967651367 -69.170478820801 -236.312713623047 2.122970581055
-6.676554203033 -70.180465698242 -235.904678344727 1.329730868340
4.539829730988 -75.067787170410 -233.812591552734 1.550404429436
67.426040649414 -68.245216369629 -233.343261718750 1.845285058022
76.485641479492 -67.363433837891 -234.600326538086 1.112070918083
69.554367065430 -68.344139099121 -241.977737426758 2.145945072174
-3.142142772675 -70.926132202148 -236.851196289063 0.968714952469
55.107856750488 -73.959342956543 -240.583602905273 2.606172323227
-18.734392166138 -68.999824523926 -241.868942260742 2.285474538803
-18.596788406372 -71.007980346680 -239.072433471680 1.413179993629
10.222845077515 -69.044174194336 -240.511795043945 0.545438468456
65.289009094238 -71.035041809082 -236.216308593750 1.199768543243
59.081157684326 -68.493087768555 -240.211776733398 1.628712534904
52.036327362061 -72.747268676758 -249.442749023438 1.654860258102
60.711372375488 -70.900985717773 -243.345748901367 1.253981232643
-15.016674041748 -70.063850402832 -253.417266845703 1.787600517273
-85.730384826660 -71.438224792480 -251.718688964844 2.358121156693
-78.865310668945 -69.991531372070 -249.985168457031 0.459946125746
45.675415039063 -69.464874267578 -246.019485473633 2.456827163696
-148.045379638672 -70.610130310059 -250.254913330078 4.160797595978
36.466842651367 -73.079170227051 -253.706512451172 3.240046501160
-92.013267517090 -72.071273803711 -251.693237304688 1.636047363281
-157.374404907227 -68.778152465820 -256.476776123047 1.366749525070
-141.736862182617 -70.258666992188 -253.869934082031 1.609317421913
48.916385650635 -71.430397033691 -252.014556884766 2.230932474136
-122.340179443359 -69.998641967773 -256.292877197266 1.402961730957
-118.383277893066 -71.272888183594 -256.674072265625 1.981085777283
-91.621658325195 -67.903915405273 -260.718688964844 2.913405179977
-13.376996994019 -72.622032165527 -252.153350830078 1.032454490662
33.053234100342 -71.903167724609 -261.206451416016 3.742289543152
23.618385314941 -72.789428710938 -262.714355468750 0.953259885311
-157.984512329102 -68.673133850098 -259.909759521484 2.484358310699
-115.088630676270 -72.213943481445 -264.139526367188 1.777854084969
-13.228425979614 -64.312507629395 -259.874877929688 4.502580165863
-136.720474243164 -70.121162414551 -264.217803955078 1.525691509247
-17.264461517334 -69.649848937988 -269.854553222656 2.892830133438
-167.542602539063 -70.294876098633 -278.521179199219 3.417931795120
-11.027226448059 -70.808441162109 -284.284729003906 3.073924064636
-161.270538330078 -69.620513916016 -287.162384033203 0.549342274666
-164.475509643555 -67.182876586914 -279.244201660156 3.307252168655
-143.272979736328 -67.429473876953 -283.566009521484 2.272277593613
-165.185958862305 -69.536514282227 -282.802673339844 1.916056871414
12.863663673401 -69.578521728516 -288.110382080078 1.997969031334
-102.798774719238 -68.646476745605 -288.254882812500 2.747851133347
-85.066848754883 -67.818496704102 -287.937164306641 2.355889558792
-168.011886596680 -68.382202148438 -288.428741455078 1.966627836227
-89.107933044434 -66.879608154297 -289.009185791016 1.732210278511
-149.566223144531 -70.293891906738 -283.678741455078 2.861409664154
-71.759033203125 -67.984230041504 -287.318481445313 3.174049377441
-68.562248229980 -70.760307312012 -286.354675292969 1.757087349892
-83.957534790039 -66.900115966797 -289.663818359375 2.540408372879
-2.841641426086 -71.979888916016 -288.667053222656 1.010156273842
-84.475166320801 -70.520164489746 -292.400054931641 2.088273048401
-101.919387817383 -69.419456481934 -292.385223388672 2.291113138199
-113.650337219238 -70.451538085938 -291.747589111328 1.060790896416
-116.688972473145 -68.796997070313 -291.835571289063 1.539649963379
-136.688156127930 -64.315177917480 -293.086639404297 2.743033170700
-142.730056762695 -69.148231506348 -300.724121093750 2.836480379105
-145.315185546875 -72.021667480469 -314.397583007813 2.005481004715
27.536968231201 -70.489479064941 -15.963877677917 2.805961132050
36.912860870361 -67.727592468262 -19.589450836182 4.018559455872
30.032918930054 -71.397758483887 -20.421470642090 2.062429189682
50.630970001221 -70.601478576660 -25.947181701660 1.557574391365
27.359884262085 -71.836944580078 -30.574661254883 0.501391708851
-72.594497680664 -66.140861511230 -51.532272338867 3.096517562866
91.255538940430 -68.215324401855 -68.196517944336 2.853768825531
-16.268184661865 -72.152656555176 -68.937759399414 1.976360201836
101.860366821289 -66.773750305176 -71.969558715820 2.904676198959
96.739295959473 -68.826210021973 -75.053405761719 3.564304351807
71.357231140137 -73.798828125000 -76.191558837891 1.602047443390
70.223693847656 -72.026092529297 -84.576210021973 3.294010877609
-44.610736846924 -71.274253845215 -85.112342834473 1.688005447388
61.401344299316 -67.578102111816 -84.031318664551 1.762656927109
-98.326354980469 -70.681869506836 -86.354133605957 3.430378675461
-53.318161010742 -71.867507934570 -85.796775817871 1.803075194359
-55.919013977051 -77.946846008301 -92.684875488281 1.509314537048
96.685615539551 -73.512786865234 -94.987892150879 1.263888478279
59.899505615234 -70.377723693848 -94.449226379395 1.184846758842
62.407852172852 -67.263404846191 -92.130065917969 1.714206457138
-96.845863342285 -65.809364318848 -93.789802551270 1.456074833870
106.828468322754 -67.653152465820 -95.009552001953 2.159203767776
47.771537780762 -68.815521240234 -98.234764099121 1.813835620880
101.790466308594 -72.917411804199 -100.384078979492 2.488677263260
107.607902526855 -71.257690429688 -104.222747802734 0.895746469498
100.921775817871 -67.766387939453 -109.873664855957 3.954774618149
74.204093933105 -69.911804199219 -106.375640869141 2.507176876068
90.338333129883 -66.618087768555 -107.547309875488 1.484174847603
49.705429077148 -72.620208740234 -111.972343444824 0.925053894520
111.968307495117 -68.876289367676 -108.979187011719 1.573115587234
42.223838806152 -72.386283874512 -104.480178833008 1.991363286972
42.234455108643 -68.149696350098 -99.855262756348 3.284176588058
110.894203186035 -69.291648864746 -110.609191894531 0.549390733242
-79.046501159668 -68.826797485352 -106.989875793457 1.784073233604
46.111530303955 -68.342788696289 -112.964660644531 1.510937213898
36.177394866943 -70.272132873535 -111.081367492676 2.688221216202
108.585563659668 -69.190681457520 -108.805259704590 1.618484497070
38.931274414063 -69.544532775879 -111.963760375977 1.083530783653
-89.254135131836 -68.144615173340 -115.289505004883 1.917478919029
-93.778556823730 -71.566520690918 -116.870742797852 1.331972956657
108.112449645996 -70.929069519043 -116.750106811523 0.797924935818
-92.619216918945 -71.186775207520 -118.638275146484 1.007214665413
35.507110595703 -68.333000183105 -124.248321533203 1.822582006454
37.331027984619 -68.797248840332 -118.711059570313 0.910120069981
-81.763343811035 -69.718147277832 -126.572128295898 1.773643851280
30.010877609253 -69.046409606934 -131.854797363281 1.728741407394
107.768409729004 -71.290374755859 -131.991516113281 2.085844755173
-52.727165222168 -68.708282470703 -129.910537719727 1.391969799995
-90.126899719238 -68.913711547852 -131.970748901367 1.646716833115
37.617492675781 -68.219154357910 -133.817092895508 2.172322988510
-92.839172363281 -67.302055358887 -136.923706054688 2.061517238617
-90.886672973633 -68.970054626465 -137.362533569336 1.084507226944
-49.685295104980 -74.284080505371 -140.920211791992 2.040734052658
-68.320564270020 -66.383033752441 -142.929779052734 2.621019601822
-51.530174255371 -66.284439086914 -135.377868652344 1.039105772972
112.769287109375 -70.296447753906 -141.006439208984 1.957417249680
-78.364402770996 -68.809753417969 -139.310501098633 1.648550033569
33.566226959229 -67.392166137695 -132.605712890625 3.246570825577
-77.910957336426 -68.379310607910 -138.064239501953 1.126115679741
-74.903327941895 -66.293037414551 -134.228485107422 1.416610598564
-86.079383850098 -72.318466186523 -136.847839355469 4.147387981415
-54.714099884033 -67.860321044922 -149.884826660156 2.340536832809
29.218845367432 -67.551521301270 -146.141403198242 3.246581077576
27.870843887329 -67.711204528809 -148.244003295898 2.188681602478
18.665813446045 -68.739433288574 -146.881469726563 1.764756560326
117.601890563965 -71.633033752441 -146.121856689453 1.649150729179
-98.967056274414 -67.118804931641 -153.273742675781 1.335961818695
17.721855163574 -69.888755798340 -154.008697509766 2.937890768051
-72.430641174316 -69.819488525391 -151.184646606445 1.922704339027
24.935388565063 -70.011970520020 -150.756790161133 2.005953550339
-47.965312957764 -72.251869201660 -157.826263427734 0.607840180397
9.838265419006 -69.425468444824 -154.614883422852 2.393043279648
12.734676361084 -69.674758911133 -155.389831542969 1.625469803810
17.551374435425 -68.390579223633 -165.723526000977 1.653622269630
-42.672130584717 -73.152992248535 -160.415161132813 2.458602190018
-38.873447418213 -65.849487304688 -153.223587036133 4.462189674377
-43.408878326416 -70.135749816895 -158.603515625000 2.522190093994
-104.654708862305 -71.524085998535 -170.269119262695 2.476973772049
20.897380828857 -64.805976867676 -173.527465820313 3.006246566772
-34.118778228760 -68.048538208008 -173.690307617188 2.088554382324
14.848655700684 -70.112716674805 -178.834152221680 1.704627990723
-148.870483398438 -69.957328796387 -174.776657104492 1.542257428169
-34.596923828125 -68.731552124023 -171.824691772461 1.805490016937
-157.896789550781 -65.012245178223 -174.567352294922 5.871784210205
21.938343048096 -62.558288574219 -180.283554077148 3.885734319687
-26.591150283813 -68.885627746582 -174.748443603516 1.821560859680
-112.220695495605 -66.475265502930 -179.814453125000 2.629903316498
-109.148384094238 -71.469863891602 -179.331466674805 3.135040521622
-27.648931503296 -67.492378234863 -183.833312988281 1.831101298332
-22.888607025146 -72.772811889648 -181.767745971680 0.684804677963
17.408378601074 -68.280883789063 -191.843063354492 1.669275283813
20.755447387695 -67.098686218262 -198.030059814453 2.214410781860
12.553482055664 -68.739379882813 -186.332702636719 3.225457191467
-144.391098022461 -71.260032653809 -189.684967041016 1.975229620934
18.529178619385 -68.997093200684 -189.602966308594 1.052453756332
9.368543624878 -69.560005187988 -194.504425048828 2.461463451385
-139.423385620117 -66.317077636719 -193.966644287109 2.531887531281
-116.685859680176 -70.273994445801 -198.139953613281 2.591249942780
12.850300788879 -67.814537048340 -197.520629882813 2.364958047867
-110.089614868164 -66.361083984375 -197.805740356445 1.174087882042
-109.772018432617 -71.211067199707 -192.855300903320 1.488649368286
-163.842773437500 -69.632553100586 -197.728881835938 1.551658034325
-27.110359191895 -71.575347900391 -201.736434936523 3.777619123459
17.460454940796 -68.691184997559 -200.025558471680 0.785336971283
-138.723327636719 -68.261772155762 -204.906082153320 1.866224169731
-135.404144287109 -69.813011169434 -202.619430541992 2.305164575577
-19.030836105347 -68.684249877930 -204.393554687500 1.081026315689
-12.381372451782 -72.645095825195 -203.810348510742 2.225523710251
-16.256572723389 -66.807655334473 -205.697021484375 1.103494167328
-145.179580688477 -69.463478088379 -207.252502441406 1.991304039955
-14.988087654114 -71.718559265137 -215.024169921875 1.746685862541
-13.428477287292 -70.039520263672 -214.922744750977 1.196525096893
18.199146270752 -68.355949401855 -211.295562744141 1.849568128586
-10.626569747925 -68.345443725586 -210.344635009766 2.133428335190
7.935736179352 -69.829582214355 -214.769180297852 1.729601979256
-8.332496643066 -70.056549072266 -215.076339721680 1.355802416801
-14.003926277161 -66.374839782715 -212.477386474609 1.388559103012
13.310066223145 -65.134391784668 -218.736968994141 4.038296699524
-2.278500556946 -71.171722412109 -218.058990478516 1.999989986420
11.484974861145 -68.228607177734 -224.146789550781 1.796895265579
-4.614907264709 -68.932365417480 -224.614135742188 2.221633195877
-155.567916870117 -69.377334594727 -221.308303833008 2.884513616562
78.417098999023 -68.446113586426 -221.345581054688 2.882875680923
-129.979507446289 -68.944877624512 -224.043365478516 2.424164295197
-134.024871826172 -67.779647827148 -226.493194580078 1.849668264389
-8.214457511902 -70.690101623535 -224.584182739258 1.588701009750
12.201688766479 -66.137504577637 -231.135726928711 3.967233896255
-150.813522338867 -69.911392211914 -228.388336181641 2.266777515411
85.020698547363 -71.349746704102 -221.587081909180 1.224274635315
-1.645452380180 -69.939788818359 -225.398178100586 1.299270749092
1.883951902390 -68.298683166504 -224.580123901367 1.006966471672
74.250007629395 -66.877998352051 -227.161407470703 2.657908916473
-0.205272227526 -66.756568908691 -234.941360473633 1.909966349602
-13.429659843445 -69.411735534668 -231.493621826172 1.725461363792
-124.404174804688 -71.616043090820 -235.139968872070 1.925956845284
-4.782543182373 -67.743614196777 -233.217651367188 1.450192093849
1.428043127060 -68.874794006348 -235.210861206055 0.901454150677
65.582855224609 -67.593620300293 -238.067428588867 2.233319759369
-162.127426147461 -66.963577270508 -238.341842651367 0.844614326954
-10.476069450378 -68.415328979492 -242.651779174805 1.512438893318
-167.444747924805 -68.565200805664 -238.802001953125 0.785253405571
8.875741958618 -71.633308410645 -243.152099609375 0.475227117538
-163.949859619141 -70.295120239258 -238.329772949219 2.041060447693
-162.323043823242 -68.243621826172 -245.959075927734 2.255252838135
55.095008850098 -68.949783325195 -247.925689697266 1.851259231567
63.155895233154 -68.082618713379 -245.527511596680 2.563972949982
58.186450958252 -68.501152038574 -244.774200439453 1.279243350029
52.081230163574 -69.164314270020 -249.730407714844 1.246417999268
-158.616149902344 -71.546775817871 -243.499053955078 2.484973192215
-158.020080566406 -67.893379211426 -250.636444091797 2.251479148865
-11.926166534424 -70.635086059570 -251.144683837891 2.402465581894
-151.658569335938 -69.262153625488 -246.261291503906 2.158587694168
21.088140487671 -72.699485778809 -253.548065185547 3.116142749786
-166.451995849609 -70.057830810547 -251.292877197266 1.061729431152
-163.467407226563 -68.211555480957 -245.628738403320 2.366550207138
-83.385185241699 -67.999794006348 -252.109405517578 1.379062771797
-166.856033325195 -71.157905578613 -261.111145019531 0.419100433588
-83.421020507813 -70.810676574707 -256.414306640625 1.062009692192
44.965675354004 -70.387779235840 -253.656433105469 1.217951774597
23.943204879761 -72.154327392578 -254.291015625000 2.464716434479
-158.329925537109 -66.537345886230 -260.660461425781 2.943642139435
-100.802131652832 -67.870681762695 -260.181427001953 1.263563632965
39.449066162109 -70.421028137207 -254.706878662109 1.923786997795
-103.565979003906 -70.310173034668 -257.352966308594 1.894159197807
-155.514984130859 -64.020690917969 -260.393402099609 1.220981955528
-106.576194763184 -67.018676757813 -259.755981445313 1.497145652771
-163.611892700195 -68.476783752441 -256.997161865234 3.197719812393
-115.066864013672 -71.296363830566 -263.302246093750 0.985081434250
-153.726638793945 -66.464706420898 -265.086151123047 1.472246170044
-157.509368896484 -67.173278808594 -265.852020263672 3.020190238953
-166.004302978516 -71.640861511230 -264.814422607422 2.094676733017
-159.659820556641 -67.963783264160 -260.804290771484 2.856499433517
-166.113433837891 -69.776313781738 -265.926971435547 1.954739689827
-162.373245239258 -67.973876953125 -268.010314941406 1.618516087532
21.546813964844 -68.644912719727 -265.527893066406 2.187422990799
-156.206298828125 -68.248847961426 -265.379119873047 2.893834829330
-147.728942871094 -69.184768676758 -278.391143798828 1.819848418236
20.303152084351 -72.853416442871 -279.827423095703 2.802833080292
-11.476053237915 -69.546234130859 -271.394409179688 2.560344934464
-129.381484985352 -71.892913818359 -282.858123779297 3.387068271637
-138.454162597656 -72.992584228516 -283.951599121094 3.155244112015
-136.097564697266 -66.966255187988 -286.201354980469 1.391446113586
-128.327682495117 -68.478363037109 -285.171478271484 2.237041473389
-118.917366027832 -66.401702880859 -285.931488037109 3.411534547806
-105.257568359375 -67.512962341309 -288.853179931641 1.657236337662
15.041096687317 -67.528404235840 -287.417083740234 1.992494702339
-85.146835327148 -63.512252807617 -290.682739257813 4.640171527863
-149.793685913086 -70.789123535156 -290.267974853516 0.852954328060
-101.714912414551 -69.022163391113 -291.253112792969 1.209603428841
-123.340850830078 -66.830993652344 -290.942871093750 0.674260735512
9.480363845825 -68.784240722656 -291.250000000000 2.443769454956
-109.597976684570 -67.784858703613 -293.654724121094 3.145017147064
-1.181829452515 -68.404525756836 -295.551879882813 3.821775436401
-143.466979980469 -65.619400024414 -291.292297363281 1.495556354523
-150.345611572266 -73.695922851563 -297.986663818359 2.133589029312
-153.867630004883 -73.448875427246 -308.600067138672 2.653353214264
-155.117828369141 -68.842613220215 -311.255615234375 1.667345762253
52.184219360352 -70.041664123535 -23.661869049072 2.086073637009
21.385246276855 -73.726898193359 -32.990276336670 1.478152990341
32.262016296387 -70.376029968262 -39.392929077148 1.199203372002
-46.833103179932 -70.897003173828 -52.184650421143 1.813755989075
-13.067420959473 -68.203315734863 -61.090305328369 1.291514396667
94.511367797852 -72.067687988281 -67.595840454102 2.364230871201
67.016998291016 -67.186950683594 -71.703453063965 1.962961673737
-19.459306716919 -69.830841064453 -75.780784606934 3.068388223648
-93.864768981934 -72.330589294434 -84.767837524414 0.174239844084
-40.780326843262 -69.842308044434 -77.785591125488 1.225203394890
66.065376281738 -68.004066467285 -84.420104980469 1.445867061615
55.776630401611 -67.466804504395 -88.313896179199 0.637662231922
55.126743316650 -67.613861083984 -90.483032226563 2.364642143250
-54.623214721680 -66.536659240723 -90.086174011230 2.737278699875
63.961685180664 -64.300483703613 -89.730651855469 1.338117718697
48.491977691650 -71.010261535645 -97.477348327637 0.732155680656
68.928993225098 -66.148483276367 -96.346145629883 2.697254896164
-65.027084350586 -66.629669189453 -93.707298278809 2.334983348846
49.968776702881 -72.144073486328 -96.639198303223 1.666435241699
43.757888793945 -65.621299743652 -98.904495239258 3.503248929977
102.226158142090 -69.237495422363 -100.373718261719 0.628426074982
-70.347206115723 -66.945137023926 -99.557205200195 0.560385942459
111.436874389648 -65.820884704590 -103.226310729980 2.841794013977
-84.066360473633 -69.840431213379 -98.863319396973 4.859715461731
55.789878845215 -74.453216552734 -102.390586853027 2.019018650055
46.965232849121 -65.980697631836 -98.751205444336 1.530865073204
90.138389587402 -72.668357849121 -103.426681518555 1.377620458603
84.441833496094 -64.829421997070 -109.082527160645 2.054818630219
55.610240936279 -66.179397583008 -106.714469909668 3.875244617462
-73.955589294434 -70.585357666016 -108.665519714355 1.783613324165
-75.757843017578 -68.271911621094 -111.663154602051 1.740753889084
-77.963592529297 -68.767669677734 -118.951583862305 2.221454381943
-90.670112609863 -70.456192016602 -119.498657226563 0.852293372154
109.914939880371 -65.992248535156 -115.132171630859 1.181132674217
-82.688232421875 -68.843605041504 -120.014770507813 2.448630809784
-79.290824890137 -66.328750610352 -119.932510375977 1.474006891251
112.473167419434 -66.365036010742 -114.164047241211 2.995470046997
-64.098365783691 -67.060745239258 -117.973419189453 2.208111524582
113.206909179688 -68.134292602539 -132.493927001953 1.823142886162
109.754302978516 -68.598960876465 -130.482727050781 1.313071489334
108.407958984375 -66.866867065430 -121.488784790039 1.363567948341
-92.071586608887 -71.698837280273 -139.793395996094 1.837587237358
-47.262203216553 -67.705551147461 -142.926528930664 3.229949712753
-75.000213623047 -71.481895446777 -146.802871704102 1.596217393875
-67.740447998047 -66.829154968262 -149.417190551758 2.940142631531
-74.944969177246 -65.334197998047 -147.523666381836 3.514762639999
-53.846790313721 -68.808280944824 -139.645629882813 1.615319371223
-50.129920959473 -65.281303405762 -149.189666748047 2.946889400482
21.277662277222 -69.317184448242 -144.423736572266 1.575758934021
-96.441551208496 -66.474182128906 -143.383270263672 1.427463650703
-40.669975280762 -67.500900268555 -149.087982177734 3.879658937454
-54.909351348877 -66.631744384766 -147.986236572266 2.633234262466
-41.382472991943 -70.385864257813 -156.457061767578 2.384109735489
27.064369201660 -70.178016662598 -163.385559082031 3.000017166138
-46.681495666504 -65.829254150391 -148.894531250000 2.471931219101
-96.251899719238 -67.922836303711 -150.584075927734 1.093425154686
-43.546894073486 -68.571800231934 -158.615203857422 1.621564149857
27.003589630127 -66.352546691895 -150.991546630859 1.635392904282
-102.639335632324 -68.313346862793 -161.466323852539 1.136380553246
19.696590423584 -64.389846801758 -157.655151367188 4.599214553833
-108.717712402344 -68.995399475098 -174.980072021484 2.438427925110
-101.016700744629 -69.920127868652 -166.429748535156 1.992930531502
23.880550384521 -66.659423828125 -158.922332763672 2.337530374527
27.277687072754 -64.025260925293 -170.311035156250 4.396640777588
-100.519729614258 -70.737411499023 -171.381607055664 3.230166912079
-143.763748168945 -72.585792541504 -174.707458496094 1.313436746597
-21.287862777710 -67.127937316895 -184.284103393555 3.378259181976
-28.289379119873 -69.228469848633 -181.649566650391 1.586456179619
-115.172798156738 -67.912208557129 -189.787780761719 2.695026397705
-145.754119873047 -62.972854614258 -188.403076171875 1.233551383018
-107.678962707520 -66.435424804688 -182.450119018555 2.390886783600
-156.210754394531 -68.545623779297 -194.176696777344 0.764428257942
-132.334320068359 -69.927398681641 -195.199920654297 1.302028536797
-135.058944702148 -69.701179504395 -194.243057250977 1.989091634750
-20.877817153931 -62.681869506836 -191.576904296875 4.877820491791
-123.054649353027 -69.814910888672 -193.497512817383 2.101810932159
-115.020965576172 -67.162620544434 -193.068298339844 1.305124402046
-22.285243988037 -67.301162719727 -197.429901123047 1.951217889786
-153.648086547852 -67.830642700195 -203.165420532227 1.720212578773
-131.364700317383 -72.674804687500 -205.422332763672 2.360604763031
-125.835464477539 -67.272560119629 -204.139633178711 2.223753452301
18.662878036499 -64.085319519043 -203.082107543945 4.742572784424
-158.681808471680 -65.608825683594 -208.259353637695 2.416934728622
8.185158729553 -68.929519653320 -211.848419189453 2.484114170074
12.716322898865 -69.063713073730 -214.171508789063 1.143605828285
-18.007991790771 -68.249244689941 -206.569839477539 1.393263936043
-4.694725036621 -68.852500915527 -215.600891113281 0.762404799461
-166.018737792969 -69.183631896973 -210.770767211914 1.876439094543
-156.520126342773 -66.215934753418 -213.252075195313 2.592767000198
-90.669136047363 -70.169494628906 -217.712081909180 0.967579662800
-103.917976379395 -66.864753723145 -226.742889404297 2.804686546326
-165.482391357422 -68.149650573730 -222.037918090820 0.578042149544
-100.426490783691 -66.880935668945 -222.784210205078 2.064409255981
-12.636384963989 -69.178405761719 -221.214752197266 0.815010428429
-125.731086730957 -67.969497680664 -224.305465698242 1.490395545959
-139.185577392578 -71.712486267090 -226.251296997070 1.613438606262
-3.004677772522 -66.749763488770 -221.026397705078 2.644049644470
-133.078887939453 -68.620407104492 -228.067047119141 2.731208562851
-125.884078979492 -65.653518676758 -225.656433105469 1.405724763870
-112.457977294922 -70.374908447266 -223.419555664063 1.708928108215
3.873042583466 -64.494758605957 -229.642715454102 2.337884902954
-106.840415954590 -70.525756835938 -229.287536621094 2.058280944824
-156.308364868164 -65.269279479980 -223.321197509766 3.878127336502
-147.490844726563 -70.978950500488 -227.177841186523 1.531076550484
-167.202911376953 -67.856147766113 -225.074569702148 2.727077960968
-6.004694461823 -69.683509826660 -228.154724121094 1.463207244873
-8.219248771667 -69.469757080078 -231.621292114258 1.335431933403
77.339904785156 -65.451118469238 -229.734542846680 2.892111063004
1.911824822426 -63.840167999268 -227.725341796875 3.596858978271
-140.026809692383 -69.058212280273 -232.672180175781 0.663162112236
-14.169530868530 -68.053810119629 -226.817413330078 2.344722509384
75.597991943359 -67.461776733398 -230.695007324219 3.021874904633
76.455261230469 -67.061729431152 -230.121871948242 2.288634300232
-135.475067138672 -66.541709899902 -230.679275512695 1.837065100670
-157.073944091797 -69.926261901855 -224.053359985352 1.047967672348
-115.864791870117 -67.755340576172 -231.708526611328 2.777446031570
-123.494506835938 -66.830451965332 -234.554565429688 1.716912984848
-167.935836791992 -65.369758605957 -233.082946777344 3.348339080811
-157.761077880859 -67.734176635742 -236.293457031250 1.082583665848
-146.455932617188 -69.657798767090 -234.807937622070 1.881101489067
-8.449544906616 -71.924110412598 -238.415435791016 1.925074577332
-4.968888759613 -68.703750610352 -237.905075073242 0.769839048386
-163.218673706055 -67.295928955078 -236.581146240234 1.890209436417
6.127601623535 -72.743438720703 -238.090438842773 2.020223617554
5.547412395477 -70.901092529297 -231.758834838867 2.312546968460
-161.707214355469 -65.600730895996 -237.216873168945 2.381417989731
14.541633605957 -69.223075866699 -247.713226318359 2.545915126801
50.184719085693 -66.319976806641 -243.458862304688 1.498854279518
49.108562469482 -70.171104431152 -242.289230346680 2.601050376892
-13.892951965332 -69.779022216797 -246.727996826172 0.878963112831
46.407192230225 -66.146553039551 -251.364196777344 1.777667880058
-165.638702392578 -67.982215881348 -251.502899169922 1.104228377342
-158.196060180664 -69.008071899414 -244.969085693359 1.112777113914
-158.672607421875 -66.167076110840 -246.317504882813 2.336018562317
51.299583435059 -68.233512878418 -251.497253417969 1.001471042633
-89.231788635254 -70.391990661621 -256.004943847656 2.133586406708
-128.246353149414 -68.593299865723 -254.857757568359 2.286024332047
-103.072250366211 -68.972137451172 -255.672180175781 1.948954939842
25.724357604980 -66.399047851563 -258.207702636719 1.096903800964
44.856594085693 -70.004379272461 -252.852111816406 0.610127747059
-102.106147766113 -67.252456665039 -254.815338134766 0.954724669456
-94.132156372070 -67.801010131836 -255.761566162109 1.271338701248
43.361999511719 -67.412498474121 -251.859405517578 1.977457880974
44.516269683838 -64.971809387207 -257.972625732422 3.118107318878
-152.522323608398 -74.344665527344 -256.982604980469 1.321895837784
32.689022064209 -68.235305786133 -258.337432861328 0.384046465158
-139.902709960938 -69.204978942871 -264.396850585938 3.013125896454
-113.189575195313 -68.624671936035 -260.400726318359 2.046315670013
-135.456710815430 -72.287620544434 -265.504913330078 1.989616036415
27.110498428345 -67.539093017578 -264.986206054688 1.826778173447
-127.741081237793 -69.125152587891 -266.131469726563 1.828064560890
-8.606021881104 -66.261192321777 -263.876831054688 3.276041030884
23.856727600098 -68.126190185547 -269.811706542969 0.759214997292
-7.290412425995 -64.484306335449 -267.150909423828 2.866695165634
20.945699691772 -71.059852600098 -278.475158691406 1.340931892395
-154.180236816406 -68.486724853516 -280.791931152344 1.832928299904
-11.649985313416 -68.947425842285 -276.501983642578 1.336792588234
-155.757614135742 -72.300376892090 -283.771606445313 1.695398092270
-129.764984130859 -66.462684631348 -284.183471679688 2.509703636169
-155.277801513672 -68.998001098633 -285.270355224609 2.189531326294
-116.226112365723 -68.335845947266 -289.479858398438 1.487357735634
-108.825637817383 -69.905456542969 -290.892364501953 1.968970417976
-7.266085147858 -71.047393798828 -287.069580078125 1.492636322975
-109.593338012695 -67.974243164063 -291.772644042969 2.629520654678
-116.290557861328 -67.572692871094 -290.315551757813 1.911128044128
-116.779129028320 -67.458801269531 -290.780120849609 2.240683317184
-138.339324951172 -67.078529357910 -289.568267822266 2.151685714722
-122.669769287109 -70.351806640625 -290.747406005859 2.538909435272
-156.267440795898 -71.218544006348 -291.504791259766 1.816131353378
-144.385467529297 -69.284843444824 -295.002166748047 1.240754723549
-154.187088012695 -66.059997558594 -301.404785156250 2.758385419846
-154.102645874023 -65.146385192871 -311.790954589844 3.458402156830
-152.392196655273 -65.463874816895 -300.677490234375 2.308581113815
-143.473022460938 -68.271003723145 -311.543273925781 3.027753829956
-155.348388671875 -65.053878784180 -312.283477783203 3.934743404388
36.514598846436 -66.780242919922 -10.527798652649 3.627098083496
42.369323730469 -71.750244140625 -12.359061241150 1.209721565247
24.954978942871 -66.321372985840 -23.813091278076 2.430140733719
51.585586547852 -71.041320800781 -30.280509948730 2.381059408188
27.441411972046 -73.015983581543 -35.070087432861 1.007413029671
38.085449218750 -66.347564697266 -35.691852569580 2.077777385712
-58.362888336182 -68.918991088867 -45.818019866943 1.307239174843
86.123748779297 -66.811111450195 -64.196273803711 0.973886072636
81.035240173340 -71.861045837402 -62.201641082764 3.188212633133
-90.638137817383 -65.843482971191 -60.403392791748 1.256174683571
-11.811814308167 -63.435272216797 -63.911640167236 1.011018395424
-92.449752807617 -67.140731811523 -66.439109802246 1.712055802345
96.080223083496 -69.360389709473 -68.736740112305 1.136595845222
