# This PCD file was generated using the MATLAB® pcwrite function
# from Computer Vision Toolbox®.
# .PCD v.7 - Point Cloud Data file format
VERSION .7
FIELDS x y z
SIZE 4 4 4
TYPE F F F
COUNT 1 1 1
WIDTH 1425
HEIGHT 1
VIEWPOINT 0 0 0 1 0 0 0
POINTS 1425
DATA ascii
-151.344727 -83.834045 -289.874939
-15.144010 -42.745914 -61.413185
-3.849183 -79.251511 -225.185913
20.223377 -64.033104 -22.694702
-3.789135 -84.825119 -261.416626
102.208122 -42.537338 -83.787437
-142.880951 -67.179482 -174.731659
58.649872 -68.721519 -242.072983
2.195922 -48.420868 -248.175522
-78.595818 -51.987049 -43.880341
-56.239140 -83.643906 -78.130592
65.318619 -55.720699 -70.262917
-158.650665 -66.687874 -241.000473
4.518191 -69.741013 -240.727798
23.961729 -78.548866 -163.858383
14.039982 -73.762451 -239.387024
104.331314 -53.262150 -88.118553
27.582090 -72.409172 -30.481930
-136.911179 -83.463165 -229.073090
16.591467 -49.970356 -243.005096
-89.422272 -40.430195 -112.955635
-24.426401 -79.455482 -195.820816
-58.206192 -71.745560 -132.399551
-4.419536 -77.635559 -226.713837
15.058773 -75.171120 -289.625092
35.929714 -70.302818 -253.480087
-47.013302 -75.289253 -246.545090
3.084685 -51.155621 -235.374344
103.643097 -46.397308 -103.036591
-12.646101 -49.914070 -254.938141
-31.573021 -79.345871 -190.854263
25.154716 -66.898102 -271.719086
-65.833633 -64.456749 -96.779518
-8.216428 -80.374367 -258.620239
-113.561150 -68.217834 -226.427994
-28.224663 -79.327156 -209.547134
6.366028 -74.784431 -243.296448
101.705879 -72.647133 -203.977936
-154.667374 -62.737072 -228.394531
-154.403778 -84.744850 -290.634369
13.984948 -76.975716 -190.710968
-63.746990 -79.326828 -167.120422
-8.054364 -68.017235 -260.738586
19.628042 -76.345291 -188.682220
-81.353020 -22.118057 -96.029030
-99.851883 -41.171654 -68.951080
111.415779 -73.912361 -134.487686
-117.142700 -71.186264 -224.946564
111.360130 -70.166130 -170.219116
100.385063 -46.359165 -61.569046
-73.154030 -81.018326 -70.138672
31.850752 -70.560356 -163.212952
97.685806 -42.846531 -94.982964
86.271263 -74.779427 -76.024895
-150.141495 -71.028069 -213.016632
19.896049 -70.962463 -31.322464
103.410164 -42.106220 -98.670189
-10.991310 -51.569088 -248.818146
-148.453979 -85.358994 -250.871490
-147.230759 -61.001682 -204.387054
-33.160294 -74.725594 -213.137848
-60.417187 -87.549744 -92.911057
101.105347 -44.545177 -96.000793
-160.437775 -68.312973 -265.369385
81.322632 -54.055813 -81.682060
54.994938 -69.006912 -245.358185
-124.341225 -69.037804 -194.493073
16.714314 -81.297432 -247.366150
-79.063522 -43.702698 -47.049992
-159.535721 -65.849632 -199.534592
-134.795029 -71.065102 -262.451141
-46.383995 -80.044151 -154.848419
-130.847656 -70.647911 -204.035522
98.598892 -74.604752 -200.530853
-61.158092 -77.671227 -247.210175
-125.026474 -74.663719 -253.864594
-156.708557 -63.936031 -286.240295
-150.860611 -69.495987 -295.268250
17.470716 -75.123573 -180.479309
-27.050211 -75.519165 -194.233551
-145.257126 -67.530334 -234.923126
-154.538696 -70.108047 -292.887787
-69.319458 -71.789299 -141.761597
-68.596611 -76.914711 -286.369232
21.878157 -76.852455 -266.904602
86.746048 -54.448215 -60.411526
-32.411579 -68.294426 -174.816849
108.045227 -73.824974 -171.876617
-59.424160 -66.283485 -135.427139
81.891762 -44.832661 -54.992485
-69.431480 -49.244602 -96.690491
23.539202 -71.077782 -179.683563
4.190639 -57.001335 -292.954193
-69.696945 -65.989624 -99.388367
22.756325 -53.240204 -31.932219
30.438885 -51.410591 -251.984909
-73.381523 -70.319199 -248.291763
-11.370026 -48.633949 -244.105820
-40.159103 -71.992584 -148.893524
-141.011810 -78.430496 -230.375198
-3.191885 -54.796082 -283.573242
113.574387 -77.052124 -156.224564
6.937594 -56.725948 -253.241028
17.453396 -72.215347 -208.948410
100.510178 -44.029537 -90.940094
-84.936073 -69.144691 -252.999298
106.302284 -43.856640 -77.317093
-141.436920 -69.526344 -195.993271
100.889603 -45.239708 -62.893318
73.454124 -67.345764 -104.158363
-86.723091 -21.616718 -92.147087
-18.378454 -76.102097 -177.802383
-13.025710 -52.162296 -251.045670
99.785835 -43.623348 -80.277275
30.456362 -62.805481 -259.044830
-1.256162 -76.743874 -237.406067
3.634253 -85.037178 -261.700165
29.669233 -71.256363 -139.838120
-43.579941 -79.064850 -66.168671
-140.312576 -67.269302 -261.806946
-30.174240 -73.265549 -189.976624
35.489906 -60.313999 -129.657684
-11.014349 -56.745144 -273.388947
-69.781281 -78.395630 -205.938965
74.333199 -71.136971 -230.537598
104.739990 -70.729118 -178.142319
-127.814865 -64.971222 -233.632370
-120.550781 -73.586037 -291.797791
-51.553642 -71.705795 -287.714722
-56.317776 -58.128448 -126.180305
-90.674454 -63.492863 -120.970398
-137.829285 -77.324478 -261.184814
15.224870 -81.419456 -264.150696
0.172763 -50.290386 -261.925201
13.823024 -82.984238 -236.949814
110.553772 -67.731010 -114.651306
24.522032 -51.887794 -245.143829
-116.829018 -74.332321 -255.771301
-105.638344 -68.708366 -182.634247
-148.654572 -66.810234 -198.235703
-100.806030 -41.964123 -85.603439
73.804909 -73.546967 -228.852570
-29.182981 -80.263054 -241.976135
-84.838844 -25.148539 -98.840393
-65.107330 -74.219208 -160.813965
-134.330566 -70.141609 -232.234222
14.415049 -72.799400 -222.672668
-54.687874 -75.988518 -91.959831
63.211102 -50.211971 -85.919014
-144.711899 -82.927414 -200.011536
-6.714034 -53.633533 -269.911438
89.506310 -47.002560 -57.571548
-46.837006 -81.814766 -84.169655
-29.168039 -54.210873 -62.273468
-47.110027 -74.098351 -162.808975
-145.066345 -75.729401 -212.000961
49.522057 -60.016815 -23.150839
-5.818555 -71.027611 -227.055435
58.772324 -47.155655 -90.454552
-141.289276 -78.549866 -288.331360
66.233139 -47.041428 -74.327667
-60.790379 -48.491325 -60.599113
-71.564568 -27.503019 -102.552811
11.907510 -78.360268 -282.378082
80.663300 -46.608757 -57.834442
32.255287 -59.858932 -124.942635
7.131270 -79.636902 -221.328171
-64.117393 -70.938179 -93.503990
75.622604 -58.585434 -99.653732
-74.264191 -19.585081 -63.250614
90.894356 -46.459061 -83.804459
-56.880375 -78.488029 -168.527451
12.989427 -71.149124 -195.611176
32.214909 -80.695068 -139.583466
46.469299 -75.984360 -114.771912
-104.661095 -67.731308 -287.700378
105.472633 -59.741188 -89.247459
-124.645653 -75.330238 -227.120239
34.529533 -74.210861 -148.974564
-75.603554 -20.623814 -65.282982
-0.770203 -74.635483 -237.405441
48.241322 -73.906151 -93.911606
-149.858856 -73.322098 -192.355972
50.306229 -71.042549 -35.186920
-31.590368 -80.253593 -169.318192
77.947456 -76.108894 -82.973564
98.447449 -72.211449 -96.511696
-11.395233 -41.620159 -56.638691
37.011623 -62.363911 -125.424141
64.851410 -53.489689 -84.603966
-80.070145 -78.409256 -214.967789
-21.465673 -80.208054 -220.831100
30.900906 -52.579067 -42.009232
101.816010 -68.932724 -85.686890
-2.162759 -64.510246 -258.632965
17.535505 -73.728813 -289.511475
66.889641 -48.732956 -69.039940
-63.650490 -73.086830 -287.603790
-57.650784 -78.330391 -181.427338
-35.158783 -60.040844 -76.723045
94.317993 -72.201805 -213.097458
-77.386276 -70.601646 -142.203247
-49.293964 -75.543045 -183.710617
-0.715239 -50.663010 -240.828506
5.271223 -61.213261 -273.885437
-25.171131 -78.108635 -181.380325
55.272469 -72.618988 -97.543732
-142.450623 -63.650043 -261.397095
-55.881783 -79.341255 -186.090637
11.074848 -49.005859 -260.372986
15.223729 -53.190987 -289.554352
-92.704582 -45.859451 -118.568390
-22.247971 -76.146240 -66.520203
103.381912 -46.330856 -75.526237
-5.650857 -70.791054 -235.234192
-147.066223 -80.456863 -288.913574
102.488243 -46.203960 -69.903221
107.265839 -66.108994 -110.224487
90.438606 -68.257538 -63.722496
-133.617020 -74.375305 -255.899124
-5.227218 -54.498264 -237.682388
93.712509 -52.474915 -59.706657
-144.874695 -82.142532 -292.189972
34.117382 -55.142925 -127.519257
-48.677135 -84.960358 -85.602287
29.620171 -63.654438 -41.064484
-57.479893 -64.369957 -137.095627
-104.660103 -71.488411 -224.286850
-89.731010 -66.141487 -116.854065
30.287607 -51.543209 -253.393616
26.637571 -60.894703 -134.126038
95.804451 -51.588993 -92.660515
-150.766388 -61.085056 -205.908737
30.860796 -68.121422 -135.779129
72.283241 -47.389450 -63.376751
41.779579 -57.553226 -114.617218
43.410595 -63.242565 -20.476889
1.605252 -76.076477 -244.894165
-69.437683 -56.434879 -117.606133
107.805206 -77.202660 -190.351486
-75.185921 -70.150055 -252.034836
81.979919 -45.112038 -110.569244
-77.764923 -20.464899 -62.234631
75.645241 -47.577007 -80.728851
-28.924744 -79.299004 -185.762634
48.545921 -68.256897 -102.036232
84.562851 -48.117046 -110.145645
-23.917547 -70.119797 -181.300827
94.778557 -69.790413 -206.753342
-9.872241 -72.204552 -223.355988
113.605690 -77.661880 -167.243958
93.619469 -72.543831 -71.573112
3.491872 -53.219730 -291.935211
114.113312 -70.132103 -152.153809
-15.161927 -52.285812 -255.768066
-68.849640 -74.293259 -151.368103
43.373672 -66.394821 -30.973124
-44.690102 -74.620018 -163.686859
-49.250210 -87.307617 -82.816315
-124.848244 -72.650391 -235.403976
-115.203537 -73.365547 -225.888000
-58.779804 -74.489883 -141.035873
-113.615089 -68.381454 -293.238495
-39.038620 -78.403831 -65.798782
-6.278107 -47.070381 -246.489777
40.794189 -60.180790 -120.019943
-7.452043 -74.878883 -212.053207
-151.843460 -62.572010 -286.106537
-146.317612 -76.650742 -205.734009
64.220459 -68.220581 -90.396286
81.455345 -70.300537 -219.535172
52.844090 -61.460621 -92.801765
65.741722 -53.858959 -63.755524
104.488609 -47.595764 -84.104065
-0.595093 -54.875851 -237.965744
-146.285126 -84.322563 -250.651321
-149.633499 -66.928619 -257.312347
36.764927 -72.142563 -40.020264
23.520689 -73.501343 -20.150543
-133.192749 -66.659744 -290.060211
-53.097847 -70.325256 -288.580414
84.127304 -80.200256 -89.690399
-89.125275 -72.769287 -257.002563
-158.472473 -69.099869 -206.086716
-89.042564 -66.780067 -116.696175
75.763947 -75.505867 -94.181046
-150.054901 -76.952080 -203.754166
-38.825069 -81.118027 -198.767807
21.185806 -55.061707 -280.991333
-157.993073 -68.580101 -194.017944
-3.782783 -67.395630 -234.791580
-142.573578 -81.297119 -230.352966
39.442154 -56.250053 -115.718422
-53.160641 -78.189575 -189.674744
-48.758492 -78.087875 -186.199341
-76.412796 -63.327583 -45.657349
-160.294922 -68.936913 -195.457718
-5.963418 -54.921783 -291.307709
28.623043 -67.938789 -148.092896
-113.403473 -65.367668 -196.851517
-146.899689 -69.404785 -308.243958
19.317713 -72.567268 -250.958984
-64.520340 -58.044819 -127.152962
-126.649208 -66.382126 -225.303421
28.263512 -74.829887 -163.800873
-45.913826 -71.463791 -137.921143
-91.211334 -37.831882 -111.087807
-18.979609 -56.376831 -248.482971
103.195229 -52.885933 -71.293953
-39.446976 -74.599800 -177.989609
93.198204 -70.781227 -105.783936
-151.170288 -81.677292 -247.830032
-61.884159 -83.466370 -76.332031
-159.760437 -75.355881 -275.172668
-156.391663 -71.287636 -291.489075
103.108627 -52.047836 -94.930168
-156.335449 -70.480072 -290.975800
74.659721 -47.117908 -92.203590
69.541115 -46.994843 -108.525230
79.096924 -76.007164 -223.897186
66.271164 -59.132973 -67.601593
-37.230675 -78.522858 -208.992050
-87.025368 -63.630421 -127.944221
-56.931290 -77.770485 -244.713455
10.281410 -67.928795 -240.209015
-49.122044 -77.514908 -150.629135
-145.764160 -73.481590 -300.926453
108.297661 -67.274643 -106.997299
-26.710131 -70.753677 -176.364334
17.195683 -50.633480 -243.945526
-145.323074 -80.057411 -247.974182
-49.523285 -77.684540 -286.320435
92.088593 -45.766953 -93.979691
21.684544 -70.995697 -164.500259
89.594910 -77.493866 -84.813934
-64.742500 -57.719181 -67.870667
105.554031 -70.044312 -104.077682
-48.304874 -81.812302 -72.720757
-108.340050 -67.394867 -288.839844
63.121880 -56.548744 -101.530449
34.779682 -51.247993 -16.935640
70.923470 -74.275543 -96.816681
113.206062 -73.258430 -130.670120
15.532910 -50.961456 -265.193970
95.675667 -45.221241 -59.934612
-71.156670 -34.379417 -103.892838
-143.033386 -79.744164 -254.185730
108.308105 -74.786507 -119.970329
73.922035 -75.201454 -94.969910
-16.630404 -70.047920 -200.734070
-148.955597 -74.160309 -231.070145
15.487160 -66.472580 -288.420929
86.488441 -65.342247 -63.082649
-143.560577 -73.829765 -234.786118
100.313217 -53.081699 -66.476631
-21.676392 -57.018288 -49.973389
-165.628113 -75.461510 -271.598816
74.054207 -53.001308 -99.659149
-150.270035 -79.659836 -193.707932
-147.776794 -81.596451 -185.066635
-11.140375 -50.791145 -58.703136
-152.656906 -80.243416 -298.107941
38.602455 -64.825333 -249.966736
73.976540 -52.853004 -76.532661
62.250057 -68.400307 -236.508331
69.160759 -72.095001 -230.573273
-150.686493 -67.980469 -261.288025
-142.276733 -75.532097 -286.754852
2.479312 -77.672714 -241.316162
-17.642300 -54.314480 -252.220154
68.185516 -47.837112 -68.095139
-127.138847 -64.736877 -203.774323
-98.227409 -59.466480 -120.659096
-29.813786 -40.669308 -59.973701
-91.747002 -73.992271 -251.872467
-39.419930 -72.980232 -158.993790
-99.236420 -41.634468 -104.415016
-71.169739 -66.568520 -99.151558
-9.488051 -71.203224 -281.637726
-145.232666 -79.063248 -228.267105
-84.648117 -26.620630 -58.398907
19.424778 -77.167175 -255.693451
33.810776 -72.918907 -141.946945
-139.612396 -74.726250 -200.431458
-153.339218 -67.079605 -188.265747
27.051128 -58.750008 -132.605484
-85.205742 -69.930733 -117.874146
83.040283 -47.386726 -108.005135
-57.962879 -37.182602 -70.815796
89.784241 -73.922882 -70.188126
25.602777 -55.371262 -15.375471
-146.165634 -62.586586 -252.667526
25.503233 -65.125687 -261.806915
-112.919876 -71.561630 -198.712845
24.106245 -73.568771 -154.080078
-6.339697 -71.437958 -284.007324
-133.487564 -64.700783 -255.865295
-98.873383 -60.643108 -102.921432
-144.066956 -64.064751 -264.539276
97.325172 -53.738003 -62.405960
-103.289299 -64.295845 -171.087463
-150.316864 -76.182854 -194.064178
28.043695 -80.138519 -155.647278
-78.383400 -65.545029 -137.865051
-36.172489 -70.802704 -176.624557
-58.523228 -58.855392 -112.869011
-137.058273 -82.784744 -256.992737
-35.467438 -75.927406 -206.310715
-73.254906 -30.548393 -104.469810
88.206833 -51.308189 -72.613503
-50.287308 -74.520943 -187.569305
33.898392 -76.437233 -126.587204
-77.465981 -48.140564 -45.435532
-162.080215 -69.228325 -272.459747
-166.826538 -70.642410 -273.890137
-39.961636 -50.722263 -78.615730
79.408974 -48.682793 -108.811081
1.138693 -77.850197 -228.477661
-47.522243 -56.491013 -78.899223
40.019855 -70.652481 -119.537277
22.105869 -77.991753 -158.995514
50.022606 -71.020973 -243.858368
83.735893 -48.010075 -112.314171
-51.706532 -63.132874 -136.160049
-95.505470 -67.154343 -142.453491
-100.034294 -69.627769 -291.218750
-86.482491 -70.719910 -124.021034
-14.957799 -71.788521 -64.690331
-39.338554 -51.596401 -78.393959
112.411995 -69.273247 -134.898438
-146.706406 -84.117744 -220.319901
64.089584 -49.838230 -80.799812
-74.574631 -78.870941 -102.238609
-144.852798 -64.356133 -193.642883
106.859039 -69.733711 -123.072723
-24.304531 -70.662567 -175.106674
-95.839622 -34.062454 -62.599941
-153.459824 -64.395981 -256.664856
62.100620 -48.254158 -88.723099
-144.556824 -61.806705 -257.647339
54.547375 -65.848946 -86.556015
-79.669128 -70.705582 -100.979141
-90.037468 -69.695641 -62.499393
-68.909218 -58.745766 -117.896278
34.515598 -81.312454 -138.809723
42.958122 -76.891197 -125.833427
97.493103 -51.799194 -93.693832
-99.075111 -68.532532 -152.336395
48.730080 -72.437675 -250.063263
-63.392643 -77.985870 -161.934891
63.701515 -55.064632 -75.990761
56.843185 -69.879326 -241.845749
-152.909409 -80.235802 -283.480774
19.369410 -52.268997 -24.368490
-72.793053 -69.605995 -134.068268
34.658001 -71.110596 -42.043503
-5.871193 -77.166710 -221.852661
-35.725986 -70.924812 -52.015369
7.844246 -68.311798 -293.785278
43.913036 -50.420383 -17.464769
-51.874435 -80.964615 -200.326874
-7.876181 -69.276306 -215.273315
-39.260410 -71.996521 -49.398396
63.048302 -70.366158 -239.003113
98.967941 -72.315681 -98.040176
103.644829 -70.355797 -186.104919
105.890717 -43.493229 -74.994301
-83.465691 -50.822861 -115.821457
-58.706024 -28.963209 -65.776779
-124.449707 -72.906662 -201.284454
20.531536 -77.013351 -239.820251
18.253384 -68.256386 -190.289200
-61.331200 -80.419220 -70.904938
-125.695999 -69.832603 -284.848297
-9.947060 -51.026123 -51.655491
37.323406 -67.566971 -252.255249
95.070824 -75.598679 -85.067421
-72.003555 -78.507820 -208.179611
105.243332 -59.025116 -71.029068
-151.777145 -83.211227 -228.058807
18.543734 -63.154762 -26.701038
-52.182159 -77.781761 -140.198441
85.023445 -47.594807 -63.708729
-86.787239 -67.804626 -291.069489
19.093859 -60.523743 -31.120901
90.309357 -75.884811 -221.479767
-132.132568 -61.216267 -198.539581
-7.878074 -54.368076 -240.226364
-164.489059 -68.443718 -235.021271
-28.550425 -71.009796 -54.626625
0.977495 -67.373085 -234.277618
-80.471825 -74.028793 -100.805649
64.446793 -48.085049 -99.368423
-20.623360 -84.614868 -183.037048
-73.016251 -77.017410 -209.140594
44.678482 -75.374306 -116.744904
-57.613243 -28.908981 -67.142113
-124.363472 -67.993805 -291.790375
-24.029701 -73.531647 -202.907822
-59.873695 -69.090149 -46.606133
16.751089 -76.959526 -248.710266
-82.899002 -70.379013 -127.363861
-82.165382 -64.447273 -47.203068
-79.200539 -60.000153 -125.816772
80.306778 -47.109348 -95.217590
-100.989853 -57.393650 -96.209473
27.589495 -71.495667 -23.670345
74.266220 -59.091835 -107.091148
53.037086 -62.596222 -99.226181
-18.176495 -37.840694 -60.122131
70.564346 -69.244499 -231.701080
83.752510 -72.932045 -225.231979
-8.587115 -50.060017 -267.200958
-40.033535 -71.726044 -290.997894
-156.763901 -63.060455 -232.521957
-124.664566 -67.821014 -257.594757
112.111725 -73.156662 -145.232788
-82.457275 -61.057220 -47.486626
-164.010193 -72.382301 -211.823914
-152.474701 -78.355568 -232.378067
13.059633 -68.538544 -148.544922
-124.529594 -69.569542 -292.016357
-146.468643 -65.437630 -188.516739
-85.095924 -72.184837 -255.222351
22.854548 -49.597473 -284.611725
-77.156509 -66.559387 -101.437439
27.036589 -64.316818 -260.797577
104.792206 -60.083744 -78.414978
87.412552 -44.078728 -62.370102
-8.275216 -54.845142 -58.818756
65.448341 -51.010387 -90.345222
-86.209534 -56.351189 -47.530079
47.615650 -63.964329 -98.658508
22.275909 -71.876869 -23.744915
-62.096294 -78.924614 -209.908722
-80.761101 -17.573402 -78.663307
-65.579865 -24.871881 -92.832741
24.001743 -63.580490 -273.731964
97.761810 -66.409279 -102.940979
16.129766 -83.574066 -247.554871
-150.612274 -75.924126 -298.021973
54.649250 -61.690052 -89.282883
-151.437775 -75.080421 -282.675110
-29.034985 -72.820541 -192.124832
-44.771660 -75.030052 -142.242081
-148.134796 -60.226936 -233.916031
3.631517 -69.531212 -228.654434
73.301636 -47.123493 -111.133774
-93.970116 -28.121597 -66.500580
1.976017 -63.612583 -273.706787
11.375962 -75.647949 -195.313568
-135.575134 -74.029106 -286.301117
-76.300522 -67.655899 -128.419861
38.427120 -66.131760 -34.608089
8.624176 -77.184441 -245.961807
106.112747 -71.709076 -105.536331
13.757439 -78.974251 -229.620453
-18.780556 -58.054749 -259.524994
-58.066833 -27.312309 -68.909355
-10.719784 -50.100006 -252.409714
-22.361341 -78.949455 -185.776718
101.515114 -46.225929 -97.427597
-158.984406 -67.111336 -229.133301
41.790806 -52.236603 -33.521530
-54.673527 -70.640099 -143.686768
-64.479652 -47.533840 -53.834106
-11.692304 -72.470963 -246.128952
-104.748085 -72.811600 -228.017166
-139.983780 -71.759476 -202.010834
101.713753 -70.641098 -81.379639
10.055352 -67.576355 -153.361115
-62.460205 -55.738510 -126.403030
-10.487201 -67.720497 -252.122665
-8.302023 -66.640938 -261.992676
44.236568 -70.047020 -112.001602
-53.432804 -79.277565 -201.931458
-144.876541 -60.858475 -183.947586
64.524231 -71.245171 -236.747742
-80.598160 -71.507919 -118.810387
-65.400497 -34.458759 -52.739117
-47.957970 -81.780418 -185.554031
100.438736 -56.823402 -67.464363
-154.251511 -62.373714 -263.745941
-106.598831 -66.851089 -256.304138
-82.852554 -71.007790 -118.613266
33.283634 -71.817398 -13.518318
-50.974617 -77.191444 -143.054184
9.766020 -70.561867 -209.469727
95.063934 -41.631454 -75.822357
-74.297157 -27.988462 -102.127289
11.242114 -83.998848 -261.270172
-72.794098 -81.776123 -211.252258
-134.233505 -74.405754 -197.739471
65.730247 -47.116447 -86.856598
-41.851879 -71.238556 -168.063507
-36.491478 -84.652977 -195.625137
92.864571 -48.770596 -111.113106
-7.617029 -51.634918 -251.555939
15.542637 -54.172127 -277.118500
16.955555 -51.140564 -270.324890
-159.626297 -67.050743 -208.299194
65.799141 -46.873001 -95.601234
17.827452 -78.175560 -190.388702
-56.271568 -74.869865 -54.948318
-50.945133 -48.293648 -48.498592
-56.783722 -70.911606 -141.474365
-164.640869 -67.990768 -267.817535
-74.581879 -87.134895 -95.225357
-100.760902 -62.696438 -157.434906
-84.373337 -74.074043 -255.006805
-121.314651 -71.739937 -202.027206
108.200546 -75.108292 -159.480743
116.267738 -73.484856 -151.036667
74.567307 -47.243412 -65.106964
-82.294212 -67.997864 -127.008827
24.387947 -71.057930 -139.103210
22.644220 -68.828842 -169.833420
-47.200920 -77.242691 -241.912369
-59.331673 -56.383259 -110.797043
-145.541229 -78.410782 -205.150467
-62.696712 -64.195702 -134.995438
-21.492565 -72.686996 -238.561325
-50.657700 -65.697227 -141.563995
-50.695911 -53.066666 -45.230492
-66.471992 -67.673805 -99.497856
35.834286 -65.947281 -257.289337
87.806427 -54.728302 -82.538612
-18.891733 -78.458267 -203.443924
7.194924 -56.605827 -245.849136
-17.126308 -54.584064 -248.295105
-69.915825 -35.294876 -50.938763
-21.696983 -72.711998 -219.166824
-82.345749 -84.690125 -100.128281
-81.810547 -40.078011 -106.298409
52.798252 -59.584858 -109.291801
27.856176 -74.490547 -169.450333
-35.675785 -77.244263 -239.009628
-78.702126 -84.269241 -89.387375
-140.245575 -70.672264 -255.656433
-57.672798 -60.006756 -117.152115
102.089363 -66.803329 -97.474792
-18.637640 -55.431683 -267.728485
81.517349 -73.561661 -229.475937
-144.803757 -66.184738 -294.441528
34.552277 -57.018604 -130.583603
65.654411 -59.441410 -72.060944
-18.501669 -55.542542 -257.141693
8.916115 -51.243816 -291.856873
-14.023885 -77.535210 -177.521088
-76.006454 -68.500099 -104.580696
15.236038 -68.687759 -201.562668
-15.669564 -55.595650 -263.360962
2.186411 -83.131104 -253.655380
-71.495399 -60.013416 -97.676758
-7.937078 -75.468346 -226.317093
24.460344 -63.348869 -142.692337
-142.998245 -71.561615 -235.246185
14.843606 -77.268387 -290.893158
22.905884 -72.335976 -196.631699
-142.301208 -70.416023 -263.542816
8.313927 -67.242371 -241.261093
-115.631805 -66.309349 -261.906586
-100.585083 -65.539177 -151.892181
32.363976 -71.781967 -147.696732
-166.621887 -74.414871 -284.339417
-98.701820 -37.226685 -88.692993
70.813118 -58.304607 -102.776962
102.144226 -43.548588 -92.072548
-27.035818 -75.862663 -287.213318
-152.761612 -79.551834 -231.582611
-49.872765 -37.169910 -56.935684
-72.888184 -18.927118 -67.677528
7.127391 -56.636654 -240.169785
105.632957 -74.306969 -175.757721
22.448833 -57.538452 -15.288933
67.292885 -70.839508 -238.169571
13.098214 -80.698257 -214.881516
-54.266331 -66.077194 -125.651726
78.355774 -77.516991 -93.213158
-134.115234 -80.991913 -197.870422
-92.467896 -32.067802 -60.708450
66.495621 -53.978264 -91.723938
47.014004 -67.506691 -99.996056
-38.419285 -74.574677 -242.698425
64.660278 -72.438728 -242.027313
102.880852 -45.238159 -78.703506
-47.036362 -79.004677 -63.570614
8.602677 -51.605469 -251.255692
-152.470917 -61.378044 -230.155563
12.195179 -56.939476 -292.832886
-54.310841 -80.562508 -206.317459
-141.486298 -79.295532 -194.362167
-39.352024 -80.072571 -195.217834
-68.868111 -73.845245 -162.329437
-54.227879 -62.924435 -140.194550
-93.253944 -53.302132 -52.977566
-74.699699 -81.568573 -213.352432
-45.291515 -84.506691 -82.270782
19.104031 -73.668617 -241.030197
-2.992952 -83.446907 -250.955994
5.473739 -73.973183 -205.307190
-165.857635 -73.216774 -285.011536
34.944149 -69.248543 -131.683502
-48.682056 -74.372765 -56.487770
-151.743271 -79.666039 -201.334763
110.320259 -72.309494 -158.208923
96.708221 -73.072800 -72.408508
21.066223 -76.463104 -244.908691
-23.319262 -77.065193 -72.739952
2.086364 -75.998238 -242.187546
-153.194092 -61.011463 -231.352661
84.968582 -74.293671 -73.621246
-153.405502 -68.421089 -307.491882
-43.164059 -49.690647 -48.397400
88.235535 -42.204113 -77.120621
-11.861770 -68.483826 -230.247330
21.479765 -71.902245 -197.487122
-166.788834 -68.717705 -202.933746
40.499084 -71.170387 -104.101799
-74.852615 -78.026405 -67.229790
8.928432 -80.357140 -246.249985
42.105873 -55.755596 -120.854057
-96.346764 -37.381470 -101.735718
-98.656136 -64.634018 -110.748047
-21.051395 -69.564064 -193.291763
-125.217773 -66.640411 -254.295898
-41.020451 -71.904198 -79.270851
11.778113 -62.117519 -243.601364
-166.071854 -73.384033 -261.161499
-60.547798 -50.143513 -56.547878
-42.883106 -77.568336 -286.297180
28.061287 -78.050453 -150.843201
58.140060 -70.283630 -245.855408
-145.786438 -80.640495 -198.522537
113.752388 -71.796730 -122.846405
33.863873 -51.730827 -12.087409
-90.864769 -72.285797 -116.747276
-126.964417 -70.314728 -293.982391
-19.185946 -83.807396 -179.067261
-10.795179 -53.063751 -240.639008
-63.395164 -27.260368 -59.458900
90.664238 -66.823982 -105.919724
64.829155 -48.285877 -88.082542
19.082132 -72.358856 -278.813080
-80.938774 -85.003960 -104.252472
-2.986330 -73.880661 -286.549164
-68.622238 -73.330460 -155.182693
18.708006 -70.062263 -205.327606
-14.865946 -77.174507 -222.639816
-57.645576 -63.098003 -82.401726
-151.003555 -80.746750 -300.591949
16.042818 -80.701668 -232.145264
2.608747 -62.297085 -269.585724
-89.315689 -55.302082 -121.038452
-147.924835 -81.687744 -197.188019
0.023735 -72.488914 -234.265121
-71.669647 -56.481552 -111.562111
95.312721 -47.985992 -108.269524
-49.476295 -86.344162 -200.432510
-143.395935 -62.507484 -261.839783
-59.962940 -25.722755 -64.463913
-73.882942 -66.121002 -126.561653
23.896019 -55.717178 -252.172836
-82.343079 -58.602440 -117.630653
50.303123 -56.553699 -115.101845
-36.826542 -75.551300 -159.733963
-93.855240 -67.527695 -255.577820
-12.061335 -53.939144 -244.539398
100.815506 -43.548172 -99.562256
34.319187 -70.311333 -37.140759
-55.814312 -40.915642 -70.917160
99.306328 -46.106644 -108.435326
-60.725143 -53.726936 -64.524780
17.470297 -77.218895 -216.426086
-6.336771 -51.789997 -274.104431
96.437630 -69.393974 -204.519012
99.195656 -72.905609 -191.206207
-83.878326 -48.084721 -113.239365
-167.743729 -71.673172 -238.903290
14.091387 -51.207989 -290.137634
-0.686333 -60.344868 -242.964111
72.372711 -65.904259 -66.011803
-52.817310 -68.533569 -129.774887
87.429962 -63.758392 -108.041916
27.395855 -73.309059 -20.720209
-10.008772 -79.795761 -170.238815
62.550938 -48.421234 -93.760742
80.826752 -76.143402 -78.917801
29.728580 -52.446541 -33.830063
32.959641 -73.568245 -148.832535
-75.479782 -64.775032 -111.486389
8.322783 -70.217323 -198.151688
-143.546906 -69.121307 -236.820862
-130.493393 -74.913704 -283.644196
-94.411285 -59.087990 -59.859241
-145.198822 -82.836327 -201.382462
84.714638 -75.920387 -94.509354
11.610252 -53.424530 -290.728638
19.590595 -58.900276 -244.508087
105.839111 -48.172279 -89.483521
-76.506638 -86.431465 -99.687881
30.448511 -71.195930 -124.263748
-42.166981 -80.240089 -162.052673
73.962387 -45.241871 -81.898560
0.666162 -55.397842 -240.809494
-149.630890 -69.830086 -187.350143
9.586708 -76.732414 -284.002930
-154.171432 -80.678085 -260.306244
-74.478020 -67.639297 -110.768196
-3.097861 -73.234695 -234.079865
12.010839 -80.940147 -251.217438
-91.015915 -69.170380 -289.115967
110.804878 -73.729546 -176.719894
-62.733681 -30.630289 -97.283821
-82.604195 -84.313690 -105.516747
56.416405 -69.409325 -99.398865
93.391281 -59.353413 -60.462727
-95.703514 -63.652866 -154.942413
-14.057639 -78.098320 -202.147293
113.941818 -68.554726 -143.650360
109.991623 -76.742592 -150.071548
62.553078 -68.621979 -89.243423
-34.524242 -83.126373 -194.246841
-22.519756 -75.726036 -202.853500
22.242617 -63.277096 -137.412476
26.041990 -55.856171 -263.868347
60.825722 -49.011505 -95.182899
28.144344 -53.807995 -265.518738
-136.437988 -83.109177 -199.442154
76.727921 -57.078693 -98.784477
-5.954329 -66.718674 -222.057327
-68.694687 -81.157211 -70.299820
60.929790 -48.372654 -79.638672
-56.193470 -44.061752 -81.335411
4.867531 -51.407459 -237.323822
35.645035 -80.619743 -125.529915
-11.608883 -72.251137 -243.597992
99.602867 -44.257851 -66.041130
64.900330 -47.831779 -78.828476
-48.992577 -66.001427 -140.736359
-34.199379 -75.610382 -159.964752
92.643417 -47.960320 -58.753452
33.370319 -70.390930 -39.328026
-62.156155 -75.191910 -174.244720
75.900932 -71.528465 -228.198303
17.113461 -78.845001 -198.597687
-63.406845 -75.840057 -250.748260
76.998085 -75.290504 -98.134171
82.937645 -44.215069 -89.630608
75.450584 -47.474079 -107.726120
-45.086258 -39.753132 -73.846207
-109.892296 -69.970024 -186.927475
90.307533 -77.165260 -215.667404
-59.341663 -55.805187 -43.929859
-131.289520 -63.289406 -200.864441
-155.813507 -64.462196 -257.464661
-163.427277 -70.380493 -259.267120
-64.899429 -86.190735 -95.193016
-163.982208 -70.968529 -291.813995
-90.619972 -31.548510 -104.703697
-18.941408 -70.274010 -203.237167
8.027046 -76.715195 -243.971039
-10.119862 -57.053654 -281.279327
-60.965252 -76.812927 -57.441605
-85.703430 -75.329071 -111.622040
82.890793 -51.363865 -71.588974
-30.671204 -77.622688 -216.469467
-98.757950 -41.201649 -64.920792
-93.889778 -43.942982 -115.203957
16.498924 -76.232635 -223.157944
-20.058077 -79.813011 -195.050461
-132.780197 -73.748581 -227.603439
-94.645386 -31.349812 -100.756851
93.916435 -55.486092 -99.829529
-33.696812 -80.273003 -241.584198
-144.005722 -81.017159 -188.127991
-3.500592 -50.125332 -263.458801
95.519981 -75.936821 -210.669937
-147.816223 -61.697884 -265.305664
-50.554958 -86.322182 -85.123970
1.859453 -71.476891 -162.858459
30.660259 -70.543365 -153.835480
-3.705254 -66.089539 -235.789032
10.235044 -82.664574 -267.737610
40.832333 -76.202454 -123.638779
-43.746338 -62.282394 -44.572369
5.876414 -77.572128 -242.651215
103.711914 -59.623688 -95.243256
-160.718536 -72.404602 -222.982117
102.965569 -44.637886 -83.544189
23.565908 -67.594643 -178.716614
-60.097683 -77.422005 -245.766083
-61.718090 -72.969902 -245.776993
-37.142860 -65.546700 -46.605507
-166.316254 -74.226570 -241.135040
-21.207663 -72.712097 -225.548630
103.716606 -43.134266 -83.789749
-4.269226 -52.604244 -283.840332
76.541420 -54.608986 -59.012360
80.675056 -56.609306 -85.159088
-150.972595 -75.266693 -276.501678
27.287214 -61.940128 -33.818474
11.695932 -81.757416 -227.186844
-146.415955 -77.430153 -302.142944
-83.691139 -62.584770 -50.154064
26.435024 -67.526360 -260.822632
-166.180130 -64.980103 -226.982834
63.576897 -48.947407 -71.683075
-57.381618 -68.445290 -122.917870
-15.733184 -54.001907 -260.348877
-29.172907 -53.163651 -51.249973
-96.878448 -45.736221 -59.853958
47.311443 -64.178558 -18.224344
-112.942879 -67.964844 -226.347488
-98.952843 -51.552498 -105.899803
70.858788 -47.106133 -112.209465
-153.112808 -70.358292 -295.667358
95.339531 -76.963318 -203.712738
-74.870338 -60.738930 -109.920959
-133.616440 -64.642014 -231.232651
22.797947 -52.126122 -19.072109
-58.873985 -69.909653 -289.260712
68.024567 -49.607101 -70.138756
-43.972073 -73.385979 -167.629410
-95.824730 -65.689339 -156.996384
110.470169 -70.544991 -121.406143
34.822838 -49.072708 -13.100427
-12.471055 -75.187973 -201.309937
-103.532242 -72.827385 -226.903915
33.668713 -72.597198 -122.958290
-40.534298 -74.289688 -175.001343
-85.972557 -76.294876 -211.584473
-29.468391 -74.669754 -209.611618
-63.680180 -71.888954 -159.025787
12.696351 -71.080246 -212.113297
-124.518738 -63.522522 -228.358917
-102.771202 -68.869377 -172.110535
-165.450912 -72.440498 -227.017883
26.417007 -58.678471 -260.299530
28.341955 -70.932671 -40.208347
99.280533 -50.355309 -90.943481
-12.038724 -66.519783 -239.567459
-11.560093 -65.303909 -250.026703
32.990669 -72.489929 -113.343704
-57.520836 -64.121048 -119.742920
-85.882759 -66.526253 -54.661743
29.765135 -80.442032 -141.567719
-149.969559 -61.346676 -232.043808
-62.165138 -77.482780 -167.217514
38.112488 -78.445396 -123.338783
-26.299294 -81.169456 -182.754974
-84.241264 -82.018501 -109.035530
-157.363785 -71.426476 -194.994476
-145.528931 -72.298218 -265.837494
67.132126 -48.323215 -101.529259
-5.159616 -55.870209 -282.325928
-62.407013 -66.103714 -128.486237
32.771801 -78.751823 -145.172607
20.475586 -69.065117 -176.860107
62.173145 -50.227707 -100.233330
20.064037 -52.310745 -28.889969
-99.191925 -38.965199 -94.701012
-146.833755 -61.906670 -226.707184
24.235096 -70.065170 -35.941109
-15.668574 -57.908806 -260.663696
106.323662 -73.285210 -108.750900
73.906525 -58.265339 -105.058006
-79.846870 -57.512150 -45.355110
93.217522 -71.844528 -201.773682
-98.098625 -72.542801 -216.799194
-97.093086 -31.565453 -85.433357
102.058495 -78.143913 -200.213531
-38.972797 -76.113541 -170.543839
-66.812424 -83.320099 -83.987778
36.584923 -70.483376 -11.107834
28.746803 -71.252174 -172.912277
73.475914 -44.667645 -70.627380
-125.552078 -70.152145 -225.089050
34.482483 -73.092018 -37.244411
85.649818 -75.116081 -79.718880
-33.830921 -81.463089 -172.303955
-124.490776 -77.065842 -286.993530
-0.096855 -65.976959 -272.322357
15.670959 -70.077759 -232.342606
-71.204742 -44.946579 -99.589966
104.382530 -57.079407 -95.705086
-146.618408 -67.780838 -312.538391
-144.083023 -68.689148 -252.219284
-134.988495 -83.765030 -228.086426
-8.464510 -81.156883 -215.552963
65.089005 -63.796524 -70.285835
19.307442 -52.519573 -241.802048
-73.525909 -79.951790 -101.760742
-74.640053 -47.357574 -45.315823
-154.317795 -64.899063 -284.518463
-12.673027 -73.863281 -198.005707
15.946296 -70.622002 -207.480438
-95.316872 -55.826607 -120.143211
-14.854321 -78.465691 -199.301453
-61.218147 -42.450508 -49.037521
-8.842210 -67.124710 -268.251099
-35.465824 -79.135475 -200.696198
-136.138672 -82.730232 -231.051132
-91.537621 -60.719173 -123.301689
50.468342 -75.658203 -96.011513
-17.574114 -70.141273 -196.279572
13.305873 -77.989372 -231.419342
104.597328 -42.362129 -80.150375
-145.739990 -72.237839 -296.044830
15.017201 -72.844986 -157.001328
-150.105667 -74.137863 -252.345139
82.881355 -44.855614 -56.752945
-95.430153 -59.168251 -122.445282
-146.791840 -76.172440 -182.981384
-152.415466 -72.971786 -252.641510
-140.908722 -75.236206 -196.888504
-111.552322 -68.096085 -231.654694
-147.367386 -59.584522 -204.474091
99.818855 -68.540077 -83.640045
108.547714 -70.943642 -126.849380
-18.493469 -73.542999 -211.068939
89.053955 -44.030922 -65.662247
-27.581442 -51.278191 -50.889439
-12.316486 -72.495934 -226.085602
105.427887 -69.324684 -113.686813
-113.487640 -70.041374 -258.037170
-24.603596 -75.000305 -223.335251
-12.549281 -71.315727 -290.505463
-148.876480 -75.957443 -257.455231
36.273804 -73.071800 -149.577255
17.033228 -51.250858 -244.175720
-145.807816 -60.723972 -206.666702
-67.132156 -51.073608 -109.330162
-96.221870 -67.390984 -159.845078
68.587700 -74.178543 -237.538467
15.405807 -71.183502 -159.406174
-59.748768 -46.638725 -50.992649
-151.870453 -66.967575 -267.025482
-19.661621 -68.862694 -206.537491
17.850119 -68.385490 -210.371979
-31.102579 -49.793556 -51.830414
66.034798 -48.619469 -66.139343
-148.967728 -79.830414 -205.513962
-132.851227 -71.440857 -225.983246
76.598785 -56.555382 -104.952675
-33.420544 -71.634514 -185.302460
-60.567425 -73.373146 -168.088593
5.498942 -74.920799 -164.873566
33.669540 -52.831444 -41.281010
-45.899708 -71.692650 -163.776382
30.465508 -65.660210 -42.088173
-10.332092 -55.879780 -281.671844
-42.749714 -79.067780 -198.189529
74.189590 -49.978745 -108.572647
83.588020 -54.203003 -57.606091
-3.391354 -65.790627 -288.137604
-30.120625 -78.261353 -178.986038
110.146004 -71.697311 -132.770142
25.106831 -79.533997 -150.854385
8.636581 -74.397308 -211.976761
-95.269554 -27.034718 -71.286545
16.887274 -49.976849 -250.212311
-29.277645 -78.261581 -217.683105
26.923002 -68.090073 -150.252441
93.982269 -46.971817 -72.225220
3.663778 -77.009666 -289.652222
-30.118635 -68.155846 -51.684620
-144.653854 -64.621109 -174.397476
-111.900757 -66.587074 -258.339569
-59.734077 -57.639526 -119.266525
-73.906982 -52.524250 -107.657631
-7.299960 -67.338913 -260.562927
-48.061081 -52.958900 -81.733284
-135.547623 -85.271431 -288.156097
27.251152 -56.151760 -13.634762
-68.709106 -62.763012 -99.381622
68.245972 -51.896938 -63.880337
-156.469894 -74.929245 -268.674835
19.329115 -73.286667 -196.388489
-134.936417 -72.576920 -232.594086
-168.433868 -70.266624 -269.490967
-46.472965 -73.286629 -139.635315
-60.422993 -75.361252 -170.684998
26.023191 -70.088593 -181.214874
-63.253677 -32.513683 -95.156807
-98.574272 -54.139587 -114.219894
-94.880707 -73.349525 -252.442017
-142.059006 -76.690079 -291.596039
-60.245865 -50.229553 -88.293381
-150.429535 -63.418510 -265.894470
-13.592610 -70.961639 -269.238098
8.389627 -50.155628 -259.937134
47.910374 -54.719391 -116.561676
-90.922997 -45.028530 -51.840900
-94.087959 -40.992050 -57.012012
-127.624405 -76.955139 -291.311340
-64.376617 -65.812813 -95.162323
-59.826992 -61.453918 -132.189499
-150.873413 -78.869194 -283.821442
28.365953 -58.705002 -21.532993
107.620750 -71.859863 -106.920746
-155.771851 -79.874733 -289.721802
-57.269276 -78.177544 -172.355453
-150.597855 -64.293343 -259.547638
-149.290939 -66.424568 -229.625229
106.049049 -71.191887 -102.738266
-151.003128 -74.124466 -268.681671
-137.851273 -84.691177 -260.063812
65.098228 -53.916531 -75.737450
75.556557 -46.559460 -102.713638
-105.638947 -72.687355 -256.649200
-81.819160 -67.225662 -131.452728
-144.076233 -60.912479 -192.927933
11.644678 -53.929638 -292.954865
-77.668312 -76.655655 -210.667145
-42.116962 -77.759911 -62.880329
-10.320249 -53.867119 -275.716187
65.280571 -48.733559 -93.802216
-14.269922 -82.856033 -174.252243
-146.861664 -85.201927 -289.929932
95.061890 -43.957569 -55.801369
-49.526154 -78.516022 -186.748398
-79.526810 -37.711143 -49.896503
100.658035 -74.902664 -189.894287
23.042507 -52.657223 -277.536987
-98.171814 -61.401043 -109.445320
-143.923920 -72.267075 -223.259872
20.655073 -57.774849 -25.188421
-5.769758 -52.983158 -279.142273
102.835182 -65.454147 -75.226952
-143.688553 -62.458672 -234.722626
102.237892 -65.019661 -96.479958
-72.852600 -85.035461 -99.023201
-87.412766 -59.412868 -118.742264
-104.305656 -72.299393 -220.160736
-146.944473 -83.250023 -204.919296
-16.346560 -76.666969 -291.525665
-36.487465 -75.044807 -77.653893
-112.270515 -65.521042 -198.272385
-70.688232 -18.928444 -70.572227
-12.635008 -73.816315 -225.554367
-55.927197 -72.586418 -289.073395
-144.522598 -60.117050 -195.264282
-17.898355 -67.581459 -195.000763
-59.000732 -61.376427 -137.848389
-93.013870 -71.552177 -118.576195
-52.920490 -71.675369 -153.380920
99.206604 -51.452091 -81.862541
-58.979156 -46.877506 -87.037949
107.080643 -69.201591 -188.518631
-29.653637 -85.392563 -187.380280
43.668262 -78.426315 -123.689911
-56.313534 -61.618881 -81.446640
42.213585 -74.125740 -123.769913
-153.229095 -83.765762 -285.115234
-145.083954 -80.544632 -293.937439
-59.348011 -56.932186 -117.927582
-150.749313 -76.722801 -271.598328
80.284134 -45.883976 -103.334755
-152.274551 -79.761803 -253.492218
24.004469 -69.464005 -151.531219
-91.844360 -77.213676 -216.034454
-63.508392 -26.772528 -92.273254
-153.347351 -68.724434 -228.853851
34.293144 -81.410034 -121.379906
15.808334 -67.582718 -154.672287
15.419261 -54.603691 -279.447113
-149.001434 -61.044506 -237.363312
46.077091 -60.358055 -37.069088
110.908119 -71.055244 -115.038399
70.355392 -73.848915 -84.924698
102.340744 -54.309475 -99.201019
26.990126 -66.461998 -162.619751
11.422831 -74.591103 -198.914261
20.315002 -63.279350 -145.411331
-151.930969 -72.092194 -266.243103
-55.845703 -76.334335 -175.774323
-149.871750 -61.413914 -200.414017
-154.771408 -70.135750 -287.248627
-12.768370 -51.966003 -247.306961
-59.324841 -62.014767 -43.415417
26.701101 -55.245609 -269.099518
-146.783417 -74.830856 -286.712067
-21.573576 -79.231560 -241.035950
-76.651772 -85.790894 -90.300842
-61.513615 -55.647747 -121.669983
55.592072 -67.128693 -249.973801
-49.259548 -70.865379 -135.192139
63.844532 -62.318874 -81.874435
6.171460 -54.635754 -293.374634
79.396858 -73.721306 -99.376266
15.584419 -78.049896 -277.402039
-80.334534 -19.603815 -65.490814
67.227379 -71.799774 -239.907700
-126.359718 -66.395409 -233.952942
0.755983 -54.689312 -240.687576
65.473839 -65.215012 -73.941315
-145.977158 -84.908752 -277.274811
7.954164 -76.272881 -226.458160
-27.395866 -65.120819 -49.315094
-72.915741 -58.491898 -102.452209
83.159836 -57.159435 -108.679108
-86.119148 -74.590729 -71.555870
-78.136604 -66.110382 -107.019562
-12.665035 -77.213631 -205.363510
-100.734314 -75.035492 -285.687012
58.416866 -72.643272 -87.656532
-125.972595 -65.642570 -256.383148
-81.794365 -59.114510 -112.590134
100.654190 -74.779350 -199.944244
-145.745117 -71.866600 -206.544449
81.104546 -44.903461 -78.378868
89.650299 -51.616055 -98.603661
27.229263 -71.803123 -179.613007
-134.259460 -66.178108 -234.465103
-65.241936 -76.153961 -160.438812
-123.468918 -65.778046 -225.741760
-44.711788 -75.893753 -148.623749
-122.945488 -72.842064 -225.888382
96.606766 -73.744522 -91.597992
-123.010864 -63.997150 -200.561615
69.155556 -52.970695 -101.808075
26.035151 -55.393158 -257.663818
56.617100 -65.461250 -99.143806
-69.433029 -85.388504 -87.489265
-43.422432 -75.975471 -164.076355
-52.394306 -69.338066 -130.510818
-81.852020 -78.724487 -78.745277
-72.120651 -71.570961 -252.575699
31.283272 -65.249222 -260.117767
-93.991898 -68.448029 -121.433304
-67.146629 -77.988922 -168.337921
102.641342 -57.129627 -101.783806
-59.462883 -56.239079 -114.058434
-95.065079 -65.582306 -255.594925
-78.767769 -58.389191 -117.964241
81.840553 -45.528496 -97.258087
107.574539 -66.856529 -104.814682
-155.233124 -73.070259 -311.487701
-27.965513 -62.574699 -48.834156
61.548603 -50.656548 -83.528519
-74.238525 -68.512169 -130.877319
14.042936 -82.121132 -232.441711
56.576988 -70.042114 -93.702797
19.088560 -80.341507 -190.342361
-14.742584 -69.195595 -204.396484
12.012627 -70.805367 -232.505066
5.344806 -76.646111 -236.443176
-7.617761 -75.757179 -175.043060
104.217468 -46.691078 -95.775291
97.637070 -51.403164 -64.670784
3.950195 -85.908165 -266.933929
94.835014 -51.703671 -88.765739
28.680729 -54.376740 -13.958145
70.497505 -65.603561 -63.387909
33.283020 -79.362160 -148.932617
-93.261314 -26.726950 -91.327934
27.653816 -51.767200 -257.924927
30.375076 -57.153904 -131.525772
80.558853 -70.110634 -103.543503
-83.314720 -40.251953 -108.674896
11.012253 -54.293865 -237.777145
-18.679016 -76.255081 -185.444748
94.652924 -44.505928 -103.983810
103.715279 -42.744965 -61.570873
99.032867 -44.301945 -68.613510
17.102362 -69.386787 -177.289795
26.745310 -69.714279 -141.585266
88.419617 -46.155571 -78.425995
10.131853 -78.399826 -246.724136
-164.106186 -73.052864 -230.718597
66.126320 -68.674530 -242.497864
-44.885212 -38.749012 -55.270409
15.517852 -73.560135 -216.798691
-21.570997 -83.855553 -181.013397
-16.641806 -70.165009 -230.011047
-148.967468 -60.932289 -222.526321
-160.924225 -72.860146 -236.653671
-153.221710 -79.909386 -228.165726
-48.227768 -62.664425 -82.316971
-134.215408 -67.278969 -233.133835
-74.897408 -80.702400 -76.192505
99.107254 -42.426723 -101.980713
-88.668533 -33.438988 -108.892731
109.748795 -71.821953 -130.991516
17.845329 -76.391243 -240.214600
26.741989 -64.952988 -39.477695
-117.802940 -76.329788 -289.079254
67.755135 -64.793564 -69.329475
-152.061188 -68.916397 -247.966324
110.822723 -70.852203 -129.559280
4.330084 -48.470047 -242.882690
-41.321232 -77.548599 -85.307892
-141.680725 -65.385010 -198.151642
16.712479 -49.856590 -260.827484
-72.251099 -86.812302 -95.678101
69.318558 -47.983868 -100.717865
-46.841663 -75.803619 -137.415176
-77.059891 -72.458321 -143.868347
107.005623 -72.639816 -182.589554
9.704733 -81.782875 -235.418671
-65.811264 -72.945328 -151.899796
-44.573967 -74.663094 -191.635834
26.079485 -60.581936 -255.821106
29.541636 -80.220901 -147.747604
-139.617767 -82.142509 -200.119843
-95.935287 -70.332230 -257.800751
-97.975410 -43.468948 -63.440968
-47.238789 -78.989494 -87.196167
-149.994064 -73.383675 -258.991852
-10.854632 -57.099808 -272.560028
-8.033517 -72.733246 -239.900665
-144.246017 -80.433952 -265.274780
-125.854637 -71.665848 -285.708008
26.753229 -77.263878 -182.763321
10.225254 -68.976646 -236.715408
34.174805 -71.206024 -155.535034
22.886494 -50.972317 -17.312342
55.383606 -72.043968 -101.204315
-21.062515 -74.718201 -291.581482
51.119343 -63.768959 -249.167313
-4.165871 -79.454643 -167.992874
104.778488 -74.390129 -101.482559
16.615395 -52.620300 -276.088440
-72.301575 -69.867867 -143.750351
-76.502937 -51.260368 -105.007942
67.615982 -48.497581 -101.218834
28.880898 -50.287518 -259.238922
-86.421165 -67.022377 -123.480003
54.391125 -66.139702 -246.565643
26.034370 -65.248459 -262.751740
-78.946693 -71.362839 -132.984482
-7.580158 -53.727814 -240.718842
24.436527 -68.872055 -187.114700
-26.491623 -73.384857 -198.981918
-167.140396 -67.682304 -207.069473
105.898621 -46.331627 -97.592484
16.141520 -51.008911 -276.778961
-150.767761 -59.338268 -200.376984
7.759700 -53.770016 -291.649170
111.177925 -74.205597 -168.630005
22.668135 -77.303879 -175.742798
14.122933 -70.388916 -229.356842
-146.072296 -64.436546 -189.071899
105.755371 -55.635052 -81.692413
-92.290276 -66.066093 -132.532181
-61.863697 -53.273781 -112.694519
-38.225269 -78.470879 -161.334091
-7.201322 -65.393196 -251.960373
-55.823204 -81.531723 -66.684044
-97.183708 -69.277214 -217.515625
-40.071804 -42.233948 -73.229301
53.930016 -58.528446 -109.670578
47.016399 -73.103943 -119.403908
-80.819847 -75.099342 -250.655304
105.122955 -73.281136 -198.850281
-60.607864 -70.528976 -47.050304
30.546551 -69.830841 -12.460355
-104.448479 -69.230011 -166.288315
10.609354 -59.519051 -288.853119
-67.159218 -58.724915 -108.299110
-84.987183 -68.944618 -254.138443
21.725910 -53.992283 -279.107056
38.813633 -78.147690 -117.140587
-124.559372 -72.425911 -286.667145
-6.043725 -70.569496 -287.957794
13.097463 -75.376770 -294.411438
-43.741833 -70.668808 -146.111862
-74.416634 -75.400764 -210.891998
-164.929810 -73.417183 -210.661407
8.183754 -68.780045 -242.134048
-75.208603 -67.909149 -288.071350
92.536713 -55.066666 -88.633087
-95.520348 -62.356415 -63.020359
-142.067947 -67.465858 -204.969025
-43.740196 -68.645325 -148.275391
-148.323746 -76.774780 -198.279999
-95.791786 -71.652130 -86.173027
-156.540451 -74.093086 -265.785675
-148.387436 -67.211624 -311.788513
111.245583 -71.525253 -162.356720
88.763916 -43.855873 -56.775455
-151.703583 -61.014080 -225.410965
11.059065 -67.225410 -222.628571
-142.872894 -82.337029 -196.235870
-127.978867 -66.978363 -293.023254
66.287560 -58.368736 -101.621742
-10.545647 -55.992409 -283.545807
-161.572571 -71.681664 -203.760651
112.867897 -71.573151 -157.657043
-145.520554 -71.990234 -198.211777
-124.987572 -65.536797 -290.120972
101.875023 -43.136997 -80.468437
-147.443039 -83.902870 -208.977158
-145.670334 -65.204018 -205.995270
-133.346054 -67.454620 -225.447647
-86.439728 -62.812504 -113.379074
28.169851 -67.619827 -172.902832
45.225948 -56.409103 -117.412468
-157.975998 -73.020607 -292.764923
14.751176 -49.905876 -270.218048
5.624152 -69.890694 -226.273132
87.038651 -45.111427 -113.488113
-136.210266 -76.286484 -286.903931
49.892967 -71.043869 -249.171173
-31.759504 -61.042995 -71.175323
-143.518433 -63.652809 -290.819122
-143.882202 -69.544724 -284.197418
31.586771 -70.928658 -17.792837
-28.950891 -71.643738 -287.987213
20.855700 -57.070713 -241.620300
-148.548889 -71.213097 -205.302353
-15.915648 -54.324837 -240.550949
-162.153183 -74.896286 -261.749084
-142.677002 -66.184525 -194.266159
111.324898 -74.745728 -142.949188
-87.448639 -82.342133 -105.418442
14.605530 -54.324017 -281.740631
106.751450 -67.582443 -108.892212
-85.369675 -67.192459 -130.953918
72.076523 -51.945904 -57.893898
104.872719 -65.198280 -92.790512
42.190792 -49.164261 -33.551701
20.660715 -78.532616 -175.596817
11.891910 -77.850044 -198.313995
