15.598196029663 -49.904541015625 -240.921600341797 187.473495483398
22.874736785889 -50.547843933105 -241.917495727539 188.238464355469
-0.993246972561 -50.634983062744 -240.958541870117 189.763916015625
0.818220973015 -48.839107513428 -241.857666015625 189.587020874023
15.065944671631 -52.194114685059 -241.587966918945 189.045898437500
16.294284820557 -51.667541503906 -242.865875244141 189.905792236328
4.749938011169 -50.495651245117 -244.164535522461 191.779113769531
-12.403202056885 -50.683811187744 -242.257019042969 193.115966796875
-5.070184230804 -50.465953826904 -243.143997192383 192.366729736328
-1.593691945076 -49.864448547363 -242.442276000977 190.898513793945
0.631183981895 -49.279655456543 -241.478683471680 189.443588256836
4.872642040253 -53.264652252197 -244.332382202148 193.021484375000
19.575164794922 -51.323909759521 -243.913543701172 190.522735595703
17.033227920532 -51.250858306885 -244.175720214844 190.884536743164
18.742280960083 -50.871257781982 -243.809295654297 190.292419433594
17.195682525635 -50.633480072021 -243.945526123047 190.417434692383
18.127138137817 -49.751338958740 -242.697753906250 188.866088867188
10.156056404114 -49.390968322754 -243.651214599609 190.249404907227
13.020927429199 -51.640766143799 -245.993255615234 193.006835937500
8.427352905273 -50.065284729004 -244.974212646484 191.906692504883
24.111873626709 -52.124019622803 -243.851242065430 190.601943969727
-13.814311027527 -51.238731384277 -244.975509643555 196.073257446289
4.330083847046 -48.470046997070 -242.882690429688 189.875991821289
15.991063117981 -50.719280242920 -245.627502441406 192.074157714844
29.522157669067 -52.070743560791 -247.476150512695 193.820922851563
-12.104331970215 -50.867465972900 -247.884780883789 198.169982910156
-10.726840019226 -50.289291381836 -246.079727172852 196.037170410156
24.522031784058 -51.887794494629 -245.143829345703 191.678009033203
-11.615056037903 -51.741607666016 -247.402481079102 197.970550537109
-13.589679718018 -52.029205322266 -247.211105346680 198.331497192383
-10.849699974060 -51.359493255615 -249.050689697266 199.148315429688
26.651399612427 -49.247596740723 -245.177780151367 190.620742797852
23.810325622559 -50.655914306641 -250.411437988281 196.054519653320
28.208892822266 -52.667903900146 -248.371414184570 194.885147094727
-11.644832611084 -50.042324066162 -250.616409301758 200.225112915039
-10.414569854736 -49.854446411133 -249.351791381836 198.760360717773
-11.277099609375 -51.979694366455 -251.476715087891 201.659103393555
-10.991310119629 -51.569087982178 -248.818145751953 199.048187255859
2.574204921722 -50.084369659424 -247.870376586914 195.289047241211
4.666460037231 -52.008483886719 -247.564071655273 195.479629516602
-14.168620109558 -52.034923553467 -251.205886840820 202.043304443359
-10.923486709595 -51.457023620605 -251.020584106445 200.976943969727
14.815075874329 -50.336807250977 -249.376998901367 195.453781127930
-12.696690559387 -50.452083587646 -252.966842651367 202.721649169922
8.602677345276 -51.605468750000 -251.255691528320 198.233886718750
0.812655985355 -51.491645812988 -251.046966552734 198.977478027344
17.178955078125 -51.271030426025 -253.440826416016 199.390884399414
29.321233749390 -52.095909118652 -250.388900756836 196.507263183594
-12.646100997925 -49.914070129395 -254.938140869141 204.298019409180
-9.772054672241 -51.751888275146 -259.102020263672 208.187515258789
30.438884735107 -51.410591125488 -251.984909057617 197.712020874023
-7.617029190063 -51.634918212891 -251.555938720703 200.888290405273
5.146866798401 -49.947265625000 -256.493103027344 202.812545776367
29.188262939453 -50.740489959717 -256.134460449219 201.291854858398
-4.117538928986 -51.102191925049 -254.894546508789 203.106338500977
25.037679672241 -51.427276611328 -256.323822021484 201.778533935547
28.880897521973 -50.287517547607 -259.238922119141 204.005157470703
-12.147755622864 -51.530620574951 -255.264938354492 205.089477539063
25.403429031372 -53.234004974365 -259.859863281250 205.726791381836
-11.433407783508 -52.383914947510 -259.730560302734 209.312545776367
-5.381114959717 -51.149280548096 -258.493103027344 206.622039794922
4.218562126160 -49.686210632324 -256.752197265625 203.069305419922
0.172763004899 -50.290386199951 -261.925201416016 208.596893310547
29.244894027710 -51.907966613770 -256.799835205078 202.349029541016
-0.558207988739 -50.324298858643 -260.839111328125 207.713394165039
28.947116851807 -51.416210174561 -264.193908691406 209.028259277344
26.871551513672 -51.839714050293 -264.731018066406 209.700271606445
-3.500591993332 -50.125331878662 -263.458801269531 210.499588012695
21.248723983765 -50.463207244873 -267.312011718750 211.757705688477
-2.190648078918 -50.814945220947 -271.280609130859 217.767089843750
7.711440086365 -50.760971069336 -272.921905517578 218.051635742188
18.617109298706 -50.249778747559 -271.980804443359 216.166763305664
21.284738540649 -51.398288726807 -270.484954833984 215.051742553711
1.981498003006 -51.321769714355 -274.199645996094 220.084396362305
-0.709033012390 -50.012657165527 -275.624359130859 221.314743041992
10.403840065002 -50.280433654785 -277.019989013672 221.463760375977
26.304077148438 -51.876605987549 -278.029296875000 222.147415161133
-0.649038970470 -50.286602020264 -278.333404541016 223.922332763672
16.141519546509 -51.008911132813 -276.778961181641 221.062255859375
22.366804122925 -50.768592834473 -276.674438476563 220.588684082031
24.781467437744 -52.214965820313 -279.473114013672 223.647003173828
6.677350997925 -49.054187774658 -280.228698730469 224.414245605469
14.652263641357 -48.778835296631 -278.713439941406 222.221374511719
24.561021804810 -50.652713775635 -282.162353515625 225.648849487305
16.943256378174 -51.389865875244 -283.490051269531 227.444717407227
21.305299758911 -50.067352294922 -286.926269531250 230.045013427734
11.787668228149 -50.333148956299 -282.913940429688 226.897201538086
8.200523376465 -50.975105285645 -286.303283691406 230.603027343750
22.854547500610 -49.597473144531 -284.611724853516 227.654129028320
19.009153366089 -49.658802032471 -289.794586181641 232.718688964844
16.788663864136 -50.511264801025 -289.342529296875 232.678436279297
16.579156875610 -50.334747314453 -292.881195068359 235.978057861328
15.048006057739 -49.992603302002 -293.947143554688 236.967742919922
10.755688667297 -50.288806915283 -294.560546875000 237.944396972656
11.275453567505 -50.416213989258 -293.584167480469 237.021209716797
6.241501808167 -49.891284942627 -295.972656250000 239.553924560547
9.607153892517 -51.064460754395 -294.565551757813 238.289398193359
8.939843177795 -51.491619110107 -295.569244384766 239.429992675781
-77.465980529785 -48.140563964844 -45.435531616211 99.455993652344
-81.661788940430 -53.411968231201 -44.576107025146 105.247955322266
-49.665061950684 -51.676761627197 -47.914985656738 101.410575866699
-89.958580017090 -47.299346923828 -50.637958526611 100.203071594238
-34.790847778320 -49.984981536865 -51.622436523438 94.522758483887
-27.581441879272 -51.278190612793 -50.889438629150 90.662078857422
72.076522827148 -51.945903778076 -57.893898010254 79.379020690918
78.989776611328 -49.756309509277 -58.673179626465 80.624038696289
-60.547798156738 -50.143512725830 -56.547878265381 100.040336608887
-10.561315536499 -49.273635864258 -56.946582794189 78.635047912598
83.835594177246 -52.890266418457 -59.010257720947 85.395614624023
-17.262016296387 -53.422145843506 -60.365352630615 85.802947998047
85.979804992676 -50.337650299072 -60.719402313232 83.940048217773
-21.067466735840 -49.310020446777 -60.990112304688 84.761932373047
-60.790378570557 -48.491325378418 -60.599113464355 98.622779846191
-23.667032241821 -53.214687347412 -61.085109710693 89.439582824707
-63.669803619385 -51.152664184570 -64.039466857910 101.644104003906
-61.859485626221 -51.937873840332 -64.750823974609 102.512649536133
65.751457214355 -50.170608520508 -66.084022521973 74.939384460449
84.921455383301 -50.055702209473 -67.081077575684 83.244003295898
101.609481811523 -50.971523284912 -68.347824096680 92.579017639160
77.387329101563 -48.838397979736 -67.992111206055 79.149284362793
-36.270118713379 -48.872062683105 -69.426651000977 95.228431701660
79.545509338379 -50.252067565918 -66.441802978516 81.194564819336
90.955856323242 -49.953571319580 -69.250709533691 86.080032348633
63.576896667480 -48.947406768799 -71.683074951172 73.386596679688
101.866111755371 -49.024330139160 -72.957939147949 91.500488281250
96.081741333008 -50.102344512939 -73.422576904297 89.207061767578
102.510704040527 -49.971500396729 -76.673553466797 93.089187622070
-39.961635589600 -50.722263336182 -78.615730285645 100.602531433105
-43.296558380127 -51.086009979248 -79.745201110840 103.461616516113
64.089584350586 -49.838230133057 -80.799812316895 75.939216613770
61.911048889160 -49.782188415527 -85.498687744141 76.336380004883
60.039417266846 -50.075469970703 -83.804763793945 75.523239135742
-100.690719604492 -50.097061157227 -85.354133605957 109.400688171387
63.350742340088 -50.319576263428 -90.646148681641 78.926765441895
61.458686828613 -51.178806304932 -90.488136291504 79.003974914551
60.585292816162 -49.767532348633 -92.559890747070 78.225379943848
65.932098388672 -50.952270507813 -96.332786560059 82.486038208008
-74.133773803711 -49.851387023926 -99.237953186035 108.846427917480
-98.250717163086 -54.122047424316 -108.295974731445 120.301193237305
80.172477722168 -48.994480133057 -109.330619812012 92.061294555664
71.469085693359 -51.606052398682 -110.171142578125 91.394676208496
-98.896705627441 -50.743885040283 -110.896316528320 118.717948913574
74.189590454102 -49.978744506836 -108.572647094727 90.321037292480
-97.345573425293 -52.485774993896 -116.964935302734 122.666069030762
-83.465690612793 -50.822860717773 -115.821456909180 118.052017211914
-90.156608581543 -50.506885528564 -120.087203979492 121.048332214355
13.025110244751 -50.740806579590 -236.813385009766 184.283843994141
16.480379104614 -49.501647949219 -236.321746826172 183.050186157227
18.220809936523 -50.956005096436 -237.892791748047 184.958190917969
21.096118927002 -48.277069091797 -239.703048706055 185.378067016602
18.540435791016 -49.735214233398 -238.281677246094 184.795806884766
19.972063064575 -48.856048583984 -240.101989746094 186.028289794922
-0.715238988400 -50.663009643555 -240.828506469727 189.612976074219
10.785425186157 -49.457775115967 -241.984375000000 188.688232421875
23.329776763916 -49.956268310547 -242.243865966797 188.285293579102
-4.770020008087 -48.256958007813 -242.387832641602 190.772125244141
16.591466903687 -49.970355987549 -243.005096435547 189.334106445313
18.324913024902 -49.865161895752 -244.898880004883 190.917999267578
22.609064102173 -50.050136566162 -241.708007812500 187.857208251953
7.477481842041 -48.736206054688 -243.877792358398 190.495178222656
-9.552125930786 -49.335548400879 -243.263671875000 192.895187377930
-9.849087715149 -49.888450622559 -242.936279296875 192.875076293945
0.106305003166 -51.108283996582 -243.086471557617 191.702041625977
-9.402617454529 -50.877773284912 -246.174072265625 196.080627441406
2.744255065918 -50.947448730469 -245.343673706055 193.299057006836
-8.194176673889 -50.631519317627 -244.909637451172 194.608627319336
14.970450401306 -49.245059967041 -245.613754272461 191.560958862305
18.098066329956 -50.581241607666 -248.293609619141 194.329925537109
-11.944450378418 -49.053577423096 -246.015502929688 195.763290405273
-10.396098136902 -48.692066192627 -246.685333251953 195.908752441406
-6.689970970154 -50.330928802490 -246.294677734375 195.456054687500
-4.338171958923 -50.303146362305 -251.266906738281 199.537353515625
13.584492683411 -48.692081451416 -247.946899414063 193.605590820313
8.837053298950 -49.370342254639 -247.987823486328 194.353149414063
16.887273788452 -49.976848602295 -250.212310791016 195.938583374023
-13.361524581909 -48.683036804199 -249.717941284180 199.269500732422
-11.426329612732 -49.817214965820 -250.047027587891 199.581054687500
19.284521102905 -48.078456878662 -249.674926757813 194.581024169922
2.195921897888 -48.420867919922 -248.175521850586 194.988220214844
16.950948715210 -49.331848144531 -250.377548217773 195.841171264648
-10.719783782959 -50.100006103516 -252.409713745117 201.681915283203
3.244997024536 -50.246738433838 -255.083541870117 201.865951538086
-7.555652141571 -48.470336914063 -255.926773071289 203.681854248047
13.060818672180 -48.558422088623 -254.995513916016 200.110351562500
13.799196243286 -49.755920410156 -259.633026123047 204.789123535156
25.166212081909 -50.801509857178 -250.081298828125 195.770675659180
7.064048767090 -49.589611053467 -254.754638671875 200.854385375977
22.727907180786 -50.323436737061 -254.158752441406 199.424224853516
2.682934045792 -49.742694854736 -256.071807861328 202.661911010742
-1.032861948013 -49.386192321777 -256.730194091797 203.663589477539
16.712478637695 -49.856590270996 -260.827484130859 205.730728149414
2.012928009033 -49.608337402344 -263.456817626953 209.515670776367
11.074848175049 -49.005859375000 -260.372985839844 205.432693481445
22.975967407227 -50.653469085693 -260.000610351563 204.955307006836
-5.025574207306 -48.739566802979 -262.598327636719 209.462356567383
-2.248469114304 -48.877845764160 -265.700744628906 211.936401367188
8.505994796753 -49.379619598389 -264.310150146484 209.469787597656
6.064013957977 -49.471401214600 -268.126739501953 213.309951782227
15.532910346985 -50.961456298828 -265.193969726563 210.267593383789
-1.444079041481 -49.803577423096 -270.572540283203 216.652252197266
14.751175880432 -49.905876159668 -270.218048095703 214.630783081055
15.678309440613 -50.253711700439 -272.276580810547 216.614700317383
3.954231977463 -49.360385894775 -271.534362792969 216.686569213867
10.143170356750 -49.501285552979 -274.408538818359 218.776702880859
-57.914150238037 -48.856681823730 -45.428031921387 98.864677429199
-53.304115295410 -50.066215515137 -45.471675872803 99.927810668945
-45.537963867188 -55.312801361084 -47.080886840820 105.284843444824
-22.468441009521 -51.876514434814 -52.578693389893 87.775695800781
-12.293540000916 -50.290233612061 -53.386661529541 80.554420471191
75.878990173340 -49.624393463135 -56.615119934082 79.250556945801
81.772056579590 -48.866748809814 -57.870288848877 80.958366394043
-64.817955017090 -48.989696502686 -59.387649536133 99.220504760742
76.711166381836 -49.734447479248 -58.144104003906 79.645294189453
-11.140375137329 -50.791145324707 -58.703136444092 80.221427917480
-11.947094917297 -52.724586486816 -59.269691467285 82.295448303223
81.295448303223 -48.290699005127 -59.638652801514 80.132766723633
93.712509155273 -52.474914550781 -59.706657409668 89.538543701172
-64.031478881836 -48.141971588135 -59.445232391357 98.399520874023
71.185432434082 -48.226516723633 -63.943126678467 75.463249206543
71.819396972656 -49.884601593018 -67.256332397461 77.315414428711
71.598907470703 -48.455413818359 -65.349670410156 75.878211975098
83.786895751953 -46.893959045410 -65.924850463867 79.866188049316
101.753967285156 -48.769390106201 -71.494812011719 91.090919494629
68.419219970703 -49.061923980713 -67.556205749512 75.087333679199
68.024566650391 -49.607101440430 -70.138755798340 75.594757080078
87.891319274902 -48.947631835938 -68.226333618164 83.662048339844
93.982269287109 -46.971817016602 -72.225219726563 85.333358764648
99.337287902832 -49.707302093506 -72.563285827637 90.570182800293
65.709136962891 -50.602287292480 -73.292114257813 75.906227111816
-100.672569274902 -45.677268981934 -74.694114685059 102.982597351074
63.960762023926 -49.671665191650 -78.010795593262 75.155235290527
-43.500198364258 -47.835208892822 -79.549827575684 101.209892272949
65.498832702637 -49.484069824219 -84.888122558594 77.177696228027
60.929790496826 -48.372653961182 -79.638671875000 73.238479614258
-55.421241760254 -48.999664306641 -83.528572082520 103.048912048340
-56.104583740234 -53.042129516602 -84.036682128906 107.084693908691
62.334312438965 -49.442977905273 -84.505645751953 75.895217895508
62.703647613525 -49.559589385986 -81.426033020020 75.336982727051
63.244941711426 -48.503906250000 -90.898818969727 77.395874023438
65.448341369629 -51.010387420654 -90.345222473145 80.167121887207
65.388465881348 -48.358963012695 -91.435478210449 78.231994628906
64.603195190430 -49.513568878174 -91.194000244141 78.854515075684
60.837539672852 -50.789684295654 -89.687103271484 78.192306518555
-100.469139099121 -51.066692352295 -95.409187316895 113.245719909668
62.550937652588 -48.421234130859 -93.760742187500 78.147048950195
65.805023193359 -48.840572357178 -97.756401062012 81.253280639648
-98.923324584961 -49.663848876953 -99.852500915527 113.163101196289
62.140106201172 -50.494098663330 -97.546684265137 81.310401916504
63.412185668945 -48.819374084473 -97.668441772461 80.361328125000
-71.409645080566 -50.817218780518 -98.530563354492 109.331695556641
71.314926147461 -52.378185272217 -105.488456726074 89.646766662598
67.295944213867 -48.364727020264 -103.036460876465 83.769653320313
-76.502937316895 -51.260368347168 -105.007942199707 112.656311035156
66.299392700195 -51.473609924316 -105.360504150391 87.019355773926
72.327209472656 -51.810932159424 -106.369445800781 90.015213012695
76.053688049316 -49.736614227295 -108.221519470215 90.599563598633
68.801734924316 -48.344741821289 -107.711830139160 86.610466003418
83.788574218750 -50.252082824707 -106.694046020508 93.340377807617
84.562850952148 -48.117046356201 -110.145645141602 93.574417114258
83.066322326660 -49.759201049805 -109.257354736328 93.798645019531
-82.237823486328 -50.432983398438 -114.075576782227 116.691673278809
-87.535636901855 -49.118999481201 -118.670921325684 118.684661865234
-92.704582214355 -45.859451293945 -118.568389892578 116.921333312988
-6.585284233093 -49.582550048828 -243.361572265625 192.498138427734
-6.278107166290 -47.070381164551 -246.489776611328 194.324310302734
-11.370025634766 -48.633949279785 -244.105819702148 193.762222290039
-1.238747000694 -50.058906555176 -245.488998413086 193.679351806641
-9.512311935425 -50.065425872803 -247.777816772461 197.237182617188
-1.169350028038 -49.501239776611 -252.766708374023 200.092147827148
-5.652648925781 -49.391979217529 -252.684463500977 200.715988159180
-79.750312805176 -47.323944091797 -44.803508758545 98.980354309082
-62.023426055908 -48.633285522461 -45.926952362061 98.908027648926
-56.904090881348 -44.038845062256 -47.486740112305 93.865432739258
-86.577041625977 -52.236495971680 -47.573207855225 104.566223144531
-50.945133209229 -48.293647766113 -48.498592376709 97.972358703613
-62.628971099854 -49.929958343506 -53.364208221436 99.967613220215
-43.957702636719 -48.745632171631 -51.648269653320 98.681686401367
-62.599262237549 -48.765220642090 -52.825675964355 98.807968139648
-62.930492401123 -50.341678619385 -54.359386444092 100.411361694336
-63.662452697754 -49.544925689697 -54.882602691650 99.703094482422
71.606140136719 -50.385166168213 -56.567771911621 77.886085510254
-60.038860321045 -49.665496826172 -57.726703643799 99.568000793457
86.293289184570 -49.546268463135 -58.647941589355 83.471397399902
92.577033996582 -48.906356811523 -58.845497131348 85.935783386230
82.978004455566 -49.772380828857 -60.709861755371 82.131759643555
71.153228759766 -47.431369781494 -59.093711853027 74.874687194824
-64.879348754883 -49.523242950439 -64.713256835938 100.032081604004
94.234634399414 -47.837051391602 -60.623703002930 85.811988830566
74.336105346680 -47.486381530762 -62.178630828857 76.336990356445
63.712863922119 -49.963115692139 -66.843887329102 74.000442504883
80.795707702637 -46.441242218018 -65.013481140137 78.157302856445
66.034797668457 -48.619468688965 -66.139343261719 73.631942749023
69.479522705078 -48.775943756104 -68.205467224121 75.327392578125
68.364364624023 -48.246845245361 -69.583114624023 74.465965270996
88.632591247559 -49.163940429688 -66.535758972168 84.126815795898
66.889640808105 -48.732955932617 -69.039939880371 74.242607116699
94.799537658691 -46.299690246582 -69.312194824219 84.964363098145
91.557701110840 -47.799682617188 -68.827064514160 84.495498657227
68.185516357422 -47.837112426758 -68.095138549805 73.913993835449
101.248779296875 -46.882644653320 -69.447929382324 89.118148803711
67.240554809570 -48.406147003174 -72.954475402832 74.484626770020
-39.244312286377 -49.546943664551 -74.640495300293 98.558212280273
61.730434417725 -47.478271484375 -75.881515502930 71.957054138184
62.813072204590 -49.516502380371 -75.356094360352 74.129844665527
64.900329589844 -47.831779479980 -78.828475952148 74.008033752441
-47.397220611572 -49.389499664307 -80.323867797852 102.632751464844
60.578735351563 -47.172920227051 -76.848625183105 71.450317382813
62.107711791992 -48.469558715820 -80.335571289063 73.885917663574
-51.795471191406 -49.356933593750 -83.879547119141 103.458915710449
60.512607574463 -47.564620971680 -83.908004760742 73.426788330078
62.526576995850 -49.346748352051 -80.579376220703 74.885025024414
64.406593322754 -48.265041351318 -81.662544250488 74.845085144043
63.211101531982 -50.211971282959 -85.919013977051 77.285926818848
59.493129730225 -47.530426025391 -85.933700561523 73.656990051270
64.312477111816 -48.767086029053 -89.210571289063 77.424880981445
66.732376098633 -47.938774108887 -90.016273498535 77.889434814453
65.315399169922 -48.442474365234 -89.545066833496 77.622863769531
65.730247497559 -47.116447448730 -86.856597900391 75.766555786133
62.100620269775 -48.254158020020 -88.723098754883 76.039581298828
63.908428192139 -47.797245025635 -90.125183105469 76.746520996094
66.286270141602 -48.751678466797 -89.406486511230 78.210899353027
66.470069885254 -47.270149230957 -89.392791748047 77.003768920898
64.812248229980 -47.141857147217 -91.280250549316 76.920013427734
66.490104675293 -47.553169250488 -91.186347961426 77.872848510742
66.001625061035 -47.391498565674 -90.641235351563 77.354499816895
58.772323608398 -47.155654907227 -90.454551696777 74.605163574219
-65.008316040039 -53.239730834961 -91.508743286133 109.099563598633
61.583698272705 -47.621486663818 -91.976219177246 76.457656860352
65.799140930176 -46.873001098633 -95.601234436035 78.720695495605
-69.458137512207 -48.463527679443 -95.598793029785 106.000335693359
63.371429443359 -48.471500396729 -94.490844726563 78.753158569336
66.375946044922 -46.592510223389 -93.495239257813 77.871253967285
60.825721740723 -49.011505126953 -95.182899475098 78.658065795898
64.257797241211 -49.835102081299 -99.502548217773 82.287422180176
-72.374954223633 -49.595043182373 -99.474075317383 108.610328674316
67.615982055664 -48.497581481934 -101.218833923340 83.155410766602
69.661338806152 -47.727439880371 -101.500122070313 83.458335876465
67.132125854492 -48.323215484619 -101.529258728027 82.975151062012
69.318557739258 -47.983867645264 -100.717864990234 83.174064636230
69.005493164063 -47.711894989014 -98.954521179199 82.055809020996
64.446792602539 -48.085048675537 -99.368423461914 80.841377258301
66.449920654297 -50.087745666504 -101.387985229492 84.096923828125
-100.699066162109 -51.877525329590 -103.962432861328 117.210418701172
64.078170776367 -48.838600158691 -99.895790100098 81.572349548340
68.609542846680 -47.402015686035 -101.381896972656 82.729751586914
64.300003051758 -46.405422210693 -104.270973205566 81.736808776855
96.927406311035 -46.822586059570 -107.543846130371 96.925857543945
-77.804779052734 -42.918731689453 -104.818786621094 105.242195129395
72.619209289551 -48.055076599121 -105.493301391602 86.792243957520
68.513130187988 -50.348678588867 -105.598655700684 87.024406433105
74.979095458984 -46.955135345459 -107.028656005859 87.408592224121
-78.226730346680 -49.294528961182 -105.565170288086 111.286087036133
73.157493591309 -47.093990325928 -108.061500549316 87.386734008789
65.610710144043 -48.184036254883 -106.176559448242 84.555206298828
74.594314575195 -48.579692840576 -106.807670593262 88.492149353027
75.450584411621 -47.474079132080 -107.726119995117 88.323547363281
81.477859497070 -48.778808593750 -108.067161560059 91.825866699219
92.864570617676 -48.770595550537 -111.113105773926 98.117309570313
-78.798904418945 -50.700534820557 -110.277519226074 114.719932556152
87.464904785156 -47.646568298340 -110.605453491211 94.685951232910
69.541114807129 -46.994842529297 -108.525230407715 86.274177551270
-83.287475585938 -46.921260833740 -110.010513305664 111.828651428223
73.777351379395 -47.294513702393 -109.561737060547 88.486686706543
79.408973693848 -48.682792663574 -108.811080932617 91.272575378418
95.312721252441 -47.985992431641 -108.269523620605 97.329948425293
77.157104492188 -49.461460113525 -110.834274291992 92.018234252930
80.582145690918 -48.816707611084 -109.763374328613 92.287200927734
80.864860534668 -47.126621246338 -110.141921997070 91.260887145996
86.441078186035 -49.146102905273 -112.451110839844 96.279914855957
87.273300170898 -48.503501892090 -111.920112609863 95.909973144531
-96.291114807129 -49.323741912842 -113.293045043945 117.972984313965
-83.841346740723 -50.299743652344 -46.260635375977 102.324340820313
-45.527416229248 -47.202407836914 -50.325458526611 97.051429748535
-59.476882934570 -47.050987243652 -51.688495635986 96.846588134766
-64.148902893066 -46.627376556396 -52.131526947021 96.860618591309
-35.855773925781 -49.336013793945 -53.444049835205 94.705154418945
-31.102579116821 -49.793556213379 -51.830413818359 91.827957153320
-26.360685348511 -45.879325866699 -52.118629455566 85.730934143066
-23.001226425171 -46.965484619141 -53.545001983643 84.243911743164
-9.947059631348 -51.026123046875 -51.655490875244 80.059364318848
-64.479652404785 -47.533840179443 -53.834106445313 97.786186218262
-92.632820129395 -48.234989166260 -54.771614074707 101.574226379395
72.713172912598 -45.480178833008 -56.668830871582 74.097160339355
-96.762611389160 -49.495643615723 -57.155544281006 103.863555908203
-61.608142852783 -46.643478393555 -60.229568481445 96.832244873047
77.349449157715 -46.441825866699 -57.654262542725 77.014656066895
80.663299560547 -46.608757019043 -57.834442138672 78.453285217285
85.283409118652 -46.223915100098 -57.947753906250 80.106872558594
73.762413024902 -48.515449523926 -58.615791320801 77.095664978027
69.167465209961 -47.822208404541 -61.171382904053 74.226776123047
94.070640563965 -47.049343109131 -59.680091857910 85.097030639648
73.901321411133 -48.167247772217 -60.102378845215 76.779174804688
-97.890563964844 -44.487159729004 -61.689514160156 99.526626586914
-98.830314636230 -50.181728363037 -61.370029449463 105.218383789063
67.715209960938 -48.182910919189 -64.492973327637 73.890632629395
75.015335083008 -46.632770538330 -61.140724182129 75.967262268066
-32.783016204834 -49.506736755371 -64.186820983887 92.752922058105
96.699775695801 -46.718597412109 -63.683250427246 86.170013427734
82.816604614258 -46.460102081299 -65.456443786621 79.039222717285
81.838882446289 -45.991962432861 -63.673439025879 78.174018859863
99.247222900391 -45.677150726318 -64.821357727051 86.781066894531
72.283241271973 -47.389450073242 -63.376750946045 75.239036560059
85.023445129395 -47.594806671143 -63.708728790283 81.010787963867
-98.598754882813 -49.481109619141 -64.784423828125 104.686309814453
69.424530029297 -47.234214782715 -64.143302917480 73.779640197754
64.603401184082 -46.182819366455 -62.612186431885 70.785667419434
90.607803344727 -47.570095062256 -65.707160949707 83.680435180664
99.168685913086 -48.597976684570 -67.050018310547 89.181350708008
63.754913330078 -46.488204956055 -68.418022155762 70.894775390625
70.566650390625 -46.155548095703 -66.950592041016 73.419990539551
-38.102642059326 -47.759857177734 -69.372940063477 95.771835327148
64.724830627441 -47.493179321289 -67.415412902832 72.135009765625
69.700263977051 -45.294212341309 -64.672088623047 72.184333801270
68.545036315918 -46.853359222412 -69.021858215332 73.250587463379
67.422973632813 -45.687263488770 -70.731048583984 71.866294860840
63.168464660645 -49.066402435303 -71.945983886719 73.375617980957
62.917083740234 -49.053939819336 -73.226844787598 73.430572509766
68.966102600098 -45.513973236084 -69.651565551758 72.293952941895
65.411445617676 -46.176708221436 -69.463188171387 71.347114562988
61.933284759521 -48.334194183350 -72.132247924805 72.275070190430
70.567047119141 -47.405422210693 -76.264480590820 75.528602600098
68.722488403320 -49.258731842041 -72.944442749023 75.873039245605
65.553031921387 -46.965065002441 -77.726478576660 73.265373229980
-40.086349487305 -46.748405456543 -75.447044372559 97.438110351563
103.754730224609 -47.109882354736 -74.554519653320 91.274887084961
63.541160583496 -47.831523895264 -79.323211669922 73.598548889160
-42.706737518311 -46.808555603027 -78.285377502441 99.846046447754
104.797904968262 -48.003269195557 -83.705520629883 94.133422851563
75.645240783691 -47.577007293701 -80.728851318359 78.957305908203
70.503967285156 -46.488243103027 -81.917854309082 75.866241455078
65.858528137207 -46.829021453857 -84.753074645996 74.944564819336
79.284019470215 -45.498943328857 -86.270492553711 79.954444885254
-58.979156494141 -46.877506256104 -87.037948608398 101.997680664063
71.616340637207 -46.968242645264 -85.752243041992 77.790809631348
64.192703247070 -47.437385559082 -89.516319274902 76.328498840332
64.829154968262 -48.285877227783 -88.082542419434 76.827239990234
66.462577819824 -47.310024261475 -89.858192443848 77.192466735840
66.344352722168 -46.554744720459 -92.209327697754 77.341514587402
74.659721374512 -47.117908477783 -92.203590393066 81.383781433105
105.839111328125 -48.172279357910 -89.483520507813 96.280242919922
-100.854438781738 -47.765762329102 -88.221755981445 108.117431640625
65.173187255859 -48.536354064941 -97.082489013672 80.489669799805
104.217468261719 -46.691078186035 -95.775291442871 96.116462707520
75.032615661621 -46.942951202393 -94.388641357422 82.213645935059
-67.062553405762 -50.071708679199 -93.503890991211 106.742958068848
79.892517089844 -47.394035339355 -92.960494995117 83.955909729004
60.439556121826 -47.866733551025 -95.571861267090 77.713317871094
65.280570983887 -48.733558654785 -93.802215576172 79.385360717773
63.039215087891 -46.119735717773 -98.659851074219 78.417022705078
60.971729278564 -47.732700347900 -97.791648864746 78.705856323242
68.855964660645 -49.721122741699 -99.755599975586 83.974662780762
-100.653488159180 -46.872196197510 -97.161224365234 110.197761535645
73.843666076660 -46.448818206787 -99.532546997070 83.310600280762
83.712707519531 -47.219127655029 -97.082656860352 86.814620971680
100.576446533203 -47.583644866943 -101.030456542969 96.645675659180
82.584129333496 -46.384075164795 -100.754837036133 87.170471191406
71.436676025391 -46.385482788086 -100.933784484863 82.870765686035
67.280242919922 -46.054019927979 -98.818466186523 79.976974487305
101.827033996582 -48.499130249023 -100.667549133301 97.868896484375
68.062881469727 -46.763572692871 -102.751731872559 82.648544311523
-73.560256958008 -48.049957275391 -103.740806579590 109.021400451660
75.556556701660 -46.559459686279 -102.713638305664 85.351173400879
70.563758850098 -47.764713287354 -105.310317993164 85.644676208496
-99.478599548340 -47.975082397461 -104.213119506836 113.583831787109
78.894767761230 -47.188159942627 -105.691734313965 88.446556091309
-76.114822387695 -49.876552581787 -105.336784362793 111.524185180664
81.253425598145 -47.333564758301 -106.153022766113 89.723014831543
81.957984924316 -45.749401092529 -106.807525634766 89.070053100586
98.627616882324 -46.593143463135 -105.294494628906 96.626029968262
66.901741027832 -46.179344177246 -104.993927001953 82.844345092773
65.741073608398 -47.389404296875 -104.860282897949 83.312858581543
83.040283203125 -47.386726379395 -108.005134582520 91.357437133789
89.709091186523 -47.455669403076 -107.633102416992 94.058052062988
71.927871704102 -46.689884185791 -108.978218078613 87.105110168457
-96.045669555664 -49.098663330078 -109.544982910156 115.971435546875
80.906417846680 -46.525169372559 -110.092552185059 90.787467956543
88.390830993652 -46.555221557617 -108.742370605469 93.326606750488
89.036972045898 -48.937221527100 -110.383384704590 96.218353271484
73.301635742188 -47.123493194580 -111.133773803711 88.978034973145
70.858787536621 -47.106132507324 -112.209465026855 88.746932983398
87.551170349121 -47.069187164307 -111.685340881348 94.802947998047
-81.129112243652 -49.443927764893 -113.191146850586 115.269081115723
-83.878326416016 -48.084720611572 -113.239364624023 114.481277465820
88.918579101563 -47.533222198486 -113.335914611816 96.531021118164
92.659439086914 -48.221088409424 -110.922958374023 97.520988464355
-96.033630371094 -47.022193908691 -112.481071472168 115.581748962402
-94.322578430176 -48.617835998535 -118.610084533691 119.571105957031
-87.933837890625 -47.437561035156 -117.122200012207 116.541297912598
-74.640052795410 -47.357574462891 -45.315822601318 98.450904846191
-53.638595581055 -47.436100006104 -47.042385101318 97.192428588867
-62.243629455566 -44.173152923584 -51.916522979736 94.214492797852
-59.748767852783 -46.638725280762 -50.992649078369 96.470664978027
-60.023643493652 -46.296665191650 -53.099117279053 96.118598937988
-63.333087921143 -46.840610504150 -54.791728973389 96.977958679199
-15.211670875549 -46.530498504639 -54.009803771973 79.071182250977
-60.460624694824 -47.153991699219 -56.918235778809 97.067192077637
79.475730895996 -48.558509826660 -55.300365447998 79.984779357910
-62.430530548096 -47.338356018066 -54.833381652832 97.378257751465
79.639053344727 -46.695446014404 -54.864238739014 78.393218994141
-60.860607147217 -44.837657928467 -54.977977752686 94.743759155273
-95.787513732910 -44.843715667725 -58.689250946045 99.143478393555
77.910781860352 -46.955909729004 -57.482807159424 77.713768005371
83.434677124023 -48.981010437012 -55.344505310059 81.973327636719
92.643417358398 -47.960319519043 -58.753452301025 85.166061401367
71.127029418945 -45.826755523682 -58.033058166504 73.520469665527
89.506309509277 -47.002559661865 -57.571548461914 82.830093383789
95.675666809082 -45.221240997314 -59.934612274170 84.434799194336
87.433784484863 -45.932636260986 -58.744880676270 80.809608459473
-12.850253105164 -47.033924102783 -58.517158508301 78.011558532715
-10.535365104675 -45.310020446777 -57.834365844727 75.285987854004
80.750213623047 -46.626708984375 -57.972377777100 78.495254516602
83.928054809570 -44.920219421387 -59.453586578369 78.238807678223
75.436134338379 -47.288642883301 -61.299434661865 76.740844726563
80.330818176270 -46.645214080811 -60.264881134033 78.210144042969
82.899032592773 -47.853595733643 -59.854225158691 80.396575927734
78.032287597656 -45.373050689697 -61.143817901611 76.097831726074
-24.562847137451 -48.591087341309 -62.440166473389 86.474693298340
100.385063171387 -46.359165191650 -61.569046020508 88.015281677246
-30.854656219482 -45.342624664307 -63.167072296143 88.371215820313
68.323150634766 -46.858734130859 -59.668205261230 73.054725646973
72.925270080566 -44.657661437988 -61.777435302734 73.190650939941
74.841049194336 -46.809009552002 -60.676792144775 76.046539306641
73.281578063965 -45.606472015381 -60.808979034424 74.219680786133
73.081390380859 -46.887760162354 -62.782028198242 75.189064025879
67.398689270020 -45.452800750732 -62.117935180664 71.297760009766
74.856796264648 -45.663475036621 -62.564430236816 75.021728515625
100.889602661133 -45.239707946777 -62.893318176270 87.394355773926
66.597686767578 -45.628524780273 -62.985446929932 71.099433898926
90.033866882324 -44.761772155762 -63.427814483643 80.942909240723
99.265380859375 -46.990810394287 -63.342731475830 87.852333068848
74.567306518555 -47.243412017822 -65.106964111328 76.246109008789
96.118011474609 -47.147422790527 -62.414855957031 86.211273193359
73.475914001465 -44.667644500732 -70.627380371094 73.796394348145
96.971420288086 -44.554382324219 -66.483558654785 84.589187622070
100.563446044922 -46.087360382080 -70.066665649414 88.117095947266
68.630622863770 -45.793098449707 -70.582290649414 72.476325988770
67.557174682617 -47.020172119141 -70.376213073730 73.086196899414
67.461616516113 -45.948650360107 -72.061981201172 72.262184143066
103.226135253906 -46.673141479492 -69.907363891602 90.166908264160
74.474151611328 -45.539634704590 -69.719177246094 74.968505859375
105.455917358398 -46.850883483887 -69.510871887207 91.648849487305
72.958259582520 -44.342391967773 -76.423095703125 74.043151855469
66.233139038086 -47.041427612305 -74.327667236328 73.028373718262
80.382583618164 -44.812164306641 -71.832290649414 76.933967590332
-100.473602294922 -48.075691223145 -78.060058593750 105.780593872070
103.381912231445 -46.330856323242 -75.526237487793 90.559417724609
84.810073852539 -42.961257934570 -78.361816406250 78.210083007813
78.977928161621 -46.249244689941 -77.323799133301 78.447624206543
67.517700195313 -46.047416687012 -77.496131896973 73.213943481445
106.251945495605 -44.569766998291 -77.461395263672 91.251632690430
-45.810218811035 -45.952358245850 -82.889205932617 100.142951965332
-52.766937255859 -47.863754272461 -83.025917053223 101.778274536133
67.287734985352 -45.133590698242 -88.059173583984 75.066368103027
107.778366088867 -46.120807647705 -85.674293518066 94.964157104492
-57.506576538086 -49.379142761230 -87.225845336914 104.565597534180
80.497970581055 -46.413967132568 -83.718780517578 80.553970336914
88.799209594727 -46.471256256104 -89.561294555664 85.826194763184
71.864936828613 -46.902801513672 -89.308349609375 78.937088012695
106.188514709473 -46.982532501221 -88.859939575195 95.425788879395
-65.152786254883 -43.425495147705 -93.455245971680 100.536865234375
83.232841491699 -46.955665588379 -90.049362182617 83.926460266113
75.275199890137 -44.718540191650 -91.475761413574 79.449508666992
105.898620605469 -46.331626892090 -97.592483520508 97.455192565918
101.515113830566 -46.225929260254 -97.427597045898 94.802940368652
86.206459045410 -46.906867980957 -98.062232971191 87.978485107422
70.924163818359 -45.482765197754 -97.081893920898 80.261337280273
80.306777954102 -47.109348297119 -95.217590332031 84.684539794922
84.745147705078 -46.502792358398 -102.496009826660 88.881439208984
95.239723205566 -47.082599639893 -103.950912475586 94.701698303223
73.681526184082 -44.317195892334 -104.134613037109 83.464904785156
80.284133911133 -45.883975982666 -103.334754943848 86.928382873535
91.478492736816 -44.687297821045 -106.969795227051 92.443222045898
78.686149597168 -44.036521911621 -106.530052185059 86.246337890625
82.596923828125 -46.352226257324 -108.386703491211 90.542434692383
88.830474853516 -46.333217620850 -108.407691955566 93.184646606445
95.918144226074 -44.726276397705 -107.246582031250 94.743339538574
94.048583984375 -46.702419281006 -110.728584289551 96.939315795898
89.324676513672 -44.363403320313 -109.541610717773 92.467857360840
94.286834716797 -46.363117218018 -109.319374084473 96.123497009277
70.589927673340 -45.571575164795 -109.558052062988 86.072227478027
81.979919433594 -45.112037658691 -110.569244384766 90.378814697266
78.220596313477 -45.541378021240 -111.701393127441 89.771263122559
83.735893249512 -48.010074615479 -112.314170837402 94.184806823730
90.986793518066 -47.154590606689 -111.360816955566 96.190956115723
73.477226257324 -46.678554534912 -111.331794738770 88.783180236816
76.657234191895 -48.203639984131 -110.321762084961 90.588157653809
78.162544250488 -46.846343994141 -111.896461486816 90.858833312988
85.968193054199 -46.801933288574 -112.636299133301 94.397933959961
-67.152503967285 -47.957191467285 -44.589462280273 98.875053405762
-61.780918121338 -46.014144897461 -47.524337768555 96.173225402832
-58.248996734619 -44.204700469971 -49.632896423340 93.988784790039
-40.983451843262 -47.201164245605 -51.711696624756 97.073371887207
-23.528846740723 -47.454490661621 -54.332202911377 84.917961120605
76.864074707031 -44.515182495117 -54.145622253418 75.411514282227
81.781684875488 -46.913917541504 -55.580707550049 79.389328002930
82.881355285645 -44.855613708496 -56.752944946289 77.903236389160
81.891761779785 -44.832660675049 -54.992485046387 77.626441955566
-11.395233154297 -41.620159149170 -56.638690948486 72.762802124023
-10.417422294617 -46.758529663086 -58.191165924072 76.429687500000
75.963462829590 -44.530693054199 -55.182125091553 74.968887329102
90.640525817871 -43.932762145996 -56.026813507080 80.901321411133
71.356002807617 -45.233108520508 -57.795185089111 73.127601623535
85.249679565430 -44.532867431641 -58.665966033936 78.548934936523
87.741607666016 -45.244480133057 -57.120456695557 80.472434997559
86.907768249512 -44.585868835449 -58.629230499268 79.386108398438
88.108398437500 -45.135841369629 -58.679306030273 80.447494506836
86.940483093262 -45.561347961426 -58.329772949219 80.273963928223
91.951751708984 -47.014999389648 -59.808074951172 83.947006225586
85.735183715820 -44.491409301758 -59.141975402832 78.712303161621
-14.991015434265 -49.502323150635 -59.397087097168 81.267669677734
77.351501464844 -45.025047302246 -59.392227172852 75.591796875000
-20.667648315430 -45.704551696777 -61.435813903809 81.721153259277
91.133361816406 -44.744316101074 -59.687515258789 81.590164184570
95.164566040039 -44.673549652100 -60.081031799316 83.689506530762
76.226547241211 -46.753017425537 -58.357624053955 76.830909729004
-23.651290893555 -43.093852996826 -60.665428161621 81.674049377441
85.962074279785 -46.188484191895 -61.563869476318 80.216865539551
88.852577209473 -46.789302825928 -61.427391052246 82.131813049316
92.920776367188 -45.880233764648 -60.962032318115 83.446166992188
74.118408203125 -45.153209686279 -61.071052551270 74.240333557129
77.893371582031 -42.869419097900 -61.344417572021 73.736015319824
91.292083740234 -46.486682891846 -59.675086975098 83.160934448242
74.547348022461 -43.529720306396 -62.656940460205 73.035522460938
82.445541381836 -44.782356262207 -61.821971893311 77.365493774414
102.342102050781 -43.831275939941 -62.524166107178 87.163703918457
-35.873146057129 -46.160118103027 -66.320350646973 92.752456665039
96.751747131348 -47.242050170898 -61.590080261230 86.656333923340
83.688781738281 -44.363788604736 -64.657554626465 77.532722473145
-98.855766296387 -48.031845092773 -66.719993591309 103.552993774414
80.836853027344 -44.688602447510 -65.488220214844 76.592391967773
73.010726928711 -45.328037261963 -67.094619750977 73.878967285156
75.325042724609 -43.846370697021 -67.257926940918 73.717742919922
73.336639404297 -45.197750091553 -71.617599487305 74.283790588379
-38.970428466797 -45.339176177979 -69.794540405273 94.836593627930
101.247123718262 -44.975730895996 -70.325920104980 87.655296325684
84.002792358398 -45.169589996338 -70.546333312988 78.694549560547
-40.983261108398 -45.787296295166 -76.080268859863 97.586616516113
105.890716552734 -43.493228912354 -74.994300842285 89.860160827637
74.092773437500 -44.433906555176 -76.420356750488 74.687606811523
81.104545593262 -44.903461456299 -78.378868103027 78.287376403809
102.404327392578 -44.185100555420 -78.912651062012 88.807182312012
102.664375305176 -45.300067901611 -76.308029174805 89.424018859863
-51.856182098389 -47.514728546143 -82.639770507813 101.335472106934
105.973655700684 -46.066692352295 -82.871086120605 93.187690734863
88.419616699219 -46.155570983887 -78.425994873047 82.681976318359
73.978141784668 -44.235649108887 -86.892341613770 76.968124389648
-54.377037048340 -47.379058837891 -82.267044067383 101.110900878906
73.962387084961 -45.241870880127 -81.898559570313 76.434722900391
94.515167236328 -44.723339080811 -78.895446777344 84.692916870117
103.557151794434 -45.201816558838 -83.054771423340 91.091018676758
90.894355773926 -46.459060668945 -83.804458618164 85.273452758789
104.488609313965 -47.595764160156 -84.104064941406 93.720207214355
102.786735534668 -45.015689849854 -84.763710021973 90.867240905762
94.816406250000 -45.373176574707 -86.092254638672 86.968757629395
102.613159179688 -43.794044494629 -91.209220886230 91.562599182129
81.104537963867 -45.369369506836 -84.429290771484 80.060356140137
84.115875244141 -46.006797790527 -87.382682800293 82.683319091797
-60.245864868164 -50.229553222656 -88.293380737305 105.464836120605
-99.139839172363 -48.178504943848 -96.872993469238 110.803932189941
82.937644958496 -44.215068817139 -89.630607604980 81.337814331055
92.286293029785 -47.059982299805 -92.833061218262 89.016860961914
102.934623718262 -46.803352355957 -92.001747131348 94.257545471191
88.025466918945 -46.180015563965 -92.842681884766 86.280281066895
90.033668518066 -44.551055908203 -96.961997985840 87.387611389160
97.685806274414 -42.846530914307 -94.982963562012 89.268249511719
100.197647094727 -44.047279357910 -95.872680664063 91.882850646973
101.105346679688 -44.545177459717 -96.000793457031 92.812187194824
81.840553283691 -45.528495788574 -97.258087158203 84.734382629395
92.088592529297 -45.766952514648 -93.979690551758 88.267471313477
-100.719749450684 -45.941425323486 -98.874183654785 110.042701721191
77.985580444336 -44.909130096436 -100.927024841309 84.180465698242
92.520622253418 -43.206829071045 -100.309204101563 88.878570556641
101.630096435547 -45.381179809570 -98.066520690918 94.468414306641
97.665534973145 -45.225475311279 -96.143760681152 91.478195190430
-74.080390930176 -46.748310089111 -103.391845703125 107.729377746582
79.502227783203 -46.028202056885 -101.780860900879 86.063362121582
98.634468078613 -43.995552062988 -100.449256896973 92.697120666504
87.177040100098 -44.291316986084 -104.855812072754 89.224441528320
99.115280151367 -45.715019226074 -101.204986572266 94.534461975098
94.652923583984 -44.505928039551 -103.983810424805 92.483261108398
103.643096923828 -46.397308349609 -103.036590576172 98.250160217285
98.761863708496 -45.928119659424 -103.880737304688 95.601753234863
85.529647827148 -44.560348510742 -106.056686401367 89.298194885254
92.628417968750 -44.634689331055 -109.790588378906 94.293502807617
-96.498344421387 -47.774894714355 -111.398849487305 115.816177368164
96.812614440918 -48.435329437256 -110.728134155273 99.534049987793
80.175773620605 -45.799819946289 -111.569808959961 90.665153503418
86.265029907227 -45.855136871338 -112.131927490234 93.546089172363
82.712738037109 -45.977344512939 -112.231071472168 92.170219421387
91.609199523926 -43.396205902100 -112.009414672852 93.979255676270
91.299179077148 -46.031333923340 -112.043014526367 95.821121215820
87.038650512695 -45.111427307129 -113.488113403320 93.967590332031
-93.889778137207 -43.942981719971 -115.203956604004 113.855369567871
-63.230770111084 -44.484863281250 -47.773719787598 94.789718627930
-61.360252380371 -47.770401000977 -48.832794189453 97.808792114258
-59.677444458008 -45.796764373779 -48.037906646729 95.748970031738
-53.099418640137 -45.533996582031 -50.071254730225 95.133399963379
-90.922996520996 -45.028530120850 -51.840900421143 98.153221130371
-59.672542572021 -44.768375396729 -50.270145416260 94.622329711914
-42.648441314697 -45.437911987305 -54.016662597656 95.499320983887
-34.523742675781 -44.259452819824 -53.645599365234 90.218643188477
80.673461914063 -44.141502380371 -55.487583160400 76.433769226074
88.130462646484 -44.680019378662 -56.113739013672 80.260856628418
83.381683349609 -43.855842590332 -53.670955657959 77.569290161133
84.692535400391 -44.966182708740 -55.189445495605 78.967231750488
95.061889648438 -43.957569122314 -55.801368713379 83.329406738281
94.093330383301 -43.829315185547 -55.059764862061 82.759193420410
85.241271972656 -43.887016296387 -58.900367736816 77.961624145508
93.887908935547 -44.129238128662 -58.221862792969 82.629997253418
99.801429748535 -44.821464538574 -59.290657043457 86.513626098633
87.152870178223 -45.950096130371 -58.413181304932 80.710617065430
88.763916015625 -43.855873107910 -56.775455474854 79.807243347168
94.747863769531 -43.636741638184 -58.759468078613 82.664405822754
98.551269531250 -43.831432342529 -60.104942321777 84.940635681152
81.528564453125 -45.261104583740 -61.064430236816 77.421546936035
-30.327928543091 -47.479652404785 -63.285499572754 89.542007446289
