-97.410369873047 -66.424514770508 -113.792243957520 2.702525138855
45.061843872070 -83.940361022949 -109.149971008301 5.506725311279
48.589012145996 -82.233207702637 -114.523429870605 5.011909961700
37.321689605713 -80.069702148438 -115.994445800781 2.545461893082
32.565216064453 -81.200248718262 -138.855422973633 1.039629101753
25.565765380859 -79.805419921875 -142.216751098633 2.278790235519
20.858064651489 -73.346076965332 -145.151107788086 2.329576730728
31.418119430542 -76.731628417969 -144.332870483398 1.140619874001
-47.844833374023 -80.797752380371 -155.459228515625 1.187260031700
-50.325607299805 -79.347053527832 -152.696609497070 2.091358900070
-42.074710845947 -77.372764587402 -159.487747192383 1.705087780952
22.113611221313 -78.023284912109 -155.559066772461 1.679723739624
28.568819046021 -79.185302734375 -169.383529663086 2.068829774857
-34.322349548340 -75.002700805664 -170.423492431641 3.126508712769
-36.468704223633 -73.466171264648 -160.500473022461 1.455733537674
-47.089984893799 -80.434837341309 -160.683517456055 3.047470808029
0.718657970428 -76.689002990723 -164.829376220703 1.748777985573
23.472932815552 -81.009895324707 -152.638641357422 1.671673774719
31.946916580200 -76.637710571289 -160.928466796875 2.260899543762
27.946001052856 -78.233169555664 -171.743301391602 1.936140894890
-7.420715808868 -78.556533813477 -173.950408935547 1.638840913773
-5.765770912170 -80.046905517578 -171.839096069336 2.443384170532
-59.352844238281 -75.772155761719 -168.328414916992 1.756287932396
-61.959621429443 -77.001594543457 -172.598739624023 1.589810013771
-44.998947143555 -79.406745910645 -171.146667480469 2.327224969864
-39.123985290527 -76.371925354004 -169.063491821289 1.878392338753
20.667713165283 -75.111061096191 -172.706741333008 2.497731924057
-24.261550903320 -82.975524902344 -179.697708129883 2.595831394196
-31.465646743774 -75.404800415039 -182.938995361328 1.672536849976
-63.768280029297 -80.937500000000 -180.799865722656 5.697049140930
96.946075439453 -83.530151367188 -183.217163085938 8.719508171082
19.860206604004 -83.418586730957 -176.564178466797 3.926704168320
-26.959278106689 -78.271255493164 -181.311233520508 1.030475378036
-52.674259185791 -77.654739379883 -179.939376831055 1.531417131424
-22.410461425781 -75.194480895996 -182.083160400391 1.290118932724
111.396163940430 -82.627990722656 -182.933807373047 7.408368110657
-56.690326690674 -79.746185302734 -186.488723754883 1.757085204124
11.393681526184 -81.495170593262 -191.526000976563 5.388082504272
16.716615676880 -79.648056030273 -180.071426391602 2.361317873001
-57.289558410645 -82.978591918945 -178.648422241211 4.874473571777
-25.640558242798 -77.040321350098 -183.995483398438 2.529277086258
-57.168174743652 -80.928749084473 -178.730194091797 3.315145969391
-37.599605560303 -79.804405212402 -178.924835205078 2.533726692200
-30.087368011475 -78.274436950684 -188.887283325195 1.130593895912
18.640613555908 -80.188415527344 -189.865982055664 1.352820754051
-49.416179656982 -79.379081726074 -189.954116821289 2.430665731430
102.430366516113 -81.190895080566 -191.402175903320 4.721835613251
-51.880756378174 -74.158805847168 -190.933288574219 2.043238878250
5.914017200470 -78.697448730469 -204.124984741211 3.109213829041
19.800437927246 -78.551559448242 -199.835693359375 2.238200426102
-50.540920257568 -77.741043090820 -193.010513305664 1.928526759148
-17.713676452637 -79.557228088379 -190.678909301758 3.029901504517
98.671951293945 -81.765647888184 -196.110870361328 5.674320697784
95.097450256348 -85.874496459961 -196.481552124023 9.470469474792
-50.917831420898 -76.431747436523 -188.476226806641 2.115426301956
-150.828186035156 -81.255416870117 -201.393234252930 1.476655840874
-46.676727294922 -77.565856933594 -197.743408203125 1.812708616257
-146.112869262695 -76.180091857910 -198.791534423828 2.050873517990
-136.159149169922 -71.289970397949 -199.264770507813 1.897510886192
-47.780735015869 -80.671203613281 -197.648056030273 0.826126396656
8.669523239136 -81.173202514648 -208.529602050781 3.674593210220
-17.051919937134 -76.009323120117 -206.333572387695 0.891768872738
14.942091941833 -76.987884521484 -202.505889892578 1.137484312057
90.347053527832 -85.601066589355 -213.981719970703 8.109063148499
-36.152206420898 -76.355545043945 -203.771408081055 1.574425935745
-15.264950752258 -76.751518249512 -205.338455200195 1.304310321808
-17.160522460938 -76.257560729980 -215.326217651367 2.052991151810
-36.404399871826 -76.997207641602 -205.839950561523 1.644585132599
5.135129928589 -79.432785034180 -207.625564575195 2.853569030762
-80.483261108398 -77.886291503906 -212.198852539063 2.026664257050
15.087409019470 -80.494079589844 -216.040527343750 1.828450202942
-36.280326843262 -77.107345581055 -207.145584106445 1.257346510887
-146.458236694336 -78.983833312988 -208.880172729492 2.260833740234
-142.787643432617 -71.174057006836 -211.878189086914 3.613896846771
-89.404151916504 -77.170402526855 -214.370544433594 1.716193437576
-36.117290496826 -75.821540832520 -210.692581176758 2.918167352676
-16.142375946045 -83.587806701660 -213.767562866211 4.897992134094
-34.517024993896 -79.175811767578 -207.561538696289 1.621898531914
-92.135490417480 -78.930603027344 -218.594985961914 3.062048435211
-88.206474304199 -78.405334472656 -215.184341430664 1.397187829018
5.010448932648 -84.774208068848 -222.023651123047 4.338860034943
-150.620315551758 -69.425567626953 -214.609207153320 1.871120452881
-15.941282272339 -82.486083984375 -213.984970092773 4.137780189514
7.690476894379 -85.923988342285 -220.243896484375 4.032130718231
-145.498184204102 -73.559738159180 -221.603912353516 1.287473559380
-24.333053588867 -80.068870544434 -217.410903930664 1.758186578751
-0.152794003487 -74.924110412598 -221.236450195313 2.745533943176
-9.468994140625 -79.875411987305 -221.061614990234 1.167037010193
-153.616897583008 -70.693405151367 -224.981597900391 1.975216627121
-140.835876464844 -65.309669494629 -227.882690429688 0.689044356346
-5.467637062073 -79.218101501465 -227.020996093750 1.622205257416
-149.670135498047 -80.155990600586 -228.533554077148 1.163318395615
-0.077613003552 -74.415733337402 -230.748733520508 3.674846649170
16.429693222046 -78.675025939941 -236.807617187500 1.998108506203
-3.389343976974 -81.512870788574 -231.186660766602 3.147695302963
-2.897910118103 -73.363067626953 -233.925155639648 0.842433035374
7.347599983215 -77.839790344238 -233.071670532227 1.369399309158
-153.495910644531 -75.269714355469 -241.006164550781 2.682691097260
-20.884855270386 -76.003707885742 -235.085601806641 3.725451469421
-35.844593048096 -80.205726623535 -240.138488769531 2.455827951431
0.550773978233 -77.511726379395 -235.966812133789 1.389432549477
1.679620981216 -84.112319946289 -244.006072998047 5.317528247833
0.482553005219 -77.357780456543 -234.583801269531 2.136351108551
-59.467124938965 -76.539108276367 -243.720291137695 2.082725524902
-149.883712768555 -70.928833007813 -250.614410400391 3.153788566589
-154.339248657227 -74.481086730957 -249.086532592773 1.796066880226
10.495820999146 -81.054550170898 -248.411758422852 1.871039748192
23.944894790649 -81.740814208984 -247.566314697266 3.481957912445
-62.366447448730 -74.023971557617 -248.776260375977 1.341136217117
-143.662826538086 -79.237838745117 -253.853225708008 1.511043310165
-154.614807128906 -77.817352294922 -256.200653076172 3.270367860794
-155.171051025391 -78.596519470215 -258.629821777344 2.548195362091
-144.029373168945 -71.707366943359 -263.709899902344 1.725162267685
-142.751068115234 -75.530494689941 -258.121582031250 1.244202733040
-8.316878318787 -80.355575561523 -257.515350341797 1.437317013741
-146.624664306641 -75.972145080566 -263.791198730469 2.537088632584
-15.443223953247 -79.332771301270 -269.256256103516 3.112545967102
-148.627899169922 -73.087326049805 -273.486389160156 3.389658212662
-149.030410766602 -73.824104309082 -283.917724609375 2.907569646835
-149.294937133789 -72.496459960938 -285.665130615234 2.501082897186
-4.634107112885 -73.882659912109 -286.438842773438 1.169874787331
-149.182556152344 -70.027145385742 -284.730957031250 1.561512231827
-26.969263076782 -79.313850402832 -287.568511962891 3.897471189499
-27.348228454590 -74.981330871582 -286.561218261719 0.421203464270
-14.758130073547 -75.429306030273 -294.861694335938 2.876701116562
-15.098648071289 -75.043388366699 -294.100463867188 2.408924341202
10.859311103821 -81.408912658691 -292.456604003906 3.109838247299
-126.115303039551 -76.699943542480 -291.663116455078 1.411005020142
-62.618770599365 -77.114631652832 -288.570678710938 2.705572605133
-42.728302001953 -74.218818664551 -291.659515380859 2.802507638931
-34.310317993164 -78.229232788086 -289.056793212891 1.395361781120
-9.673757553101 -76.135688781738 -295.058105468750 3.463838815689
4.419065952301 -79.753463745117 -289.209655761719 2.798925876617
-142.816192626953 -75.037918090820 -299.341369628906 3.699223279953
9.683083534241 -79.267074584961 -296.977752685547 5.151935577393
-154.494079589844 -71.310569763184 -304.267608642578 2.634728431702
-155.070114135742 -78.249511718750 -302.941070556641 2.249555587769
-154.245407104492 -69.822280883789 -313.869842529297 3.044221162796
-143.965805053711 -73.251335144043 -311.175079345703 1.880689978600
-52.558334350586 -77.366516113281 -51.905807495117 5.308477878571
-55.760047912598 -81.291633605957 -57.649700164795 3.520250797272
-69.016838073730 -75.115753173828 -56.125728607178 1.486094474792
-42.008178710938 -75.759643554688 -63.630928039551 2.039440870285
-37.364440917969 -78.209846496582 -60.693424224854 1.177953124046
-20.871604919434 -77.565696716309 -71.534568786621 2.872277259827
-83.038009643555 -73.729331970215 -70.644699096680 3.299542903900
83.525123596191 -82.132713317871 -79.423980712891 3.838448524475
-92.282180786133 -74.473457336426 -75.549690246582 2.380526542664
78.947067260742 -79.396308898926 -78.419532775879 3.957488298416
86.630180358887 -77.116882324219 -85.301513671875 3.041430234909
96.197990417480 -78.952339172363 -90.682884216309 2.940672636032
-62.601741790771 -79.958457946777 -97.723281860352 1.683362841606
80.568092346191 -82.747901916504 -97.459541320801 5.552509307861
75.039993286133 -85.705368041992 -92.041107177734 8.023699760437
84.890434265137 -81.488471984863 -91.423301696777 1.770697712898
-60.697967529297 -77.460800170898 -98.836608886719 3.948633670807
47.420097351074 -78.294219970703 -99.151779174805 0.797259807587
44.280231475830 -79.524551391602 -107.668548583984 2.660248994827
38.162487030029 -80.858459472656 -104.771858215332 3.230705976486
34.587062835693 -80.333953857422 -103.108268737793 6.176314353943
-93.262458801270 -71.802703857422 -105.535675048828 0.769343495369
34.066535949707 -78.048141479492 -118.434883117676 1.346256494522
-86.304649353027 -76.555145263672 -108.722915649414 2.214343786240
38.951225280762 -81.231285095215 -128.295455932617 3.964758157730
31.278009414673 -80.676681518555 -121.940536499023 2.821927547455
32.933265686035 -72.161193847656 -122.552368164063 1.441025614738
43.091590881348 -77.973892211914 -118.583671569824 1.353716373444
39.898941040039 -82.688095092773 -129.328170776367 5.536387443542
-52.492038726807 -70.782135009766 -136.385055541992 1.345781922340
36.073410034180 -83.994110107422 -135.313262939453 0.879584729671
34.372581481934 -79.240119934082 -145.167770385742 1.485790967941
-56.897247314453 -74.601928710938 -144.998764038086 2.752961635590
-46.329463958740 -77.351303100586 -141.454742431641 2.321242094040
33.722019195557 -78.075431823730 -143.624633789063 0.583666086197
109.252754211426 -77.001396179199 -141.570846557617 2.223658800125
111.152534484863 -78.123222351074 -147.161941528320 0.565671741962
25.137189865112 -80.744422912598 -142.691146850586 3.123888015747
-41.597434997559 -79.921218872070 -150.893692016602 1.679835438728
115.138969421387 -88.598884582520 -153.521469116211 11.148915290833
-38.583034515381 -75.179985046387 -153.819793701172 1.065331935883
-69.011138916016 -75.358299255371 -163.503540039063 2.069329977036
109.179328918457 -86.021461486816 -156.885711669922 8.592919349670
21.409484863281 -79.988258361816 -167.255661010742 2.778716087341
-0.331059992313 -79.159500122070 -163.909484863281 1.244079828262
109.917434692383 -81.784721374512 -153.659896850586 5.335971832275
-65.369216918945 -75.837059020996 -167.446701049805 0.843390405178
-39.896827697754 -78.213577270508 -166.572540283203 1.150765299797
110.210403442383 -82.446624755859 -165.767288208008 5.096502304077
26.587921142578 -74.043815612793 -159.589553833008 1.183127641678
-62.821594238281 -69.961647033691 -165.758377075195 1.998529076576
111.419677734375 -81.995399475098 -166.776504516602 4.043659687042
-66.649520874023 -77.803497314453 -170.179855346680 2.004956245422
-50.228855133057 -79.554344177246 -183.444183349609 0.952317714691
104.969146728516 -80.702217102051 -172.164947509766 5.944036483765
-60.707656860352 -74.745391845703 -173.446609497070 2.297480344772
111.327865600586 -80.519737243652 -178.629745483398 2.884240865707
-62.382316589355 -75.379852294922 -177.527450561523 3.275337457657
-16.881542205811 -75.103363037109 -178.619781494141 2.714402914047
-11.324375152588 -83.048316955566 -183.498931884766 5.644670486450
106.430900573730 -83.353530883789 -167.716186523438 6.839078903198
20.243719100952 -80.099243164063 -172.442443847656 2.547952890396
29.551397323608 -74.344635009766 -170.256210327148 2.433090448380
-59.032890319824 -75.381942749023 -178.716156005859 2.367505550385
16.411102294922 -76.697601318359 -182.865600585938 2.237034559250
-58.686981201172 -77.036277770996 -176.080749511719 2.105949640274
-53.379966735840 -74.860519409180 -194.885101318359 4.646908283234
9.957187652588 -76.054344177246 -185.846450805664 3.037297010422
-57.048954010010 -71.648620605469 -180.745574951172 2.223045349121
105.192436218262 -78.714271545410 -189.235122680664 1.304378271103
24.571100234985 -81.656471252441 -182.987747192383 3.148921489716
-36.015140533447 -74.514076232910 -189.466186523438 3.588088274002
-44.194190979004 -79.123359680176 -191.169281005859 1.044793844223
10.080172538757 -80.502136230469 -192.784317016602 5.580481529236
-20.854856491089 -78.654914855957 -189.326660156250 1.883854746819
-48.750808715820 -78.006637573242 -196.696029663086 2.021516323090
100.652992248535 -85.173141479492 -183.631851196289 7.978126525879
8.695308685303 -81.798309326172 -191.418472290039 7.104610443115
-133.800003051758 -79.989776611328 -201.509399414063 2.495921373367
-49.539039611816 -78.790557861328 -196.705993652344 2.250897169113
93.569526672363 -79.976867675781 -199.654556274414 4.872333049774
-150.753494262695 -79.519058227539 -204.045120239258 2.420274972916
17.222106933594 -79.007797241211 -201.129470825195 1.943335890770
-44.298900604248 -73.529129028320 -207.198913574219 5.475025653839
-31.391666412354 -80.110549926758 -208.220016479492 2.172876358032
-38.328159332275 -77.970542907715 -202.830093383789 2.069465160370
-46.853576660156 -82.807884216309 -199.227310180664 0.957310140133
99.542045593262 -80.853370666504 -205.383377075195 4.258323669434
-22.295499801636 -81.328483581543 -201.498519897461 1.808866500854
-151.287551879883 -73.622787475586 -202.731399536133 2.671273946762
14.666053771973 -80.998413085938 -202.853927612305 2.023640632629
-78.348052978516 -80.139984130859 -207.122055053711 3.166055202484
-145.065887451172 -71.519355773926 -215.233367919922 3.064676523209
92.813163757324 -83.072463989258 -214.419296264648 6.048746109009
-34.013629913330 -75.543365478516 -208.246185302734 2.508716344833
-29.948289871216 -77.742202758789 -212.357086181641 0.464933544397
8.721377372742 -78.929878234863 -211.104324340820 2.046682596207
-72.904647827148 -80.066474914551 -209.220596313477 2.119934797287
-28.535514831543 -84.951316833496 -207.229736328125 5.140462398529
-9.182337760925 -79.232009887695 -218.045074462891 1.387542963028
-71.451148986816 -77.084762573242 -215.367004394531 2.593847751617
-15.107180595398 -78.092048645020 -218.682769775391 1.506437540054
6.893195152283 -70.223953247070 -212.530654907227 2.924045085907
11.691175460815 -81.276123046875 -222.291397094727 3.296064376831
-152.444290161133 -75.400985717773 -219.328918457031 2.919282913208
-10.057208061218 -77.701316833496 -215.376495361328 1.522984504700
-102.322441101074 -71.285865783691 -221.500640869141 0.541530311108
-22.976758956909 -76.938423156738 -220.655792236328 2.341687679291
87.518348693848 -86.264854431152 -213.018737792969 9.160448074341
8.109629631042 -76.411598205566 -225.785095214844 1.069686293602
20.047878265381 -78.319000244141 -217.428833007813 3.634692192078
78.936347961426 -81.926544189453 -215.185882568359 6.378129482269
0.197853997350 -82.201988220215 -230.933792114258 3.515766859055
84.261077880859 -81.054595947266 -217.657714843750 4.736747741699
-21.807664871216 -73.287437438965 -225.583465576172 0.408897250891
15.463720321655 -75.391098022461 -219.490600585938 2.482953548431
-149.477233886719 -75.208557128906 -220.579315185547 2.784874916077
-26.751554489136 -78.761108398438 -227.362915039063 4.646775245667
1.025681018829 -75.567420959473 -231.842529296875 2.767686367035
-157.447723388672 -78.814071655273 -227.128402709961 3.590859413147
-138.478637695313 -76.947395324707 -229.486938476563 1.883612036705
2.314568996429 -77.818527221680 -224.600463867188 2.523212194443
-4.652769088745 -74.484626770020 -226.494888305664 2.710056304932
-137.986801147461 -70.468391418457 -230.797790527344 2.546649456024
-148.081329345703 -74.081237792969 -243.385787963867 1.004791259766
-149.739242553711 -74.266784667969 -237.334976196289 2.826425313950
-32.702682495117 -78.343086242676 -238.054229736328 1.095679283142
-143.310348510742 -77.020713806152 -244.840133666992 3.201076269150
14.621109962463 -79.888824462891 -242.469406127930 1.832175135612
4.777396202087 -77.780273437500 -245.779067993164 1.484066605568
-151.490432739258 -68.172317504883 -239.707397460938 3.591350555420
-150.470077514648 -73.178245544434 -246.401809692383 1.318287611008
-46.578666687012 -78.631935119629 -246.949386596680 1.748315215111
-32.487552642822 -77.814216613770 -248.114929199219 5.064989089966
3.232646942139 -78.149452209473 -243.816833496094 2.155886650085
-37.215919494629 -78.903892517090 -246.621536254883 3.746381521225
21.064292907715 -78.911323547363 -247.517547607422 1.369306445122
-6.871016979218 -80.220321655273 -253.767257690430 1.437459230423
-145.419799804688 -74.804237365723 -254.590896606445 2.389208793640
-10.864848136902 -82.853706359863 -254.110000610352 2.786623716354
-149.158157348633 -71.473777770996 -248.716339111328 3.134574174881
-66.297042846680 -78.122871398926 -251.526443481445 2.367418527603
-147.972061157227 -80.990432739258 -260.736663818359 0.996761023998
-128.243347167969 -74.239921569824 -259.752502441406 1.690908789635
-153.598617553711 -73.113456726074 -258.909271240234 2.614561796188
-11.313631057739 -75.070396423340 -268.419342041016 3.702148675919
-146.604461669922 -79.818351745605 -273.831359863281 1.463467717171
-149.987579345703 -74.028991699219 -270.888763427734 2.254824161530
-12.544061660767 -78.098793029785 -271.961303710938 1.222140550613
-145.100723266602 -74.054542541504 -271.710601806641 4.001196861267
-7.026213169098 -76.451751708984 -277.759887695313 0.729439079762
-46.318534851074 -75.831573486328 -285.253845214844 2.210461854935
-135.410675048828 -71.372131347656 -289.981506347656 1.680649876595
-136.151626586914 -73.300224304199 -287.419830322266 1.211861729622
-123.803070068359 -70.931793212891 -283.397918701172 3.028225183487
-52.477256774902 -75.474929809570 -287.563873291016 1.502857089043
-112.631912231445 -73.080360412598 -285.376007080078 1.951112031937
15.834259033203 -77.635665893555 -293.461669921875 1.310544610023
-57.540233612061 -74.131835937500 -289.840667724609 0.942700207233
-141.383560180664 -73.389099121094 -294.834472656250 3.101766109467
-63.808689117432 -74.622909545898 -291.791351318359 0.815020024776
-145.373397827148 -78.789566040039 -295.187835693359 1.888292789459
-116.972991943359 -71.816558837891 -292.465576171875 2.112682342529
-46.569572448730 -78.988784790039 -291.592681884766 4.184790134430
-34.063766479492 -76.794517517090 -292.760955810547 2.668605566025
-138.167022705078 -69.382255554199 -297.674835205078 4.083316802979
-14.503601074219 -72.051612854004 -283.693878173828 2.615332365036
4.158524990082 -77.450119018555 -288.462951660156 1.576961517334
6.207478046417 -76.260078430176 -291.482330322266 1.808088898659
14.748771667480 -79.134742736816 -296.520874023438 2.545046806335
-150.326904296875 -77.698844909668 -299.746704101563 1.243473172188
-145.395095825195 -71.187911987305 -294.903839111328 1.526573419571
-67.882110595703 -74.608207702637 -63.492111206055 3.757612705231
87.411514282227 -82.447250366211 -73.256645202637 7.058879852295
77.349281311035 -81.683845520020 -78.132507324219 5.575087547302
-29.332067489624 -79.898086547852 -77.652961730957 1.304121851921
82.290657043457 -79.051094055176 -75.363189697266 4.073625564575
-39.388359069824 -79.626846313477 -81.060173034668 1.695207476616
81.515380859375 -76.869140625000 -82.656463623047 2.558899164200
94.819458007813 -77.204521179199 -80.581138610840 1.699266076088
-65.670669555664 -69.973747253418 -97.169265747070 2.209331035614
71.422981262207 -80.820030212402 -95.019256591797 5.892331123352
78.700607299805 -78.331207275391 -98.378303527832 3.305174350739
95.156005859375 -83.758293151855 -95.844284057617 7.291344642639
53.927352905273 -81.541770935059 -97.857345581055 4.806252956390
-68.375755310059 -73.702667236328 -102.664566040039 1.162856221199
-75.161773681641 -71.957405090332 -102.437026977539 2.880444288254
49.235675811768 -81.627670288086 -104.412132263184 3.326611280441
-89.081352233887 -76.838562011719 -103.730339050293 4.040205478668
46.043685913086 -76.372711181641 -118.855606079102 2.028012275696
109.437973022461 -80.459732055664 -120.415237426758 3.796870470047
111.696502685547 -83.320510864258 -130.956039428711 5.892631053925
19.736289978027 -76.383865356445 -137.996719360352 3.940624475479
109.025314331055 -82.904556274414 -127.375061035156 6.151285648346
27.596132278442 -76.134902954102 -134.293426513672 1.898214221001
111.860603332520 -75.493705749512 -132.736663818359 1.788137197495
36.051563262939 -76.633613586426 -135.491653442383 1.813868761063
-57.297363281250 -75.648628234863 -141.862777709961 2.530412435532
34.992671966553 -82.508857727051 -146.131088256836 3.857689142227
107.712341308594 -79.031974792480 -135.386840820313 4.744347095490
-47.146266937256 -74.608032226563 -145.078140258789 2.218153715134
31.008287429810 -77.328765869141 -151.056854248047 1.714807033539
-57.624294281006 -70.540092468262 -142.455795288086 1.508341670036
-60.078723907471 -75.707191467285 -145.954925537109 3.948512792587
-53.682743072510 -79.182327270508 -151.320190429688 3.294954538345
-65.493347167969 -78.539733886719 -157.098846435547 1.500664710999
110.753684997559 -85.167984008789 -147.780426025391 7.220761775970
-51.049419403076 -82.467048645020 -156.579223632813 4.662984848022
21.863414764404 -83.186401367188 -157.344909667969 5.124353885651
106.743629455566 -81.656776428223 -162.667892456055 5.906392097473
-66.425064086914 -75.598121643066 -156.066268920898 0.286986827850
-44.664783477783 -77.516845703125 -158.470062255859 1.656158089638
8.032793045044 -75.527351379395 -155.406784057617 2.104687452316
-69.326011657715 -76.005836486816 -156.419189453125 2.338431835175
-65.030456542969 -78.337242126465 -159.947357177734 1.960685968399
-0.697017014027 -77.772476196289 -163.372879028320 1.701317310333
-44.732112884521 -72.657363891602 -169.039428710938 1.593741059303
28.086763381958 -76.241783142090 -168.226928710938 1.069466829300
-64.031631469727 -71.806747436523 -169.467849731445 1.625453710556
-57.044948577881 -77.942428588867 -167.911132812500 0.764877915382
13.895785331726 -81.230911254883 -160.919219970703 6.627799510956
-31.202119827271 -75.612495422363 -169.633560180664 1.857848525047
-29.729064941406 -79.372619628906 -167.725433349609 2.130028009415
14.107587814331 -79.436660766602 -175.612838745117 4.486674785614
-44.485591888428 -79.174057006836 -174.169113159180 3.355594158173
-11.563549041748 -78.688575744629 -173.414413452148 2.041387081146
-66.317512512207 -72.396392822266 -172.848419189453 2.291288137436
-8.262633323669 -74.860923767090 -174.996398925781 0.904966056347
-22.664289474487 -77.100975036621 -180.905029296875 2.317467451096
21.566055297852 -75.376304626465 -184.821960449219 3.069863796234
-39.851963043213 -78.092391967773 -173.515121459961 1.006242275238
20.047111511230 -74.277557373047 -176.712722778320 2.097450494766
-23.599214553833 -73.113868713379 -186.631454467773 0.533014357090
-33.100334167480 -79.134803771973 -179.164337158203 1.807273626328
-148.941879272461 -70.395210266113 -193.671524047852 2.122666835785
-19.094314575195 -81.347587585449 -185.063613891602 1.997204422951
-141.593612670898 -71.832374572754 -191.122802734375 3.340017318726
-154.508804321289 -73.274772644043 -188.938400268555 3.575092315674
-50.399890899658 -74.270217895508 -189.790405273438 2.711245775223
97.486351013184 -79.798851013184 -195.425140380859 4.721221446991
-145.780975341797 -74.488822937012 -192.308624267578 1.941177129745
-147.228790283203 -71.314064025879 -197.463470458984 1.994066476822
21.731525421143 -76.417152404785 -197.290786743164 3.185328006744
-139.201065063477 -73.739204406738 -197.809265136719 2.784647226334
13.077540397644 -74.120880126953 -200.018539428711 2.525719404221
-139.151885986328 -76.104415893555 -201.141311645508 1.001180529594
12.431153297424 -74.067077636719 -198.556411743164 1.902730464935
-133.821777343750 -70.214057922363 -197.706527709961 1.463364124298
4.540450096130 -74.272682189941 -203.538314819336 1.896522045135
-152.538040161133 -72.951766967773 -204.342544555664 1.576070547104
94.367797851563 -80.222541809082 -206.931869506836 3.674438953400
-17.618034362793 -79.439025878906 -209.093521118164 2.606859922409
-31.231204986572 -75.396514892578 -209.829483032227 0.746588706970
-12.650902748108 -72.303085327148 -206.331512451172 1.605072498322
-146.485824584961 -77.461502075195 -212.390869140625 1.540709853172
-36.292617797852 -76.351425170898 -204.540985107422 1.448361754417
-84.786354064941 -77.039688110352 -205.244750976563 5.774029254913
-27.666263580322 -78.063224792480 -209.559143066406 2.348155021667
14.012996673584 -78.314613342285 -214.376052856445 2.135164022446
-147.132644653320 -70.932731628418 -216.647323608398 2.232954263687
-89.997077941895 -76.889427185059 -220.115219116211 2.661783218384
-29.987398147583 -75.223289489746 -220.261657714844 3.834420681000
-27.952865600586 -76.338462829590 -221.630676269531 1.895118117332
-9.537067413330 -78.789787292480 -210.526153564453 1.514932394028
-28.103916168213 -75.742301940918 -209.328247070313 2.232329845428
-84.635734558105 -75.134826660156 -222.749679565430 4.261610031128
-90.516120910645 -79.892158508301 -220.957855224609 5.203782081604
-23.641124725342 -75.949028015137 -222.635498046875 1.503959059715
-2.887245893478 -85.181274414063 -225.805755615234 5.437438011169
-156.569137573242 -74.842620849609 -218.919235229492 2.719588756561
-3.193527936935 -78.879394531250 -222.360107421875 0.644083380699
86.700378417969 -84.137466430664 -227.934860229492 8.807221412659
-140.273269653320 -75.817352294922 -224.791946411133 1.610620617867
-4.999751091003 -77.873558044434 -222.376159667969 1.376241803169
-140.131149291992 -74.859413146973 -227.356689453125 2.276627540588
-148.012268066406 -81.214782714844 -226.863235473633 1.188166022301
-6.463939189911 -76.017303466797 -229.347457885742 1.100198626518
20.562786102295 -78.998466491699 -215.658630371094 3.841001987457
-139.606536865234 -71.398452758789 -230.908538818359 2.370044231415
-18.471876144409 -78.426239013672 -228.912841796875 2.379779577255
71.630744934082 -80.479751586914 -226.147476196289 7.730542182922
74.270309448242 -79.821083068848 -234.443466186523 5.869701862335
9.693984985352 -79.650085449219 -230.978363037109 1.479839324951
-34.298290252686 -77.614685058594 -237.070968627930 1.834480881691
-24.340877532959 -84.147727966309 -243.313262939453 5.790177822113
2.316457986832 -75.672729492188 -244.152832031250 1.859437227249
-47.237895965576 -71.505874633789 -244.642959594727 2.469950437546
-21.544916152954 -74.658645629883 -243.963439941406 2.916142225266
9.646020889282 -74.558502197266 -239.983200073242 1.495572686195
-63.739894866943 -75.902694702148 -246.768081665039 1.411550045013
-36.654975891113 -80.919662475586 -245.020355224609 3.319757699966
-39.221858978271 -74.751205444336 -246.546020507813 1.637910127640
-148.447326660156 -70.703849792480 -247.492599487305 2.989978790283
-45.581375122070 -78.927871704102 -249.534408569336 4.035151481628
-52.938335418701 -68.525161743164 -248.481948852539 4.811761856079
-66.272071838379 -75.115669250488 -250.176956176758 2.990509033203
-11.191777229309 -81.179992675781 -247.150939941406 6.239195346832
-79.538467407227 -76.270263671875 -256.338317871094 2.416061162949
-157.132308959961 -78.751502990723 -255.207138061523 4.006185531616
-140.962600708008 -71.931602478027 -255.235244750977 2.247947216034
-122.062667846680 -75.288177490234 -260.121490478516 3.054177522659
-158.635452270508 -69.085464477539 -260.162384033203 2.661306142807
18.509670257568 -84.211181640625 -267.264709472656 4.079828262329
-14.969621658325 -79.095329284668 -269.838562011719 2.369852542877
-155.134445190430 -75.442893981934 -275.694335937500 3.570875883102
-153.143966674805 -79.225341796875 -280.134429931641 2.992344141006
-146.131118774414 -75.414230346680 -287.160003662109 1.376478672028
-58.802059173584 -70.780448913574 -281.256988525391 3.759940624237
-38.872055053711 -70.889320373535 -286.603942871094 1.725946664810
-19.026008605957 -74.070854187012 -290.319732666016 2.652538537979
-9.592071533203 -72.986282348633 -280.169738769531 2.281329393387
-66.486915588379 -78.215591430664 -286.413269042969 1.980673193932
-81.299568176270 -78.819808959961 -287.354858398438 2.185413599014
-2.431011915207 -78.040321350098 -283.670471191406 2.626136064529
2.988189935684 -78.618751525879 -292.918518066406 1.505127310753
-139.823120117188 -71.543098449707 -287.749786376953 1.731978178024
-80.628570556641 -71.457977294922 -287.390869140625 1.743180394173
-147.230911254883 -71.641998291016 -289.070343017578 2.743528604507
-95.038742065430 -82.670478820801 -286.899871826172 7.505167961121
-78.934593200684 -74.136466979980 -287.065521240234 3.200003862381
-85.994346618652 -71.706832885742 -296.781524658203 5.165854930878
-63.118560791016 -74.703720092773 -292.932861328125 2.122812271118
-30.434289932251 -69.797332763672 -296.120971679688 4.490648269653
-8.479733467102 -76.280723571777 -291.528167724609 1.829042434692
-151.068176269531 -65.812217712402 -300.566986083984 1.129112243652
-148.934768676758 -70.340896606445 -302.301239013672 3.211028814316
-144.021148681641 -71.454879760742 -306.527404785156 3.152528762817
-157.781555175781 -71.858764648438 -306.497741699219 1.702899336815
-57.829669952393 -72.132316589355 -57.261940002441 3.363380432129
-49.632995605469 -75.140251159668 -54.045005798340 1.064223051071
-41.050712585449 -77.562576293945 -54.863128662109 4.397163391113
-78.738929748535 -77.586563110352 -63.570487976074 1.960633873940
-30.641057968140 -74.909896850586 -65.737548828125 3.428569793701
-35.804054260254 -75.413009643555 -80.828338623047 1.406743288040
72.972732543945 -83.298110961914 -83.463661193848 7.515996932983
73.771270751953 -79.776870727539 -80.119140625000 5.198440074921
71.325439453125 -76.953895568848 -84.033256530762 0.964635908604
98.820098876953 -76.674354553223 -90.720893859863 3.264585256577
67.175201416016 -81.544258117676 -89.721382141113 7.793166637421
46.847190856934 -81.440818786621 -89.714027404785 8.351944923401
50.309902191162 -84.237617492676 -101.982772827148 5.448879241943
-67.647895812988 -73.511520385742 -103.273658752441 1.424261569977
-75.093315124512 -69.875610351563 -103.680198669434 2.376400232315
43.621902465820 -79.765670776367 -103.810104370117 1.213542342186
-83.395538330078 -80.053733825684 -111.376327514648 1.025665521622
-93.989784240723 -72.343521118164 -111.898063659668 1.354907035828
50.008842468262 -78.512687683105 -109.054649353027 1.239216804504
106.233993530273 -79.135993957520 -115.908462524414 4.579427719116
31.927148818970 -80.016799926758 -126.112236022949 3.377168416977
41.593116760254 -79.866966247559 -119.340751647949 2.229097366333
39.072616577148 -76.869125366211 -123.809356689453 2.192155838013
28.875156402588 -79.569534301758 -123.060775756836 3.184731245041
108.080169677734 -80.330642700195 -121.409118652344 4.493747711182
38.069568634033 -81.017601013184 -132.136505126953 3.847978830338
33.527671813965 -73.931327819824 -133.091842651367 2.259456872940
-45.485755920410 -74.355323791504 -143.256576538086 1.442948102951
-71.314086914063 -77.928451538086 -144.614486694336 2.102498531342
-53.964977264404 -74.181564331055 -149.945053100586 0.402497261763
-75.617805480957 -79.110351562500 -147.231033325195 4.044712543488
-39.579944610596 -75.330566406250 -148.898590087891 2.781951904297
105.203102111816 -80.563308715820 -156.667251586914 6.288460254669
-72.714897155762 -76.980964660645 -157.619964599609 3.576474189758
22.318998336792 -82.588333129883 -147.307922363281 5.419991970062
27.637454986572 -80.447349548340 -150.565414428711 2.014908313751
110.263458251953 -83.483978271484 -162.889648437500 6.755517005920
8.651829719543 -80.399520874023 -160.168334960938 3.284619331360
32.243556976318 -75.414756774902 -156.188858032227 1.495248675346
-64.036979675293 -77.415519714355 -160.615646362305 1.379309296608
-41.403633117676 -77.800376892090 -174.601531982422 1.418226361275
20.479537963867 -77.423080444336 -164.045318603516 2.109876155853
-66.111206054688 -73.932342529297 -158.189102172852 0.884528040886
-70.966873168945 -74.874847412109 -166.894302368164 4.618110179901
112.811004638672 -82.435256958008 -166.493865966797 3.983469486237
-9.213266372681 -78.155494689941 -166.209274291992 2.108445167542
-66.274520874023 -73.432083129883 -173.304489135742 2.557019948959
-35.546115875244 -77.860610961914 -168.172561645508 1.414249420166
-55.226333618164 -74.034317016602 -172.976638793945 2.648796319962
29.543991088867 -77.039093017578 -175.633544921875 2.669128894806
110.464317321777 -77.576080322266 -173.118392944336 2.144037485123
101.383087158203 -78.398834228516 -183.795608520508 3.026009321213
104.011024475098 -79.532608032227 -189.654174804688 2.323903799057
105.753143310547 -77.459411621094 -176.547042846680 3.113400697708
-52.135829925537 -73.936157226563 -193.091430664063 3.303354263306
-48.650890350342 -71.989547729492 -184.315856933594 3.030670881271
26.443046569824 -77.528160095215 -184.416198730469 1.727844119072
-48.834732055664 -74.027000427246 -186.915695190430 1.921053886414
-21.638582229614 -76.548355102539 -184.841186523438 1.021312832832
-51.969127655029 -78.285049438477 -192.586837768555 2.727180480957
-152.683486938477 -71.346023559570 -194.236129760742 2.784603118896
100.113548278809 -82.032951354980 -192.859008789063 5.943032741547
-45.138042449951 -72.544044494629 -195.807373046875 3.537885665894
-13.537840843201 -78.080802917480 -200.052383422852 2.217739820480
-140.377044677734 -72.240798950195 -194.553939819336 2.533375024796
-42.441799163818 -72.968688964844 -199.751586914063 2.083017110825
100.369743347168 -78.434600830078 -196.901794433594 2.786077022552
106.749992370605 -77.906723022461 -185.318115234375 3.384260892868
-44.057189941406 -75.220222473145 -196.711654663086 1.916899800301
-23.538583755493 -83.443084716797 -200.132568359375 4.415982723236
-148.132644653320 -75.818176269531 -201.786209106445 2.705858469009
-25.934036254883 -75.830184936523 -196.614379882813 1.224636673927
-160.295928955078 -72.684654235840 -198.627731323242 3.751689195633
-153.696273803711 -79.665176391602 -206.719589233398 3.048921108246
-145.389907836914 -74.815315246582 -203.418746948242 2.744623899460
-39.392009735107 -76.448234558105 -201.816192626953 1.284680485725
100.797149658203 -80.923210144043 -203.373397827148 4.233966827393
-42.776939392090 -73.419868469238 -200.910003662109 1.418541431427
-143.393875122070 -76.483009338379 -206.437011718750 1.663516759872
-38.135971069336 -71.531967163086 -206.438125610352 1.846841573715
-22.941339492798 -81.624732971191 -210.878860473633 3.769595861435
96.745674133301 -82.464485168457 -206.044403076172 6.349490165710
89.520187377930 -81.043617248535 -214.959533691406 3.965499162674
-37.451728820801 -73.666381835938 -218.204986572266 6.114781379700
-89.000419616699 -75.711174011230 -211.466461181641 2.424785852432
-76.555221557617 -75.710617065430 -212.906814575195 0.685091853142
-20.045608520508 -76.290412902832 -211.395919799805 1.625288963318
-150.847778320313 -74.670135498047 -204.045120239258 2.063373565674
90.589393615723 -78.822463989258 -214.282974243164 1.675644278526
87.823249816895 -75.947937011719 -218.349685668945 2.488266229630
89.055915832520 -79.830032348633 -221.070190429688 3.811428785324
-103.492271423340 -74.746513366699 -220.133316040039 2.570410490036
-155.233123779297 -74.854721069336 -222.715576171875 1.997573852539
-20.988594055176 -74.151000976563 -224.653366088867 1.422636389732
79.919830322266 -75.425025939941 -227.643508911133 1.575173616409
-151.053527832031 -76.617561340332 -223.666671752930 1.173864722252
-29.885059356689 -77.447982788086 -218.433639526367 1.305988550186
-134.809265136719 -70.967262268066 -234.218826293945 1.745964169502
-12.136255264282 -79.211303710938 -232.323745727539 3.707168340683
16.464797973633 -75.985992431641 -229.371994018555 1.770891308784
19.311325073242 -78.194168090820 -234.072158813477 1.963218688965
-156.205718994141 -75.368797302246 -236.895172119141 3.076572895050
-127.076583862305 -69.020576477051 -234.150238037109 2.950864076614
-9.030677795410 -75.967247009277 -236.464462280273 2.929563283920
-0.580523014069 -75.670249938965 -238.529891967773 1.559837937355
68.314773559570 -78.344482421875 -231.896759033203 3.523664474487
68.753189086914 -75.014938354492 -239.542846679688 1.916432499886
-0.968016028404 -74.205970764160 -241.110443115234 1.299917340279
15.413138389587 -72.630706787109 -240.804992675781 2.162903785706
-31.754831314087 -67.498573303223 -242.343673706055 7.797966003418
-33.588924407959 -84.563186645508 -243.257949829102 4.478748798370
-49.332798004150 -75.115074157715 -237.422241210938 2.354285240173
-41.073730468750 -73.105850219727 -241.063583374023 1.752971291542
-17.326192855835 -77.449394226074 -243.931930541992 1.923473954201
-52.646942138672 -73.023757934570 -245.375381469727 2.319725513458
0.964792013168 -77.217475891113 -246.156539916992 1.148639917374
-69.203010559082 -76.849983215332 -244.159332275391 2.632849454880
20.629894256592 -78.506340026855 -248.008041381836 2.092043161392
-143.345581054688 -75.221275329590 -245.630599975586 2.733668327332
-73.792366027832 -77.290313720703 -254.645050048828 2.049474239349
15.549571037292 -78.083190917969 -250.745117187500 1.437301278114
-161.809860229492 -70.801971435547 -250.932144165039 2.441148042679
12.453389167786 -81.248313903809 -254.520202636719 3.014351367950
-80.921966552734 -68.160041809082 -252.097427368164 2.343694448471
-76.482948303223 -74.878852844238 -251.709457397461 1.019013643265
17.816099166870 -79.082992553711 -255.100921630859 2.300900697708
-90.190986633301 -73.308364868164 -252.344375610352 1.201617598534
-126.410392761230 -69.203033447266 -256.002899169922 2.664863824844
-133.284423828125 -76.753753662109 -261.892578125000 2.355654478073
-136.898300170898 -75.956695556641 -254.245437622070 1.619132757187
-147.613433837891 -74.374137878418 -263.085449218750 3.057662725449
-146.563552856445 -68.973472595215 -254.128646850586 2.138838529587
-134.884658813477 -70.957534790039 -263.205383300781 1.214960575104
-162.326919555664 -68.240020751953 -261.974182128906 2.132087469101
-128.643798828125 -72.774223327637 -268.636169433594 4.038034439087
-136.852981567383 -67.085159301758 -264.395263671875 1.240880370140
-163.075408935547 -68.534523010254 -271.458007812500 1.333526134491
-156.285736083984 -69.216758728027 -266.093597412109 1.647465586662
-148.792724609375 -70.339202880859 -267.250396728516 2.250020265579
-149.437057495117 -73.070846557617 -267.225189208984 2.280304670334
16.474983215332 -79.428199768066 -279.819335937500 2.998135566711
-167.090499877930 -71.846290588379 -267.484741210938 1.911911129951
-152.180709838867 -73.864593505859 -274.992645263672 1.943540334702
-6.026185989380 -84.549468994141 -273.617126464844 3.967396497726
-155.769470214844 -69.378341674805 -276.476135253906 3.986100196838
11.244359970093 -80.384429931641 -284.147705078125 1.529786348343
-153.283996582031 -71.536697387695 -283.026245117188 2.552705049515
-166.493087768555 -73.057403564453 -290.167572021484 3.114498138428
-156.084732055664 -75.000625610352 -279.704284667969 4.675644397736
-165.071868896484 -69.222869873047 -290.601501464844 2.649661540985
-0.138629004359 -80.113410949707 -288.036621093750 4.697854042053
6.489529132843 -82.044013977051 -282.543487548828 3.541445493698
-105.490585327148 -71.190567016602 -293.901763916016 3.670675754547
-156.747406005859 -78.490043640137 -289.326965332031 1.812515139580
-148.566665649414 -69.605781555176 -286.648651123047 2.310099601746
-106.595329284668 -72.084815979004 -293.189025878906 3.128023147583
-153.814453125000 -75.345794677734 -294.512512207031 1.911592364311
-149.017837524414 -76.613647460938 -290.252136230469 0.612891733646
-75.493804931641 -77.863166809082 -294.594848632813 5.260689735413
-168.406188964844 -74.073188781738 -290.531768798828 4.453197002411
-123.043762207031 -68.991355895996 -292.908203125000 1.115046262741
-43.629199981689 -79.914939880371 -287.041198730469 2.269541740417
-152.058578491211 -71.698875427246 -289.253997802734 2.544889211655
-131.952026367188 -67.340065002441 -295.133514404297 3.716956138611
-20.464424133301 -73.219520568848 -295.746093750000 4.965608596802
-129.459228515625 -68.512489318848 -294.512756347656 2.197264432907
5.611157894135 -77.755996704102 -295.940307617188 3.119081497192
14.662814140320 -74.037979125977 -293.308288574219 1.521409273148
-133.765319824219 -68.142471313477 -292.373748779297 2.244106292725
-146.060363769531 -74.181465148926 -300.034027099609 0.919771492481
-156.825088500977 -75.389556884766 -316.808563232422 4.790639400482
-73.002143859863 -69.529624938965 -54.039772033691 3.204711198807
-22.957647323608 -69.535507202148 -66.906288146973 5.392138957977
-20.969303131104 -78.970252990723 -66.180595397949 2.558800935745
70.023330688477 -76.010513305664 -79.244201660156 2.988224029541
89.047126770020 -78.296073913574 -76.526374816895 2.408861875534
-37.592391967773 -75.303718566895 -81.076179504395 1.986401557922
74.748748779297 -77.580398559570 -81.475143432617 3.032953977585
88.684867858887 -82.914237976074 -83.569374084473 5.579922199249
65.070671081543 -78.601448059082 -85.005378723145 6.610111236572
71.985145568848 -77.067733764648 -91.312461853027 2.800931215286
-51.354301452637 -75.633033752441 -86.415466308594 1.910799622536
-93.109321594238 -76.520614624023 -90.919059753418 1.816008925438
57.947521209717 -81.143867492676 -94.802085876465 6.366758346558
49.055118560791 -80.230400085449 -100.946029663086 2.317937850952
91.760986328125 -75.053977966309 -101.962921142578 1.529894590378
-91.932891845703 -68.138259887695 -103.110084533691 4.930572986603
79.146774291992 -73.450248718262 -101.039817810059 0.993898391724
70.570968627930 -79.153633117676 -102.086280822754 6.308474540710
89.958053588867 -81.686569213867 -98.842063903809 6.949807643890
82.404685974121 -78.968910217285 -97.366722106934 2.815302133560
79.456413269043 -81.738548278809 -99.812339782715 6.780708312988
-89.437896728516 -75.631599426270 -104.098854064941 4.119712352753
42.830505371094 -74.746101379395 -105.953605651855 2.741919994354
103.644027709961 -80.750831604004 -111.523948669434 6.611382484436
105.675987243652 -80.254554748535 -111.422744750977 5.533354282379
48.416496276855 -81.230758666992 -121.217735290527 3.949443340302
111.699363708496 -83.143150329590 -120.393188476563 6.562733173370
116.068336486816 -83.481681823730 -135.815704345703 6.445218563080
-51.748832702637 -71.796890258789 -130.793060302734 1.642274618149
26.592546463013 -76.553443908691 -135.898574829102 2.272524356842
39.789405822754 -81.238006591797 -134.746658325195 3.914269447327
23.546117782593 -74.050605773926 -143.097305297852 0.347514510155
111.495597839355 -83.684776306152 -137.829376220703 6.142423152924
110.219802856445 -81.170997619629 -131.046020507813 4.682762145996
-74.653099060059 -73.647171020508 -149.761566162109 2.822499990463
-44.688167572021 -73.682525634766 -141.979324340820 2.008591175079
-72.354415893555 -71.787246704102 -153.992126464844 1.920107603073
17.597572326660 -74.499359130859 -149.254898071289 3.268284559250
111.010162353516 -76.411979675293 -148.897674560547 2.107220411301
-55.231067657471 -76.294273376465 -153.484710693359 4.575471401215
-73.324867248535 -72.692085266113 -153.686798095703 2.316553831100
-40.434768676758 -78.228027343750 -152.801223754883 2.015717506409
30.778059005737 -71.183319091797 -154.908935546875 1.664539694786
107.779632568359 -75.277435302734 -151.203689575195 2.246406078339
115.665977478027 -78.358200073242 -162.565093994141 1.549919247627
-69.251464843750 -70.511795043945 -157.477111816406 2.692891597748
-75.935478210449 -76.314430236816 -161.763290405273 4.926048755646
20.697452545166 -81.423980712891 -164.590545654297 3.774397134781
-61.274078369141 -71.497955322266 -168.525985717773 1.198770999908
-33.477737426758 -72.569969177246 -164.750030517578 1.803188443184
7.410922050476 -78.064971923828 -165.199981689453 2.740804910660
106.372123718262 -76.229835510254 -162.294754028320 2.999636888504
8.706233978271 -80.327011108398 -169.450164794922 7.344276905060
-33.508079528809 -75.254783630371 -167.214859008789 1.764043331146
-4.269166946411 -70.069252014160 -165.989181518555 4.470721721649
105.717277526855 -74.994178771973 -167.673812866211 1.643035292625
-42.735946655273 -72.061286926270 -165.099426269531 2.724452018738
29.316783905029 -74.029563903809 -174.471893310547 2.826388597488
113.191368103027 -84.060905456543 -173.156539916992 6.504211902618
-58.049278259277 -70.578041076660 -177.120925903320 2.645636796951
-28.990736007690 -78.545578002930 -176.923904418945 0.506721854210
100.631317138672 -79.652023315430 -175.247848510742 7.220377445221
28.352527618408 -74.183158874512 -169.002532958984 1.179408311844
103.590835571289 -80.857345581055 -176.645889282227 5.453287124634
-37.735134124756 -70.228675842285 -180.563720703125 2.248030662537
108.507087707520 -83.169769287109 -181.602874755859 6.353944778442
-64.121765136719 -70.372039794922 -179.036102294922 5.982192993164
-26.903013229370 -79.705772399902 -179.146423339844 2.044465303421
-148.153335571289 -64.732406616211 -186.250991821289 1.225926280022
-54.976299285889 -73.084419250488 -180.506088256836 2.379931449890
-148.327575683594 -71.806335449219 -187.704483032227 1.961482763290
-35.859817504883 -72.211578369141 -184.873062133789 2.219943523407
27.834829330444 -82.215660095215 -179.992218017578 2.562969684601
104.751304626465 -80.186149597168 -184.343887329102 3.544527530670
-37.265186309814 -73.967971801758 -183.395141601563 2.570392370224
9.531844139099 -76.619873046875 -192.088241577148 2.214367628098
15.321733474731 -75.694435119629 -206.541091918945 1.622812867165
-150.152572631836 -71.819305419922 -189.891998291016 0.973477542400
105.426719665527 -82.357360839844 -196.716888427734 3.374858617783
-24.150537490845 -72.729431152344 -194.155227661133 2.243390560150
99.577926635742 -80.405746459961 -187.978454589844 4.968274116516
