-154.387756347656 -78.132751464844 -255.573135375977 3.138700962067
-154.944992065430 -78.913505554199 -258.001586914063 2.822418212891
-143.816497802734 -72.011642456055 -263.093292236328 1.856908202171
-142.528594970703 -75.831108093262 -257.504669189453 1.784950613976
-8.087770462036 -80.480651855469 -257.007537841797 1.480928301811
-146.406280517578 -76.279830932617 -263.170928955078 3.013886213303
-15.225116729736 -79.471343994141 -268.742919921875 3.310062885284
-148.421264648438 -73.401100158691 -272.865509033203 3.947664499283
-148.831420898438 -74.142143249512 -283.296234130859 2.731763601303
-149.099121093750 -72.815460205078 -285.043884277344 2.495237827301
-4.437277793884 -74.013290405273 -285.936340332031 1.541393995285
-148.989181518555 -70.345672607422 -284.110687255859 1.429455280304
-26.766256332397 -79.474006652832 -287.045684814453 4.254546165466
-27.150041580200 -75.141624450684 -286.039611816406 0.962864458561
-14.566212654114 -75.576148986816 -294.350311279297 2.799558401108
-14.906606674194 -75.190406799316 -293.588928222656 2.451812267303
11.060981750488 -81.521484375000 -291.964233398438 2.885889530182
-125.918968200684 -76.990859985352 -291.059478759766 0.856876313686
-62.419418334961 -77.321640014648 -288.019226074219 2.871657371521
-42.535293579102 -74.400993347168 -291.125488281250 2.454943656921
-34.109943389893 -78.399497985840 -288.528289794922 1.768740534782
-9.481085777283 -76.275978088379 -294.550659179688 3.048673391342
4.621259212494 -79.873275756836 -288.712554931641 3.206043958664
-142.628341674805 -75.353363037109 -298.724578857422 4.119526386261
9.878236770630 -79.382797241211 -296.485168457031 4.938441276550
-154.315139770508 -71.643013000488 -303.642486572266 2.524125337601
-154.881011962891 -78.582221984863 -302.312988281250 1.989392161369
-154.076309204102 -70.157836914063 -313.245452880859 2.953616857529
-143.790023803711 -73.572517395020 -310.557952880859 2.174715042114
-52.163665771484 -77.475715637207 -51.362644195557 5.396337985992
-55.364986419678 -81.407058715820 -57.102497100830 3.633352041245
-68.628562927246 -75.247924804688 -55.569797515869 1.868512511253
-41.625278472900 -75.859275817871 -63.097034454346 1.653717875481
-36.975929260254 -78.302375793457 -60.162483215332 1.340965867043
-20.492885589600 -77.640602111816 -71.017448425293 2.913663864136
-82.663497924805 -73.884986877441 -70.077697753906 3.923171520233
83.903182983398 -82.074287414551 -78.991302490234 4.093419075012
-91.910720825195 -74.642921447754 -74.974800109863 2.425121307373
79.322395324707 -79.343498229980 -77.984054565430 3.999828338623
86.996856689453 -77.056518554688 -84.873184204102 2.716046333313
96.562606811523 -78.881423950195 -90.261787414551 3.390670299530
-62.241432189941 -80.097152709961 -97.170898437500 1.364450097084
80.932098388672 -82.699790954590 -97.024192810059 5.196382045746
75.412322998047 -85.662528991699 -91.600151062012 7.807374477386
85.257766723633 -81.432563781738 -90.991973876953 1.404091358185
-60.341835021973 -77.597404479980 -98.286682128906 3.755947828293
47.776935577393 -78.289939880371 -98.690696716309 1.302403450012
44.631660461426 -79.527412414551 -107.204437255859 3.160333871841
38.518051147461 -80.868263244629 -104.302230834961 3.239701271057
34.943313598633 -80.347831726074 -102.635871887207 6.102629661560
-92.919189453125 -71.984176635742 -104.960922241211 0.564210951328
34.407180786133 -78.068183898926 -117.962875366211 1.539505600929
-85.957809448242 -76.728683471680 -108.152206420898 2.640721082687
39.287891387939 -81.248481750488 -127.826339721680 3.918356418610
31.619197845459 -80.701606750488 -121.465293884277 2.898057699203
33.262840270996 -72.184188842773 -122.081520080566 1.546925544739
43.432006835938 -77.982215881348 -118.119132995605 1.452321410179
40.236656188965 -82.704421997070 -128.859313964844 5.082282543182
-52.175567626953 -70.921478271484 -135.844268798828 0.708739042282
36.407901763916 -84.017570495605 -134.840789794922 0.578507781029
34.692752838135 -79.269325256348 -144.695571899414 1.355308532715
-56.582881927490 -74.750099182129 -144.452987670898 2.619028568268
-46.008605957031 -77.484420776367 -140.916702270508 2.244659185410
34.041942596436 -78.104934692383 -143.152328491211 0.748417437077
109.572891235352 -76.931663513184 -141.161193847656 1.711675286293
111.469520568848 -78.053009033203 -146.753463745117 0.414970964193
25.461376190186 -80.784782409668 -142.210815429688 3.132782220840
-41.281005859375 -80.051544189453 -150.358612060547 1.476281762123
115.464378356934 -88.525741577148 -153.112518310547 11.055362701416
-38.275203704834 -75.307426452637 -153.288909912109 1.498281598091
-68.711021423340 -75.528884887695 -162.947494506836 1.488414525986
109.498603820801 -85.957298278809 -156.472778320313 8.583992958069
21.712448120117 -80.042274475098 -166.772506713867 2.592696189880
-0.026396000758 -79.240669250488 -163.408706665039 1.576790332794
110.233840942383 -81.718444824219 -153.249084472656 5.000576496124
-65.071731567383 -76.004310607910 -166.893493652344 0.893668532372
-39.595546722412 -78.347290039063 -166.039474487305 1.341470003128
110.517700195313 -82.384300231934 -165.356475830078 5.203088760376
26.889442443848 -74.088340759277 -159.112808227539 1.583574771881
-62.530380249023 -70.124977111816 -165.209365844727 1.476346254349
111.725547790527 -81.931854248047 -166.366851806641 3.929362535477
-66.351722717285 -77.973396301270 -169.624877929688 1.911634206772
-49.939716339111 -79.707572937012 -182.902130126953 1.139216184616
105.268905639648 -80.649017333984 -171.750427246094 5.866662979126
-60.416542053223 -74.908706665039 -172.897628784180 1.854926109314
111.622047424316 -80.460556030273 -178.220535278320 2.696336269379
-62.093734741211 -75.546813964844 -176.976852416992 2.853195428848
-16.594270706177 -75.211380004883 -178.106796264648 2.588500499725
-11.030765533447 -83.150833129883 -182.987701416016 5.623054027557
106.737777709961 -83.296836853027 -167.301925659180 6.749592781067
20.542554855347 -80.156631469727 -171.958297729492 2.216680288315
29.844516754150 -74.389106750488 -169.781784057617 2.337554693222
-58.745288848877 -75.544967651367 -178.168334960938 2.378078699112
16.696916580200 -76.763725280762 -182.379501342773 2.288675069809
-58.395050048828 -77.197906494141 -175.532623291016 2.133209705353
-53.106372833252 -75.021957397461 -194.342117309570 4.050822734833
10.239714622498 -76.129951477051 -185.355255126953 2.876926183701
-56.767894744873 -71.809783935547 -180.200714111328 2.505828619003
105.475532531738 -78.666893005371 -188.821487426758 1.358565211296
24.863275527954 -81.711990356445 -182.506607055664 2.622128248215
-35.737552642822 -74.650932312012 -188.937652587891 3.342555999756
-43.911983489990 -79.271484375000 -190.632339477539 1.600523352623
10.362785339355 -80.580062866211 -192.291625976563 5.511096477509
-20.571769714355 -78.771942138672 -188.809127807617 1.830650448799
-48.474605560303 -78.162681579590 -196.155746459961 1.859402537346
100.949142456055 -85.129669189453 -183.212173461914 7.743317127228
8.980738639832 -81.877540588379 -190.924194335938 7.119350433350
-133.525085449219 -80.258453369141 -200.898284912109 2.233408451080
-49.261821746826 -78.947631835938 -196.164779663086 1.825654268265
93.845695495605 -79.948371887207 -199.230895996094 4.699851989746
-150.481262207031 -79.810752868652 -203.420181274414 2.156063079834
17.495885848999 -79.079391479492 -200.643203735352 1.878109097481
-44.037197113037 -73.683128356934 -206.663879394531 5.103471279144
-31.122238159180 -80.248085021973 -207.693283081055 2.695624828339
-38.057071685791 -78.115188598633 -202.298400878906 1.963847994804
-46.573200225830 -82.962356567383 -198.686874389648 1.556083798409
99.814636230469 -80.819137573242 -204.964324951172 4.093318939209
-22.018953323364 -81.451744079590 -200.978851318359 1.793230891228
-151.021926879883 -73.914710998535 -202.108139038086 2.356729507446
14.941011428833 -81.073951721191 -202.364852905273 2.195588827133
-78.077629089355 -80.338356018066 -206.556594848633 2.725059509277
-144.813323974609 -71.807640075684 -214.615966796875 3.256136894226
93.081214904785 -83.050231933594 -213.993896484375 6.153853893280
-33.750175476074 -75.684326171875 -207.718917846680 2.277691602707
-29.685358047485 -77.879333496094 -211.832382202148 1.024195075035
8.986845970154 -79.016128540039 -210.611083984375 2.008846282959
-72.636054992676 -80.258499145508 -208.659652709961 2.385956525803
-28.258958816528 -85.084762573242 -206.703628540039 5.418867111206
-8.922174453735 -79.344093322754 -217.536956787109 1.454182386398
-71.191513061523 -77.277091979980 -214.808319091797 1.991125345230
-14.849022865295 -78.212089538574 -218.170181274414 1.394080042839
7.146133899689 -70.313110351563 -212.039001464844 2.765840291977
11.950483322144 -81.362503051758 -221.799758911133 3.077166557312
-152.190017700195 -75.700355529785 -218.704071044922 3.569097280502
-9.796841621399 -77.813583374023 -214.868209838867 1.708217024803
-102.075386047363 -71.520652770996 -220.918563842773 1.189395427704
-22.721721649170 -77.069435119629 -220.137115478516 1.981263041496
87.791717529297 -86.249023437500 -212.587844848633 9.090491294861
8.359718322754 -76.503906250000 -225.292251586914 1.581629157066
20.307327270508 -78.392745971680 -216.945144653320 3.636086463928
79.202278137207 -81.922683715820 -214.749465942383 6.271449089050
0.451261013746 -82.306449890137 -230.432357788086 3.410275220871
84.523834228516 -81.044677734375 -217.225982666016 4.660661220551
-21.561452865601 -73.418685913086 -225.067062377930 0.539209365845
15.717655181885 -75.471557617188 -219.004180908203 2.373908281326
-149.224243164063 -75.504501342773 -219.956970214844 2.710213184357
-26.499662399292 -78.899436950684 -226.840484619141 4.350589275360
1.269685029984 -75.671134948730 -231.344131469727 2.471431732178
-157.195419311523 -79.122756958008 -226.498199462891 3.012891769409
-138.230743408203 -77.232185363770 -228.873046875000 2.225594520569
2.567475080490 -77.917961120605 -224.102340698242 2.756299734116
-4.405764102936 -74.593826293945 -225.992202758789 3.201156616211
-137.748428344727 -70.753013610840 -230.186599731445 2.289129257202
-147.848602294922 -74.383529663086 -242.764984130859 1.617270946503
-149.501296997070 -74.569068908691 -236.712738037109 2.314936399460
-32.460136413574 -78.493003845215 -237.527038574219 1.317609429359
-143.074996948242 -77.317298889160 -244.222213745117 3.469563007355
14.861978530884 -79.978607177734 -241.980667114258 1.487521767616
5.012798786163 -77.884078979492 -245.282974243164 1.358255863190
-151.262390136719 -68.477745056152 -239.085891723633 3.011145591736
-150.241027832031 -73.484733581543 -245.779357910156 1.143915653229
-46.343059539795 -78.803131103516 -246.410644531250 1.927158117294
-32.253986358643 -77.967453002930 -247.588088989258 4.631537437439
3.470150947571 -78.254562377930 -243.319335937500 1.877584338188
-36.979698181152 -79.062751770020 -246.090423583984 3.588245153427
21.299720764160 -78.994506835938 -247.034484863281 0.960400879383
-6.638999938965 -80.342170715332 -253.260696411133 1.799817442894
-145.195373535156 -75.107070922852 -253.972030639648 1.851273179054
-10.629673957825 -82.980888366699 -253.599197387695 2.656224489212
-148.933227539063 -71.779380798340 -248.095581054688 2.465406179428
-66.065849304199 -78.321418762207 -250.971618652344 1.927611827850
-147.744628906250 -81.298789978027 -260.113494873047 1.391350269318
-128.023925781250 -74.522193908691 -259.148010253906 2.019114971161
-153.379943847656 -73.428497314453 -258.284240722656 2.328674077988
-11.100399017334 -75.203285217285 -267.910919189453 3.653549194336
-146.389343261719 -80.129608154297 -273.209716796875 0.815903961658
-149.777587890625 -74.343612670898 -270.266387939453 1.866322994232
-12.329796791077 -78.234550476074 -271.450805664063 0.819470345974
-144.891372680664 -74.363082885742 -271.092285156250 3.667827367783
-6.818880081177 -76.582397460938 -277.254516601563 1.061462640762
-46.118141174316 -76.016136169434 -284.716308593750 2.332889795303
-135.219894409180 -71.674575805664 -289.372100830078 1.518473267555
-135.956222534180 -73.602722167969 -286.809143066406 0.602332353592
-123.607452392578 -71.216743469238 -282.798248291016 3.410924673080
-52.279224395752 -75.668357849121 -287.021392822266 1.609819650650
-112.435134887695 -73.351448059082 -284.784759521484 2.316769599915
16.030174255371 -77.742111206055 -292.974700927734 1.051330566406
-57.345825195313 -74.332679748535 -289.294494628906 0.774876475334
-141.194137573242 -73.701065063477 -294.219421386719 2.748892068863
-63.615238189697 -74.832626342773 -291.239837646484 0.862273335457
-145.177215576172 -79.106857299805 -294.567565917969 1.644945502281
-116.783699035645 -72.095848083496 -291.871215820313 2.484644651413
-46.370281219482 -79.175941467285 -291.053833007813 4.102397918701
-33.868316650391 -76.965782165527 -292.233184814453 2.362746715546
-137.985168457031 -69.691047668457 -297.063873291016 3.390865325928
-14.306888580322 -72.194129943848 -283.183929443359 2.742129564285
4.358327865601 -77.570007324219 -287.966461181641 2.109681606293
6.403240203857 -76.378372192383 -290.987945556641 2.069823503494
14.944122314453 -79.243698120117 -296.032501220703 2.184484243393
-150.135894775391 -78.024230957031 -299.122772216797 1.953611493111
-145.208602905273 -71.505142211914 -294.286285400391 1.540640830994
-67.500572204590 -74.741539001465 -62.937294006348 3.163194656372
87.795066833496 -82.381553649902 -72.827056884766 7.066748619080
77.727821350098 -81.633010864258 -77.694900512695 5.585856914520
-28.955337524414 -79.986206054688 -77.128036499023 1.883672475815
82.668045043945 -78.992828369141 -74.930595397949 3.753811836243
-39.014778137207 -79.729301452637 -80.527053833008 1.770917057991
81.883918762207 -76.814498901367 -82.223999023438 2.261556148529
95.190116882324 -77.131790161133 -80.159523010254 1.632209420204
-65.322921752930 -70.116249084473 -96.617912292480 2.020731449127
71.786491394043 -80.782966613770 -94.577064514160 5.780547142029
79.058090209961 -78.285865783691 -97.943000793457 3.535167217255
95.522644042969 -83.690582275391 -95.420608520508 7.088989734650
54.289489746094 -81.528541564941 -97.400466918945 5.040652275085
-68.027671813965 -73.850662231445 -102.109657287598 1.695069789886
-74.815773010254 -72.114173889160 -101.877143859863 2.579203844070
49.592525482178 -81.622909545898 -103.951354980469 3.060452938080
-88.730033874512 -77.013938903809 -103.157234191895 3.694097518921
46.381786346436 -76.377281188965 -118.394073486328 2.547077417374
109.780044555664 -80.382186889648 -120.004501342773 3.582679271698
112.033622741699 -83.243789672852 -130.546142578125 6.048944950104
20.058662414551 -76.429595947266 -137.513488769531 3.790580987930
109.364845275879 -82.830039978027 -126.963119506836 5.931187629700
27.921220779419 -76.169052124023 -133.816772460938 1.339249372482
112.186050415039 -75.417411804199 -132.329696655273 1.423845767975
36.376304626465 -76.657173156738 -135.021774291992 1.395480632782
-56.979049682617 -75.796195983887 -141.316299438477 2.693820476532
35.316310882568 -82.537597656250 -145.658248901367 3.996670007706
108.040222167969 -78.962036132813 -134.975204467773 4.335587024689
-46.831974029541 -74.743515014648 -144.540390014648 2.072892665863
31.321119308472 -77.364463806152 -150.582565307617 1.973346352577
-57.313133239746 -70.688301086426 -141.910873413086 0.896374762058
-59.763702392578 -75.859855651855 -145.406127929688 3.951363801956
-53.367614746094 -79.328567504883 -150.775421142578 2.971533060074
-65.183807373047 -78.703437805176 -156.544570922852 1.525442719460
111.079353332520 -85.098510742188 -147.369094848633 7.088164329529
-50.734344482422 -82.611732482910 -156.035461425781 4.567359447479
22.178716659546 -83.236274719238 -156.860992431641 4.670762538910
107.052452087402 -81.597862243652 -162.254501342773 5.837042808533
-66.118507385254 -75.762672424316 -155.512268066406 0.429749041796
-44.357727050781 -77.653884887695 -157.933319091797 2.071674823761
8.339715003967 -75.594573974609 -154.914199829102 1.875610470772
-69.019210815430 -76.174301147461 -155.862655639648 2.645567178726
-64.723526000977 -78.501365661621 -159.393539428711 2.023908615112
-0.393720000982 -77.853935241699 -162.872299194336 1.980636715889
-44.440105438232 -72.798271179199 -168.504364013672 1.039548158646
28.384031295776 -76.287437438965 -167.750625610352 1.390029788017
-63.741065979004 -71.972984313965 -168.917175292969 1.118346571922
-56.745105743408 -78.098991394043 -167.364028930664 1.004078745842
14.205598831177 -81.292457580566 -160.429443359375 6.729375839233
-30.906763076782 -75.735977172852 -169.108596801758 1.323534369469
-29.427234649658 -79.493492126465 -167.200332641602 2.586607456207
14.402954101563 -79.503189086914 -175.123855590820 4.405215740204
-44.189311981201 -79.316474914551 -173.631927490234 2.765733718872
-11.267317771912 -78.787788391113 -172.904556274414 2.262963533401
-66.028961181641 -72.566818237305 -172.295639038086 1.786042571068
-7.972702026367 -74.956405639648 -174.490615844727 0.909875035286
-22.376289367676 -77.217353820801 -180.386566162109 2.332916021347
21.848527908325 -75.436401367188 -184.340591430664 2.647069215775
-39.556560516357 -78.228538513184 -172.982147216797 1.471922636032
20.334835052490 -74.336730957031 -176.230484008789 1.975465416908
-23.321132659912 -73.233520507813 -186.113647460938 0.406869739294
-32.808235168457 -79.264167785645 -178.636550903320 1.889579415321
-148.673004150391 -70.680839538574 -193.051345825195 1.797125697136
-18.804204940796 -81.460792541504 -184.546585083008 2.470979452133
-141.320770263672 -72.107505798340 -190.508178710938 3.032614231110
-154.232254028320 -73.565956115723 -188.312606811523 3.610007762909
-50.122871398926 -74.425949096680 -189.250076293945 2.539190292358
97.765769958496 -79.763732910156 -195.004760742188 5.058434486389
-145.505645751953 -74.769836425781 -191.689590454102 2.076118230820
-146.961837768555 -71.598808288574 -196.844375610352 1.830164551735
22.005083084106 -76.481498718262 -196.809173583984 3.416903257370
-138.931259155273 -74.013603210449 -197.195922851563 2.745942831039
13.345865249634 -74.197486877441 -199.530609130859 2.699867010117
-138.881729125977 -76.379943847656 -200.527160644531 0.578676998615
12.700613975525 -74.144004821777 -198.067962646484 2.037150859833
-133.556472778320 -70.481414794922 -197.098876953125 0.969936847687
4.806081771851 -74.361686706543 -203.043289184570 2.436151266098
-152.274612426758 -73.245895385742 -203.718490600586 1.907017350197
94.638290405273 -80.195602416992 -206.508773803711 3.560268878937
-17.350215911865 -79.558906555176 -208.578384399414 2.543991088867
-30.969249725342 -75.534408569336 -209.304565429688 0.923463642597
-12.390122413635 -72.415504455566 -205.823013305664 1.574372172356
-146.223159790039 -77.750617980957 -211.770187377930 1.821267008781
-36.025054931641 -76.494026184082 -204.011550903320 1.327318787575
-84.518417358398 -77.245788574219 -204.675079345703 6.380084514618
-27.400611877441 -78.196372985840 -209.036209106445 2.327422142029
14.274961471558 -78.395133972168 -213.887390136719 2.499517440796
-146.882003784180 -71.224220275879 -216.028442382813 1.919482827187
-89.741584777832 -77.107643127441 -219.541305541992 3.104622125626
-29.734266281128 -75.363304138184 -219.737808227539 3.416867017746
-27.699409484863 -76.476303100586 -221.108108520508 2.375661849976
-9.271285057068 -78.899642944336 -210.017913818359 1.448602080345
-27.841102600098 -75.875946044922 -208.805770874023 2.606696844101
-84.384704589844 -75.346992492676 -222.180816650391 3.684829235077
-90.257408142090 -80.111351013184 -220.382446289063 5.026462554932
-23.389009475708 -76.081611633301 -222.116638183594 1.433063864708
-2.625722885132 -85.287918090820 -225.300704956055 5.429056167603
-156.315246582031 -75.147224426270 -218.291183471680 3.117390871048
-2.937386989594 -78.985206604004 -221.857055664063 0.912383913994
86.958686828613 -84.128044128418 -227.504043579102 8.557860374451
-140.022964477539 -76.102806091309 -224.176971435547 1.880618333817
-4.744932174683 -77.981742858887 -221.871978759766 1.066369295120
-139.884216308594 -75.145599365234 -226.742172241211 1.581907272339
-147.756622314453 -81.511062622070 -226.239944458008 1.288148045540
-6.217284202576 -76.129882812500 -228.842727661133 1.044721603394
20.824579238892 -79.070907592773 -215.175125122070 4.105362892151
-139.367050170898 -71.685234069824 -230.295684814453 1.953125596046
-18.221708297729 -78.554328918457 -228.397354125977 2.357387304306
71.885772705078 -80.489341735840 -225.705535888672 7.855908393860
74.517639160156 -79.830207824707 -234.003952026367 5.644692420959
9.944016456604 -79.742179870605 -230.485656738281 0.948080003262
-34.055885314941 -77.766326904297 -236.542724609375 2.428782224655
-24.095104217529 -84.288612365723 -242.790893554688 5.668827533722
2.550453901291 -75.779167175293 -243.655456542969 1.390262842178
-47.009681701660 -71.677108764648 -244.106216430664 3.017314434052
-21.312059402466 -74.796127319336 -243.446762084961 2.592469215393
9.881991386414 -74.653884887695 -239.492263793945 1.234902501106
-63.507678985596 -76.096206665039 -246.216171264648 1.100770473480
-36.414806365967 -81.077217102051 -244.488983154297 2.978973627090
-38.990989685059 -74.912658691406 -246.014724731445 1.531450986862
-148.222396850586 -71.008094787598 -246.872695922852 2.562910795212
-45.347511291504 -79.098693847656 -248.996383666992 3.836765527725
-52.717166900635 -68.705200195313 -247.941574096680 4.628948211670
-66.043693542480 -75.313705444336 -249.623229980469 2.672547340393
-10.953053474426 -81.305107116699 -246.640472412109 6.556733131409
-79.313636779785 -76.487800598145 -255.773223876953 1.874413728714
-156.903213500977 -79.069816589355 -254.577209472656 3.933335304260
-140.742462158203 -72.228851318359 -254.621093750000 2.575290203094
-121.842185974121 -75.562530517578 -259.521697998047 3.619767427444
-158.423065185547 -69.407524108887 -259.534637451172 2.225233793259
18.735742568970 -84.304763793945 -266.777618408203 4.502545356750
-14.752305030823 -79.233489990234 -269.325714111328 2.535347223282
-154.926559448242 -75.765937805176 -275.067199707031 3.455869197845
-152.934799194336 -79.547378540039 -279.507629394531 2.368934631348
-145.932723999023 -75.729644775391 -286.540313720703 0.926945686340
-58.604946136475 -70.979866027832 -280.710968017578 4.321458339691
-38.679229736328 -71.064659118652 -286.074310302734 2.243418931961
-18.832115173340 -74.221641540527 -289.805328369141 2.868903160095
-9.391241073608 -73.121139526367 -279.663482666016 2.111044168472
-66.284339904785 -78.426864624023 -285.858245849609 2.267051696777
-81.096969604492 -79.050735473633 -286.787414550781 2.542001962662
-2.226481914520 -78.167083740234 -283.168334960938 2.908510446548
3.185848951340 -78.741760253906 -292.420623779297 1.053787946701
-139.630279541016 -71.850494384766 -287.136688232422 1.065715551376
-80.435607910156 -71.688056945801 -286.826599121094 2.231405973434
-147.039016723633 -71.959526062012 -288.451110839844 2.925078392029
-94.830734252930 -82.919158935547 -286.319732666016 7.680985927582
-78.737861633301 -74.364212036133 -286.501708984375 3.065939664841
-85.808792114258 -71.947265625000 -296.212738037109 4.761467456818
-62.925949096680 -74.912940979004 -292.381866455078 1.904114961624
-30.250740051270 -69.965072631836 -295.598693847656 4.237068653107
-8.283966064453 -76.418190002441 -291.021667480469 1.913693428040
-150.893341064453 -66.138877868652 -299.946655273438 1.048390030861
-148.755477905273 -70.665382385254 -301.681030273438 2.820331335068
-143.843887329102 -71.774467468262 -305.910888671875 2.528550148010
-157.603729248047 -72.196289062500 -305.869720458984 2.079415559769
-57.446235656738 -72.250305175781 -56.716297149658 2.831199407578
-49.243000030518 -75.246398925781 -53.505050659180 1.250975251198
-40.658237457275 -77.657829284668 -54.329380035400 4.213130950928
-78.353553771973 -77.734077453613 -63.005657196045 2.100163459778
-30.261014938354 -74.995468139648 -65.213333129883 3.447576284409
-35.435783386230 -75.510711669922 -80.299674987793 1.693911314011
73.348991394043 -83.254890441895 -83.021865844727 7.640087604523
74.145698547363 -79.731414794922 -79.679260253906 5.008605003357
71.692962646484 -76.913040161133 -83.592361450195 1.268713355064
99.181709289551 -76.600036621094 -90.302772521973 2.914473772049
67.544029235840 -81.510841369629 -89.275428771973 7.686917304993
47.215908050537 -81.433906555176 -89.251350402832 8.498099327087
50.672157287598 -84.230583190918 -101.521949768066 5.563816070557
-67.300567626953 -73.658782958984 -102.719413757324 1.822463989258
-74.751052856445 -70.032730102539 -103.121116638184 2.988197803497
43.976825714111 -79.768020629883 -103.345359802246 0.968102335930
-83.046325683594 -80.224426269531 -110.806762695313 1.645487189293
-93.651054382324 -72.528221130371 -111.322517395020 1.071266531944
50.357803344727 -78.508575439453 -108.595626831055 1.658484816551
106.578056335449 -79.061012268066 -115.495567321777 4.418918132782
32.264038085938 -80.042373657227 -125.637756347656 3.533762216568
41.935379028320 -79.877517700195 -118.874298095703 2.732408285141
39.407287597656 -76.884559631348 -123.341896057129 1.758396625519
29.213979721069 -79.597991943359 -122.583938598633 2.853253126144
108.421257019043 -80.255226135254 -120.997314453125 4.111188411713
38.402793884277 -81.037322998047 -131.666732788086 4.087361335754
33.850872039795 -73.957313537598 -132.620849609375 1.853261113167
-45.170291900635 -74.487991333008 -142.720306396484 1.109238147736
-70.995056152344 -78.095283508301 -144.055633544922 2.196249246597
-53.655242919922 -74.327682495117 -149.401840209961 0.259472370148
-75.299385070801 -79.283729553223 -146.668212890625 4.064596176147
-39.267864227295 -75.457550048828 -148.366821289063 3.001048088074
105.515449523926 -80.504257202148 -156.252990722656 6.268663883209
-72.407814025879 -77.154281616211 -157.060287475586 3.616740226746
22.641788482666 -82.634017944336 -146.824600219727 5.520661354065
27.954763412476 -80.487274169922 -150.087234497070 1.858522415161
110.574478149414 -83.420547485352 -162.478515625000 6.422226428986
8.961183547974 -80.467628479004 -159.674530029297 3.091196537018
32.549659729004 -75.450691223145 -155.716262817383 1.514728665352
-63.731803894043 -77.578582763672 -160.062973022461 1.495180606842
-41.109508514404 -77.938934326172 -174.067367553711 1.007521629333
20.781803131104 -77.477165222168 -163.562316894531 1.749822497368
-65.808570861816 -74.097251892090 -157.635971069336 1.004264593124
-70.670181274414 -75.049201965332 -166.336807250977 4.372964382172
113.117683410645 -82.369804382324 -166.085205078125 3.995726823807
-8.911796569824 -78.249069213867 -165.701522827148 2.462758779526
-65.984992980957 -73.602615356445 -172.751388549805 2.086101770401
-35.246616363525 -77.989227294922 -167.643218994141 1.763835906982
-54.935764312744 -74.190315246582 -172.432434082031 2.605515480042
29.836196899414 -77.085502624512 -175.158157348633 2.575530052185
110.759201049805 -77.516059875488 -172.709533691406 2.345932245255
101.670257568359 -78.354476928711 -183.378952026367 2.528133153915
104.294845581055 -79.486915588379 -189.239288330078 2.111194849014
106.045059204102 -77.406761169434 -176.134323120117 2.943089485168
-51.861965179443 -74.095329284668 -192.549804687500 2.840624809265
-48.372337341309 -72.141036987305 -183.777786254883 3.439814567566
26.728654861450 -77.581756591797 -183.938079833984 1.359886646271
-48.555667877197 -74.179656982422 -186.376754760742 2.160162210464
-21.354545593262 -76.664802551270 -184.323776245117 1.237656235695
-51.689174652100 -78.443817138672 -192.043792724609 2.568491220474
-152.413833618164 -71.636726379395 -193.612518310547 2.492580413818
100.397994995117 -81.993492126465 -192.440002441406 5.794106483459
-44.868236541748 -72.695068359375 -195.272003173828 3.149388790131
-13.264348983765 -78.192123413086 -199.541091918945 2.432093620300
-140.106491088867 -72.515571594238 -193.940170288086 3.004231452942
-42.174694061279 -73.117607116699 -199.218292236328 2.668004989624
100.646163940430 -78.396255493164 -196.484283447266 3.029181718826
107.035263061523 -77.855903625488 -184.906066894531 2.972781896591
-43.784645080566 -75.370155334473 -196.176223754883 2.205993890762
-23.258152008057 -83.567474365234 -199.611114501953 4.549334526062
-147.863372802734 -76.105644226074 -201.164749145508 3.044855833054
-25.660633087158 -75.956451416016 -196.093673706055 1.066410303116
-160.028137207031 -72.986862182617 -197.997375488281 3.272940635681
-153.426055908203 -79.961662292480 -206.092178344727 2.806963682175
-145.123306274414 -75.099792480469 -202.799926757813 2.317702770233
-39.122074127197 -76.593902587891 -201.284164428711 1.029448270798
101.071479797363 -80.886619567871 -202.955352783203 3.927822589874
-42.510200500488 -73.569633483887 -200.376281738281 1.874172687531
-143.127593994141 -76.765968322754 -205.819229125977 0.942346572876
-37.876255035400 -71.677658081055 -205.908889770508 1.708148598671
-22.672134399414 -81.752197265625 -210.358551025391 4.055233478546
97.019821166992 -82.434127807617 -205.622467041016 6.416985988617
89.785148620605 -81.025878906250 -214.532150268555 3.746818542480
-37.198925018311 -73.815391540527 -217.675537109375 5.790148735046
-88.739334106445 -75.924995422363 -210.893798828125 2.390603065491
-76.295341491699 -75.908729553223 -212.344406127930 1.320815205574
-19.783790588379 -76.414283752441 -210.879898071289 1.352043032646
-150.581878662109 -74.961952209473 -203.421844482422 1.952846288681
90.852012634277 -78.803092956543 -213.857269287109 1.529647231102
88.078773498535 -75.933624267578 -217.922729492188 2.750814437866
89.314254760742 -79.815086364746 -220.642868041992 3.856397628784
-103.239578247070 -74.982330322266 -219.549041748047 2.702753543854
-154.982345581055 -75.158943176270 -222.088607788086 1.494387388229
-20.740488052368 -74.280853271484 -224.137329101563 1.933000206947
80.167022705078 -75.424354553223 -227.210205078125 1.868730425835
-150.801254272461 -76.916671752930 -223.042526245117 1.430900812149
-29.627517700195 -77.587203979492 -217.909088134766 1.124335646629
-134.573074340820 -71.248962402344 -233.610076904297 1.554893851280
-11.887880325317 -79.332344055176 -231.813201904297 3.618909358978
16.711364746094 -76.068687438965 -228.886184692383 2.034030675888
19.556898117065 -78.274826049805 -233.587890625000 1.955781340599
-155.965957641602 -75.679359436035 -236.267211914063 3.796986341476
-126.842880249023 -69.292175292969 -233.548568725586 2.786176681519
-8.789949417114 -76.085723876953 -235.957641601563 2.532180070877
-0.341892987490 -75.778450012207 -238.030136108398 1.811728715897
68.562278747559 -78.360458374023 -231.452835083008 3.904867887497
68.990051269531 -75.033088684082 -239.100494384766 2.325068950653
-0.733421981335 -74.315597534180 -240.610885620117 1.624636888504
15.645911216736 -72.718864440918 -240.319519042969 2.180076837540
-31.529968261719 -67.648796081543 -241.821121215820 7.776432514191
-33.342555999756 -84.716117858887 -242.727798461914 4.551503658295
-49.093925476074 -75.286453247070 -236.882492065430 2.690127611160
-40.840488433838 -73.267761230469 -240.531356811523 2.245968341827
-17.089673995972 -77.581359863281 -243.417739868164 1.969341158867
-52.417346954346 -73.202308654785 -244.833633422852 2.617344379425
1.199154973030 -77.326385498047 -245.657501220703 0.774131238461
-68.967399597168 -77.049682617188 -243.602584838867 3.145819187164
20.864389419556 -78.590270996094 -247.524765014648 1.636084675789
-143.113220214844 -75.518196105957 -245.013290405273 2.354882001877
-73.564819335938 -77.499755859375 -254.084350585938 1.432412028313
15.781266212463 -78.174720764160 -250.257797241211 1.161669850349
-161.587615966797 -71.124870300293 -250.301193237305 2.565148830414
12.686105728149 -81.345237731934 -254.029190063477 2.945892810822
-80.704223632813 -68.377876281738 -251.534118652344 2.699645042419
-76.256126403809 -75.090751647949 -251.147415161133 0.997803568840
18.045507431030 -79.173126220703 -254.615112304688 2.479159832001
-89.966720581055 -73.538368225098 -251.771575927734 1.789779782295
-126.194450378418 -69.481582641602 -255.401702880859 3.183811426163
-133.063476562500 -77.043365478516 -261.283050537109 2.578396558762
-136.672088623047 -76.248291015625 -253.633193969727 1.657723188400
-147.396575927734 -74.682868957520 -262.464935302734 2.735518455505
-146.346343994141 -69.277633666992 -253.510925292969 2.329012870789
-134.672363281250 -71.249710083008 -262.596557617188 1.117711663246
-162.117111206055 -68.567543029785 -261.343719482422 2.318788766861
-128.433609008789 -73.060203552246 -268.031829833984 4.078441619873
-136.646713256836 -67.380332946777 -263.786193847656 0.974939048290
-162.873031616211 -68.866416931152 -270.826812744141 1.454474091530
-156.078048706055 -69.537879943848 -265.467773437500 2.210423707962
-148.584533691406 -70.650962829590 -266.630371093750 2.617033481598
-149.225296020508 -73.383438110352 -266.603637695313 2.423141956329
16.684474945068 -79.528930664063 -279.332305908203 2.698490858078
-166.880523681641 -72.181991577148 -266.849060058594 2.368601322174
-151.974304199219 -74.183540344238 -274.368530273438 2.246392250061
-5.804878234863 -84.677314758301 -273.109710693359 3.724716901779
-155.570144653320 -69.702499389648 -275.850677490234 4.138282299042
11.451539039612 -80.493530273438 -283.656005859375 1.520658373833
-153.087249755859 -71.859954833984 -282.402069091797 2.152276754379
-166.300216674805 -73.400444030762 -289.531951904297 2.597632646561
-155.880737304688 -75.326347351074 -279.076568603516 5.141147613525
-164.884368896484 -69.564216613770 -289.968414306641 2.837741136551
0.065006002784 -80.238739013672 -287.535644531250 4.804730892181
6.700200080872 -82.158737182617 -282.047271728516 3.476850271225
-105.303306579590 -71.455390930176 -293.317108154297 3.091316699982
-156.546783447266 -78.820075988770 -288.697448730469 1.813209533691
-148.375427246094 -69.924186706543 -286.029022216797 1.592701911926
-106.406295776367 -72.350830078125 -292.603118896484 2.598798990250
-153.622192382813 -75.673858642578 -293.886535644531 1.546797394753
-148.820419311523 -76.933921813965 -289.629669189453 1.323070764542
-75.298423767090 -78.089118957520 -294.032531738281 4.684817790985
-168.212295532227 -74.418853759766 -289.894226074219 4.046034812927
-122.858512878418 -69.278724670410 -292.309844970703 0.909115731716
-43.424957275391 -80.096633911133 -286.504425048828 2.203694581985
-151.866744995117 -72.022766113281 -288.630737304688 2.339370250702
-131.770751953125 -67.639839172363 -294.528411865234 3.036034107208
-20.276111602783 -73.374130249023 -295.230804443359 4.467046260834
-129.275924682617 -68.808792114258 -293.909271240234 2.016916275024
5.805199146271 -77.876663208008 -295.444885253906 2.760405302048
14.854164123535 -74.145896911621 -292.821655273438 1.606285691261
-133.580718994141 -68.443626403809 -291.766845703125 1.894143700600
-145.874176025391 -74.501388549805 -299.414825439453 1.338592171669
-156.651153564453 -75.729522705078 -316.180053710938 4.511179924011
-72.619430541992 -69.666252136230 -53.482547760010 2.600034236908
-22.585586547852 -69.611480712891 -66.390319824219 5.300279140472
-20.584339141846 -79.043365478516 -65.662895202637 3.044992446899
70.393569946289 -75.969642639160 -78.802574157715 2.415219545364
89.422561645508 -78.229415893555 -76.099617004395 2.617835998535
-37.224468231201 -75.403839111328 -80.546081542969 2.024554252625
75.119194030762 -77.534164428711 -81.036849975586 2.975206136703
89.060523986816 -82.850570678711 -83.140670776367 5.472838401794
65.439552307129 -78.569091796875 -84.558746337891 6.229604244232
72.346817016602 -77.028625488281 -90.872070312500 2.928637266159
-50.990329742432 -75.753013610840 -85.873901367188 2.095807552338
-92.747856140137 -76.696655273438 -90.342758178711 2.160876989365
58.311649322510 -81.124305725098 -94.348663330078 6.608073711395
49.413002014160 -80.224632263184 -100.485603332520 2.597389936447
92.111236572266 -74.992889404297 -101.539550781250 1.353425860405
-91.592399597168 -68.317138671875 -102.537734985352 5.138893604279
79.495704650879 -73.405281066895 -100.606620788574 0.645314991474
70.926483154297 -79.120216369629 -101.643981933594 5.977965354919
90.319519042969 -81.626708984375 -98.414840698242 6.823088645935
82.763832092285 -78.918373107910 -96.934242248535 2.295813083649
79.817161560059 -81.692726135254 -99.376434326172 6.508873939514
-89.088447570801 -75.807571411133 -103.525886535645 4.760697841644
43.177116394043 -74.750244140625 -105.490005493164 2.896937847137
103.993820190430 -80.677658081055 -111.108345031738 6.336180686951
106.025207519531 -80.178695678711 -111.008987426758 5.329002857208
48.758979797363 -81.233078002930 -120.756416320801 3.865193128586
112.044952392578 -83.062644958496 -119.983367919922 6.528115749359
116.401657104492 -83.401000976563 -135.409347534180 6.502641677856
-51.426429748535 -71.933265686035 -130.252532958984 1.992871046066
26.916860580444 -76.589485168457 -135.420928955078 2.464866161346
40.120765686035 -81.256416320801 -134.278228759766 4.215466976166
23.861238479614 -74.093193054199 -142.618041992188 0.757115721703
111.827529907227 -83.610778808594 -137.419174194336 6.026268005371
110.554046630859 -81.096237182617 -130.635681152344 4.804033756256
-74.343887329102 -73.820198059082 -149.201492309570 2.950468063354
-44.372528076172 -73.813697814941 -141.443939208984 2.209111452103
-72.051116943359 -71.958793640137 -153.434600830078 1.482604503632
17.908212661743 -74.551902770996 -148.770568847656 3.464383602142
111.323486328125 -76.342582702637 -148.489685058594 2.234597444534
-54.921493530273 -76.443305969238 -152.939697265625 4.102291584015
-73.020133972168 -72.864791870117 -153.128143310547 1.724702715874
-40.122119903564 -78.357521057129 -152.267730712891 2.033200502396
31.079700469971 -71.220703125000 -154.436645507813 1.720863461494
108.089576721191 -75.213073730469 -150.793426513672 1.838587760925
115.970573425293 -78.287620544434 -162.160232543945 1.512507081032
-68.952705383301 -70.680549621582 -156.922592163086 2.285278797150
-75.632675170898 -76.493431091309 -161.201202392578 4.588759422302
21.004484176636 -81.477966308594 -164.106307983398 3.445971250534
-60.983146667480 -71.660255432129 -167.977706909180 1.484326243401
-33.182323455811 -72.694664001465 -164.224288940430 1.417786478996
7.713086128235 -78.136505126953 -164.705978393555 2.849429368973
106.674171447754 -76.171279907227 -161.882995605469 2.488094329834
9.007845878601 -80.398368835449 -168.956420898438 7.172884941101
-33.211193084717 -75.380401611328 -166.688125610352 1.809349417686
-3.978070020676 -70.156311035156 -165.488403320313 4.061762332916
106.013290405273 -74.938400268555 -167.261947631836 1.308608531952
-42.441474914551 -72.198188781738 -164.566223144531 2.463103771210
29.606019973755 -74.075851440430 -173.997390747070 3.138743400574
113.494682312012 -83.997337341309 -172.747604370117 6.672358036041
-57.766628265381 -70.739212036133 -176.575622558594 2.395999908447
-28.697563171387 -78.668777465820 -176.399719238281 0.734855234623
100.927169799805 -79.605583190918 -174.830139160156 7.218034744263
28.646471023560 -74.228744506836 -168.527175903320 1.185956358910
103.887107849121 -80.807548522949 -176.230178833008 5.628269672394
-37.455799102783 -70.364585876465 -180.035278320313 2.324485540390
108.802284240723 -83.115333557129 -181.190399169922 6.389019966125
-63.840957641602 -70.541816711426 -178.485870361328 5.694189071655
-26.610160827637 -79.827041625977 -178.623535156250 1.967391490936
-147.885726928711 -65.014350891113 -185.633483886719 1.605651140213
-54.693172454834 -73.242797851563 -179.962417602539 1.807531356812
-148.051940917969 -72.089027404785 -187.084304809570 2.094215869904
-35.581447601318 -72.346588134766 -184.345458984375 2.111321926117
28.130197525024 -82.265853881836 -179.513565063477 2.895666360855
105.040351867676 -80.137588500977 -183.929382324219 3.256152391434
-36.983310699463 -74.104286193848 -182.865768432617 2.255849838257
9.809967041016 -76.698265075684 -191.596496582031 2.030663490295
15.586733818054 -75.770446777344 -206.054443359375 1.365738868713
-149.878723144531 -72.105155944824 -189.270324707031 1.608886003494
105.708404541016 -82.312347412109 -196.302154541016 3.422232627869
-23.879156112671 -72.852493286133 -193.637100219727 1.872664451599
99.864273071289 -80.365234375000 -187.559600830078 4.709808826447
11.381672859192 -73.068847656250 -191.057586669922 2.126837491989
-140.442825317383 -71.517547607422 -206.766113281250 3.849748134613
-138.296493530273 -70.839096069336 -200.533859252930 1.825815677643
101.428749084473 -82.834381103516 -201.960983276367 4.643959999084
-12.550112724304 -80.054534912109 -200.668670654297 2.401921510696
-17.879043579102 -75.846298217773 -205.004272460938 1.749302506447
10.691714286804 -78.672691345215 -208.130661010742 1.224208831787
-150.456817626953 -70.421165466309 -207.333740234375 3.133152961731
-147.052871704102 -72.759284973145 -210.583206176758 1.861556172371
100.583671569824 -72.620956420898 -205.968963623047 2.265573740005
-85.084785461426 -72.925514221191 -208.439300537109 3.645966768265
-35.915424346924 -76.063659667969 -201.349166870117 2.210989952087
19.401647567749 -80.068901062012 -215.672119140625 3.762042284012
-25.175674438477 -75.683326721191 -211.589569091797 1.126378536224
-75.540191650391 -71.454032897949 -206.715560913086 2.118148803711
90.400581359863 -78.599273681641 -209.425964355469 4.008524894714
-79.682853698730 -70.366981506348 -213.061309814453 2.881582260132
-148.443740844727 -71.162826538086 -220.302719116211 2.247814655304
-80.775909423828 -71.401962280273 -213.442703247070 2.175195693970
-12.143061637878 -69.157455444336 -208.349441528320 2.077210664749
-20.909517288208 -72.005744934082 -220.756835937500 2.097354412079
17.813653945923 -76.849197387695 -215.169708251953 0.569020688534
-5.735498905182 -77.241172790527 -222.567489624023 1.187930345535
-89.069351196289 -78.856101989746 -220.131469726563 3.807811260223
92.468223571777 -77.448341369629 -214.167221069336 1.393961906433
-100.451812744141 -71.037597656250 -216.356262207031 2.230879545212
-154.153869628906 -69.132545471191 -226.364166259766 2.023124456406
-29.237094879150 -73.922042846680 -225.244262695313 3.898576021194
18.315813064575 -77.484817504883 -216.316818237305 1.421925067902
-102.689888000488 -73.392387390137 -220.975418090820 1.187058091164
6.947481155396 -71.010040283203 -218.171798706055 2.801144361496
-27.615345001221 -74.757591247559 -215.406188964844 0.509950160980
81.972084045410 -75.711151123047 -225.193618774414 1.975212097168
-144.973159790039 -69.678543090820 -218.539398193359 1.970635890961
13.476232528687 -75.151702880859 -226.438415527344 3.637624979019
-10.048048973083 -79.144096374512 -228.440887451172 0.588795483112
17.444955825806 -68.209075927734 -224.027267456055 2.389323711395
83.350204467773 -79.524482727051 -223.103744506836 3.131247997284
-14.975858688354 -78.914627075195 -229.876785278320 4.759831428528
-130.943313598633 -73.857597351074 -228.037277221680 0.929028511047
-15.389163017273 -74.912384033203 -224.879577636719 1.265192031860
16.239349365234 -75.822311401367 -229.963027954102 1.618525862694
-128.208160400391 -74.892158508301 -228.125106811523 2.759647369385
-153.610076904297 -67.381019592285 -232.113281250000 2.001627206802
-143.449264526367 -70.116775512695 -230.226364135742 3.007332086563
-128.990661621094 -69.368125915527 -227.522872924805 2.947621583939
-11.956442832947 -72.073844909668 -224.896133422852 0.935163319111
71.417854309082 -77.382911682129 -227.615432739258 4.535354137421
-144.627670288086 -66.502342224121 -240.301330566406 2.556475162506
68.231361389160 -78.578086853027 -228.661911010742 5.250510215759
-21.714485168457 -79.089019775391 -231.838073730469 2.086620569229
-143.045013427734 -74.381790161133 -229.330032348633 1.262000441551
75.875534057617 -85.616088867188 -229.636535644531 9.340106964111
9.555179595947 -81.064689636230 -232.719543457031 2.182316780090
-140.695373535156 -75.266807556152 -237.203475952148 3.888746500015
-149.986389160156 -70.138313293457 -234.309768676758 2.689789772034
17.298322677612 -71.642204284668 -231.261718750000 1.165306091309
-3.010301113129 -79.240806579590 -239.693771362305 2.167907953262
-29.883680343628 -73.600524902344 -237.542083740234 2.787055969238
-1.819630026817 -70.518402099609 -236.972213745117 1.071246862411
-161.037124633789 -74.118141174316 -239.064071655273 2.674273014069
5.612462043762 -73.296585083008 -243.348022460938 1.448945045471
-165.218887329102 -71.929229736328 -241.921661376953 3.157128334045
-12.443265914917 -76.331954956055 -238.134078979492 3.101375102997
58.512187957764 -78.232673645020 -239.589813232422 3.509898900986
-13.907236099243 -73.500282287598 -237.317916870117 1.603886842728
-25.388875961304 -74.299278259277 -247.775360107422 5.291448593140
-24.819618225098 -74.222671508789 -242.430862426758 2.131893157959
-11.514918327332 -79.149047851563 -240.699691772461 5.888429641724
-146.830581665039 -72.039756774902 -229.576690673828 0.882877469063
7.474971771240 -74.409606933594 -242.087097167969 1.928700566292
63.698570251465 -76.957427978516 -245.086715698242 3.813017129898
15.261582374573 -72.779403686523 -245.748886108398 1.458056807518
-168.995300292969 -68.404327392578 -243.927200317383 3.286451101303
-51.890560150146 -72.738571166992 -239.732467651367 3.658742904663
4.395130157471 -82.828186035156 -249.483383178711 2.734621047974
16.851207733154 -76.337287902832 -243.862442016602 3.127433776855
-54.198024749756 -73.395095825195 -248.226776123047 1.980468988419
-2.260843038559 -69.829002380371 -250.595169067383 5.715678691864
20.052888870239 -83.231307983398 -249.290740966797 2.543178558350
-171.939834594727 -67.652984619141 -250.324844360352 5.706844806671
-66.004760742188 -77.806732177734 -249.905181884766 2.298891544342
-52.654293060303 -71.805961608887 -248.498367309570 3.432074546814
-82.875526428223 -71.020301818848 -253.693939208984 1.630620837212
-162.274383544922 -72.243270874023 -247.647232055664 1.410354733467
-150.761077880859 -61.774314880371 -249.182617187500 1.876238226891
-60.995738983154 -75.804664611816 -250.685379028320 2.021483898163
-69.018455505371 -72.843345642090 -249.833511352539 1.841357469559
-153.907272338867 -68.060752868652 -253.374710083008 1.998110771179
-152.474197387695 -72.213790893555 -253.351455688477 0.960691452026
-75.006858825684 -68.122337341309 -255.851089477539 4.350711822510
-93.758285522461 -68.932777404785 -257.518035888672 1.875772476196
-163.470611572266 -63.535469055176 -254.726959228516 6.127579689026
-157.658340454102 -71.059288024902 -262.393890380859 1.948045492172
-135.750244140625 -73.430778503418 -261.244628906250 2.150386810303
-83.653518676758 -72.236091613770 -250.914505004883 1.185226798058
-161.973373413086 -66.237152099609 -254.848526000977 4.091257572174
-141.906127929688 -68.179191589355 -258.418518066406 2.757411479950
-85.209251403809 -71.588363647461 -249.835845947266 1.882986426353
-97.672828674316 -70.183746337891 -262.728088378906 3.415302038193
-143.651321411133 -72.262954711914 -256.485931396484 2.219002485275
-92.880264282227 -72.190414428711 -256.801208496094 2.437294721603
-154.690231323242 -68.293807983398 -256.662658691406 1.125728249550
-104.034255981445 -71.583450317383 -255.779327392578 0.498476624489
-171.165588378906 -68.885368347168 -259.972381591797 2.889120578766
-162.471008300781 -72.571472167969 -267.340911865234 3.709506750107
-128.282592773438 -75.857032775879 -257.320159912109 2.317828655243
-152.775222778320 -71.181121826172 -260.842926025391 2.226383209229
-110.192085266113 -67.815155029297 -263.876953125000 2.894094467163
