113.112327575684 -73.715980529785 -138.678756713867 1.253142237663
-66.130584716797 -80.540084838867 -135.137588500977 9.120083808899
-69.984573364258 -75.776725769043 -135.836944580078 4.443289279938
-58.362957000732 -75.555145263672 -135.334136962891 2.335814237595
32.108509063721 -75.334266662598 -144.685684204102 2.478456497192
120.073806762695 -76.958633422852 -150.567840576172 4.912450313568
-68.935607910156 -70.883102416992 -143.190933227539 1.096494078636
-47.698032379150 -75.495346069336 -137.731002807617 2.032587766647
33.765953063965 -74.880676269531 -152.490509033203 2.213902473450
-67.042327880859 -76.613975524902 -143.288558959961 2.217132329941
115.671562194824 -72.732810974121 -143.138061523438 2.125736951828
112.011474609375 -71.493286132813 -160.999908447266 1.693440079689
117.214370727539 -75.315040588379 -157.677200317383 1.553735971451
-37.480541229248 -78.533348083496 -149.291717529297 3.873561620712
-63.427005767822 -74.632812500000 -161.098220825195 1.700204610825
-66.389640808105 -70.024185180664 -153.244583129883 1.899357676506
30.349081039429 -75.865211486816 -143.978973388672 2.081086874008
-1.412485003471 -76.974418640137 -160.240356445313 3.046679735184
110.446014404297 -72.569297790527 -165.704803466797 1.826983213425
113.089637756348 -71.608421325684 -155.570785522461 1.263739466667
113.306541442871 -77.974800109863 -162.710311889648 2.097174406052
-62.057853698730 -72.193725585938 -153.973739624023 2.929208040237
-44.434963226318 -77.310531616211 -163.962753295898 1.948305606842
-2.996140956879 -74.027999877930 -163.383193969727 1.376185536385
-30.772663116455 -75.577529907227 -172.153533935547 2.549472332001
105.958320617676 -72.488250732422 -170.794006347656 2.136082410812
-31.971920013428 -79.385803222656 -156.911590576172 4.358911991119
109.145393371582 -71.779006958008 -170.535339355469 1.828588843346
-41.608779907227 -75.142219543457 -170.917999267578 2.325412750244
108.237953186035 -70.825973510742 -172.849899291992 1.658181548119
-153.032073974609 -76.820877075195 -170.895095825195 7.179426670074
-25.773517608643 -69.566108703613 -174.709747314453 1.760358810425
-19.750623703003 -75.034507751465 -181.532867431641 1.352097749710
24.766269683838 -78.611671447754 -176.388458251953 1.584878087044
14.086470603943 -73.042770385742 -182.907882690430 1.866086959839
28.411796569824 -74.886711120605 -182.448150634766 2.086525678635
102.417144775391 -79.986526489258 -187.438278198242 2.699451923370
-152.384475708008 -71.217193603516 -175.523284912109 1.019363045692
-19.334260940552 -77.177078247070 -180.008102416992 2.169032335281
101.199539184570 -75.783271789551 -181.320648193359 2.654970645905
102.378532409668 -69.021888732910 -191.858505249023 2.959467887878
109.165405273438 -75.830169677734 -179.655242919922 1.528166770935
99.483589172363 -75.688217163086 -195.839370727539 1.790839076042
-151.593307495117 -74.138130187988 -189.947631835938 2.342716217041
98.400634765625 -74.313217163086 -209.016891479492 1.978858113289
-29.018472671509 -72.051826477051 -195.846954345703 2.913742303848
95.700660705566 -73.550750732422 -197.102569580078 2.893121242523
-120.219596862793 -79.900169372559 -194.879943847656 7.230201721191
-30.459714889526 -79.911178588867 -185.665573120117 1.807413339615
-143.297897338867 -69.363929748535 -190.568222045898 2.951949357986
95.070053100586 -73.665206909180 -200.208908081055 0.583297014236
7.454795837402 -74.453926086426 -198.387588500977 2.820363759995
23.935731887817 -71.828773498535 -191.010818481445 1.485815405846
-149.759155273438 -76.984252929688 -196.312286376953 1.317813873291
-138.598876953125 -74.458793640137 -195.083572387695 2.953604221344
-10.798178672791 -73.759361267090 -206.497573852539 2.258785009384
-125.362731933594 -74.420578002930 -198.492919921875 2.300146818161
-145.080123901367 -76.901443481445 -189.466583251953 1.630900382996
0.691672027111 -74.825874328613 -197.157058715820 8.192898750305
-26.674421310425 -76.892837524414 -197.510971069336 2.429393768311
20.119724273682 -78.207809448242 -200.673416137695 1.691920280457
4.126142978668 -76.056961059570 -211.608657836914 2.827296257019
81.495910644531 -69.243499755859 -210.883316040039 6.052483558655
-19.309196472168 -71.038307189941 -209.584472656250 1.633897542953
89.247207641602 -70.450775146484 -211.261962890625 1.866439223289
96.810592651367 -76.703323364258 -209.567443847656 2.156369447708
-149.546859741211 -76.893455505371 -205.867599487305 1.456067562103
93.680473327637 -76.327949523926 -214.030242919922 2.133784770966
3.007244110107 -72.136611938477 -204.632186889648 2.711465120316
1.005835056305 -76.462738037109 -212.924530029297 4.670158863068
-33.172016143799 -73.884727478027 -202.828659057617 1.014271020889
-90.825515747070 -74.003692626953 -207.404708862305 5.627574443817
-26.340988159180 -76.815223693848 -207.254821777344 2.270956277847
83.754577636719 -71.921012878418 -219.850524902344 2.214502334595
88.868949890137 -72.295745849609 -217.828323364258 1.131157517433
-32.793449401855 -73.030181884766 -208.583938598633 1.550497770309
-85.502334594727 -70.300422668457 -214.323196411133 3.212124824524
-1.854817986488 -76.198501586914 -217.769027709961 1.052081346512
77.285438537598 -68.352783203125 -213.414077758789 5.407009601593
-154.197479248047 -81.235549926758 -213.370803833008 4.001238822937
-167.762100219727 -73.079315185547 -205.662551879883 4.267516613007
-165.094589233398 -79.365455627441 -213.305877685547 4.813597202301
-23.684127807617 -75.994293212891 -224.389602661133 1.847031831741
-156.436248779297 -80.036582946777 -214.270217895508 6.328036308289
-6.448438167572 -74.602371215820 -222.027832031250 2.469753265381
4.187644004822 -76.015411376953 -217.086242675781 2.923839330673
-171.056167602539 -75.089187622070 -217.476226806641 4.136540889740
-159.139648437500 -75.264549255371 -220.001922607422 4.595545291901
76.460014343262 -77.753852844238 -233.794113159180 3.256420850754
-3.365684986115 -73.262931823730 -224.167953491211 2.437871694565
-161.262863159180 -68.094703674316 -218.074081420898 2.876692533493
-144.573944091797 -77.800964355469 -215.607223510742 2.555542230606
-20.721275329590 -72.148818969727 -221.215454101563 2.004998922348
-3.757591962814 -78.661689758301 -219.007003784180 1.579255938530
77.632148742676 -69.717651367188 -228.425827026367 0.923099517822
-163.054550170898 -72.586357116699 -219.470993041992 1.796380877495
-144.305252075195 -71.394546508789 -225.063003540039 2.391419887543
-128.014236450195 -72.372901916504 -224.768280029297 1.996291756630
75.956207275391 -76.177932739258 -227.744262695313 2.681390285492
-117.955146789551 -74.911689758301 -222.937957763672 3.503948450089
-146.264389038086 -74.746490478516 -221.821624755859 1.039458870888
-153.371978759766 -73.160919189453 -224.040023803711 2.079657793045
-152.056427001953 -75.914894104004 -224.097763061523 2.033365488052
-157.837844848633 -76.039192199707 -221.057678222656 3.549774408340
-166.928741455078 -75.860687255859 -220.013320922852 3.475472927094
-135.169418334961 -75.797851562500 -229.789886474609 2.189626216888
-135.494277954102 -76.016990661621 -226.387649536133 2.301864385605
-154.289306640625 -80.946487426758 -225.699386596680 2.165539979935
-148.020416259766 -70.320907592773 -230.171096801758 1.409828543663
-153.353836059570 -75.848014831543 -227.801620483398 3.106799125671
73.172935485840 -76.629981994629 -234.898132324219 4.142020702362
64.633934020996 -66.339607238770 -235.886123657227 2.645653486252
-157.770004272461 -72.766555786133 -227.271453857422 1.389616608620
70.321830749512 -67.140792846680 -234.407608032227 0.847754895687
-22.992227554321 -71.371170043945 -233.898056030273 5.347048759460
9.929091453552 -75.768302917480 -237.055877685547 1.417304635048
5.294514179230 -74.548690795898 -234.568893432617 1.075360417366
-158.282913208008 -75.034507751465 -233.300140380859 2.971547603607
13.100060462952 -72.875801086426 -240.304641723633 1.559822678566
56.703685760498 -71.366188049316 -239.328125000000 2.971116065979
10.629353523254 -70.229934692383 -237.126373291016 1.493846416473
2.020965099335 -73.792785644531 -239.875823974609 1.378878831863
-9.278380393982 -70.214248657227 -237.692672729492 2.328209161758
-24.533979415894 -71.771865844727 -240.359405517578 1.546415805817
-5.076567173004 -73.860229492188 -239.033401489258 1.328676819801
1.868975043297 -77.244537353516 -244.714019775391 0.935758948326
54.749584197998 -74.955101013184 -241.674316406250 2.570902585983
-57.489204406738 -79.627609252930 -240.968124389648 3.042246103287
17.364542007446 -72.248619079590 -247.234741210938 0.825864553452
-60.883243560791 -74.961944580078 -236.246109008789 8.328052520752
-13.523453712463 -74.114967346191 -246.065551757813 2.048585653305
-69.932502746582 -69.585105895996 -246.171035766602 3.135791778564
-88.948806762695 -71.035202026367 -248.906921386719 4.558250904083
-85.479034423828 -75.982833862305 -248.767379760742 4.014148712158
-11.579036712646 -72.818542480469 -254.405319213867 2.772354841232
-126.925811767578 -74.570426940918 -254.688247680664 1.144761323929
-17.099634170532 -74.508728027344 -249.411514282227 3.721418619156
-120.093338012695 -74.259368896484 -248.378082275391 7.133462905884
-121.042160034180 -72.449226379395 -252.439132690430 3.799025535583
-106.966590881348 -74.251373291016 -248.984176635742 8.034709930420
-146.654586791992 -73.021675109863 -252.909591674805 0.688275277615
-148.319168090820 -74.157051086426 -260.678710937500 0.957294940948
-172.580841064453 -74.894691467285 -254.661804199219 5.002663612366
16.842281341553 -77.732788085938 -279.852966308594 2.725942850113
-64.678962707520 -70.957649230957 -280.967651367188 5.526841640472
-72.529479980469 -72.545669555664 -277.899749755859 6.957724094391
-46.570743560791 -75.690666198730 -279.243621826172 5.600489139557
-31.497001647949 -74.107093811035 -284.542999267578 2.303101301193
-100.446243286133 -77.004501342773 -285.168640136719 0.852267861366
-36.195816040039 -71.016593933105 -281.760559082031 4.537641525269
-8.206351280212 -72.811134338379 -283.807220458984 2.695350408554
-171.907852172852 -74.807022094727 -281.257415771484 4.978466510773
-22.969919204712 -76.246604919434 -282.963775634766 2.985233306885
0.845077991486 -74.570831298828 -286.433624267578 1.780709981918
9.697991371155 -79.270904541016 -279.469360351563 1.778347015381
-61.535949707031 -77.494926452637 -281.729705810547 4.992132663727
-39.890735626221 -74.772277832031 -288.934844970703 1.833705782890
9.384757041931 -70.672294616699 -292.713226318359 3.162483930588
-76.532867431641 -71.485069274902 -289.387573242188 1.335995793343
-46.929222106934 -69.847007751465 -284.690979003906 5.220260620117
-22.839607238770 -70.841003417969 -287.012023925781 1.438167929649
9.513809204102 -76.032127380371 -290.518493652344 1.077234387398
-17.106246948242 -75.917617797852 -293.486663818359 2.251805305481
-0.545596003532 -71.952926635742 -293.356964111328 2.388112306595
9.740489959717 -76.421188354492 -287.799438476563 2.027184963226
-139.788040161133 -73.205360412598 -287.095581054688 0.971815943718
-150.106216430664 -77.026420593262 -290.455749511719 0.996681988239
-158.950286865234 -73.725219726563 -305.509674072266 2.989701747894
51.565895080566 -74.509849548340 -14.465618133545 6.254347324371
36.828853607178 -75.264060974121 -11.381296157837 4.316875457764
46.983425140381 -75.538154602051 -15.138934135437 4.694669723511
29.572822570801 -70.617385864258 -17.451925277710 1.953545689583
52.097038269043 -72.001510620117 -23.524755477905 2.773720502853
32.636241912842 -72.039382934570 -24.501268386841 4.788701057434
30.008039474487 -75.389755249023 -26.047660827637 4.366719722748
32.312774658203 -76.025634765625 -40.265243530273 4.073922157288
43.766296386719 -78.643836975098 -30.966608047485 5.750801086426
31.984022140503 -80.338943481445 -36.999126434326 7.823836803436
49.637798309326 -73.012145996094 -39.769172668457 4.390064716339
37.940399169922 -75.662963867188 -40.772747039795 3.965874910355
46.479431152344 -77.059989929199 -35.562488555908 3.114259004593
36.549587249756 -73.394454956055 -39.782245635986 1.384997248650
50.784915924072 -74.968955993652 -42.340873718262 7.110132694244
38.519432067871 -74.186164855957 -37.432731628418 2.735053062439
-36.676403045654 -74.364768981934 -44.196418762207 5.239171981812
-24.072820663452 -69.440933227539 -47.351619720459 5.627549171448
-84.863281250000 -75.900093078613 -48.365451812744 7.912092685699
-85.213989257813 -76.349937438965 -60.823005676270 4.629003524780
81.919738769531 -77.509597778320 -66.208427429199 5.692402839661
88.824119567871 -72.874786376953 -74.640228271484 2.737432241440
-16.379268646240 -72.649200439453 -72.426986694336 1.758361458778
-83.461585998535 -74.028045654297 -66.869903564453 2.992257595062
-20.700849533081 -73.475791931152 -74.067726135254 2.057921648026
-45.453227996826 -76.535560607910 -81.030693054199 2.786743402481
69.842163085938 -70.248138427734 -87.483985900879 2.542755126953
55.655261993408 -72.413825988770 -94.347557067871 1.596336483955
103.093917846680 -71.214942932129 -94.008308410645 2.750645160675
72.449897766113 -76.526290893555 -98.158409118652 2.847959995270
-66.013412475586 -75.509849548340 -84.766853332520 6.822037220001
-56.525707244873 -71.120643615723 -94.606864929199 4.573109626770
48.038799285889 -73.731201171875 -97.693283081055 0.965770781040
80.770751953125 -71.549224853516 -99.706192016602 1.798947215080
58.318477630615 -83.319473266602 -106.031860351563 7.088904857635
105.222724914551 -73.218559265137 -98.097854614258 2.191638469696
-91.568984985352 -78.006980895996 -101.922943115234 5.272543430328
44.288822174072 -73.421485900879 -109.609764099121 2.420848131180
110.364845275879 -74.812675476074 -112.328903198242 2.822501659393
52.070014953613 -73.962982177734 -111.863891601563 3.682991027832
103.384704589844 -75.065376281738 -113.385192871094 2.075543165207
-82.070220947266 -74.045463562012 -111.908073425293 4.056944370270
38.392257690430 -77.931129455566 -112.578681945801 2.480891704559
109.875564575195 -71.208778381348 -119.467933654785 1.258967399597
107.306877136230 -69.947975158691 -118.815246582031 3.239948749542
106.696899414063 -73.847679138184 -117.764503479004 2.335284948349
113.795211791992 -71.589340209961 -116.870239257813 2.373837232590
44.089523315430 -77.226219177246 -108.321388244629 2.185840368271
35.018779754639 -69.254333496094 -115.344062805176 2.543711423874
42.118888854980 -73.372703552246 -112.477813720703 2.201704502106
107.647964477539 -75.369987487793 -123.639404296875 3.557027578354
43.484874725342 -71.441520690918 -121.549728393555 1.533130764961
111.629310607910 -71.606857299805 -135.404067993164 0.447128027678
111.992164611816 -71.375534057617 -133.915847778320 1.937467336655
36.140750885010 -70.605079650879 -118.287864685059 0.650297641754
-75.992774963379 -75.245109558105 -118.196372985840 5.039302349091
114.376983642578 -69.053405761719 -136.528137207031 1.907006382942
-51.390613555908 -74.424201965332 -134.099945068359 1.676738619804
36.760177612305 -74.577812194824 -133.812332153320 3.243861913681
-71.620742797852 -74.827819824219 -128.893341064453 3.476156711578
27.705410003662 -77.251739501953 -129.295867919922 1.244851350784
-79.286979675293 -75.441795349121 -138.561676025391 4.504529953003
-43.810020446777 -77.646850585938 -138.207107543945 2.714366436005
-73.611885070801 -76.742759704590 -133.621444702148 4.178862571716
110.922485351563 -71.889747619629 -138.865737915039 1.701300859451
121.135139465332 -70.178413391113 -144.362762451172 4.158192634583
120.256256103516 -76.607521057129 -150.727188110352 4.896707534790
-78.772315979004 -74.326171875000 -138.050064086914 3.735033750534
7.848662853241 -68.927696228027 -149.032653808594 1.661240696907
-49.468437194824 -74.753669738770 -143.874023437500 1.472283959389
-50.837394714355 -75.469352722168 -150.787719726563 0.836090207100
106.553520202637 -73.445838928223 -165.722595214844 1.321635365486
-39.524982452393 -76.865043640137 -144.680740356445 4.851069927216
15.242610931396 -70.311882019043 -156.955688476563 0.643878877163
23.319307327271 -75.961914062500 -156.285202026367 1.694031476974
114.858802795410 -70.774978637695 -167.950363159180 1.064904332161
30.659746170044 -72.133453369141 -166.436843872070 3.321417331696
-0.228486001492 -75.398658752441 -161.797180175781 1.079215764999
32.623870849609 -74.133979797363 -159.680694580078 1.804073452950
-66.738098144531 -72.662727355957 -151.425872802734 2.450226068497
-65.704063415527 -74.247322082520 -154.305328369141 1.262335062027
-69.192245483398 -71.728897094727 -161.312881469727 2.029487133026
114.996047973633 -68.027175903320 -164.523696899414 3.245651245117
-44.119792938232 -74.498771667480 -159.161712646484 2.686489105225
16.801435470581 -73.437637329102 -163.744430541992 2.331722021103
-63.578216552734 -72.264541625977 -165.175567626953 2.912720441818
-64.339706420898 -71.216819763184 -166.820755004883 2.281888246536
-42.255939483643 -75.712921142578 -156.993179321289 2.464860200882
-34.241683959961 -77.431701660156 -164.294967651367 2.796841144562
115.896286010742 -75.492195129395 -174.359756469727 2.567639589310
-37.616382598877 -66.748512268066 -178.035171508789 4.350508689880
12.582769393921 -74.532608032227 -170.887405395508 4.371100425720
110.067489624023 -75.806053161621 -188.600952148438 2.239918708801
-147.077697753906 -76.791297912598 -167.820541381836 7.879762649536
-146.061431884766 -73.944953918457 -163.810516357422 11.060748100281
-147.164901733398 -72.067153930664 -173.161407470703 2.018246412277
-142.328613281250 -77.085502624512 -176.065231323242 3.170704603195
-33.101837158203 -71.678802490234 -181.395935058594 2.114525556564
-23.705366134644 -74.133438110352 -182.364990234375 1.570490241051
22.831123352051 -67.569305419922 -191.138381958008 3.350505352020
-141.094589233398 -73.499595642090 -178.524459838867 2.614356040955
-148.301727294922 -75.008712768555 -180.478942871094 2.013864994049
-22.434921264648 -71.023712158203 -182.412322998047 2.157608747482
9.337965965271 -72.982360839844 -180.943435668945 5.098354339600
-150.892654418945 -74.164833068848 -186.981109619141 2.069287300110
-32.161621093750 -73.538612365723 -185.811523437500 0.993409872055
99.200096130371 -72.796173095703 -190.397537231445 0.570956528187
104.605560302734 -70.301246643066 -192.105575561523 2.036780595779
24.069269180298 -66.981002807617 -192.299652099609 3.115592002869
-11.143491744995 -73.238021850586 -185.906356811523 6.323911190033
-29.286247253418 -75.707633972168 -189.509338378906 1.894452691078
-157.202560424805 -76.516944885254 -192.439315795898 5.286247253418
-133.657424926758 -75.382347106934 -189.060729980469 6.385253906250
-126.418731689453 -70.489967346191 -187.210311889648 5.980866909027
-126.916427612305 -72.468376159668 -189.983276367188 3.785175323486
-22.794889450073 -68.278129577637 -192.027206420898 1.969562053680
13.412856101990 -76.075149536133 -190.625625610352 1.277338504791
90.453872680664 -78.278167724609 -203.086486816406 3.107587575912
-152.004394531250 -69.293983459473 -185.779083251953 2.499838590622
-145.224075317383 -70.805244445801 -190.644271850586 3.342917919159
-152.700988769531 -74.188606262207 -192.512115478516 2.848802328110
-155.626678466797 -71.393608093262 -187.754104614258 4.212621212006
-25.029357910156 -72.055061340332 -196.558486938477 1.725970864296
-9.365412712097 -69.453094482422 -192.395980834961 6.037576198578
-146.111602783203 -68.454078674316 -194.571304321289 2.280388116837
-21.190454483032 -72.235771179199 -199.376525878906 2.178408861160
-161.704132080078 -73.593551635742 -192.927581787109 3.981051445007
-135.507232666016 -73.693176269531 -191.365982055664 4.518001556396
13.709227561951 -76.359764099121 -205.483276367188 2.364686489105
-160.830535888672 -69.554046630859 -195.430511474609 0.946627080441
-147.556457519531 -76.431915283203 -198.438430786133 0.590374410152
5.627626895905 -70.284179687500 -202.498535156250 3.891428947449
-155.430831909180 -70.727493286133 -193.653533935547 1.782200098038
-26.547811508179 -71.989883422852 -199.596572875977 1.608739256859
93.186546325684 -73.651588439941 -200.914672851563 1.609406113625
-161.252380371094 -75.811103820801 -201.855789184570 4.660667419434
-165.484893798828 -79.013183593750 -197.391082763672 6.587031841278
-77.096336364746 -70.814010620117 -201.373931884766 7.647543907166
88.595268249512 -71.502517700195 -209.878189086914 1.949278473854
-5.776591777802 -71.852897644043 -217.536453247070 1.337564826012
-157.946228027344 -72.597038269043 -204.063537597656 2.663379430771
-88.719848632813 -74.324996948242 -206.949966430664 4.708656311035
-11.361508369446 -76.856254577637 -208.512985229492 0.656306564808
14.190388679504 -72.162269592285 -216.840408325195 1.661088466644
-145.968536376953 -74.603164672852 -212.751510620117 1.387833118439
-5.870576858521 -78.753982543945 -218.691238403320 0.951569199562
-19.331123352051 -75.425361633301 -213.754043579102 2.722810745239
-16.557212829590 -69.295112609863 -218.685440063477 2.707879543304
89.436302185059 -72.288177490234 -222.911926269531 2.910507917404
-21.737258911133 -71.411628723145 -213.170593261719 1.956464052200
-35.279239654541 -72.351387023926 -214.489456176758 3.495799303055
-109.900260925293 -67.078422546387 -218.927124023438 3.529315471649
-18.597747802734 -70.798965454102 -221.092666625977 1.538337588310
91.962745666504 -69.872695922852 -220.852005004883 2.133780956268
73.209388732910 -73.695228576660 -222.770828247070 4.929495811462
6.584098815918 -74.264579772949 -216.994873046875 0.649277210236
-13.677984237671 -69.072731018066 -223.010665893555 1.684798121452
77.044906616211 -72.449035644531 -223.024536132813 1.215565919876
-123.462852478027 -78.744506835938 -218.248901367188 8.287923812866
-20.046588897705 -70.435119628906 -220.845413208008 2.295104026794
-97.574974060059 -72.980819702148 -217.293533325195 1.420379042625
-102.777648925781 -73.668342590332 -216.631546020508 2.973450422287
-131.771362304688 -76.182441711426 -221.855484008789 1.023789405823
79.011695861816 -72.899475097656 -224.678207397461 0.891867518425
-124.834434509277 -74.718818664551 -220.244842529297 4.435782432556
1.901288032532 -71.582992553711 -227.479370117188 1.973031997681
79.723091125488 -70.468482971191 -226.183776855469 0.290663391352
-18.923006057739 -74.380187988281 -230.844924926758 2.771357774734
-16.491203308105 -73.904144287109 -222.876739501953 1.319083571434
-2.285533905029 -80.056617736816 -228.138549804688 1.373548388481
9.317190170288 -75.648452758789 -226.336120605469 1.667417407036
88.402717590332 -73.918029785156 -229.535186767578 5.190782070160
6.905888080597 -70.746925354004 -229.499526977539 2.545856475830
4.549749851227 -71.562461853027 -228.106277465820 1.879981398582
-11.441404342651 -73.508575439453 -229.636566162109 1.861758828163
-8.933746337891 -74.471290588379 -225.972640991211 1.162790894508
17.533946990967 -71.170921325684 -232.354751586914 1.743830561638
-15.020660400391 -69.117950439453 -230.379119873047 1.331626176834
68.023262023926 -72.815116882324 -241.943161010742 1.777325987816
-12.488836288452 -71.270874023438 -237.192810058594 2.033419609070
16.758546829224 -73.536537170410 -234.630386352539 0.523534357548
-163.356094360352 -71.346405029297 -230.841003417969 1.846495628357
-8.581327438354 -69.675682067871 -233.698074340820 2.145071029663
-9.989941596985 -74.851562500000 -237.001831054688 2.061207532883
-170.513259887695 -75.080604553223 -241.190521240234 3.972307920456
-14.008904457092 -70.112525939941 -241.559097290039 1.450354218483
11.807839393616 -68.936294555664 -243.636978149414 1.445197820663
-151.387710571289 -75.599441528320 -243.435729980469 2.653177499771
-79.110755920410 -73.097259521484 -246.752899169922 1.014334082603
-65.213958740234 -74.729240417480 -242.709548950195 3.261825799942
48.195365905762 -68.707641601563 -247.145919799805 1.008836865425
-76.083740234375 -72.447822570801 -241.026443481445 4.735517024994
12.801202774048 -72.899810791016 -248.604385375977 2.545116901398
-75.974952697754 -74.494087219238 -245.709869384766 1.082515835762
-18.799608230591 -69.907142639160 -240.348526000977 1.926905393600
-148.485931396484 -77.361534118652 -244.442382812500 0.844872593880
41.963916778564 -67.209167480469 -250.911163330078 1.647244334221
-84.382156372070 -77.144798278809 -251.499908447266 2.850745916367
-106.630363464355 -69.138397216797 -248.863845825195 5.729265213013
-103.686576843262 -74.971191406250 -248.082305908203 7.888885498047
-124.593894958496 -69.759521484375 -244.349716186523 8.714342117310
-109.662155151367 -68.892265319824 -250.737106323242 4.261910438538
-108.631843566895 -72.211204528809 -250.940551757813 5.616093158722
17.387161254883 -67.517761230469 -256.427398681641 4.529103279114
-134.345031738281 -70.068374633789 -257.573577880859 1.144505500793
-19.773244857788 -73.327339172363 -272.467254638672 5.959514617920
-153.592544555664 -69.461845397949 -275.777557373047 3.414564609528
-173.590774536133 -75.766921997070 -277.479858398438 6.123887062073
-129.785629272461 -74.371047973633 -275.605255126953 7.990046024323
-119.162742614746 -68.948257446289 -279.847503662109 7.806915283203
-80.582069396973 -67.584526062012 -277.649871826172 9.912232398987
-62.928241729736 -74.313209533691 -282.293731689453 3.173106908798
-46.273788452148 -70.891548156738 -282.001129150391 5.637842655182
-20.823259353638 -77.092216491699 -288.569488525391 1.732347369194
-19.179212570190 -69.067543029785 -290.829620361328 3.432710886002
-44.097717285156 -75.822555541992 -287.395202636719 2.696093797684
-39.766227722168 -72.467544555664 -285.347381591797 1.042817115784
-24.622093200684 -68.003974914551 -285.789611816406 2.706497907639
-78.797073364258 -71.406288146973 -289.151672363281 1.860858440399
-61.792675018311 -71.628837585449 -287.000213623047 2.542878627777
-24.416793823242 -67.443550109863 -289.096191406250 2.931807994843
-19.185754776001 -74.646316528320 -286.492980957031 4.194258689880
-9.133565902710 -71.426330566406 -291.423126220703 2.785792589188
-2.961452960968 -67.216102600098 -291.076721191406 2.289719581604
-99.186500549316 -72.716117858887 -287.625488281250 1.695870757103
-143.796035766602 -76.227035522461 -288.426025390625 2.475249290466
-120.912651062012 -74.022506713867 -285.834838867188 3.253777742386
-158.893539428711 -70.335845947266 -285.023315429688 3.216532230377
-156.221069335938 -74.250633239746 -291.004272460938 1.320839047432
-153.156173706055 -69.906272888184 -291.909210205078 1.549538731575
50.016651153564 -70.049865722656 -22.697185516357 1.267523527145
26.774330139160 -78.111862182617 -22.524679183960 4.388562679291
56.539329528809 -69.150314331055 -24.302938461304 6.403844356537
53.213748931885 -74.624588012695 -35.925140380859 3.216911315918
92.692588806152 -72.337982177734 -73.661087036133 1.881351232529
100.318435668945 -74.845886230469 -76.843124389648 1.535635113716
105.678932189941 -72.800895690918 -79.162040710449 5.001068592072
102.168113708496 -72.318229675293 -86.627540588379 2.678048610687
59.350353240967 -73.890029907227 -90.696708679199 1.956709742546
47.500514984131 -79.870315551758 -89.729499816895 6.881445884705
67.028747558594 -71.554847717285 -91.723724365234 3.341665029526
-61.998073577881 -71.766075134277 -89.367164611816 2.550988435745
75.619056701660 -70.925788879395 -88.525108337402 2.913193702698
103.083351135254 -63.263900756836 -101.977394104004 2.248226881027
77.566246032715 -72.580162048340 -103.311210632324 2.226443529129
96.337142944336 -70.753768920898 -105.585365295410 2.962716579437
-83.676551818848 -74.712333679199 -99.603797912598 3.285664081573
49.244907379150 -70.918388366699 -96.101989746094 2.920613765717
-84.624771118164 -75.625328063965 -94.619781494141 5.949925422668
54.463386535645 -73.695037841797 -110.524375915527 3.516421318054
39.756118774414 -80.684928894043 -102.901504516602 3.694561958313
102.662002563477 -70.942550659180 -105.733985900879 1.610605716705
39.632125854492 -72.911064147949 -104.262153625488 1.462028503418
47.022453308105 -74.833526611328 -120.962532043457 2.055674076080
45.024677276611 -73.134277343750 -113.063987731934 1.975668549538
114.149414062500 -70.419761657715 -114.350952148438 2.682560920715
-78.196907043457 -80.051971435547 -116.810447692871 7.798775672913
115.107872009277 -77.311325073242 -125.692993164063 3.710170984268
43.677982330322 -67.415000915527 -125.232666015625 3.117708444595
42.268142700195 -72.418441772461 -119.802955627441 2.567749261856
36.661251068115 -73.568435668945 -119.543045043945 2.199276447296
-52.995315551758 -79.351730346680 -125.296058654785 8.586075782776
31.840682983398 -71.336807250977 -122.661079406738 2.129687547684
-76.450462341309 -69.756874084473 -133.327529907227 1.319448709488
-53.159954071045 -78.294334411621 -128.319290161133 5.612183094025
-77.842697143555 -70.643638610840 -129.698165893555 0.730977714062
38.518611907959 -70.064888000488 -131.726486206055 1.835250139236
-58.222007751465 -75.577590942383 -129.062133789063 3.339956283569
36.982563018799 -71.797920227051 -132.641174316406 1.462229251862
-69.798271179199 -70.965248107910 -134.789703369141 3.618916511536
-58.006450653076 -68.553932189941 -137.987411499023 1.907869696617
24.895759582520 -73.935554504395 -143.739318847656 1.211230278015
113.121574401855 -74.939338684082 -145.927230834961 1.525680899620
116.255401611328 -66.404426574707 -140.703674316406 4.187623500824
31.613830566406 -73.040519714355 -142.318740844727 1.873194336891
-48.405227661133 -75.974876403809 -135.791671752930 2.764898300171
105.763465881348 -68.805458068848 -155.388671875000 2.114829778671
-75.180419921875 -73.260314941406 -137.341064453125 1.823333859444
-57.220745086670 -73.119224548340 -137.800643920898 1.624903678894
32.731784820557 -66.083015441895 -145.536392211914 3.273154735565
-77.148780822754 -75.365036010742 -140.793563842773 3.305892467499
-69.365005493164 -72.667945861816 -144.955688476563 2.148663759232
114.781356811523 -77.169364929199 -152.478652954102 0.359631210566
-63.819919586182 -71.332901000977 -151.086395263672 1.978868365288
-38.755798339844 -68.785438537598 -148.078643798828 3.655675411224
25.581541061401 -70.853630065918 -143.787887573242 2.641193866730
-70.862823486328 -74.112396240234 -139.140487670898 1.409959673882
13.336099624634 -71.242034912109 -147.535217285156 1.608225584030
32.355804443359 -71.823577880859 -157.986434936523 1.796418070793
32.085117340088 -69.194564819336 -151.370483398438 1.743725657463
18.020509719849 -77.769065856934 -152.628448486328 5.144629478455
-49.952816009521 -75.733337402344 -149.014083862305 1.286365270615
23.774278640747 -75.374862670898 -152.381561279297 1.748837351799
-46.192924499512 -71.991485595703 -147.300109863281 2.141965627670
4.036630153656 -72.719490051270 -152.607742309570 3.966555595398
20.173898696899 -71.400085449219 -149.024032592773 3.260557174683
-66.691452026367 -71.843261718750 -153.795349121094 2.249155282974
-46.699592590332 -69.488563537598 -150.280517578125 1.290801048279
-67.801376342773 -73.158767700195 -147.201019287109 1.848572134972
20.623310089111 -70.835464477539 -157.732727050781 2.498131036758
24.397521972656 -71.417800903320 -149.337432861328 1.651391625404
2.550508975983 -72.555313110352 -164.849838256836 1.815643310547
22.590827941895 -71.215217590332 -151.223266601563 1.998208165169
30.567043304443 -71.065101623535 -168.319595336914 3.136599540710
-47.011745452881 -73.919105529785 -160.310653686523 2.793156147003
-38.287364959717 -82.016128540039 -161.118820190430 1.569548606873
-41.352249145508 -74.386405944824 -157.582473754883 1.754633426666
28.155490875244 -73.073211669922 -156.971664428711 3.290812015533
-44.582412719727 -69.875602722168 -162.521331787109 1.820604085922
-39.367717742920 -70.885292053223 -165.321548461914 2.213551282883
21.834972381592 -70.184623718262 -164.469192504883 0.674649477005
-40.069126129150 -73.357788085938 -172.944824218750 2.155452728271
27.105255126953 -66.788612365723 -169.426193237305 3.323337554932
110.363960266113 -66.875617980957 -166.367492675781 1.493980646133
-34.535697937012 -72.815559387207 -168.941452026367 3.114096403122
99.711608886719 -68.221420288086 -176.010009765625 5.785761833191
-35.107398986816 -72.209503173828 -174.630615234375 1.480781078339
-38.644153594971 -76.634826660156 -178.742218017578 2.454210519791
22.287502288818 -75.510162353516 -177.552993774414 2.607003450394
105.734199523926 -72.197395324707 -184.811431884766 2.039644956589
-33.827610015869 -70.367187500000 -178.590377807617 2.886760473251
-36.661888122559 -72.260665893555 -176.271255493164 0.901943981647
-23.659574508667 -78.048820495605 -184.769180297852 1.858134984970
-150.118713378906 -73.849510192871 -181.307846069336 1.062941551208
10.354608535767 -71.529441833496 -182.085006713867 4.470766067505
102.752655029297 -69.420310974121 -194.997406005859 4.230323791504
-161.972412109375 -73.204963684082 -183.536102294922 9.741127014160
-21.935277938843 -67.582321166992 -185.370071411133 2.731806516647
-117.000114440918 -75.608314514160 -191.170074462891 4.587985992432
-130.070526123047 -75.345138549805 -187.206954956055 7.853202342987
-108.035026550293 -74.283157348633 -193.777252197266 5.031590461731
-116.332267761230 -71.712760925293 -193.402404785156 0.587388753891
-12.499686241150 -73.500938415527 -194.065353393555 2.568238019943
18.414596557617 -69.353141784668 -194.945587158203 1.808877944946
-17.564460754395 -67.315650939941 -199.542770385742 2.043755531311
-130.072158813477 -73.070854187012 -198.858871459961 1.201696753502
-22.012063980103 -67.067169189453 -198.399230957031 2.677590131760
-129.549987792969 -70.682052612305 -195.543762207031 1.232124805450
-18.136367797852 -71.839721679688 -196.137283325195 2.493894577026
-148.664535522461 -71.771835327148 -193.257583618164 1.005010843277
89.848686218262 -65.450347900391 -208.090179443359 5.867547512054
-165.682876586914 -66.031440734863 -192.155532836914 6.985970497131
-4.320662975311 -72.754913330078 -218.506515502930 2.164327621460
10.292412757874 -73.660285949707 -209.075424194336 1.309382677078
7.973008155823 -75.400024414063 -215.944564819336 2.437559604645
80.039794921875 -71.062248229980 -217.754943847656 1.593084454536
7.429164886475 -73.035598754883 -212.010604858398 0.788723409176
9.171360969543 -70.364227294922 -213.736923217773 2.914997339249
-17.924263000488 -75.447029113770 -212.898117065430 2.071162700653
-92.338005065918 -73.797027587891 -207.043228149414 6.296641349792
-100.678726196289 -72.670417785645 -210.660598754883 6.489241123199
0.093353003263 -70.674217224121 -216.362991333008 2.748240709305
-168.825698852539 -76.056404113770 -212.229141235352 3.930055379868
13.972314834595 -68.425315856934 -216.886825561523 0.927743971348
-147.003250122070 -72.237022399902 -212.003402709961 1.657654762268
11.112958908081 -72.087722778320 -223.686920166016 2.544089555740
-137.740554809570 -75.022575378418 -217.355194091797 6.652172565460
-117.968307495117 -73.830970764160 -221.630065917969 3.809391975403
14.961075782776 -70.710342407227 -219.107086181641 1.123315453529
77.177612304688 -71.018844604492 -221.056304931641 3.186281919479
3.705662012100 -72.282646179199 -222.144821166992 0.989208281040
-111.548072814941 -71.169815063477 -224.937545776367 1.003709793091
66.925804138184 -72.384407043457 -228.638198852539 2.500927925110
82.842033386230 -72.386993408203 -231.280929565430 1.381381630898
-129.320709228516 -72.200027465820 -229.618423461914 2.689335584641
-121.513580322266 -72.336616516113 -223.012634277344 3.233706474304
-11.893957138062 -66.791381835938 -223.733932495117 3.258726835251
69.107864379883 -71.448455810547 -234.259704589844 1.660584926605
61.689796447754 -71.469161987305 -233.180709838867 3.228585004807
69.384353637695 -70.247070312500 -229.685638427734 2.076256036758
-139.341598510742 -68.024383544922 -226.042160034180 1.857487320900
66.316017150879 -72.426589965820 -231.737747192383 2.241074323654
62.674785614014 -67.549980163574 -235.932357788086 1.558048963547
-168.643066406250 -70.593002319336 -222.532913208008 3.055965900421
-1.091897964478 -79.940124511719 -240.609634399414 2.536310672760
17.596029281616 -73.036254882813 -238.122070312500 2.260381698608
-9.387599945068 -67.742538452148 -239.458770751953 1.882254719734
13.836323738098 -64.065460205078 -238.102828979492 3.253115177155
64.099502563477 -71.919860839844 -238.782119750977 1.807398676872
4.043561935425 -68.429794311523 -243.220535278320 2.664576768875
-14.839200019836 -64.213996887207 -237.803314208984 2.991171360016
-4.817990779877 -67.331787109375 -233.529815673828 2.013622045517
61.544734954834 -71.261566162109 -243.048751831055 2.231458663940
-1.848811030388 -71.267013549805 -240.660736083984 1.883059978485
-9.317566871643 -72.281204223633 -241.068725585938 1.694381237030
11.452775955200 -74.901916503906 -240.727920532227 1.644206404686
-170.615310668945 -75.851615905762 -232.119644165039 5.411534786224
50.733390808105 -72.123466491699 -247.637847900391 2.138489246368
44.838336944580 -62.716602325439 -253.070205688477 2.035027265549
56.379878997803 -71.500793457031 -243.866134643555 1.449447751045
-15.784861564636 -68.515121459961 -245.548202514648 3.066172122955
53.598003387451 -69.904205322266 -245.522735595703 1.379656195641
-78.152954101563 -71.545570373535 -245.916000366211 2.337319374084
46.664737701416 -71.248039245605 -248.409927368164 2.438480138779
-91.181510925293 -71.106994628906 -247.334259033203 4.732145786285
-125.661773681641 -73.189170837402 -251.075134277344 3.475995779037
-135.526214599609 -72.661003112793 -244.745056152344 7.637287139893
43.707214355469 -72.985137939453 -251.642684936523 2.241037130356
-134.182723999023 -75.835754394531 -244.284439086914 8.954700469971
-112.146568298340 -68.972373962402 -247.468719482422 8.123988151550
-121.420608520508 -69.524383544922 -250.971893310547 5.032194614410
-88.151817321777 -72.162780761719 -248.968994140625 3.658952951431
-114.444320678711 -68.589859008789 -251.499450683594 4.040499210358
-128.230789184570 -76.472427368164 -255.573303222656 1.818373918533
-151.651947021484 -69.215927124023 -260.377410888672 2.482403516769
-19.654331207275 -68.963294982910 -265.270538330078 5.765715599060
-177.561706542969 -75.877395629883 -255.625823974609 9.670106887817
-19.625442504883 -69.620010375977 -272.442291259766 5.658827304840
-162.891204833984 -68.005004882813 -258.465759277344 1.242315530777
-157.201309204102 -73.288528442383 -263.957702636719 2.787060022354
-175.643844604492 -72.207397460938 -268.491424560547 6.842175483704
-20.227457046509 -71.581031799316 -279.477539062500 8.443817138672
-133.023956298828 -74.961380004883 -275.449462890625 8.943585395813
-162.102523803711 -71.809066772461 -277.733917236328 3.060098171234
-147.984741210938 -70.695251464844 -272.463714599609 4.322706699371
-139.613922119141 -74.873229980469 -270.362396240234 6.384168624878
-13.432600975037 -62.723804473877 -281.826751708984 5.980795383453
-131.119644165039 -75.601150512695 -275.617523193359 8.047543525696
-145.876052856445 -68.276916503906 -277.914459228516 2.542575597763
-120.383148193359 -76.259292602539 -278.765167236328 6.574105739594
-86.354522705078 -68.140510559082 -283.686248779297 2.966745138168
-64.906700134277 -72.753250122070 -282.479187011719 3.603522777557
-13.273278236389 -72.135169982910 -285.510253906250 1.674435496330
-59.724258422852 -69.522750854492 -279.355407714844 5.837260723114
-62.127101898193 -67.997520446777 -284.294006347656 3.675225257874
-76.727561950684 -69.053627014160 -285.320404052734 3.230960130692
-94.598228454590 -69.446876525879 -289.540771484375 0.852190196514
-98.486579895020 -69.223548889160 -281.953704833984 5.930492877960
-164.659484863281 -71.486122131348 -282.861724853516 1.971858024597
-165.735534667969 -72.799613952637 -285.916534423828 1.359390258789
-129.526351928711 -75.307937622070 -286.220184326172 2.241841316223
-149.875656127930 -71.453979492188 -286.285369873047 2.116864204407
-157.509826660156 -74.460182189941 -297.045043945313 3.375797510147
-158.617019653320 -75.328659057617 -303.141387939453 3.248304128647
55.090148925781 -71.614517211914 -13.362004280090 8.443038940430
20.891069412231 -75.506576538086 -30.562883377075 3.736313104630
48.155776977539 -67.840385437012 -35.331432342529 1.151206493378
-10.112799644470 -76.810981750488 -63.825023651123 6.807552814484
85.968780517578 -69.770927429199 -66.823684692383 1.168361306190
94.774879455566 -66.852752685547 -68.162429809570 2.309231758118
83.155136108398 -77.506546020508 -66.866691589355 4.930720806122
76.285926818848 -74.370338439941 -71.317161560059 2.184463739395
94.893234252930 -73.962318420410 -78.334167480469 2.082290172577
-93.309707641602 -69.917045593262 -64.342132568359 3.175940036774
70.093955993652 -72.483673095703 -76.302093505859 3.000190734863
-32.383522033691 -76.048561096191 -74.540107727051 4.002169132233
101.681510925293 -71.140113830566 -87.938751220703 1.875113248825
65.747871398926 -67.856231689453 -91.473831176758 1.354681015015
110.926475524902 -77.492591857910 -95.287200927734 7.816820621490
102.477005004883 -76.882652282715 -101.539009094238 2.939849138260
76.196800231934 -71.803405761719 -102.959426879883 1.252323031425
-79.062072753906 -70.161231994629 -97.602409362793 1.754202842712
57.035251617432 -70.765586853027 -106.497207641602 3.137223005295
110.672714233398 -67.092514038086 -109.693145751953 2.205486536026
48.191787719727 -71.457542419434 -114.307472229004 0.449774593115
82.121688842773 -69.945610046387 -107.995986938477 2.994137287140
43.859439849854 -71.314506530762 -108.162200927734 2.071057319641
105.277168273926 -71.050575256348 -105.856430053711 1.174372196198
49.866783142090 -71.474388122559 -108.236557006836 1.145435214043
108.428314208984 -78.323089599609 -112.159843444824 3.371758937836
113.131111145020 -75.664131164551 -113.107254028320 2.262911796570
-77.900970458984 -70.193000793457 -109.154167175293 1.441431164742
-81.375198364258 -70.318847656250 -115.216117858887 3.241456508636
45.657997131348 -75.291122436523 -119.884628295898 2.100500345230
115.334953308105 -72.799484252930 -126.214897155762 1.178505063057
114.991050720215 -70.886787414551 -126.671073913574 2.043220043182
-87.335510253906 -71.718055725098 -121.165763854980 2.515614509583
106.604858398438 -73.632499694824 -130.017852783203 4.099553585052
-58.207725524902 -78.413665771484 -127.772796630859 6.313009262085
-84.623039245605 -73.555259704590 -122.558097839355 3.921396732330
-69.154510498047 -73.673156738281 -121.974678039551 9.011120796204
-58.604324340820 -68.372596740723 -122.497871398926 1.163929462433
33.370830535889 -71.455535888672 -130.555831909180 2.292056322098
45.243862152100 -67.829864501953 -136.029022216797 6.880566596985
-70.311317443848 -72.258247375488 -131.453659057617 1.604036688805
30.172613143921 -68.435882568359 -129.378234863281 3.100441694260
113.449920654297 -70.301422119141 -147.954238891602 1.675569057465
-37.677772521973 -72.419197082520 -146.174636840820 3.252532005310
33.817363739014 -73.669242858887 -149.258377075195 1.497339844704
113.580581665039 -68.166099548340 -152.139480590820 2.155486106873
36.917270660400 -72.260505676270 -142.222366333008 2.421626567841
110.685150146484 -69.078536987305 -142.660827636719 2.385094404221
-51.138851165771 -71.781044006348 -145.751831054688 3.224299907684
-72.906402587891 -68.658813476563 -146.650360107422 1.114347457886
-56.897975921631 -72.736968994141 -146.865478515625 1.001792073250
-42.639560699463 -77.024093627930 -161.535552978516 1.973578095436
3.885616064072 -74.122123718262 -154.182037353516 3.721533298492
109.174041748047 -71.051795959473 -155.982925415039 2.801053285599
108.393798828125 -69.947776794434 -163.720687866211 1.470382928848
11.177994728088 -71.184280395508 -155.557113647461 1.984138488770
2.104211091995 -70.560119628906 -158.850463867188 2.672725439072
21.516975402832 -69.213569641113 -153.328369140625 2.245891571045
26.282369613647 -69.444328308105 -155.000106811523 2.198216915131
107.110107421875 -69.859992980957 -168.227478027344 1.376164078712
110.600463867188 -74.139381408691 -170.620590209961 2.100638628006
23.396253585815 -67.578109741211 -175.290328979492 2.404673814774
24.137996673584 -74.534790039063 -164.411453247070 2.000906229019
111.422378540039 -67.396690368652 -165.146224975586 0.590988337994
-30.578109741211 -69.820045471191 -175.803741455078 1.117454886436
110.272949218750 -70.612983703613 -170.404403686523 0.649686098099
17.733541488647 -71.457206726074 -164.087982177734 2.173620700836
21.061550140381 -71.054481506348 -168.280471801758 2.788736581802
107.472694396973 -70.555473327637 -175.414093017578 2.366566658020
27.084239959717 -69.801513671875 -169.401077270508 1.593508481979
112.577713012695 -68.104141235352 -188.093368530273 5.217460632324
-39.320262908936 -70.993644714355 -176.017700195313 3.234497308731
23.721500396729 -70.903823852539 -168.729675292969 2.083761215210
106.776847839355 -69.725067138672 -187.544937133789 1.641449809074
21.975149154663 -72.157203674316 -176.305831909180 2.009728431702
-152.232650756836 -70.628517150879 -177.737030029297 1.433476209641
-29.151674270630 -67.443618774414 -186.943313598633 2.963047027588
23.134143829346 -67.571998596191 -184.427932739258 2.246300458908
-116.558578491211 -74.537208557129 -185.561340332031 6.572064876556
-113.081512451172 -68.648139953613 -186.024627685547 1.109357476234
23.799657821655 -71.499389648438 -187.118957519531 0.741985142231
9.801067352295 -67.492416381836 -183.321594238281 6.349636077881
-28.279972076416 -67.108451843262 -187.507705688477 3.205127716064
-30.059896469116 -76.693687438965 -186.360824584961 0.934189677238
-29.978538513184 -71.848724365234 -185.200622558594 2.162504434586
12.187618255615 -67.928474426270 -178.855392456055 4.587982177734
-152.084960937500 -72.390960693359 -187.645019531250 1.801853656769
-147.464004516602 -71.732147216797 -184.168762207031 2.034838438034
-147.829467773438 -76.759361267090 -191.336334228516 2.809097528458
-24.865343093872 -69.918846130371 -188.649063110352 1.764817833900
12.725698471069 -67.201026916504 -198.517059326172 1.515395760536
97.036315917969 -68.128601074219 -195.026168823242 3.230405330658
-115.027175903320 -70.149223327637 -191.716583251953 1.917205452919
19.710664749146 -75.377647399902 -197.006835937500 2.212887048721
-15.190806388855 -69.380966186523 -192.454406738281 3.326556205750
-18.804626464844 -70.673004150391 -195.990005493164 1.633834719658
99.783157348633 -67.756347656250 -202.721633911133 3.624217510223
5.609509944916 -73.647949218750 -196.812988281250 3.130977153778
-23.663717269897 -68.946281433105 -193.975067138672 2.244178295135
-122.272804260254 -75.801612854004 -197.333984375000 2.471535682678
-136.089370727539 -72.664550781250 -195.614471435547 2.481709480286
-116.140106201172 -65.370361328125 -199.189041137695 1.763117790222
-143.797790527344 -76.314125061035 -195.309768676758 0.888801038265
15.258295059204 -70.130943298340 -196.833755493164 1.941561698914
91.020240783691 -71.788352966309 -202.229980468750 2.513788461685
-166.993225097656 -66.328147888184 -191.120986938477 8.060456275940
98.368217468262 -68.613159179688 -204.035583496094 2.587095737457
-25.029294967651 -76.377204895020 -202.615554809570 2.793713092804
92.556205749512 -65.710365295410 -211.553283691406 2.466687679291
86.168121337891 -72.018074035645 -211.653533935547 1.611675500870
8.939687728882 -73.315368652344 -202.085174560547 0.812778294086
18.519397735596 -68.935737609863 -211.999191284180 1.544530034065
11.335401535034 -66.217269897461 -207.034927368164 2.304678201675
-13.485022544861 -70.596290588379 -221.356567382813 1.891311049461
-96.145675659180 -74.753723144531 -213.898483276367 3.048623085022
-14.163618087769 -73.592849731445 -209.000900268555 3.785940170288
85.541854858398 -70.130004882813 -219.439590454102 0.409278333187
