-154.535049438477 -76.820304870605 -301.950622558594 0.934724450111
-149.353836059570 -78.313682556152 -304.186645507813 2.403331995010
-149.181884765625 -72.422927856445 -306.606750488281 3.562765121460
-56.883598327637 -70.598899841309 -62.624507904053 6.462840557098
-64.989151000977 -77.728553771973 -65.544479370117 2.870053529739
-47.632492065430 -78.721954345703 -62.736820220947 0.998449146748
-25.241529464722 -81.277427673340 -77.314216613770 3.754817008972
-52.741447448730 -82.502189636230 -89.441246032715 0.857691347599
-89.244331359863 -85.976066589355 -98.899444580078 7.010709762573
40.899749755859 -82.695495605469 -108.790435791016 3.190886259079
-75.416801452637 -80.742279052734 -101.393592834473 2.028618812561
43.307991027832 -85.061882019043 -115.794288635254 2.586141347885
40.572052001953 -81.978286743164 -124.599433898926 2.207997322083
40.143482208252 -82.743927001953 -125.805770874023 3.245563507080
34.707679748535 -82.546646118164 -136.723052978516 2.600780010223
30.975421905518 -80.030456542969 -136.227325439453 2.176391363144
32.528102874756 -89.305656433105 -136.714340209961 7.353219985962
31.250389099121 -78.726058959961 -152.366989135742 2.482157707214
-46.398292541504 -75.067771911621 -151.343795776367 2.130256414413
28.322603225708 -83.969100952148 -141.620834350586 4.081109046936
-67.304176330566 -74.327575683594 -154.331619262695 1.048125743866
-37.021587371826 -82.299560546875 -154.084228515625 3.635945320129
-62.411857604980 -80.788208007813 -164.517044067383 1.938412666321
-40.283752441406 -81.215217590332 -159.791854858398 2.942115545273
30.415374755859 -82.666557312012 -159.062042236328 4.428894042969
-37.189151763916 -85.972724914551 -159.228256225586 2.903475284576
-2.333554029465 -81.545944213867 -175.705566406250 5.747740745544
33.465488433838 -75.915664672852 -166.634063720703 4.117517471313
-11.514573097229 -81.075759887695 -172.577667236328 1.496517062187
-59.680809020996 -78.809089660645 -164.197647094727 1.497608184814
-38.405860900879 -76.043037414551 -171.686401367188 0.711647331715
-33.318889617920 -76.422760009766 -175.485000610352 2.197011470795
22.685714721680 -83.326988220215 -179.007980346680 3.561897277832
-54.609703063965 -80.424598693848 -177.657669067383 1.755165815353
-28.751399993896 -75.151161193848 -176.433410644531 2.472475528717
21.202901840210 -80.935890197754 -186.759140014648 3.376530647278
-52.834129333496 -80.301551818848 -186.982528686523 0.977052330971
-25.899467468262 -74.197761535645 -182.145965576172 0.536322891712
-55.651187896729 -75.758666992188 -185.860076904297 3.267343521118
-42.432014465332 -78.439949035645 -196.588790893555 1.694819688797
-30.413610458374 -78.101837158203 -191.114593505859 2.023207902908
-42.607444763184 -81.233871459961 -197.260757446289 1.378798246384
-24.058723449707 -79.326637268066 -193.820587158203 2.031698703766
-139.133010864258 -77.809089660645 -197.789413452148 2.691360235214
19.552476882935 -80.965446472168 -202.732574462891 3.064766407013
-134.695816040039 -74.874496459961 -200.031082153320 1.517021536827
-21.983663558960 -76.943061828613 -197.711410522461 1.565308690071
-21.784652709961 -77.067588806152 -198.317123413086 1.409225821495
-43.354530334473 -80.005775451660 -195.812744140625 0.739400446415
10.820535659790 -78.118743896484 -199.741531372070 2.027853727341
-17.687707901001 -83.142593383789 -199.978317260742 3.885007381439
-56.941551208496 -80.637077331543 -206.328262329102 2.481296062469
-36.012935638428 -79.719306945801 -205.125289916992 1.937313199043
-62.005462646484 -75.804191589355 -208.201736450195 2.047709465027
-69.814826965332 -76.959724426270 -212.218475341797 2.035678386688
15.523955345154 -79.062286376953 -211.229187011719 1.459232807159
-87.578620910645 -76.750007629395 -212.962738037109 1.695993900299
-29.742660522461 -79.999450683594 -216.804000854492 1.182713031769
-81.690597534180 -79.083290100098 -211.121536254883 2.561175346375
-150.480545043945 -77.480941772461 -214.608322143555 2.670766115189
-8.498478889465 -80.511306762695 -216.383834838867 1.639376282692
-7.873299121857 -78.592933654785 -219.612854003906 1.527795910835
11.270874023438 -81.756187438965 -218.959121704102 1.814039587975
11.322345733643 -74.628448486328 -227.784805297852 2.469497680664
-2.674606084824 -82.236236572266 -230.087814331055 4.231629848480
-143.373504638672 -75.156517028809 -220.803833007813 2.603225946426
-151.144729614258 -80.836051940918 -235.344406127930 3.377861022949
-154.946319580078 -73.083305358887 -233.696731567383 1.931460022926
-0.096831999719 -83.266502380371 -238.064315795898 4.998104572296
1.079722046852 -78.905868530273 -238.894317626953 1.096387028694
-25.587900161743 -84.698104858398 -243.936569213867 6.163999557495
-151.921005249023 -73.906028747559 -239.437835693359 1.324883580208
8.580671310425 -82.284980773926 -245.081680297852 2.643842220306
-24.324428558350 -74.176528930664 -242.934951782227 2.175195932388
17.601509094238 -80.835144042969 -237.803665161133 2.272749900818
-54.311511993408 -77.698211669922 -244.794372558594 1.622852206230
-51.962669372559 -79.083847045898 -250.940994262695 3.510650873184
-148.449386596680 -81.939033508301 -246.399642944336 3.260488748550
-63.608577728271 -79.747032165527 -249.573715209961 1.437935709953
-4.199604988098 -80.021514892578 -247.860397338867 2.418129205704
-11.798249244690 -77.466926574707 -256.049743652344 1.793805837631
-148.815780639648 -80.831001281738 -259.722198486328 1.562045097351
-133.472946166992 -74.993568420410 -257.043243408203 0.935872077942
-136.892822265625 -74.515014648438 -258.504272460938 1.057254672050
15.663301467896 -79.924995422363 -259.973693847656 3.074739456177
-147.410751342773 -77.915313720703 -272.790405273438 1.929853081703
16.267215728760 -82.008216857910 -268.112823486328 2.061969280243
-146.046142578125 -74.461990356445 -275.527465820313 2.715674400330
1.089498043060 -82.845252990723 -278.955596923828 3.029242992401
-143.804306030273 -77.217315673828 -282.714538574219 1.611087322235
-2.606637954712 -83.106597900391 -284.913665771484 4.622069835663
-154.670211791992 -73.829101562500 -284.892089843750 2.691753864288
-145.372940063477 -73.344696044922 -283.917358398438 1.709713935852
-138.234329223633 -80.800285339355 -286.984680175781 1.789394855499
-151.269653320313 -79.116462707520 -294.781646728516 1.579610705376
-22.529905319214 -77.581008911133 -291.693054199219 0.979222714901
-153.059814453125 -75.388175964355 -292.624298095703 2.075819492340
-149.015319824219 -79.891082763672 -295.868286132813 2.098264694214
-153.408630371094 -75.126159667969 -308.382080078125 1.992791533470
-56.249732971191 -75.573875427246 -58.134227752686 1.900423049927
-39.842273712158 -83.605140686035 -64.279350280762 3.780227661133
-76.106628417969 -80.479698181152 -68.885818481445 3.117054700851
-31.069850921631 -76.940765380859 -68.261390686035 1.886383652687
-27.386722564697 -80.149688720703 -72.249359130859 2.884508132935
-87.097793579102 -78.154998779297 -80.413505554199 1.847737789154
84.679992675781 -84.448501586914 -86.639236450195 4.008243560791
-35.463909149170 -76.377159118652 -86.679954528809 4.510758399963
81.574172973633 -86.350952148438 -88.074943542480 5.837593555450
78.320976257324 -82.792961120605 -90.820770263672 4.179162025452
84.609298706055 -82.219909667969 -88.329826354980 1.448472976685
85.237396240234 -80.148368835449 -93.051391601563 2.506938934326
89.655456542969 -81.465583801270 -96.412788391113 5.404081821442
-91.362274169922 -73.690368652344 -94.654701232910 3.550277948380
55.237331390381 -81.700019836426 -107.252662658691 4.005550861359
-96.502845764160 -66.390960693359 -112.859352111816 3.707783460617
46.015632629395 -83.832710266113 -109.550743103027 5.506293773651
49.490917205811 -82.128601074219 -114.958869934082 5.633867263794
38.209095001221 -79.971946716309 -116.325050354004 2.116612911224
33.236961364746 -81.125144958496 -139.138946533203 1.159794330597
26.205307006836 -79.736747741699 -142.435089111328 1.894313216209
21.466810226440 -73.282333374023 -145.330459594727 1.966270327568
32.035823822021 -76.661964416504 -144.609252929688 1.448981046677
-47.326854705811 -80.776901245117 -154.981033325195 0.757117509842
-49.782085418701 -79.324966430664 -152.196319580078 2.278455018997
-41.596843719482 -77.352661132813 -159.067016601563 1.781062841415
22.626096725464 -77.968170166016 -155.745697021484 1.147497892380
28.950706481934 -79.139305114746 -169.629623413086 1.971205353737
-33.949554443359 -74.988517761230 -170.077758789063 3.108632802963
-36.002632141113 -73.444221496582 -160.136230468750 1.475851535797
-46.621685028076 -80.418258666992 -160.212554931641 3.148349046707
1.143676042557 -76.652633666992 -164.814193725586 1.947857499123
24.014499664307 -80.951515197754 -152.835632324219 1.212679266930
32.407428741455 -76.582542419434 -161.209182739258 2.298400878906
28.305099487305 -78.189582824707 -171.984222412109 1.903731584549
-7.080752849579 -78.532272338867 -173.856094360352 1.852550745010
-5.405148983002 -80.019958496094 -171.759231567383 2.118177175522
-58.958698272705 -75.768394470215 -167.745117187500 1.769992113113
-61.605171203613 -77.002914428711 -171.989471435547 1.195264935493
-44.630317687988 -79.398445129395 -170.695922851563 2.058492183685
-38.737411499023 -76.358886718750 -168.671157836914 2.039564132690
21.016460418701 -75.071907043457 -172.881484985352 2.513502836227
-23.973033905029 -82.964637756348 -179.439758300781 2.537104368210
-31.211271286011 -75.400344848633 -182.619384765625 2.031218528748
-63.489429473877 -80.946998596191 -180.169616699219 5.251959800720
97.196075439453 -83.462867736816 -184.106185913086 8.696540832520
20.176618576050 -83.383247375488 -176.723739624023 3.872992515564
-26.688264846802 -78.263130187988 -181.031829833984 1.031759619713
-52.389404296875 -77.658020019531 -179.417114257813 1.346272945404
-22.148498535156 -75.184814453125 -181.849517822266 1.125630855560
111.647743225098 -82.553367614746 -183.960449218750 7.649351596832
-56.466251373291 -79.757270812988 -185.926300048828 1.548216462135
11.567863464355 -81.477294921875 -191.606414794922 5.293675899506
16.998081207275 -79.617385864258 -180.204406738281 2.088374614716
-56.989612579346 -82.982994079590 -178.077804565430 4.532340526581
-25.395633697510 -77.033943176270 -183.729537963867 2.290613412857
-56.870033264160 -80.933166503906 -178.162551879883 3.456644773483
-37.304752349854 -79.799385070801 -178.543441772461 2.268736839294
-29.887939453125 -78.274589538574 -188.577926635742 1.174309968948
18.829530715942 -80.165504455566 -190.016250610352 1.289938926697
-49.225425720215 -79.389671325684 -189.460723876953 2.446164846420
102.601455688477 -81.128204345703 -192.344818115234 4.492801666260
-51.701770782471 -74.171478271484 -190.421142578125 1.907812356949
5.967764854431 -78.693466186523 -204.155426025391 3.086687803268
19.894094467163 -78.536949157715 -199.997940063477 2.159554481506
-50.379871368408 -77.754898071289 -192.507781982422 1.635820388794
-17.531127929688 -79.552894592285 -190.485488891602 3.276965856552
98.798912048340 -81.708984375000 -197.017196655273 5.180424690247
95.223121643066 -85.819915771484 -197.350387573242 9.155366897583
-50.714488983154 -76.441757202148 -187.971298217773 1.937072873116
-150.740219116211 -81.325973510742 -199.937469482422 1.756158471107
-46.560749053955 -77.582031250000 -197.277191162109 1.670225381851
-146.003021240234 -76.246025085449 -197.385040283203 2.180855989456
-136.056655883789 -71.351432800293 -197.956802368164 2.659919977188
-47.662254333496 -80.687828063965 -197.168655395508 0.502629756927
8.682681083679 -81.171783447266 -208.583740234375 3.701423645020
-17.019388198853 -76.018585205078 -206.148849487305 0.768113076687
15.009906768799 -76.978034973145 -202.623397827148 1.013264775276
90.307113647461 -85.564384460449 -214.805038452148 8.184472084045
-36.094379425049 -76.371910095215 -203.405654907227 1.747968554497
-15.222706794739 -76.759017944336 -205.170043945313 1.412042021751
-17.213001251221 -76.274864196777 -215.139831542969 2.009466171265
-36.365825653076 -77.015533447266 -205.471130371094 1.331404685974
5.156137943268 -79.432296752930 -207.647827148438 2.829410552979
-80.502456665039 -77.931915283203 -211.411621093750 1.473700165749
15.028826713562 -80.496185302734 -216.155685424805 1.811377048492
-36.254066467285 -77.126770019531 -206.777801513672 1.577751398087
-146.442474365234 -79.058898925781 -207.467468261719 2.377635002136
-142.804336547852 -71.249992370605 -210.507003784180 3.268080711365
-89.443862915039 -77.222335815430 -213.499374389648 1.723195672035
-36.125259399414 -75.844032287598 -210.327316284180 2.607738971710
-16.176481246948 -83.603218078613 -213.584411621094 4.820173740387
-34.493747711182 -79.194732666016 -207.208587646484 1.283417224884
-92.214195251465 -78.987632751465 -217.696212768555 2.348539829254
-88.253326416016 -78.457405090332 -214.323394775391 0.534519255161
4.897813796997 -84.786575317383 -222.039352416992 4.439948558807
-150.663375854492 -69.507781982422 -213.165283203125 1.297124028206
-15.978006362915 -82.501594543457 -213.804687500000 4.031388759613
7.595145225525 -85.933456420898 -220.284027099609 4.047285079956
-145.605651855469 -73.645652770996 -220.204513549805 1.450230002403
-24.403041839600 -80.091552734375 -217.153137207031 1.555315256119
-0.262663006783 -74.938323974609 -221.212020874023 2.689897060394
-9.574314117432 -79.894042968750 -220.944595336914 1.240644574165
-153.757400512695 -70.786315917969 -223.507705688477 1.460242986679
-141.007110595703 -65.398880004883 -226.534454345703 1.687323212624
-5.629887104034 -79.240058898926 -226.942169189453 1.726102232933
-149.839736938477 -80.250106811523 -227.088500976563 2.170849323273
-0.277799010277 -74.438362121582 -230.725021362305 3.799411773682
16.173526763916 -78.694938659668 -236.936157226563 1.752498507500
-3.589981079102 -81.537513732910 -231.125305175781 3.100925922394
-3.128566980362 -73.389915466309 -233.875518798828 0.870525002480
7.126797199249 -77.860839843750 -233.115127563477 1.243734836578
-153.785858154297 -75.376808166504 -239.528656005859 3.001147031784
-21.124366760254 -76.040412902832 -234.863281250000 3.697758913040
-36.129169464111 -80.254272460938 -239.770584106445 2.405968666077
0.302704006433 -77.538688659668 -235.946075439453 1.629788398743
1.358682990074 -84.145866394043 -243.989822387695 5.439697742462
0.247502997518 -77.383544921875 -234.562606811523 2.309180498123
-59.786376953125 -76.602439880371 -243.131805419922 2.391444444656
-150.266952514648 -71.042694091797 -249.174484252930 3.134648084641
-154.706054687500 -74.595771789551 -247.601364135742 2.421490907669
10.131245613098 -81.087692260742 -248.481491088867 2.178984403610
23.588060379028 -81.766601562500 -247.762817382813 3.304165601730
-62.734691619873 -74.093215942383 -248.162322998047 1.676401853561
-144.072860717773 -79.351516723633 -252.464721679688 1.883440852165
-155.047271728516 -77.938499450684 -254.709594726563 3.065252780914
-155.626113891602 -78.720100402832 -257.132720947266 3.220716476440
-144.536468505859 -71.829994201660 -262.324127197266 2.162656784058
-143.203399658203 -75.647529602051 -256.744812011719 2.218499898911
-8.767142295837 -80.406044006348 -257.407165527344 1.685536503792
-147.130279541016 -76.096115112305 -262.377105712891 2.931829929352
-16.004835128784 -79.397186279297 -269.080963134766 3.664499044418
-149.226654052734 -73.220901489258 -272.055419921875 3.689944744110
-149.727554321289 -73.967155456543 -282.481811523438 2.100846529007
-150.009262084961 -72.641189575195 -284.227813720703 2.635975122452
-5.361608028412 -73.957046508789 -286.369934082031 0.611742675304
-149.889282226563 -70.170997619629 -283.296905517578 2.634263038635
-27.703739166260 -79.400199890137 -287.283264160156 4.050708293915
-28.075313568115 -75.066970825195 -286.276275634766 0.771422266960
-15.564146995544 -75.516143798828 -294.695159912109 3.161364078522
-15.897635459900 -75.129722595215 -293.931091308594 2.865176677704
10.077894210815 -81.481025695801 -292.527465820313 2.978807926178
-126.885368347168 -76.838623046875 -290.441284179688 1.144974827766
-63.362224578857 -77.219383239746 -287.949798583984 2.836307287216
-43.503341674805 -74.316543579102 -291.229370117188 2.439772367477
-35.059093475342 -78.320510864258 -288.702941894531 1.321720719337
-10.481510162354 -76.220207214355 -294.939086914063 3.913731813431
3.667854070663 -79.825859069824 -289.221160888672 2.633261680603
-143.659042358398 -75.191627502441 -297.962524414063 3.432401180267
8.857846260071 -79.343795776367 -297.039184570313 5.675145626068
-155.384902954102 -71.474395751953 -302.781250000000 1.798565268517
-155.944869995117 -78.412437438965 -301.443206787109 1.845127701759
-155.227874755859 -69.994522094727 -312.386718750000 2.511018753052
-144.921524047852 -73.416130065918 -309.786407470703 3.040032625198
-51.061447143555 -77.255920410156 -51.390712738037 4.654017448425
-54.315433502197 -81.187705993652 -57.100563049316 3.117490053177
-67.560287475586 -75.016990661621 -55.456604003906 2.070496559143
-40.623580932617 -75.654281616211 -63.216613769531 1.689858675003
-35.951019287109 -78.099594116211 -60.321044921875 2.383870840073
-19.561889648438 -77.456985473633 -71.318420410156 2.952374935150
-81.718978881836 -73.650360107422 -69.843383789063 4.355176925659
84.757713317871 -81.979743957520 -80.191879272461 3.986704349518
-91.008796691895 -74.403388977051 -74.659965515137 2.415063142776
80.188003540039 -79.244697570801 -79.146545410156 2.720680236816
87.804473876953 -76.967620849609 -86.102981567383 3.150897979736
97.321815490723 -78.803169250488 -91.573074340820 3.358662605286
-61.536891937256 -79.893524169922 -97.108726501465 1.370441079140
81.630363464355 -82.612426757813 -98.198074340820 6.059252738953
76.155288696289 -85.567787170410 -92.724937438965 7.185147285461
86.009033203125 -81.345504760742 -92.204154968262 2.776072978973
-59.644992828369 -77.395919799805 -98.242233276367 4.307495594025
48.465621948242 -78.176521301270 -99.580329895020 1.361160993576
45.245880126953 -79.415969848633 -108.065902709961 2.636106729507
39.156501770020 -80.750305175781 -105.110237121582 2.669240474701
35.596725463867 -80.226081848145 -103.413330078125 5.170208930969
-92.274261474609 -71.759773254395 -104.637672424316 1.240275382996
34.929973602295 -77.954154968262 -118.736343383789 0.916535019875
-85.344566345215 -76.511627197266 -107.886444091797 2.783177137375
39.722675323486 -81.143661499023 -128.639907836914 4.377285480499
32.109695434570 -80.587173461914 -122.213111877441 2.794212102890
33.754833221436 -72.071426391602 -122.848114013672 1.055175900459
43.953174591064 -77.875602722168 -118.970642089844 1.050489902496
40.661300659180 -82.600921630859 -129.680252075195 5.333415985107
-51.798267364502 -70.746612548828 -135.872573852539 0.639923691750
36.779930114746 -83.914138793945 -135.627700805664 0.950459241867
34.983501434326 -79.169746398926 -145.469848632813 1.987232804298
-56.282917022705 -74.576225280762 -144.440811157227 2.552418708801
-45.680686950684 -77.317253112793 -140.994567871094 2.542063951492
34.346996307373 -78.004005432129 -143.921661376953 0.374625682831
109.893226623535 -76.891052246094 -142.584060668945 2.776471853256
111.740547180176 -78.016914367676 -148.191894531250 1.099966406822
25.772726058960 -80.676383972168 -142.904586791992 2.774431705475
-41.036952972412 -79.893241882324 -150.475616455078 1.414774894714
115.671829223633 -88.496261596680 -154.579605102539 11.224102973938
-38.052761077881 -75.153129577637 -153.434326171875 1.319493889809
-68.571083068848 -75.354995727539 -162.829376220703 1.315221190453
109.679313659668 -85.924758911133 -157.889556884766 8.271385192871
21.812244415283 -79.943893432617 -167.433349609375 2.397913932800
0.103946998715 -79.122833251953 -163.882217407227 1.120919108391
110.445808410645 -81.684799194336 -154.674621582031 5.307354927063
-64.966423034668 -75.835472106934 -166.806427001953 0.896198511124
-39.485717773438 -78.198699951172 -166.171371459961 1.126844882965
110.624465942383 -82.357322692871 -166.783660888672 4.506181716919
27.060058593750 -73.990089416504 -159.821884155273 1.304371714592
-62.405860900879 -69.957313537598 -165.147491455078 1.398293495178
111.823905944824 -81.906394958496 -167.804672241211 3.714133501053
-66.271560668945 -77.804969787598 -169.525573730469 1.995291471481
-49.976345062256 -79.559547424316 -182.943237304688 0.984858572483
105.322006225586 -80.621177673340 -173.132934570313 5.977726936340
-60.362419128418 -74.746849060059 -172.851150512695 1.743236899376
111.619140625000 -80.441322326660 -179.657806396484 3.545619487762
-62.075325012207 -75.385765075684 -176.915390014648 2.944757938385
-16.587083816528 -75.087898254395 -178.438720703125 2.801408767700
-11.072394371033 -83.034461975098 -183.363235473633 5.765994548798
106.827140808105 -83.267814636230 -168.695861816406 6.499861717224
20.597478866577 -80.060058593750 -172.608764648438 2.305228471756
29.922561645508 -74.298934936523 -170.515838623047 2.865355730057
-58.737300872803 -75.387268066406 -178.135757446289 2.507767915726
16.664653778076 -76.669563293457 -182.998168945313 2.287365913391
-58.365631103516 -77.039085388184 -175.502288818359 1.997750163078
-53.237976074219 -74.877441406250 -194.357955932617 4.200735092163
10.182486534119 -76.032127380371 -185.918334960938 2.867009401321
-56.774532318115 -71.654777526855 -180.187179565430 2.566131591797
105.382675170898 -78.648300170898 -190.206207275391 1.745736598969
24.825603485107 -81.624534606934 -183.193191528320 3.284966230392
-35.822803497314 -74.517654418945 -189.104003906250 3.455970764160
-44.015304565430 -79.132469177246 -190.725494384766 1.470715403557
10.242003440857 -80.486022949219 -192.853118896484 5.528550624847
-20.659814834595 -78.650917053223 -189.104354858398 1.842913031578
-48.624599456787 -78.022895812988 -196.209854125977 1.766103982925
100.899719238281 -85.104408264160 -184.554489135742 8.112317085266
8.870779991150 -81.781661987305 -191.473083496094 7.031033515930
-133.714523315430 -80.052078247070 -200.215988159180 2.148057222366
-49.412498474121 -78.807212829590 -196.211654663086 1.860928773880
93.662277221680 -79.925865173340 -200.514007568359 4.290073394775
-150.691497802734 -79.591934204102 -202.591476440430 1.783316373825
17.303857803345 -78.995597839355 -201.266845703125 1.933682441711
-44.274566650391 -73.552536010742 -206.758361816406 5.318444252014
-31.374298095703 -80.128532409668 -207.895812988281 2.373261213303
-38.260517120361 -77.987136840820 -202.442352294922 2.055904865265
-46.749023437500 -82.825454711914 -198.754730224609 1.377496242523
99.580726623535 -80.804527282715 -206.298339843750 4.402611255646
-22.214296340942 -81.336021423340 -201.259658813477 1.761871695518
-151.216049194336 -73.694763183594 -201.277984619141 1.507657408714
14.732588768005 -80.988998413086 -202.965255737305 2.059683084488
-78.318153381348 -80.180038452148 -206.353286743164 2.853541612625
-145.114074707031 -71.599395751953 -213.840148925781 2.868543863297
92.767707824707 -83.034957885742 -215.268173217773 5.916933059692
-33.998672485352 -75.562652587891 -207.901184082031 2.381312847137
-29.971336364746 -77.763153076172 -212.048446655273 0.661902129650
8.709035873413 -78.930725097656 -211.160827636719 2.073252201080
-72.894897460938 -80.105728149414 -208.503326416016 2.383086442947
-28.506483078003 -84.967002868652 -206.928344726563 5.274866580963
-9.259431838989 -79.247817993164 -217.931472778320 1.265529632568
-71.501144409180 -77.128768920898 -214.665847778320 1.986106038094
-15.190613746643 -78.111335754395 -218.514053344727 1.593756079674
6.863083839417 -70.226966857910 -212.577468872070 2.932922363281
11.573955535889 -81.285453796387 -222.373428344727 3.195408582687
-152.528976440430 -75.488288879395 -217.862228393555 3.852757692337
-10.109762191772 -77.715179443359 -215.256088256836 1.440936326981
-102.432014465332 -71.350486755371 -220.512054443359 1.420903682709
-23.079092025757 -76.963325500488 -220.413497924805 2.091515541077
87.487983703613 -86.228698730469 -213.814727783203 9.146618843079
7.957066059113 -76.425796508789 -225.837371826172 0.989112973213
19.974842071533 -78.319908142090 -217.592819213867 3.572049617767
78.883682250977 -81.896530151367 -215.904357910156 6.361064434052
-0.000207000005 -82.224639892578 -230.905807495117 3.645370721817
84.184341430664 -81.024169921875 -218.427261352539 4.819560050964
-21.958530426025 -73.316154479980 -225.355239868164 0.562272310257
15.369908332825 -75.396087646484 -219.613693237305 2.422535181046
-149.573989868164 -75.295509338379 -219.140838623047 2.149076938629
-26.916307449341 -78.793830871582 -227.082962036133 4.359339714050
0.815665006638 -75.590484619141 -231.828201293945 2.916897535324
-157.604324340820 -78.910766601563 -225.610961914063 3.027935028076
-138.659362792969 -77.036865234375 -228.150650024414 2.207489967346
2.174185037613 -77.834518432617 -224.596679687500 2.421828746796
-4.812438011169 -74.505722045898 -226.427993774414 2.760554790497
-138.183197021484 -70.558792114258 -229.471817016602 2.933216094971
-148.394638061523 -74.187782287598 -241.960479736328 1.917232394218
-149.995101928711 -74.368766784668 -235.894073486328 1.989830493927
-32.968597412109 -78.388236999512 -237.717819213867 1.187790513039
-143.636169433594 -77.126205444336 -243.457336425781 3.223678827286
14.312026977539 -79.914657592773 -242.579483032227 1.926192641258
4.436368942261 -77.813880920410 -245.797668457031 1.505035758018
-151.771713256836 -68.277275085449 -238.255203247070 2.236358642578
-150.812286376953 -73.288650512695 -244.954544067383 1.729690551758
-46.928028106689 -78.691802978516 -246.480926513672 1.563226342201
-32.848991394043 -77.868202209473 -247.780563354492 4.698930740356
2.910453081131 -78.182067871094 -243.820571899414 2.128712415695
-37.562465667725 -78.958869934082 -246.241500854492 3.495198726654
20.706634521484 -78.938476562500 -247.689285278320 1.580298900604
-7.285927772522 -80.266754150391 -253.673049926758 1.427140712738
-145.838958740234 -74.919441223145 -253.189636230469 1.442939758301
-11.281508445740 -82.902397155762 -253.975631713867 3.093168973923
-149.523193359375 -71.585594177246 -247.282897949219 2.061423301697
-66.689102172852 -78.196495056152 -250.871536254883 2.517717838287
-148.446197509766 -81.112350463867 -259.305480957031 1.992136716843
-128.712432861328 -74.351280212402 -258.514129638672 2.394527673721
-154.059127807617 -73.236518859863 -257.431854248047 1.921156406403
-11.869635581970 -75.132034301758 -268.286956787109 3.371897220612
-147.203216552734 -79.951240539551 -272.413574218750 1.134091734886
-150.561218261719 -74.160926818848 -269.444183349609 0.748332083225
-13.132032394409 -78.164184570313 -271.814422607422 0.962948977947
-145.682342529297 -74.184814453125 -270.312255859375 2.548363208771
-7.670154094696 -76.519592285156 -277.666442871094 0.710347473621
-47.031959533691 -75.925369262695 -284.788574218750 1.444327950478
-136.167068481445 -71.513885498047 -288.676422119141 2.267967939377
-136.882766723633 -73.440063476563 -286.106170654297 1.464706063271
-124.497871398926 -71.061988830566 -282.203430175781 3.188315868378
-53.212451934814 -75.573806762695 -287.040496826172 1.633080720901
-113.344871520996 -73.206832885742 -284.285308837891 1.765394091606
15.041217803955 -77.706237792969 -293.582916259766 0.751542508602
-58.297428131104 -74.235229492188 -289.270446777344 1.624983310699
-142.184616088867 -73.538101196289 -293.470855712891 1.949844241142
-64.583824157715 -74.731109619141 -291.161285400391 0.245589941740
-146.174926757813 -78.940834045410 -293.781646728516 1.937796592712
-117.753509521484 -71.951469421387 -291.334564208984 2.933491468430
-47.341423034668 -79.088340759277 -291.121978759766 4.161797523499
-34.848339080811 -76.888969421387 -292.410522460938 2.469150304794
-138.997116088867 -69.532203674316 -296.345062255859 3.425337791443
-15.205582618713 -72.128402709961 -283.533264160156 3.094751358032
3.413243055344 -77.521987915039 -288.474060058594 1.519398331642
5.432923793793 -76.333618164063 -291.513732910156 1.546639323235
13.927563667297 -79.208564758301 -296.630401611328 2.828991651535
-151.171920776367 -77.856597900391 -298.294372558594 1.901295781136
-146.197723388672 -71.338951110840 -293.504180908203 1.320310711861
-66.495605468750 -74.515434265137 -62.833843231201 3.185522079468
88.702476501465 -82.286895751953 -74.061340332031 6.387406349182
78.594146728516 -81.532760620117 -78.842391967773 4.221164226532
-28.078731536865 -79.798965454102 -77.354370117188 2.353826761246
83.560203552246 -78.895126342773 -76.122314453125 4.241809368134
-38.166961669922 -79.535690307617 -80.666450500488 0.948561191559
82.714828491211 -76.720039367676 -83.409843444824 1.858591079712
96.038116455078 -77.047042846680 -81.460281372070 2.374697923660
-64.605422973633 -69.909828186035 -96.534500122070 2.606086015701
72.507804870605 -80.686874389648 -95.673027038574 5.445428848267
79.752052307129 -78.197463989258 -99.103027343750 3.899256706238
96.233413696289 -83.614219665527 -96.720123291016 7.808708667755
54.986461639404 -81.419731140137 -98.344696044922 4.371745586395
-67.360549926758 -73.644966125488 -102.000648498535 2.209213972092
-74.144981384277 -71.902839660645 -101.710411071777 2.110921621323
50.232978820801 -81.513763427734 -104.854690551758 3.007553100586
-88.073738098145 -76.791969299316 -102.867553710938 3.672863483429
46.901763916016 -76.273208618164 -119.271926879883 2.637932062149
110.280464172363 -80.330490112305 -121.428100585938 4.044152259827
112.440521240234 -83.199531555176 -131.987274169922 5.239137172699
20.414339065552 -76.314300537109 -138.163085937500 3.366986036301
109.803153991699 -82.781700134277 -128.381546020508 6.151812553406
28.308761596680 -76.058189392090 -134.534606933594 1.470014452934
112.583847045898 -75.374229431152 -133.776290893555 1.826144099236
36.752716064453 -76.553817749023 -135.812377929688 1.815237760544
-56.652801513672 -75.620330810547 -141.300247192383 2.955635547638
35.596076965332 -82.439033508301 -146.436111450195 4.234325408936
108.412452697754 -78.916885375977 -136.383956909180 4.436288833618
-46.533130645752 -74.577613830566 -144.612487792969 2.402587652206
31.562650680542 -77.265281677246 -151.328506469727 1.574304819107
-56.987884521484 -70.512489318848 -141.894668579102 0.702619969845
-59.472751617432 -75.683906555176 -145.365814208984 3.735622406006
-53.126121520996 -79.160659790039 -150.788330078125 2.866444587708
-64.991226196289 -78.529006958008 -156.455459594727 1.428648829460
111.339385986328 -85.062423706055 -148.800338745117 7.192165851593
-50.541069030762 -82.448760986328 -156.069152832031 4.333604812622
22.361583709717 -83.132987976074 -157.524505615234 4.987421035767
107.186805725098 -81.566421508789 -163.652267456055 5.507988929749
-65.914588928223 -75.586936950684 -155.416717529297 0.580476641655
-44.177093505859 -77.497116088867 -158.024734497070 2.172694683075
8.546109199524 -75.479019165039 -155.462310791016 1.889585375786
-68.818542480469 -75.996391296387 -155.741790771484 2.662042617798
-64.555419921875 -78.328819274902 -159.308410644531 2.011994123459
-0.257604986429 -77.735511779785 -163.343399047852 1.555003762245
-44.346912384033 -72.647056579590 -168.597274780273 1.123792529106
28.478153228760 -76.194999694824 -168.471115112305 1.067209005356
-63.650043487549 -71.806304931641 -168.843704223633 1.230282783508
-56.645874023438 -77.937171936035 -167.347778320313 1.096642971039
14.359496116638 -81.184593200684 -161.024963378906 6.998289585114
-30.821681976318 -75.596076965332 -169.316864013672 1.577594637871
-29.328750610352 -79.353775024414 -167.419448852539 2.590229511261
14.431278228760 -79.403305053711 -175.721496582031 4.166828155518
-44.145713806152 -79.168190002441 -173.723297119141 2.800729751587
-11.218257904053 -78.665870666504 -173.280792236328 2.056357622147
-65.967529296875 -72.400077819824 -172.201950073242 1.805605888367
-7.934381008148 -74.838012695313 -174.897338867188 0.643833994865
-22.390209197998 -77.090385437012 -180.667358398438 2.189570665359
21.800191879272 -75.347473144531 -185.004409790039 3.179476976395
-39.506645202637 -78.083671569824 -173.114166259766 1.353100299835
20.357542037964 -74.242263793945 -176.882125854492 2.424088001251
-23.381299972534 -73.108833312988 -186.388198852539 0.457103550434
-32.808288574219 -79.127792358398 -178.826126098633 1.794648885727
-148.786315917969 -70.457984924316 -192.243576049805 1.966209411621
-18.857646942139 -81.338943481445 -184.855789184570 2.146957635880
-141.413528442383 -71.889274597168 -189.763290405273 2.430164098740
-154.306732177734 -73.336067199707 -187.455429077148 3.535559177399
-50.210094451904 -74.281150817871 -189.292221069336 2.593077898026
97.618881225586 -79.742164611816 -196.322021484375 3.957855939865
-145.610595703125 -74.548828125000 -190.907058715820 2.830401897430
-147.108734130859 -71.379364013672 -196.050765991211 2.140582323074
21.848123550415 -76.399330139160 -197.473327636719 3.161739110947
-139.083450317383 -73.800872802734 -196.470413208008 2.640928030014
13.167556762695 -74.109733581543 -200.121032714844 2.641666173935
-139.064636230469 -76.169021606445 -199.800674438477 0.375590384007
12.535015106201 -74.054946899414 -198.652908325195 1.965436100960
-133.705184936523 -70.272994995117 -196.421722412109 1.382264733315
4.597603797913 -74.268859863281 -203.559692382813 1.895268201828
-152.482070922852 -73.025787353516 -202.877807617188 2.644675254822
94.391731262207 -80.177612304688 -207.798324584961 4.200228214264
-17.609893798828 -79.451011657715 -208.900283813477 2.561317205429
-31.231435775757 -75.415847778320 -209.510894775391 0.649742782116
-12.620401382446 -72.310180664063 -206.191741943359 1.598956823349
-146.504074096680 -77.539710998535 -210.979080200195 1.950430989265
-36.242073059082 -76.368537902832 -204.173858642578 1.449231028557
-84.739936828613 -77.081245422363 -204.417831420898 6.603080272675
-27.662763595581 -78.080558776855 -209.271957397461 2.475803852081
13.969133377075 -78.315765380859 -214.483047485352 2.057682991028
-147.194412231445 -71.015037536621 -215.235000610352 1.628021478653
-90.091285705566 -76.946762084961 -219.238433837891 2.899585962296
-30.086540222168 -75.251289367676 -219.954513549805 3.695616960526
-28.064504623413 -76.366676330566 -221.341751098633 2.125303506851
-9.543180465698 -78.799087524414 -210.409927368164 1.434671282768
-28.099370956421 -75.759658813477 -209.038970947266 2.382077932358
-84.756004333496 -75.191871643066 -221.925079345703 3.470696210861
-90.616790771484 -79.950492858887 -220.073471069336 4.874874591827
-23.762666702271 -75.976020812988 -222.387695312500 1.596142530441
-3.035129070282 -85.200889587402 -225.746154785156 5.527257442474
-156.650039672852 -74.931579589844 -217.414001464844 3.983877420425
-3.311923027039 -78.896095275879 -222.303329467773 0.699743151665
86.527770996094 -84.114974975586 -228.724304199219 9.244440078735
-140.410018920898 -75.903533935547 -223.439880371094 1.540799856186
-5.118718147278 -77.891166687012 -222.303176879883 1.395226955414
-140.292663574219 -74.947807312012 -226.006698608398 1.600168228149
-148.165588378906 -81.306602478027 -225.433013916016 1.544959306717
-6.649768829346 -76.041824340820 -229.261917114258 1.262512683868
20.506826400757 -78.997543334961 -215.826980590820 3.806344747543
-139.803451538086 -71.489746093750 -229.566406250000 1.778097987175
-18.651845932007 -78.456268310547 -228.711502075195 2.269172430038
71.473915100098 -80.463073730469 -226.797561645508 7.500896930695
74.034484863281 -79.810493469238 -235.118759155273 6.242918968201
9.493798255920 -79.668121337891 -231.042526245117 1.658173441887
-34.555191040039 -77.659744262695 -236.720138549805 2.100216865540
-24.654062271118 -84.193435668945 -243.050643920898 5.938204765320
1.989886045456 -75.706108093262 -244.150070190430 1.657568216324
-47.568946838379 -71.564018249512 -244.174667358398 2.607827901840
-21.869123458862 -74.703567504883 -243.735671997070 3.101523637772
9.358038902283 -74.584571838379 -240.051010131836 1.779023647308
-64.088127136230 -75.970825195313 -246.139572143555 1.597380757332
-36.985378265381 -80.972938537598 -244.643920898438 2.933498859406
-39.569671630859 -74.807106018066 -246.150665283203 1.111811041832
-148.801193237305 -70.814231872559 -246.066619873047 2.489005565643
-45.955108642578 -78.989547729492 -249.075012207031 3.545192718506
-53.306968688965 -68.589515686035 -247.962142944336 4.319005012512
-66.652862548828 -75.188079833984 -249.525009155273 2.429770708084
-11.543373107910 -81.222663879395 -247.015274047852 6.483875274658
-79.976409912109 -76.354667663574 -255.559448242188 1.716220140457
-157.554794311523 -78.873001098633 -253.691467285156 4.078476905823
-141.389495849609 -72.045188903809 -253.878707885742 2.686892032623
-122.534996032715 -75.396827697754 -258.940704345703 2.728625297546
-159.109619140625 -69.212112426758 -258.640777587891 3.016227006912
17.967815399170 -84.257148742676 -267.406646728516 3.921523809433
-15.536887168884 -79.160026550293 -269.667938232422 2.933861017227
-155.752639770508 -75.581626892090 -274.199554443359 3.406126976013
-153.802398681641 -79.367042541504 -278.654968261719 2.494745254517
-146.858291625977 -75.558738708496 -285.750000000000 0.625817716122
-59.479602813721 -70.876823425293 -280.678192138672 4.313632488251
-39.601070404053 -70.980667114258 -286.213500976563 1.712962746620
-19.789508819580 -74.155754089355 -290.114196777344 2.451041936874
-10.260442733765 -73.057525634766 -280.054962158203 2.081348180771
-67.209213256836 -78.320320129395 -285.754882812500 1.377428770065
-82.029808044434 -78.932647705078 -286.555664062500 2.879726171494
-3.130326986313 -78.111160278320 -283.618865966797 2.519612789154
2.201361894608 -78.695152282715 -292.917297363281 1.664472699165
-140.558105468750 -71.685035705566 -286.402893066406 1.211874961853
-81.362869262695 -71.570526123047 -286.604522705078 2.312835931778
-147.978012084961 -71.788742065430 -287.653167724609 2.104811191559
-95.762138366699 -82.789657592773 -285.967193603516 7.690559864044
-79.664543151855 -74.247894287109 -286.292877197266 3.179153680801
-86.817184448242 -71.830360412598 -295.943756103516 4.153239727020
-63.904495239258 -74.812599182129 -292.309204101563 1.188907861710
-31.254333496094 -69.892997741699 -295.810974121094 3.840978145599
-9.254048347473 -76.361518859863 -291.420501708984 1.557547688484
-151.926849365234 -65.971076965332 -299.118103027344 0.986307680607
-149.807708740234 -70.500244140625 -300.868469238281 2.440349102020
-144.933761596680 -71.615570068359 -305.140014648438 1.952345252037
-158.693054199219 -72.026184082031 -304.979675292969 2.934132337570
-56.385868072510 -72.029067993164 -56.701320648193 2.843357086182
-48.157608032227 -75.030113220215 -53.559482574463 1.254883289337
-39.582244873047 -77.448951721191 -54.456684112549 3.402750015259
-77.351188659668 -77.499191284180 -62.806789398193 1.825157523155
-29.277341842651 -74.800834655762 -65.431518554688 3.405233860016
-34.582729339600 -75.319892883301 -80.472290039063 1.954414844513
74.168128967285 -83.153915405273 -84.130432128906 7.713087081909
74.996536254883 -79.629310607910 -80.796737670898 4.854568481445
72.512351989746 -76.811027526855 -84.690017700195 1.598342776299
99.942314147949 -76.523925781250 -91.637924194336 4.003681182861
68.310745239258 -81.408477783203 -90.334526062012 7.161226749420
47.983665466309 -81.315010070801 -90.134796142578 7.937057018280
51.331459045410 -84.121017456055 -102.433296203613 5.489949703217
-66.638587951660 -73.454002380371 -102.616775512695 2.491854667664
-74.089332580566 -69.822105407715 -102.956016540527 3.117809534073
44.624229431152 -79.653984069824 -104.201179504395 0.689979434013
-82.458961486816 -80.011146545410 -110.564186096191 2.141348838806
-93.061523437500 -72.306610107422 -110.992408752441 0.772777020931
50.960601806641 -78.402526855469 -109.507072448730 1.038768768311
107.118637084961 -79.004310607910 -116.892364501953 4.386417865753
32.718978881836 -79.930679321289 -126.391349792480 3.081240177155
42.448547363281 -79.770080566406 -119.711822509766 2.619841098785
39.884353637695 -76.777450561523 -124.159011840820 1.890073537827
29.695791244507 -79.482200622559 -123.311523437500 2.690383195877
108.913246154785 -80.202949523926 -122.409194946289 4.673850536346
38.804584503174 -80.933822631836 -132.472625732422 3.988918066025
34.250308990479 -73.850631713867 -133.391174316406 2.040043354034
-44.855571746826 -74.322463989258 -142.806961059570 1.195907235146
-70.693809509277 -77.909484863281 -143.917098999023 2.085508108139
-53.397823333740 -74.158821105957 -149.415008544922 0.423901438713
-75.021514892578 -79.095825195313 -146.491744995117 3.820515871048
-39.002956390381 -75.299819946289 -148.503768920898 3.138284921646
105.702613830566 -80.468376159668 -157.638290405273 5.579236507416
-72.218162536621 -76.974250793457 -156.909561157227 3.512794971466
22.911874771118 -82.525772094727 -147.492828369141 5.055592536926
28.198181152344 -80.385086059570 -150.802429199219 2.176889896393
110.705284118652 -83.392089843750 -163.905731201172 6.595540046692
9.122470855713 -80.355110168457 -160.225189208984 3.274235010147
32.748317718506 -75.355232238770 -156.473663330078 2.060602903366
-63.568778991699 -77.407203674316 -159.986892700195 1.645774841309
-41.068679809570 -77.793388366699 -174.186096191406 0.944898903370
20.911453247070 -77.376312255859 -164.216613769531 2.222014904022
-65.621681213379 -73.922897338867 -157.543899536133 0.956362247467
-70.559074401855 -74.875518798828 -166.201889038086 4.157596111298
113.218070983887 -82.345321655273 -167.534820556641 3.710704803467
-8.800131797791 -78.125228881836 -166.098678588867 2.107035636902
-65.928344726563 -73.436157226563 -172.657485961914 1.997465372086
-35.150524139404 -77.845024108887 -167.812820434570 1.573015928268
-54.877250671387 -74.032661437988 -172.433731079102 2.704743623734
29.865591049194 -76.998176574707 -175.890487670898 3.078863143921
110.806335449219 -77.493194580078 -174.141143798828 1.886860013008
101.624847412109 -78.329895019531 -184.731155395508 3.606519222260
104.197761535645 -79.467590332031 -190.613342285156 2.640772104263
106.062866210938 -77.381881713867 -177.525115966797 3.025444030762
-51.977375030518 -73.950874328613 -192.576965332031 3.025425672531
-48.410480499268 -71.994758605957 -183.836502075195 3.428813934326
26.681879043579 -77.496574401855 -184.642944335938 1.771508693695
-48.617912292480 -74.034606933594 -186.432693481445 2.141552448273
-21.402090072632 -76.540763854980 -184.613540649414 1.117466211319
-51.803733825684 -78.299232482910 -192.070114135742 2.520684242249
-152.532623291016 -71.411132812500 -192.771896362305 1.982355237007
100.271369934082 -81.972694396973 -193.778900146484 5.924073219299
-45.006313323975 -72.557746887207 -195.360260009766 3.282651185989
-13.444964408875 -78.082748413086 -199.899383544922 2.355233669281
-140.229293823242 -72.300148010254 -193.205413818359 3.089317798615
-42.347320556641 -72.984565734863 -199.329452514648 2.451798200607
100.487480163574 -78.377815246582 -197.827117919922 1.971552371979
106.976844787598 -77.836502075195 -186.304840087891 3.460514545441
-43.932735443115 -75.234191894531 -196.272369384766 2.154668807983
-23.443336486816 -83.450012207031 -199.880126953125 4.448317527771
-148.051223754883 -75.887756347656 -200.360763549805 2.269472837448
-25.809173583984 -75.835166931152 -196.346160888672 1.119195938110
-160.185638427734 -72.757408142090 -197.090042114258 2.462047100067
-153.659393310547 -79.741882324219 -205.237838745117 2.099474430084
-145.324584960938 -74.885009765625 -202.020095825195 1.587617754936
-39.315479278564 -76.464447021484 -201.419769287109 1.096066355705
100.854835510254 -80.871963500977 -204.300277709961 3.942005872726
-42.693187713623 -73.436943054199 -200.484252929688 1.624048113823
-143.356384277344 -76.554405212402 -205.055633544922 0.678766667843
-38.105712890625 -71.551673889160 -206.057723999023 1.645779371262
-22.948768615723 -81.640922546387 -210.633193969727 3.759129762650
96.779029846191 -82.417602539063 -206.931427001953 6.198593139648
89.468750000000 -81.008209228516 -215.779006958008 4.115993022919
-37.531841278076 -73.696212768555 -217.828643798828 6.132301807404
-89.013381958008 -75.760330200195 -210.600540161133 2.617498874664
-76.582382202148 -75.754943847656 -212.158660888672 1.425137639046
-20.060728073120 -76.305641174316 -211.182373046875 1.611557245255
-150.788208007813 -74.743064880371 -202.594879150391 2.240378618240
90.543205261230 -78.785934448242 -215.114562988281 1.950158238411
87.737251281738 -75.916381835938 -219.157440185547 2.591048002243
88.946037292480 -79.800285339355 -221.886062622070 3.642162561417
-103.587120056152 -74.810485839844 -219.130645751953 2.433490753174
-155.350021362305 -74.946403503418 -221.222808837891 0.937831342220
-21.130256652832 -74.178489685059 -224.432174682617 1.545386672020
79.745933532715 -75.405616760254 -228.376480102539 0.903314113617
-151.178741455078 -76.708038330078 -222.211883544922 2.254470825195
-29.965787887573 -77.474304199219 -218.125595092773 1.362009406090
-135.037948608398 -71.059143066406 -232.922348022461 1.576451778412
-12.348413467407 -79.241249084473 -232.181549072266 3.742929935455
16.277683258057 -75.999282836914 -229.503585815430 1.793801426888
19.080686569214 -78.210235595703 -234.228530883789 1.864772677422
-156.456573486328 -75.473564147949 -235.392089843750 4.421824932098
-127.305931091309 -69.108604431152 -232.928695678711 3.281452894211
-9.283799171448 -75.999359130859 -236.354354858398 3.058308362961
-0.853727996349 -75.700050354004 -238.499954223633 1.519916176796
68.102592468262 -78.334548950195 -232.517059326172 3.035059452057
68.466934204102 -75.011589050293 -240.169921875000 1.446908831596
-1.266366958618 -74.238250732422 -241.078018188477 1.266209721565
15.116151809692 -72.654670715332 -240.929077148438 2.172403097153
-32.066818237305 -67.547073364258 -242.025619506836 7.537618160248
-33.900962829590 -84.613388061523 -242.907409667969 4.465453147888
-49.593589782715 -75.167823791504 -236.931259155273 2.832799673080
-41.370372772217 -73.157783508301 -240.652404785156 1.766268253326
-17.648897171021 -77.492210388184 -243.741622924805 1.565445184708
-52.983928680420 -73.085212707520 -244.854507446289 2.045705318451
0.620082974434 -77.253295898438 -246.139526367188 1.255731105804
-69.525825500488 -76.918479919434 -243.478378295898 3.348203897476
20.267410278320 -78.534149169922 -248.175994873047 2.334840774536
-143.679779052734 -75.327491760254 -244.249008178711 1.852232456207
-74.214027404785 -77.370391845703 -253.919769287109 1.639067530632
15.161191940308 -78.115928649902 -250.865219116211 1.820541143417
-162.195632934570 -70.921974182129 -249.379409790039 1.985676288605
12.030989646912 -81.285926818848 -254.608016967773 3.085104227066
-81.323745727539 -68.241355895996 -251.312835693359 2.578499555588
-76.877899169922 -74.957641601563 -250.960983276367 1.004114866257
17.386878967285 -79.118484497070 -255.241394042969 2.531607866287
-90.592117309570 -73.394447326660 -251.467453002930 1.396625518799
-126.846572875977 -69.310165405273 -254.786514282227 2.793378114700
-133.772277832031 -76.869483947754 -260.604187011719 2.859736919403
-137.313995361328 -76.067405700684 -252.923858642578 1.992337107658
-148.113128662109 -74.497970581055 -261.663421630859 1.700517177582
-146.981185913086 -69.088829040527 -252.721740722656 1.845298886299
-135.387771606445 -71.075225830078 -261.906890869141 1.460940003395
-162.818481445313 -68.370094299316 -260.418304443359 1.512536287308
-129.197692871094 -72.893676757813 -267.394897460938 3.145665407181
-137.369216918945 -67.204879760742 -263.081481933594 1.925361394882
-163.656585693359 -68.673393249512 -269.894348144531 1.969944238663
-156.816085815430 -69.347526550293 -264.593872070313 1.608313679695
