-22.960966110229 -71.178688049316 -184.193603515625 1.110932588577
8.657179832458 -74.496536254883 -182.003921508789 4.675618171692
-151.302017211914 -68.804954528809 -191.614334106445 3.013290405273
-32.709953308105 -73.294044494629 -187.795059204102 2.050858497620
98.630004882813 -78.250038146973 -189.448226928711 4.310081958771
104.174781799316 -76.001991271973 -191.049118041992 1.136184930801
23.881607055664 -69.211601257324 -193.061843872070 0.901055932045
-11.701549530029 -73.901153564453 -187.421829223633 5.751008510590
-29.850189208984 -75.609519958496 -191.415359497070 2.044264078140
-157.585708618164 -70.918708801270 -197.198806762695 2.692050695419
-134.093902587891 -70.778656005859 -193.301315307617 3.421610355377
-126.692893981934 -66.190994262695 -191.317291259766 4.658322811127
-127.214378356934 -68.164390563965 -194.089447021484 2.518232584000
-22.989349365234 -68.483810424805 -193.829513549805 2.556306362152
12.807221412659 -77.826248168945 -191.574981689453 1.859198451042
89.937072753906 -83.433425903320 -202.298263549805 7.063277721405
-152.228164672852 -63.882831573486 -190.465011596680 3.592128753662
-145.413833618164 -65.717369079590 -195.168838500977 2.256911039352
-152.987091064453 -68.787284851074 -197.184143066406 1.179820895195
-155.893432617188 -65.837242126465 -192.508605957031 2.146303892136
-25.284572601318 -72.190727233887 -198.388153076172 1.811292767525
-9.618442535400 -70.239486694336 -193.891403198242 4.752855777740
-146.111816406250 -63.356136322021 -199.127960205078 1.182659864426
-21.395793914795 -72.555534362793 -201.118621826172 1.841075062752
-161.944671630859 -67.807121276855 -197.804092407227 1.898554801941
-135.817520141602 -69.026542663574 -195.656845092773 1.408174514771
13.419038772583 -78.221687316895 -206.420440673828 2.584855556488
-160.841995239258 -63.825721740723 -200.309661865234 2.494458198547
-147.814849853516 -71.289627075195 -202.981216430664 1.727596521378
5.544020175934 -71.783477783203 -203.651473999023 3.288461208344
-155.538696289063 -65.219245910645 -198.405853271484 2.450950860977
-26.731319427490 -72.080200195313 -201.459732055664 2.701267480850
92.818786621094 -78.914779663086 -200.092117309570 4.253880023956
-161.392257690430 -70.101127624512 -206.707275390625 2.766356945038
-165.856964111328 -73.088012695313 -202.320236206055 1.685724020004
-77.129989624023 -68.736373901367 -204.372985839844 5.700776576996
88.523902893066 -76.628982543945 -209.168014526367 4.370143413544
-5.582526206970 -72.958190917969 -218.931396484375 2.499945640564
-157.902160644531 -67.047370910645 -208.858734130859 1.198434352875
-88.768585205078 -71.779434204102 -210.187454223633 3.866774559021
-11.576662063599 -77.656112670898 -210.006851196289 1.444202423096
14.332107543945 -74.124099731445 -217.787536621094 1.234930276871
-145.833557128906 -69.625831604004 -217.265350341797 1.748191475868
-5.949573993683 -79.856285095215 -220.048950195313 1.842593193054
-19.359191894531 -75.917434692383 -215.432723999023 1.576792836189
-16.214336395264 -69.945335388184 -220.335494995117 2.192564249039
89.617767333984 -77.536422729492 -222.175048828125 1.401030063629
-21.601655960083 -71.799858093262 -214.925918579102 1.912279605865
-35.139186859131 -72.163200378418 -216.541748046875 3.909235477448
-109.345848083496 -63.705226898193 -222.675796508789 1.983378648758
-18.264387130737 -71.375640869141 -222.779174804688 1.859843015671
92.200279235840 -75.218605041504 -220.072875976563 1.887911081314
73.346008300781 -78.241119384766 -222.388702392578 6.253613948822
6.647226810455 -75.897270202637 -218.100082397461 2.464215517044
-13.233367919922 -69.875999450684 -224.596466064453 2.999583244324
77.236534118652 -77.163269042969 -222.563659667969 2.416847229004
-123.412300109863 -74.770568847656 -222.234863281250 2.836243391037
-19.701231002808 -70.947998046875 -222.566421508789 2.337945222855
-97.326652526855 -70.122947692871 -220.733795166016 2.232324838638
-102.567558288574 -70.580970764160 -220.184371948242 1.711724519730
-131.520462036133 -71.876358032227 -226.040679931641 0.436880797148
79.218025207520 -77.709075927734 -224.170394897461 1.251330375671
-124.563949584961 -70.702751159668 -224.283706665039 1.726330041885
2.317544937134 -73.085578918457 -228.701614379883 1.985988616943
80.067047119141 -75.321044921875 -225.673416137695 2.058995008469
-18.528888702393 -75.003952026367 -232.515853881836 3.177187919617
-16.255323410034 -74.580551147461 -224.498123168945 1.875946283340
-2.216511011124 -81.374862670898 -229.406250000000 3.146136999130
9.523487091064 -77.459548950195 -227.369918823242 2.680747032166
88.661140441895 -79.163948059082 -228.810440063477 6.066800594330
7.397029876709 -72.479591369629 -230.614105224609 1.173710107803
4.977611064911 -73.183479309082 -229.269271850586 2.232427358627
-11.045086860657 -74.447952270508 -231.145538330078 1.438761115074
-8.662970542908 -75.493698120117 -227.421096801758 0.848766088486
18.057239532471 -73.380607604980 -233.228652954102 2.207171678543
-14.413690567017 -69.912010192871 -231.992721557617 1.706913709641
68.627502441406 -77.264953613281 -241.676818847656 1.681188941002
-11.827562332153 -72.217193603516 -238.735855102539 1.775058627129
17.230625152588 -75.725570678711 -235.507629394531 1.960523247719
-162.660140991211 -65.741714477539 -235.757064819336 0.970835149288
-7.932806968689 -70.768981933594 -235.163711547852 1.291286110878
-9.490807533264 -75.901016235352 -238.468811035156 2.570006132126
-169.741928100586 -69.232048034668 -246.242645263672 3.211907625198
-13.199277877808 -71.023262023926 -243.141479492188 1.522320151329
12.683765411377 -70.975715637207 -244.648483276367 1.344034194946
-150.611831665039 -70.590385437012 -248.056884765625 2.315170049667
-78.238708496094 -71.230812072754 -249.771987915039 0.971732258797
-64.518249511719 -73.434036254883 -245.409912109375 2.290350675583
49.115695953369 -72.340377807617 -247.344558715820 1.783985853195
-75.313621520996 -70.674690246582 -243.983093261719 3.332347154617
13.614114761353 -75.011177062988 -249.569961547852 2.655982494354
-75.190093994141 -72.754684448242 -248.651260375977 2.102341890335
-18.002168655396 -70.603378295898 -242.039474487305 1.473963975906
-147.767517089844 -72.482650756836 -248.988464355469 3.267684698105
43.039611816406 -70.599403381348 -251.256546020508 2.387718200684
-83.574226379395 -75.078468322754 -254.612670898438 1.894441962242
-105.507850646973 -66.102394104004 -252.519821166992 3.326430082321
-102.837242126465 -72.051467895508 -251.639709472656 3.557389020920
-123.576736450195 -65.918052673340 -248.404846191406 5.931660175323
-108.484031677246 -65.738098144531 -254.461746215820 2.114701509476
-107.594093322754 -69.099662780762 -254.623336791992 1.271669149399
18.600351333618 -69.883872985840 -257.318847656250 5.126910209656
-133.037689208984 -65.893417358398 -261.841369628906 2.034306526184
-18.413372039795 -74.190826416016 -274.152069091797 5.673791885376
-151.834197998047 -64.577514648438 -280.474121093750 1.515621066093
-172.044097900391 -70.025054931641 -282.587249755859 5.554580688477
-128.271682739258 -70.508003234863 -279.742004394531 5.384708881378
-117.332954406738 -65.576759338379 -283.776397705078 5.736618041992
-78.787361145020 -65.864288330078 -280.724822998047 7.737489223480
-61.343055725098 -73.378929138184 -284.934844970703 2.041757822037
-44.566650390625 -70.677124023438 -284.289459228516 4.072990417480
-19.269489288330 -78.013359069824 -290.252197265625 0.967886805534
-17.230167388916 -70.082221984863 -292.520385742188 2.043913364410
-42.487438201904 -75.733001708984 -289.605560302734 1.316683292389
-38.061080932617 -72.554519653320 -287.480468750000 1.164005279541
-22.731889724731 -68.751495361328 -287.609344482422 1.467108130455
-76.915878295898 -69.835525512695 -292.162048339844 1.402784824371
-59.988712310791 -70.777252197266 -289.629882812500 1.357078909874
-22.429555892944 -68.222343444824 -290.913635253906 3.939253568649
-17.573919296265 -75.626693725586 -288.153472900391 3.021901845932
-7.285367012024 -72.876091003418 -292.875885009766 2.091105222702
-0.945977985859 -68.933868408203 -292.415405273438 1.865041732788
-97.371612548828 -70.254341125488 -291.084564208984 2.066782712936
-142.062728881836 -71.842605590820 -292.862030029297 0.973242580891
-119.168190002441 -70.610298156738 -289.772552490234 2.489251613617
-156.962570190430 -65.283157348633 -289.830932617188 3.281881093979
-154.330596923828 -69.349090576172 -295.728424072266 1.019611954689
-151.061325073242 -65.147087097168 -296.589233398438 2.867565631866
45.920036315918 -72.274772644043 -22.907203674316 2.931558370590
22.352439880371 -79.325187683105 -23.208591461182 5.482168674469
52.509403228760 -71.668113708496 -24.371841430664 2.270504951477
49.207492828369 -77.070587158203 -36.034317016602 4.639090538025
89.572013854980 -76.739105224609 -72.890838623047 1.207167506218
97.150588989258 -79.594673156738 -75.887413024902 5.906991958618
102.644462585449 -77.798248291016 -78.097480773926 5.339607238770
99.323554992676 -77.213973999023 -85.642189025879 2.588624715805
56.578208923340 -76.963897705078 -90.658325195313 4.192349910736
44.462181091309 -82.420837402344 -89.922378540039 9.825368881226
64.371276855469 -74.969009399414 -91.526672363281 3.401748418808
-64.564315795898 -69.597801208496 -92.053184509277 2.101064443588
72.908027648926 -74.690002441406 -88.140480041504 2.111066579819
100.968566894531 -68.309326171875 -101.018714904785 0.831165790558
75.107849121094 -76.524635314941 -102.869773864746 4.698496818542
93.985839843750 -75.524879455566 -104.734146118164 3.983781576157
-86.118637084961 -71.673698425293 -102.754936218262 4.451055049896
46.732681274414 -73.594871520996 -96.304832458496 2.284073829651
-87.215309143066 -72.511940002441 -97.788269042969 4.948225021362
52.143325805664 -76.689453125000 -110.591041564941 2.398441076279
36.982563018799 -82.987716674805 -103.259361267090 6.035505771637
100.298339843750 -75.987335205078 -104.740295410156 5.006785392761
37.225219726563 -75.224914550781 -104.666381835938 4.070413589478
44.892421722412 -77.574890136719 -121.186286926270 1.420344114304
42.796119689941 -75.738815307617 -113.344100952148 1.766636013985
111.985107421875 -76.017662048340 -113.101196289063 2.700909614563
-80.496566772461 -77.358512878418 -119.804344177246 5.545953273773
112.894638061523 -83.019058227539 -124.379814147949 6.584986209869
41.967273712158 -70.047401428223 -125.571990966797 2.918189525604
40.222644805908 -74.949317932129 -120.146934509277 2.760453224182
34.566864013672 -75.854598999023 -120.005889892578 1.481650590897
-55.107044219971 -77.802368164063 -127.728416442871 5.911218643188
29.917432785034 -73.437751770020 -123.243453979492 2.528680086136
-77.941856384277 -67.257865905762 -136.336227416992 1.276319384575
-55.158958435059 -76.758880615234 -130.760498046875 3.414977788925
-79.450973510742 -68.059700012207 -132.733932495117 2.012623071671
36.842720031738 -72.515136718750 -132.164398193359 1.703988671303
-60.081050872803 -73.831253051758 -131.631652832031 2.546310424805
35.253681182861 -74.186294555664 -133.103363037109 1.963497400284
-71.317535400391 -68.761764526367 -137.642517089844 1.276016592979
-59.364662170410 -66.882644653320 -140.589462280273 1.974269390106
23.333728790283 -75.873863220215 -144.456604003906 1.829297423363
111.460197448730 -80.697525024414 -144.666488647461 3.604287624359
114.844352722168 -72.271385192871 -139.422546386719 1.766901254654
30.051229476929 -75.260124206543 -142.891326904297 2.732759714127
-50.144447326660 -74.696212768555 -138.137756347656 2.140594720840
104.585197448730 -74.314643859863 -154.324554443359 6.179499626160
-76.736312866211 -70.839317321777 -140.300491333008 1.853515028954
-58.781593322754 -71.476242065430 -140.359375000000 2.109189987183
31.540040969849 -68.378768920898 -146.122482299805 1.680376172066
-78.717193603516 -72.879959106445 -143.784164428711 1.283958792686
-70.733963012695 -70.548797607422 -147.786468505859 1.318184733391
113.166191101074 -83.040382385254 -151.166458129883 5.938869476318
-65.002258300781 -69.494819641113 -153.799179077148 3.068091869354
-39.923915863037 -68.011230468750 -150.246475219727 4.088465690613
24.153158187866 -72.824783325195 -144.507278442383 1.607713460922
-72.420951843262 -71.888771057129 -141.998138427734 1.909937739372
11.988127708435 -72.709312438965 -148.525085449219 2.330296516418
31.190998077393 -74.180023193359 -158.545150756836 3.159215450287
30.888309478760 -71.498062133789 -151.951873779297 1.213222980499
16.496995925903 -79.465919494629 -153.475357055664 6.270292282104
-51.387748718262 -74.475624084473 -151.392608642578 1.881168484688
22.342134475708 -77.320602416992 -153.113479614258 1.505245089531
-47.508205413818 -70.888206481934 -149.616226196289 2.195264101028
2.747720003128 -73.817710876465 -153.795745849609 4.712513446808
18.843887329102 -73.172065734863 -149.859786987305 3.296233415604
-67.832664489746 -69.898727416992 -156.568695068359 1.345293402672
-47.840129852295 -68.385536193848 -152.621322631836 1.364189743996
-69.143836975098 -71.121467590332 -149.993484497070 2.011057853699
19.509525299072 -72.684997558594 -158.559310913086 0.333986163139
23.068675994873 -73.374061584473 -150.078613281250 1.022253394127
1.540812969208 -73.670578002930 -166.068725585938 2.994135856628
21.314531326294 -73.106201171875 -152.005462646484 1.966670632362
29.665374755859 -73.413475036621 -168.919830322266 2.475819110870
-48.122161865234 -72.864753723145 -162.630706787109 1.160680890083
-39.740680694580 -81.335807800293 -163.197875976563 2.438266515732
-42.549823760986 -73.557723999023 -159.774124145508 2.432660102844
26.919153213501 -75.240539550781 -157.617462158203 2.788773775101
-45.471878051758 -68.944541931152 -164.809371948242 2.997506141663
-40.245201110840 -70.196784973145 -167.486587524414 1.171317100525
20.896694183350 -72.131629943848 -165.270599365234 1.221111774445
-40.884437561035 -72.687095642090 -175.109542846680 1.774994730949
26.417200088501 -68.999023437500 -170.127685546875 2.032784700394
109.506240844727 -72.657760620117 -165.208557128906 1.823627591133
-35.422492980957 -72.357627868652 -170.986618041992 2.757197618484
99.021163940430 -73.606513977051 -175.078964233398 6.747709274292
-35.841644287109 -71.765121459961 -176.690475463867 0.474622547626
-39.474948883057 -76.060852050781 -180.854995727539 3.201722860336
21.407140731812 -77.558181762695 -178.310684204102 3.245212316513
105.058944702148 -77.896766662598 -183.720962524414 1.645194530487
-34.396186828613 -70.005981445313 -180.631011962891 2.983514070511
-37.360282897949 -71.760032653809 -178.365127563477 2.295012712479
-24.436170578003 -78.159866333008 -186.537475585938 3.207495450974
-150.640625000000 -68.485786437988 -185.927062988281 2.632594823837
9.760712623596 -73.096420288086 -183.130691528320 3.448769330978
102.426048278809 -75.061096191406 -193.986572265625 1.661757707596
-162.403228759766 -67.345191955566 -188.423294067383 6.991612434387
-22.247653961182 -67.781707763672 -187.158859252930 2.327473163605
-117.419471740723 -71.737014770508 -195.036560058594 1.435694098473
-130.550567626953 -70.883972167969 -191.368087768555 4.007890224457
-108.350044250488 -70.817153930664 -197.450164794922 1.936476111412
-116.534515380859 -67.888755798340 -197.275390625000 1.478665709496
-12.887338638306 -74.159301757813 -195.607482910156 2.798099756241
18.189380645752 -71.355018615723 -195.820022583008 1.961721301079
-17.557470321655 -67.797637939453 -201.231628417969 2.292400836945
-130.196456909180 -68.688873291016 -203.029815673828 1.851875543594
-22.014320373535 -67.349945068359 -200.189193725586 2.821091890335
-129.644729614258 -66.302947998047 -199.717422485352 1.252128720284
-18.399709701538 -72.270195007324 -197.814224243164 3.072042942047
-148.834335327148 -66.551895141602 -197.852874755859 0.608451366425
89.998283386230 -70.624824523926 -207.386703491211 2.884321928024
-165.608474731445 -60.075454711914 -197.163940429688 7.279727458954
-4.145933151245 -73.928573608398 -219.863571166992 2.143593788147
10.202421188354 -75.401138305664 -210.103271484375 2.142720460892
7.962159156799 -77.084609985352 -217.012573242188 1.220427989960
80.171531677246 -75.872138977051 -217.236373901367 3.242323398590
7.434412002563 -74.672943115234 -213.105194091797 1.278272747993
9.328290939331 -72.090705871582 -214.807235717773 2.939503908157
-17.973833084106 -75.994110107422 -214.545471191406 1.996401786804
-92.357559204102 -71.096488952637 -210.364547729492 4.231173038483
-100.559783935547 -69.635040283203 -214.173736572266 4.087492942810
0.305584013462 -72.026115417480 -217.633743286133 2.265221357346
-168.738174438477 -70.088096618652 -217.245742797852 1.527585268021
14.277050971985 -70.381607055664 -217.859954833984 1.412233114243
-146.781173706055 -67.212356567383 -216.553955078125 1.967164039612
11.412737846375 -73.962158203125 -224.701446533203 2.492072582245
-137.531799316406 -70.430282592773 -221.681549072266 3.898606061935
-117.636924743652 -70.121147155762 -225.520141601563 2.103475570679
15.214780807495 -72.721809387207 -220.044616699219 1.170484423637
77.387519836426 -75.727134704590 -220.601089477539 3.230960130692
3.971698999405 -73.827110290527 -223.324188232422 1.530073523521
-111.036056518555 -67.761398315430 -228.698303222656 3.167104244232
67.256156921387 -76.699272155762 -228.402359008789 4.186822414398
83.211837768555 -77.406021118164 -230.688659667969 4.040816783905
-128.728912353516 -68.054832458496 -233.769317626953 2.624322175980
-121.082801818848 -68.484405517578 -226.990020751953 2.219897270203
-11.336739540100 -67.678581237793 -225.292572021484 2.390044689178
69.600296020508 -75.895553588867 -233.978881835938 1.487357378006
62.166263580322 -75.589057922363 -233.065841674805 4.876371860504
69.827430725098 -74.676971435547 -229.406646728516 2.255164146423
-138.636215209961 -63.427169799805 -230.441574096680 2.850966691971
66.713714599609 -76.735610961914 -231.514465332031 3.080971240997
63.380474090576 -71.734313964844 -235.816925048828 0.849856197834
-168.091751098633 -64.705955505371 -227.573593139648 1.669518828392
-0.743833005428 -81.392486572266 -241.848022460938 4.218037605286
18.165880203247 -75.285003662109 -238.982498168945 2.000137329102
-8.527242660522 -68.841018676758 -240.951843261719 0.491478681564
14.798445701599 -66.160423278809 -239.098022460938 3.829291105270
64.677314758301 -76.180351257324 -238.609375000000 2.839171409607
4.941382884979 -70.131965637207 -244.408538818359 2.928114652634
-13.856247901917 -65.069671630859 -239.438629150391 1.282621860504
-4.076189994812 -68.588569641113 -234.924652099609 1.147487163544
62.248279571533 -75.440696716309 -242.935684204102 1.599855184555
-1.123353958130 -72.695327758789 -241.965072631836 0.811727464199
-8.618170738220 -73.389030456543 -242.534133911133 2.581715345383
12.006687164307 -76.901084899902 -241.714385986328 2.344737768173
-170.077529907227 -69.937896728516 -237.172103881836 2.352519989014
51.513748168945 -75.865699768066 -247.760299682617 2.843992471695
46.152755737305 -66.249412536621 -253.376190185547 1.126473903656
57.097225189209 -75.462272644043 -243.866928100586 1.008516192436
-14.815906524658 -69.377151489258 -247.178268432617 2.025400400162
54.424320220947 -73.758148193359 -245.594299316406 1.742735385895
-77.233360290527 -69.716384887695 -248.922698974609 2.095637798309
47.504840850830 -74.820686340332 -248.628067016602 2.822913646698
-90.196220397949 -68.725509643555 -250.634231567383 4.244644641876
-124.643264770508 -69.342864990234 -255.132949829102 3.222270011902
-134.612976074219 -68.347724914551 -249.027999877930 6.186294555664
44.547023773193 -76.449920654297 -251.916244506836 4.976782798767
-133.418655395508 -71.574371337891 -248.519515991211 5.184323310852
-111.041160583496 -65.689308166504 -251.249282836914 5.078487396240
-120.250778198242 -65.863861083984 -254.955673217773 4.675771713257
-87.179702758789 -69.921821594238 -252.194854736328 2.049726963043
-113.230628967285 -65.234703063965 -255.332458496094 3.488742113113
-127.252006530762 -72.541915893555 -259.668762207031 2.804246187210
-150.225341796875 -64.313652038574 -265.036071777344 0.912089049816
-18.264656066895 -69.788459777832 -266.979309082031 4.994263172150
-176.497726440430 -69.819503784180 -260.827148437500 7.814153671265
-18.105844497681 -70.493240356445 -274.144805908203 4.062930107117
-161.441131591797 -62.606342315674 -263.382965087891 5.533788681030
-155.865341186523 -68.166648864746 -268.716400146484 2.701091527939
-174.139175415039 -66.320869445801 -273.667205810547 7.605987548828
-18.636653900146 -72.472976684570 -281.180511474609 6.355576515198
-131.535171508789 -70.957031250000 -279.655303955078 4.615361690521
-160.392501831055 -66.568298339844 -282.606842041016 3.225944519043
-146.359573364258 -66.029754638672 -277.028869628906 3.940233230591
-138.225875854492 -70.551002502441 -274.717376708984 6.038460254669
-11.414606094360 -63.932888031006 -283.427368164063 5.284387111664
-129.657089233398 -71.679466247559 -279.777130126953 5.713763713837
-144.028335571289 -63.740772247314 -282.444702148438 2.262509346008
-118.892242431641 -72.821014404297 -282.680297851563 4.584442615509
-84.443756103516 -66.210639953613 -286.885467529297 2.323134183884
-63.247566223145 -71.736320495605 -285.173309326172 2.222369432449
-11.581447601318 -73.366531372070 -287.053070068359 2.420590877533
-58.000415802002 -68.711822509766 -281.952789306641 3.994973659515
-60.225345611572 -67.117057800293 -286.952423095703 3.693185806274
-74.831604003906 -67.549041748047 -288.298858642578 1.269735336304
-92.604972839355 -67.198837280273 -292.915283203125 2.459003448486
-96.646621704102 -66.757766723633 -285.418395996094 4.222017288208
-162.819213867188 -66.169273376465 -287.792266845703 2.487969398499
-163.883392333984 -67.455307006836 -290.862915039063 3.986402511597
-127.818840026855 -71.525428771973 -290.343048095703 3.182909250259
-147.975860595703 -66.797637939453 -290.884796142578 1.219231963158
-155.493499755859 -69.542808532715 -301.795196533203 2.524561405182
-156.502349853516 -70.403022766113 -307.909790039063 2.063487768173
50.713668823242 -73.995040893555 -13.452265739441 5.887305736542
16.766399383545 -76.521751403809 -31.390878677368 5.035508155823
44.436000823975 -70.070709228516 -35.592178344727 3.172695636749
-13.522741317749 -76.707389831543 -65.329711914063 4.967265129089
82.816253662109 -73.839172363281 -66.220046997070 2.882703304291
91.767814636230 -71.312553405762 -67.378135681152 2.485466241837
79.672088623047 -81.446311950684 -66.282173156738 8.468324661255
73.045013427734 -78.046180725098 -70.902717590332 5.485897541046
91.802955627441 -78.487754821777 -77.504310607910 3.443635940552
-96.311584472656 -66.234062194824 -67.745056152344 2.858541011810
67.052093505859 -75.927146911621 -76.035385131836 4.909196376801
-35.497528076172 -75.055770874023 -76.543991088867 1.775620937347
98.917472839355 -76.024665832520 -86.970588684082 2.080526828766
63.246471405029 -71.217002868652 -91.326393127441 2.855231046677
108.038864135742 -82.818565368652 -94.074531555176 11.035103797913
99.763839721680 -81.886032104492 -100.516975402832 7.324601173401
73.765869140625 -75.687210083008 -102.553085327148 4.768469333649
-81.356834411621 -67.312774658203 -100.676681518555 2.362670898438
54.750000000000 -73.847099304199 -106.524040222168 1.973809599876
108.553649902344 -72.512771606445 -108.541145324707 1.326107501984
46.059516906738 -74.208534240723 -114.525955200195 1.167774915695
79.875389099121 -74.120140075684 -107.466400146484 4.470963478088
41.602764129639 -73.838066101074 -108.479957580566 0.559759318829
102.908447265625 -76.208892822266 -104.803649902344 4.263867855072
47.597736358643 -74.257469177246 -108.419128417969 1.783956766129
105.880325317383 -83.652137756348 -110.993827819824 8.707794189453
110.713562011719 -81.204872131348 -111.850921630859 6.727958679199
-79.943374633789 -67.471046447754 -112.199241638184 1.891067266464
-83.285064697266 -67.486991882324 -118.336517333984 1.229658722878
43.485965728760 -77.966049194336 -120.136573791504 0.583974123001
113.328254699707 -78.524772644043 -124.922027587891 3.277786731720
113.077613830566 -76.602073669434 -125.396591186523 2.585113525391
-89.167503356934 -68.667083740234 -124.409881591797 3.016427993774
104.656402587891 -79.005508422852 -128.914382934570 5.587866783142
-60.218002319336 -76.656707763672 -130.326293945313 5.095079421997
-86.507003784180 -70.628776550293 -125.730827331543 1.272373795509
-71.074737548828 -71.410064697266 -124.801185607910 5.211717605591
-60.296047210693 -66.573188781738 -125.118431091309 2.424258947372
31.614982604980 -73.674621582031 -131.101242065430 2.061591863632
43.751773834229 -70.600868225098 -136.328140258789 4.749447345734
-71.959609985352 -70.009315490723 -134.311492919922 1.291733384132
28.525224685669 -70.512077331543 -130.012527465820 1.309577941895
112.033645629883 -76.091613769531 -146.711837768555 2.015349388123
-39.046478271484 -71.675437927246 -148.298324584961 0.981077611446
32.378200531006 -76.029235839844 -149.776321411133 1.894524931908
112.349006652832 -73.991645812988 -150.905136108398 1.243786215782
35.380035400391 -74.709022521973 -142.680862426758 3.118828535080
109.208175659180 -74.715576171875 -141.488540649414 2.550923585892
-52.473373413086 -70.454345703125 -148.180084228516 2.421852350235
-74.060241699219 -66.401908874512 -149.582519531250 3.742546796799
-58.242473602295 -71.168258666992 -149.416748046875 3.669795513153
-43.862472534180 -76.163513183594 -163.740005493164 0.823910176754
2.570945024490 -75.222915649414 -155.365051269531 3.575837135315
107.907653808594 -76.709915161133 -154.829711914063 3.303869962692
107.346992492676 -75.624488830566 -162.589096069336 2.498616933823
10.012226104736 -72.611579895020 -156.593399047852 1.578126192093
1.048905014992 -71.618331909180 -160.092208862305 2.874523878098
20.375066757202 -71.074058532715 -154.145339965820 1.818944454193
25.161762237549 -71.521255493164 -155.708816528320 0.307968139648
106.168144226074 -75.511222839355 -167.123886108398 1.756337523460
109.522010803223 -79.952949523926 -169.414154052734 2.740548610687
22.807912826538 -69.666557312012 -176.068695068359 2.475113630295
23.007448196411 -76.576622009277 -165.136795043945 1.501043081284
110.513885498047 -73.215919494629 -163.960998535156 2.211802005768
-31.188385009766 -69.581115722656 -177.775573730469 1.334029436111
109.342735290527 -76.414352416992 -169.225280761719 0.894816517830
16.736612319946 -73.223518371582 -164.973937988281 1.386653304100
20.170705795288 -72.992500305176 -169.093215942383 2.915421724319
106.658912658691 -76.269233703613 -174.296554565430 1.951695680618
26.265254974365 -72.007987976074 -170.086029052734 1.790325760841
112.143997192383 -74.124382019043 -186.872222900391 3.546344518661
-39.966281890869 -70.377845764160 -178.178222656250 3.903449773788
22.843954086304 -72.959716796875 -169.483718872070 3.094971179962
106.267723083496 -75.489868164063 -186.444412231445 2.126119136810
21.212730407715 -74.186691284180 -177.089797973633 1.951988220215
-152.691513061523 -65.153030395508 -182.422653198242 2.945054531097
-29.414777755737 -67.342208862305 -188.893753051758 1.955247044563
22.748170852661 -69.709602355957 -185.209762573242 1.908529400826
-117.055961608887 -70.648864746094 -189.425491333008 3.547570943832
-113.317893981934 -64.918487548828 -189.844268798828 2.787878513336
23.302350997925 -73.679763793945 -187.862991333008 1.758706927299
9.409855842590 -69.047546386719 -184.402160644531 5.842381477356
-28.517137527466 -67.048698425293 -189.440414428711 1.384048700333
-30.735132217407 -76.540420532227 -188.279403686523 1.241397500038
-30.469802856445 -71.695907592773 -187.145095825195 2.124995708466
11.676083564758 -69.556594848633 -179.881332397461 4.084947586060
-152.401473999023 -66.985733032227 -192.314758300781 2.683315753937
-147.834228515625 -66.503906250000 -188.739852905273 1.745383739471
-148.258544921875 -71.557983398438 -195.885253906250 1.926233768463
-25.202968597412 -70.011291503906 -190.489242553711 1.598169445992
12.679218292236 -68.983154296875 -199.529876708984 1.397948741913
96.773002624512 -73.524185180664 -194.150375366211 2.180670499802
-115.200531005859 -66.371864318848 -195.569702148438 1.412820100784
19.268701553345 -77.443344116211 -197.817687988281 1.855486154556
-15.432544708252 -69.916488647461 -194.080398559570 1.661210775375
-19.019935607910 -71.074775695801 -197.688537597656 2.176584482193
99.702659606934 -73.321716308594 -201.784530639648 1.313263058662
5.254782199860 -75.105636596680 -197.948822021484 4.329357147217
-23.843051910400 -69.126731872559 -195.792495727539 1.769095897675
-122.558174133301 -71.743431091309 -201.315567016602 1.800766706467
-136.260620117188 -68.001892089844 -199.923049926758 3.432850122452
-115.940292358398 -61.598979949951 -203.092071533203 1.832834005356
-144.124618530273 -71.313400268555 -199.770050048828 1.580279588699
15.044843673706 -72.008399963379 -197.773834228516 2.737541675568
90.764732360840 -76.968559265137 -201.466033935547 4.063035488129
-166.952972412109 -60.308502197266 -196.157272338867 7.675374984741
98.281326293945 -74.125358581543 -203.124893188477 2.666788816452
-25.337808609009 -76.548835754395 -204.419174194336 3.442834854126
92.767837524414 -71.024322509766 -210.786911010742 2.435806512833
86.116508483887 -77.051078796387 -210.994232177734 3.773524522781
8.711850166321 -74.951942443848 -203.147064208984 1.885383129120
18.688734054565 -71.055381774902 -212.869110107422 1.083337306976
11.521248817444 -67.996711730957 -208.082107543945 0.413997709751
-13.143103599548 -71.395492553711 -222.929885864258 1.489420294762
-96.050750732422 -71.933357238770 -217.297668457031 1.931357383728
-14.223446846008 -74.278167724609 -210.575729370117 3.349969148636
85.744644165039 -75.189308166504 -218.802886962891 1.371721625328
-96.511344909668 -71.947341918945 -214.144256591797 2.564929008484
-101.969604492188 -64.547515869141 -219.423797607422 4.078796386719
-98.200065612793 -68.037559509277 -216.571594238281 1.952651023865
86.762840270996 -77.297630310059 -223.905914306641 1.823448419571
-138.025787353516 -68.138069152832 -221.903274536133 3.183242321014
-133.693542480469 -74.063827514648 -224.540557861328 1.560679197311
-118.695198059082 -68.078842163086 -221.816772460938 3.838541269302
-115.400169372559 -64.741310119629 -218.690200805664 6.272211074829
-134.920852661133 -64.699554443359 -224.634719848633 2.754064559937
-115.764266967773 -77.153717041016 -225.458129882813 3.174422502518
-113.557411193848 -67.128814697266 -225.599441528320 1.685883641243
-9.458439826965 -76.240753173828 -223.364898681641 0.990266859531
-17.544607162476 -74.667060852051 -222.417297363281 0.751413404942
-3.090495109558 -68.432548522949 -229.351013183594 2.154081344604
-12.146712303162 -67.222656250000 -226.158294677734 1.643516659737
13.209063529968 -73.215011596680 -233.934890747070 2.882745504379
-22.528310775757 -68.422309875488 -228.552810668945 5.511122226715
-168.856719970703 -64.408294677734 -216.787948608398 5.908987522125
-7.795457839966 -72.163169860840 -233.262390136719 1.317871809006
78.727638244629 -69.948867797852 -233.415512084961 3.107409000397
9.445107460022 -74.482688903809 -233.088760375977 1.607807874680
-7.835186958313 -70.581855773926 -234.801162719727 1.556993007660
-159.392608642578 -63.707183837891 -232.123870849609 2.112090349197
-145.420700073242 -64.928558349609 -225.120544433594 1.928528547287
58.581264495850 -72.250541687012 -237.383331298828 2.487191438675
-8.030971527100 -72.356872558594 -232.656906127930 1.405945420265
8.565050125122 -74.727638244629 -229.034591674805 0.944661676884
67.082405090332 -77.373031616211 -228.523849487305 4.589670181274
74.380775451660 -73.813346862793 -235.771041870117 1.654303073883
68.937095642090 -75.313430786133 -243.451446533203 3.059754133224
-4.491538047791 -75.657882690430 -234.313369750977 2.253519296646
56.112678527832 -70.804710388184 -237.498077392578 4.041808128357
-21.982345581055 -74.593452453613 -239.340682983398 2.047452211380
-16.809837341309 -67.322540283203 -239.012237548828 2.640566349030
5.295312881470 -71.591140747070 -238.216735839844 2.857971191406
61.342990875244 -78.246070861816 -237.633117675781 4.518939971924
64.834213256836 -71.504035949707 -242.364868164063 1.826031804085
45.994945526123 -73.632209777832 -246.283340454102 4.417313575745
58.178485870361 -77.800292968750 -243.444152832031 2.435225725174
-18.240472793579 -77.679107666016 -248.264038085938 5.392220973969
-86.599487304688 -64.710838317871 -254.272476196289 3.862884283066
-79.618774414063 -66.199653625488 -251.523422241211 4.686275959015
41.194694519043 -76.844657897949 -247.480377197266 5.793691158295
-154.479675292969 -68.570014953613 -246.202636718750 1.381077528000
32.415195465088 -72.099609375000 -257.274108886719 1.105651497841
-95.253341674805 -73.999786376953 -249.513519287109 2.373561143875
-159.744094848633 -61.009593963623 -250.203598022461 4.857507228851
-142.264984130859 -57.489120483398 -248.593948364258 6.810908794403
40.523925781250 -72.087623596191 -254.485794067383 2.566109180450
-128.237762451172 -62.720344543457 -255.315979003906 3.043409109116
-120.484962463379 -68.843383789063 -251.681838989258 4.722451686859
-94.328140258789 -63.116119384766 -254.181808471680 1.319545865059
-15.640904426575 -65.973991394043 -247.204772949219 2.981574773788
29.209486007690 -71.838684082031 -256.509765625000 2.412690401077
22.153440475464 -68.585235595703 -258.951965332031 1.657232642174
-162.755081176758 -59.478157043457 -257.007751464844 8.406759262085
-117.615707397461 -70.746696472168 -259.792205810547 2.907154560089
-16.478635787964 -70.731338500977 -261.357971191406 2.687763929367
-134.943679809570 -66.463150024414 -262.464233398438 2.108554840088
-17.657646179199 -69.237709045410 -269.418762207031 3.805067300797
-166.744628906250 -65.184608459473 -267.285949707031 3.633745431900
-9.474129676819 -71.994178771973 -277.789123535156 1.193553328514
-163.509841918945 -66.792884826660 -283.679260253906 3.056329965591
-168.196777343750 -69.347938537598 -274.123748779297 1.996695041656
-145.742599487305 -67.049140930176 -281.509490966797 1.702868342400
-175.134567260742 -68.363716125488 -280.342742919922 8.865413665771
10.734683036804 -75.016113281250 -288.542755126953 1.694141030312
-106.660751342773 -69.166786193848 -283.674224853516 4.640658378601
-90.925659179688 -61.854766845703 -283.010559082031 9.321628570557
-171.904098510742 -61.766567230225 -279.895294189453 10.221214294434
-96.346351623535 -74.848724365234 -279.353149414063 6.746277809143
-159.273803710938 -66.931861877441 -285.176483154297 2.229732751846
-80.845886230469 -70.387542724609 -294.497985839844 3.990502357483
-75.628517150879 -67.787582397461 -286.678314208984 1.442279577255
-87.018966674805 -70.360015869141 -289.573059082031 1.556491136551
-7.022941112518 -68.737495422363 -287.421661376953 1.004573941231
-93.713874816895 -68.031280517578 -284.798797607422 4.495985507965
-102.895324707031 -70.251335144043 -287.778961181641 3.012328386307
-122.101959228516 -67.375389099121 -289.812286376953 1.276220679283
-120.218414306641 -63.081462860107 -289.900756835938 3.710663318634
-137.783905029297 -67.023727416992 -287.858642578125 2.469311714172
-146.137771606445 -65.914360046387 -297.086639404297 2.814331769943
-148.620376586914 -67.614776611328 -308.409790039063 2.069090366364
26.524333953857 -70.228492736816 -14.341123580933 2.967064142227
35.478553771973 -73.233810424805 -15.960748672485 1.742884635925
31.867284774780 -76.579589843750 -17.976047515869 2.560653686523
47.009071350098 -70.783607482910 -19.935325622559 1.160280942917
25.822299957275 -72.882232666016 -31.613481521606 2.340538263321
-73.009895324707 -68.672317504883 -44.387653350830 2.040441751480
90.939186096191 -69.703193664551 -67.691543579102 1.264160871506
-17.698045730591 -68.133888244629 -65.925888061523 2.321899652481
105.195999145508 -75.282264709473 -75.159622192383 5.922512054443
94.738227844238 -80.036788940430 -77.051353454590 5.187183856964
69.217216491699 -75.535034179688 -79.708183288574 3.497697114944
72.682449340820 -79.145713806152 -83.044670104980 3.687332153320
-43.504196166992 -74.684883117676 -80.406250000000 1.425748586655
61.481185913086 -79.704910278320 -81.969070434570 8.903759956360
-92.658142089844 -69.472869873047 -86.334533691406 2.838408231735
-46.684730529785 -67.832160949707 -82.773338317871 1.887000083923
-55.612670898438 -77.330741882324 -83.487464904785 6.653450489044
102.727561950684 -82.825683593750 -100.082916259766 8.220403671265
60.666946411133 -78.008865356445 -91.295867919922 4.016777038574
68.005966186523 -73.634742736816 -91.613853454590 2.911796331406
-93.684745788574 -61.777458190918 -94.516510009766 5.097276210785
108.701065063477 -77.901908874512 -92.921119689941 8.151437759399
43.282226562500 -71.760116577148 -99.455474853516 1.136678218842
102.806999206543 -75.088813781738 -99.795799255371 1.839026331902
107.739410400391 -72.420364379883 -107.978744506836 0.853451967239
100.726112365723 -75.792984008789 -105.161575317383 4.694077968597
74.688392639160 -78.338279724121 -100.141365051270 3.862665653229
87.314613342285 -77.500297546387 -108.977142333984 8.992973327637
50.799552917480 -72.312538146973 -111.532852172852 2.489202976227
111.254585266113 -71.572898864746 -104.018508911133 2.490740537643
47.855724334717 -78.001701354980 -104.753990173340 0.528143107891
39.356155395508 -71.549530029297 -102.119895935059 2.311895608902
113.724807739258 -76.672340393066 -112.217430114746 3.574466228485
-77.566093444824 -65.061203002930 -106.531646728516 2.227925539017
46.057666778564 -72.111549377441 -113.026351928711 1.132437825203
33.558227539063 -76.261688232422 -115.992256164551 2.685837984085
106.430282592773 -72.675148010254 -112.111427307129 1.528521418571
38.145801544189 -70.093811035156 -111.647125244141 1.441535115242
-86.759040832520 -68.666603088379 -108.713119506836 2.224717378616
-94.584983825684 -64.240303039551 -111.571754455566 2.618886947632
102.296012878418 -80.754150390625 -121.359809875488 8.499354362488
-94.538650512695 -69.365791320801 -116.054550170898 3.030876159668
39.532249450684 -76.991310119629 -121.087249755859 2.312903165817
36.798755645752 -73.254188537598 -122.489494323730 3.129853963852
-84.565071105957 -68.720268249512 -121.314086914063 2.006364107132
33.244785308838 -70.704536437988 -134.029174804688 1.930823922157
111.982299804688 -77.048187255859 -133.018966674805 1.938332319260
-53.218887329102 -69.685485839844 -136.304763793945 2.217018604279
-87.805679321289 -66.841400146484 -130.317199707031 0.501112520695
38.143787384033 -77.903526306152 -130.637298583984 2.350453853607
-86.875503540039 -63.197711944580 -133.819152832031 2.026837825775
-88.377319335938 -71.883369445801 -138.065322875977 4.143190383911
-50.153568267822 -70.313011169434 -134.476043701172 1.911707401276
-71.015701293945 -66.351043701172 -136.631332397461 2.368551254272
-50.604919433594 -69.107894897461 -130.699081420898 1.337901830673
116.980033874512 -72.161682128906 -138.510025024414 2.018562555313
-72.078163146973 -71.388793945313 -132.495864868164 1.557452797890
37.441246032715 -74.146652221680 -130.705810546875 2.346333026886
-78.562538146973 -66.669380187988 -138.512161254883 1.400886058807
-72.399902343750 -69.255607604980 -133.008514404297 1.587842822075
-93.668609619141 -65.784805297852 -139.059112548828 1.261830806732
-55.136558532715 -65.767684936523 -143.772521972656 2.044522523880
31.434026718140 -67.194320678711 -145.870193481445 2.236915349960
27.068191528320 -70.742378234863 -148.865158081055 0.437119662762
20.134489059448 -65.768974304199 -144.109619140625 1.574123859406
112.198181152344 -74.686325073242 -147.863449096680 1.454383730888
-91.657173156738 -66.282585144043 -148.938964843750 2.905550241470
10.796579360962 -73.416717529297 -151.878402709961 2.481733322144
-72.031867980957 -68.141853332520 -152.431274414063 1.154463410378
23.451158523560 -70.555358886719 -148.960891723633 1.528784990311
-49.698181152344 -68.173545837402 -153.572586059570 2.638418436050
9.457282066345 -70.055656433105 -153.286483764648 2.639025688171
15.970859527588 -75.200019836426 -158.682281494141 2.198624610901
16.304861068726 -77.724655151367 -163.522583007813 4.603739261627
-51.301212310791 -72.227394104004 -161.567077636719 3.526090621948
-38.974491119385 -68.272644042969 -153.779907226563 2.784675121307
-47.890747070313 -70.674232482910 -160.342117309570 2.241310596466
-104.047973632813 -68.502853393555 -169.923553466797 0.925602614880
20.920522689819 -73.763763427734 -174.569808959961 2.257714986801
-34.723506927490 -70.030998229980 -176.389083862305 1.514815211296
14.388918876648 -76.994750976563 -177.979461669922 3.850099802017
-143.311248779297 -65.453895568848 -172.329010009766 2.036763668060
-32.259719848633 -65.968750000000 -171.096221923828 2.169056653976
-157.247512817383 -72.778251647949 -174.236160278320 5.444827079773
23.794876098633 -65.584915161133 -181.444046020508 3.954041719437
-34.764305114746 -71.903388977051 -169.073532104492 3.408425331116
-107.641616821289 -64.541770935059 -173.090286254883 1.311191439629
-108.132560729980 -73.498550415039 -181.262863159180 4.186053276062
-31.393247604370 -63.696372985840 -184.343719482422 5.237071037292
-25.343021392822 -75.771598815918 -180.439697265625 1.979881167412
11.523154258728 -70.135643005371 -188.637573242188 2.031931400299
14.872994422913 -67.857917785645 -198.320541381836 1.538819193840
12.166763305664 -71.946441650391 -186.998779296875 2.508001804352
-143.519226074219 -63.806510925293 -183.176391601563 3.960505723953
22.749469757080 -66.871414184570 -189.555267333984 3.298110485077
4.665106773376 -70.248359680176 -196.222518920898 3.441513061523
-136.373489379883 -64.120170593262 -189.964187622070 3.878791093826
-114.108222961426 -66.267501831055 -192.242568969727 0.883050322533
13.564373970032 -68.953765869141 -203.092636108398 1.423285245895
-119.487274169922 -64.758987426758 -193.698959350586 4.450318813324
-108.530754089355 -59.857284545898 -189.461807250977 4.073766231537
-167.927581787109 -66.584480285645 -197.330398559570 4.536481380463
-25.689924240112 -68.083808898926 -198.731567382813 1.184176206589
9.736712455750 -68.970527648926 -199.304336547852 2.106131315231
-146.144104003906 -66.426498413086 -200.468734741211 2.169832706451
-139.041870117188 -69.481269836426 -203.636886596680 2.152335405350
-23.023241043091 -67.522125244141 -206.720321655273 2.784031391144
-13.884535789490 -71.235168457031 -204.381195068359 1.363054394722
-15.464242935181 -71.576728820801 -204.940261840820 2.443707942963
-140.479537963867 -70.944541931152 -199.439956665039 1.734501123428
-18.889314651489 -69.782714843750 -211.883529663086 3.234306573868
-11.151052474976 -76.164970397949 -213.761886596680 2.183440685272
16.485960006714 -67.519134521484 -210.935089111328 1.947839498520
-18.598396301270 -75.488685607910 -210.811828613281 0.828130006790
8.688497543335 -72.196128845215 -208.804687500000 0.697914659977
-12.812327384949 -71.834060668945 -214.377059936523 1.991840839386
-24.588418960571 -65.801864624023 -210.509368896484 6.007581710815
9.734025001526 -77.894248962402 -220.411148071289 2.307680845261
-4.383668899536 -77.109535217285 -218.596023559570 1.153363347054
9.470506668091 -66.109947204590 -220.098510742188 2.319466114044
-8.572658538818 -73.580215454102 -227.445068359375 2.052725076675
-162.144424438477 -66.510383605957 -222.636672973633 2.735546827316
78.580764770508 -76.630813598633 -220.739624023438 2.595721721649
-137.404678344727 -63.207534790039 -220.487609863281 5.797523021698
-137.126770019531 -68.753524780273 -218.577209472656 5.463032722473
-10.006461143494 -71.213340759277 -224.345016479492 0.928155183792
4.729959011078 -70.206504821777 -234.712692260742 1.420788049698
-160.058212280273 -64.941085815430 -227.263488769531 1.807567119598
87.517890930176 -71.667953491211 -221.289489746094 2.017443180084
-3.540039062500 -68.833824157715 -225.718643188477 2.270310401917
-1.160429954529 -71.255432128906 -220.926498413086 1.314661145210
71.737907409668 -76.723381042480 -231.729522705078 3.405878067017
-1.774525046349 -67.210632324219 -235.530029296875 1.506732940674
-15.873408317566 -71.813766479492 -224.304336547852 1.553407073021
-129.344116210938 -62.706924438477 -230.655822753906 3.218487262726
-7.364542007446 -69.846145629883 -237.135452270508 1.009351134300
0.580322027206 -67.769248962402 -229.867523193359 1.657679677010
63.971309661865 -69.497817993164 -238.806259155273 1.179451823235
-160.273178100586 -67.709777832031 -233.639358520508 4.120528697968
-15.541478157043 -68.138732910156 -244.556381225586 3.557956695557
-172.391906738281 -68.084403991699 -235.078247070313 2.818356037140
8.333395957947 -65.791030883789 -241.080947875977 1.679890155792
-165.893630981445 -66.758110046387 -234.966247558594 2.618372440338
-162.531967163086 -67.294860839844 -243.225967407227 1.232496500015
55.512821197510 -72.920089721680 -245.507339477539 0.595311939716
58.715595245361 -74.895942687988 -242.863174438477 1.693904757500
53.122360229492 -73.348129272461 -246.162353515625 0.933435916901
48.926181793213 -72.108055114746 -249.774322509766 0.900984704494
-155.690551757813 -66.997222900391 -239.460678100586 2.547779560089
-158.492706298828 -61.210498809814 -243.211425781250 4.583287239075
-15.310757637024 -74.812240600586 -248.627990722656 3.310543537140
-153.152343750000 -64.642349243164 -243.764053344727 2.705397844315
15.721612930298 -71.552886962891 -250.857574462891 3.322349071503
-173.696166992188 -71.388389587402 -247.488174438477 7.515153408051
-171.113464355469 -62.761394500732 -246.155029296875 6.208455562592
-84.675163269043 -70.024635314941 -245.243637084961 3.575021505356
-173.099700927734 -63.636291503906 -254.310165405273 8.595556259155
-87.812011718750 -67.159103393555 -255.729614257813 2.967296600342
40.300376892090 -70.553771972656 -253.859619140625 1.057376742363
18.980146408081 -74.670585632324 -256.973541259766 2.809493303299
-160.834213256836 -66.457252502441 -259.427429199219 1.634282588959
-103.617622375488 -59.220684051514 -257.377044677734 4.501350402832
37.108394622803 -71.370552062988 -255.083541870117 1.879541754723
-109.732963562012 -75.800750732422 -255.802047729492 3.501569747925
-156.285522460938 -61.236465454102 -262.245025634766 1.980293154716
-106.712570190430 -65.880393981934 -254.382247924805 1.707877278328
-171.931182861328 -67.997924804688 -255.613479614258 4.450131416321
-116.005393981934 -67.498352050781 -261.135955810547 1.937096476555
-156.490280151367 -67.852561950684 -262.699523925781 1.289627909660
-161.971008300781 -61.955646514893 -259.187896728516 5.743034362793
-168.473159790039 -63.814903259277 -260.041198730469 5.045186519623
-167.865844726563 -62.854156494141 -258.503845214844 6.599263191223
-168.578231811523 -64.898010253906 -260.862304687500 3.752610683441
-171.025924682617 -65.713943481445 -256.461669921875 5.921097755432
23.601375579834 -72.576438903809 -265.571655273438 2.250675439835
-151.240509033203 -70.606002807617 -259.383087158203 2.512381792068
-154.552581787109 -64.973426818848 -281.623626708984 1.863597631454
24.432666778564 -71.139305114746 -275.722106933594 2.419062852859
-15.479948043823 -72.825531005859 -273.858367919922 3.401395559311
-128.486236572266 -63.333248138428 -281.778808593750 6.400130748749
-139.706771850586 -65.963676452637 -283.254547119141 4.066463947296
-137.022842407227 -64.936187744141 -286.244110107422 4.682559967041
-131.262969970703 -66.177803039551 -282.834259033203 2.777763605118
-116.483535766602 -64.839813232422 -288.968536376953 1.444419860840
-107.335456848145 -61.895866394043 -281.685211181641 8.456802368164
4.279047966003 -74.325920104980 -294.309387207031 0.725234091282
-87.853446960449 -68.559921264648 -288.514495849609 2.588103294373
