# This PCD file was generated using the MATLAB® pcwrite function
# from Computer Vision Toolbox®.
# .PCD v.7 - Point Cloud Data file format
VERSION .7
FIELDS x y z
SIZE 4 4 4
TYPE F F F
COUNT 1 1 1
WIDTH 1414
HEIGHT 1
VIEWPOINT 0 0 0 1 0 0 0
POINTS 1414
DATA ascii
9.926670 -76.722748 -229.835114
-34.207691 -76.858681 -235.194489
-24.029694 -82.718849 -241.741516
2.132814 -72.841949 -242.796936
-47.572472 -71.267418 -242.419876
-21.742491 -73.084076 -242.213318
9.463213 -71.439308 -238.716782
-63.856606 -76.473938 -244.390503
-36.521900 -80.102859 -243.181290
-39.431408 -74.044609 -244.522461
-148.720047 -75.705803 -243.677612
-45.614113 -78.480461 -247.508408
-53.483707 -68.503853 -246.099213
-66.482979 -75.744164 -247.740326
-11.118859 -78.980591 -245.712646
-79.772560 -77.453362 -253.720139
-157.102402 -84.021820 -251.442108
-141.312180 -76.365120 -251.562134
-122.347595 -78.615944 -256.818390
-159.189133 -74.338768 -256.146362
18.359386 -79.997871 -266.350586
-15.379102 -76.586685 -268.283966
-155.622437 -80.152847 -271.875000
-153.512436 -83.724922 -276.432617
-146.825897 -79.394432 -283.475342
-59.769680 -70.325119 -278.822937
-39.953259 -69.269180 -284.479889
-20.033508 -71.322006 -288.576752
-10.500281 -69.973305 -278.551971
-67.142479 -78.034798 -284.031403
-81.917313 -79.392998 -284.756653
-3.145542 -74.565102 -282.280579
2.140929 -74.650505 -291.622650
-140.738602 -75.185799 -284.072510
-81.630951 -72.007187 -284.631195
-148.152267 -75.642975 -285.279785
-95.428001 -83.967552 -284.178345
-79.794693 -74.599876 -284.394836
-87.132874 -72.325455 -293.940613
-64.070953 -74.205421 -290.518768
-31.744144 -67.522659 -294.098755
-9.408237 -72.948479 -290.000122
-152.479462 -69.765022 -296.576172
-150.142639 -74.135506 -298.448608
-145.249115 -74.895103 -302.775482
-158.967438 -76.020027 -302.541504
-54.980782 -76.664856 -54.962723
-46.586044 -79.310799 -51.944603
-37.904240 -81.261070 -52.952267
-75.680565 -83.063866 -61.071358
-27.830097 -77.822533 -63.922165
-33.211685 -78.255737 -78.938560
75.768684 -80.368942 -83.446548
76.438789 -76.886856 -80.033531
73.784248 -74.108551 -83.842201
101.111382 -72.238281 -90.947754
69.783882 -78.780899 -89.570801
49.480988 -79.742950 -89.245285
52.878769 -82.077644 -101.628288
-65.482399 -77.520782 -100.836029
-73.112656 -74.271767 -101.041870
45.937527 -77.922302 -103.246605
-81.001678 -84.695152 -108.843651
-91.989975 -77.540871 -109.020607
52.161983 -76.218658 -108.559044
108.220863 -73.740585 -116.298035
33.900185 -78.283897 -125.364174
43.657200 -77.780220 -118.741989
40.909729 -74.818756 -123.099693
30.880535 -78.065948 -122.256065
110.034409 -74.712761 -121.853096
39.984703 -78.825638 -131.504852
35.064922 -71.967384 -132.223801
-43.978420 -76.302124 -141.167160
-69.604965 -81.192253 -142.206757
-52.565914 -76.422424 -147.717224
-73.884537 -82.538849 -144.783035
-38.125092 -76.839348 -146.921448
106.583847 -74.302315 -157.058105
-71.270576 -80.027016 -155.163239
24.085564 -80.877686 -146.462326
29.230181 -78.388206 -149.751144
111.684494 -76.813042 -163.424835
10.109775 -79.119156 -159.054276
33.473473 -72.995895 -155.326416
-62.633133 -79.938736 -158.302689
-40.247589 -78.822266 -172.643600
21.700083 -75.440552 -163.043945
-64.844887 -76.624527 -155.763550
-69.789909 -77.624016 -164.411896
114.113365 -75.551430 -167.042725
-7.946444 -77.678940 -164.762939
-65.286880 -75.793465 -170.858765
-34.288124 -78.720154 -166.309555
-54.218384 -75.823181 -170.716721
30.537128 -74.321434 -174.759460
111.406532 -70.674034 -173.514740
102.203049 -71.731003 -184.065903
104.788025 -72.593384 -189.989456
106.638969 -70.727249 -176.866135
-51.474144 -75.110565 -190.869308
-47.948868 -73.182014 -182.105865
27.319323 -74.774536 -183.501907
-48.069931 -75.167274 -184.749405
-20.748533 -76.306175 -183.157013
-51.072983 -79.454994 -190.469025
-152.025452 -77.767441 -190.391296
100.972839 -75.221756 -193.190857
-44.604683 -73.292923 -193.660370
-12.834664 -77.069328 -198.523819
-139.696152 -78.008766 -190.921021
-41.956367 -73.486832 -197.654816
100.973801 -71.524857 -197.152023
107.510849 -70.924210 -185.659683
-43.401340 -75.887756 -194.643570
-22.542810 -82.945107 -198.573837
-147.375031 -81.823936 -198.113510
-25.271908 -75.549286 -194.842072
-159.630341 -79.403946 -194.694183
-152.812744 -85.845184 -203.048340
-144.715897 -80.642258 -199.764603
-38.764645 -76.754440 -199.847229
101.421768 -73.841377 -203.685822
-42.286911 -73.928764 -198.818115
-142.686584 -82.134727 -202.851608
-37.843597 -71.676346 -204.372070
-22.220860 -80.856567 -209.282715
97.411850 -75.532318 -206.328827
89.974083 -74.291733 -215.095047
-37.246197 -73.506615 -216.194748
-88.498718 -78.400818 -208.705933
-76.096245 -77.715736 -210.339020
-19.615643 -75.367561 -209.720001
-150.183640 -80.769203 -200.302551
90.937447 -72.033401 -214.383499
87.957840 -69.216972 -218.338531
89.345123 -72.966934 -221.167755
-103.164108 -78.002022 -217.121765
-154.865189 -80.763092 -218.901855
-20.890337 -72.982689 -222.907623
79.883530 -68.899879 -227.493729
-150.616043 -82.282661 -219.958664
-29.497908 -76.880440 -216.629150
-134.866592 -75.552895 -230.627045
-11.916282 -77.398277 -230.830643
16.523603 -72.745995 -228.249008
19.402126 -74.695641 -233.043076
-156.046829 -81.008186 -233.072754
-127.245598 -73.205742 -230.633148
-9.053408 -73.903587 -234.942230
-0.665890 -73.117813 -237.131165
68.376549 -72.326958 -231.633194
68.513153 -68.807785 -239.205368
-1.172162 -71.618149 -239.670486
15.107661 -69.193970 -239.582825
-32.282574 -66.507095 -240.268417
-33.241379 -83.619461 -241.552277
-49.355656 -75.143013 -235.253738
-41.274391 -72.622353 -238.975006
-17.384346 -75.649933 -242.312515
-52.906715 -73.049774 -243.103424
0.830016 -74.409912 -244.814926
-69.218620 -77.764656 -241.720047
20.501808 -74.624588 -247.001251
-143.359741 -79.990456 -242.001053
-73.953644 -78.208771 -252.140625
15.361268 -74.406731 -249.648453
-162.115051 -76.426537 -246.910522
12.371230 -77.643982 -253.447861
-81.505005 -69.524269 -249.270096
-76.716553 -76.008278 -249.108093
17.603552 -75.188110 -254.061096
-90.496437 -75.144341 -249.493164
-126.936516 -72.861206 -252.491806
-133.505966 -80.627274 -258.448700
-137.027954 -80.192978 -250.729828
-147.957336 -78.975502 -259.362976
-147.040146 -73.730186 -250.299911
-135.427338 -74.894791 -259.600800
-162.949371 -73.647346 -257.880371
-129.192139 -76.259293 -265.168793
-137.614105 -71.105080 -260.669220
-163.840088 -73.767151 -267.355713
-156.935318 -74.213234 -262.114807
-149.414459 -74.915199 -263.413757
-149.915283 -77.676727 -263.442322
15.868840 -75.046738 -278.757019
-167.610397 -77.373337 -263.398987
-152.743500 -78.438133 -271.182617
-6.228480 -81.478287 -272.327301
-156.585144 -74.113846 -272.505066
10.623368 -76.178085 -283.024750
-154.100662 -75.991043 -279.141602
-167.330368 -78.040695 -286.110443
-156.661423 -79.670853 -275.858307
-166.118042 -74.128174 -286.476715
-0.821774 -76.416435 -286.729004
5.988828 -78.120216 -281.386078
-106.578651 -72.896416 -290.747101
-157.302536 -82.972755 -285.548370
-149.551453 -73.734566 -282.790741
-107.623291 -73.863136 -290.038361
-154.624313 -79.563240 -290.704041
-149.697632 -80.673569 -286.549438
-76.291130 -77.970764 -292.061646
-169.193863 -79.146881 -286.468506
-124.203384 -71.642906 -289.429962
-44.241020 -78.519531 -285.053833
-152.972824 -75.948593 -285.389709
-133.221481 -70.410995 -291.477448
-21.604856 -70.425308 -293.958771
-130.661026 -71.464867 -290.923035
4.664532 -73.583702 -294.663849
13.553253 -69.456680 -292.086639
-134.944138 -71.369225 -288.709351
-147.034775 -77.870239 -296.316620
-158.001221 -79.262909 -312.945557
-70.212090 -74.933929 -51.445389
-20.457348 -72.027985 -65.084305
-17.968958 -81.359520 -64.610062
72.515129 -73.342712 -79.012787
91.674881 -74.688896 -76.644882
-35.007183 -78.234749 -79.155975
77.277840 -74.612236 -81.352898
91.435600 -79.160027 -83.787315
67.608292 -76.059288 -84.755264
74.327103 -74.023819 -91.131454
-48.820721 -79.164474 -84.287086
-90.542511 -82.137161 -88.161064
60.464149 -78.750336 -94.496826
51.434719 -78.166031 -100.478905
93.790428 -70.737427 -102.037872
-90.007919 -73.432442 -100.169853
81.127068 -69.818047 -100.881760
72.843315 -75.937958 -101.927765
92.387482 -77.523933 -99.045097
84.728691 -75.239677 -97.389557
81.888008 -78.104256 -99.853081
-87.143326 -80.760605 -101.371941
44.850288 -72.904121 -105.259773
105.792145 -75.587173 -111.912727
107.796936 -74.987518 -111.831535
50.509933 -78.742012 -120.756065
113.811516 -77.353912 -120.959450
117.933540 -77.115883 -136.451660
-50.156727 -74.356529 -128.551529
28.229626 -74.885468 -134.982941
41.669769 -78.896828 -134.145828
24.937092 -72.384315 -142.073074
113.344521 -77.512939 -138.398254
112.053329 -75.222755 -131.539063
-73.247856 -76.977058 -147.199997
-43.195660 -75.617378 -139.887085
-71.120155 -74.904503 -151.421173
18.917763 -73.005455 -148.146332
112.296227 -70.028320 -149.284851
-53.779415 -78.518379 -151.285156
-72.036972 -75.865601 -151.122009
-38.893181 -79.689064 -150.876923
31.811426 -68.876930 -153.925430
108.972916 -69.012993 -151.513290
116.817680 -71.419830 -163.064636
-68.146507 -73.390114 -154.923187
-74.590340 -79.437080 -159.239349
22.116709 -79.411247 -163.685760
-60.314590 -73.708008 -166.114670
-32.440842 -73.406761 -162.796982
8.665075 -76.740189 -164.010162
107.431503 -69.787994 -162.600357
10.005033 -78.835022 -168.331604
-32.372688 -76.033325 -165.323044
-3.426766 -69.351746 -164.430939
106.623352 -68.467606 -167.938278
-41.717525 -73.376167 -162.990555
30.173117 -71.354851 -173.524460
114.466270 -77.004555 -173.746643
-57.286274 -72.427185 -174.734833
-27.853323 -78.863564 -175.175278
101.660614 -73.213913 -175.539093
29.309799 -71.681808 -168.045868
104.655029 -74.230736 -177.010681
-37.078266 -70.936478 -178.483643
109.601311 -76.170235 -182.096085
-63.392445 -72.496613 -176.550125
-25.745543 -79.862457 -177.456421
-147.712555 -71.106918 -182.325256
-54.144119 -74.692284 -178.224899
-147.542801 -78.145760 -183.940628
-35.174683 -72.720909 -182.866714
29.026926 -79.481041 -179.210724
105.650047 -73.326576 -184.708023
-36.461845 -74.581345 -181.408554
10.257779 -74.581192 -190.887039
15.749057 -73.028610 -205.402512
-149.401001 -78.205101 -186.099243
106.230400 -75.180412 -197.137329
-23.611259 -72.415474 -192.339203
100.435020 -73.735100 -188.265915
11.651760 -70.889526 -190.285538
-140.286896 -76.735718 -203.713379
-138.078751 -76.091446 -197.499130
101.893158 -75.790611 -202.743240
-12.044935 -78.866508 -199.705597
-17.648823 -74.837753 -203.861282
10.975097 -76.128777 -207.474518
-150.351364 -76.139542 -204.107224
-146.885406 -78.225708 -207.460968
100.467415 -65.544563 -206.495300
-84.962379 -75.275589 -206.235214
-35.590462 -76.059753 -199.946915
19.623423 -76.905182 -215.174500
-25.048279 -74.896896 -210.332596
-75.478462 -73.358376 -204.617966
90.546890 -71.954460 -209.942444
-79.771461 -72.339287 -210.874451
-148.510071 -76.480171 -217.118378
-80.816551 -73.419739 -211.264099
-12.313487 -67.789803 -207.131271
-21.120684 -70.797203 -219.472076
17.882370 -73.783142 -214.572617
-5.731418 -75.207901 -221.629684
-88.826721 -81.132599 -218.004562
92.477722 -70.591118 -214.685074
-100.529510 -73.994217 -213.877869
-154.411636 -74.605904 -223.045212
-29.410755 -73.033073 -223.880402
18.397789 -74.365845 -215.741730
-102.718559 -76.353828 -218.518021
6.687589 -68.439407 -217.275070
-27.592237 -74.009811 -214.089859
81.732704 -69.140221 -225.511322
-145.091599 -74.861336 -215.371750
13.285520 -72.051758 -225.732788
-10.034892 -77.193588 -227.482300
16.934898 -64.972527 -223.216629
83.335579 -72.925049 -223.532898
-14.990241 -77.183289 -228.839584
-131.020889 -78.099678 -225.171692
-15.526369 -73.322891 -223.743423
16.022608 -72.499451 -229.312637
-128.238541 -78.990906 -225.324310
-154.049026 -72.697662 -228.758621
-143.733749 -74.953362 -227.087006
-129.290512 -73.529297 -224.579941
-12.242739 -70.313095 -223.743347
71.239624 -71.292976 -227.816223
-145.254272 -71.174026 -237.055054
68.101593 -72.625069 -228.843643
-21.741730 -77.656677 -230.704910
-143.099487 -79.211571 -226.297989
76.076401 -79.239265 -230.097260
9.569884 -78.011879 -232.093719
-140.833679 -79.794853 -234.223969
-150.325577 -75.215240 -231.072968
16.847383 -68.242058 -230.527420
-3.181408 -76.672935 -238.836823
-30.268593 -72.463409 -236.156281
-2.391479 -67.965729 -235.927277
-161.234558 -79.644379 -235.756790
5.069470 -70.213905 -242.475952
-165.566940 -77.607040 -238.499802
-12.723731 -74.286179 -237.069809
58.204601 -72.526329 -239.615845
-14.316256 -71.552422 -236.165314
-25.907681 -72.697098 -246.468369
-25.257996 -72.713943 -241.132538
-11.694673 -76.992676 -239.714828
-147.002411 -77.060921 -226.433289
7.005881 -71.258926 -241.269333
63.231426 -70.862274 -245.156830
14.640477 -69.149689 -245.005859
-169.548737 -74.234627 -240.365402
-52.322956 -72.676697 -238.001022
4.239592 -79.652206 -248.816742
16.438354 -72.664001 -243.227844
-54.729141 -73.255501 -246.473557
-3.083997 -66.987923 -249.522095
19.898722 -79.259354 -248.864517
-172.629105 -73.488327 -246.699356
-66.322151 -78.224838 -248.081787
-53.272514 -71.583786 -246.730164
-83.573608 -72.223991 -251.459671
-162.701843 -77.639053 -244.273972
-151.760269 -66.563271 -245.730499
-61.434181 -75.952187 -248.888092
-69.582184 -73.424812 -247.848160
-154.649933 -72.904533 -250.023483
-153.007874 -76.978401 -250.119720
-75.897408 -68.879250 -253.663315
-94.607758 -70.608025 -255.072403
-164.450806 -68.843849 -251.127060
-158.387253 -75.883385 -259.054871
-136.371552 -77.158463 -258.285156
-84.244576 -73.541275 -248.698639
-162.820587 -71.462036 -251.334641
-142.740082 -72.294273 -255.245010
-85.813774 -72.998734 -247.582123
-98.536293 -71.937637 -260.252380
-144.244888 -76.505035 -253.384186
-93.554337 -73.832115 -254.445969
-155.472321 -73.101906 -253.304138
-104.707062 -73.819229 -253.245697
-171.947098 -74.458260 -256.383759
-163.195206 -77.525711 -263.964874
-128.728897 -79.289368 -254.529755
-153.480164 -75.791138 -257.579407
-111.176277 -70.185898 -261.160156
-15.128692 -70.017731 -261.600830
-141.920990 -74.556824 -258.746643
-127.919930 -73.619926 -258.378906
-154.565582 -72.792091 -261.239929
23.431242 -72.298950 -272.254364
-150.782761 -77.481155 -277.459351
-170.365555 -75.378868 -279.876190
-10.208620 -70.562965 -279.389893
-146.376770 -73.770363 -277.601990
-12.041464 -69.583450 -283.218262
11.470485 -72.221359 -286.695801
-138.491974 -71.468353 -284.009521
-67.631546 -75.375710 -286.525635
-34.636421 -75.324615 -288.735168
-113.723183 -73.931168 -281.294006
-98.208244 -78.521629 -288.816803
-90.043907 -73.671593 -290.371918
-52.245407 -73.975044 -291.856140
-117.215248 -79.829773 -285.890625
-116.816719 -75.354538 -288.793365
-35.139000 -68.607101 -287.336243
-117.922615 -75.003868 -292.321411
-129.822052 -68.346107 -287.230469
-146.221100 -77.119194 -292.637177
5.587528 -71.452705 -290.790131
16.676407 -73.031151 -292.994904
-162.912979 -74.165543 -290.178558
-161.810440 -78.802414 -298.828217
-149.983673 -75.543388 -308.100037
-154.614792 -73.047211 -308.301636
-154.379211 -74.408134 -312.464172
30.516193 -81.881615 -14.277745
36.362762 -74.168793 -19.674833
23.315914 -77.409805 -25.571844
31.110775 -73.481316 -39.419746
-57.103088 -77.322990 -49.466526
-63.077118 -78.123573 -49.813961
-37.300285 -82.326233 -48.600124
-85.052246 -71.839783 -64.373314
81.861870 -78.434891 -76.401001
-11.768357 -72.883720 -71.086929
90.905334 -75.770332 -64.482140
101.955765 -74.335785 -76.952782
-90.679863 -75.415924 -73.729546
67.383888 -75.118668 -81.338989
-38.576229 -80.919533 -86.252205
102.879433 -74.177078 -82.148872
-56.069740 -74.371826 -87.496300
51.179234 -75.871300 -91.357147
71.476753 -82.389740 -91.099548
55.198692 -73.551994 -96.351791
53.839249 -76.669708 -99.551476
76.567932 -78.634048 -97.161987
48.105705 -74.072433 -108.721581
99.237450 -74.832733 -103.234344
106.346039 -79.410500 -109.064796
78.808258 -71.990288 -104.767380
94.720177 -75.572227 -106.067383
101.352463 -74.718452 -94.869003
111.021759 -75.272293 -105.683228
40.755161 -74.237297 -107.020378
114.256424 -70.537964 -119.194946
115.293747 -75.186058 -120.955948
30.873096 -72.508972 -124.823898
45.433540 -76.428017 -118.828148
116.008171 -74.125755 -133.575989
34.895237 -73.915627 -127.198593
117.461327 -79.005486 -128.664825
108.713593 -75.253891 -124.042221
27.758402 -76.866676 -134.375320
-46.309570 -76.664558 -132.793091
-51.452637 -74.068527 -133.973816
112.128349 -72.896919 -136.858246
-67.054382 -81.668030 -138.792023
-70.938049 -76.935699 -139.536377
-59.339741 -76.598862 -138.682251
31.362373 -75.280914 -145.313599
119.476479 -75.886589 -148.579773
-69.724289 -71.921181 -146.782791
-48.609406 -76.390274 -140.757233
33.246666 -74.692474 -153.057724
-67.765923 -77.629608 -146.907974
114.808403 -71.819778 -141.223877
111.669014 -70.350464 -159.167236
116.812325 -74.166550 -155.746674
-38.018951 -79.145836 -152.049973
-63.643291 -75.342644 -164.570160
-66.889343 -70.884262 -156.741867
29.588614 -75.840996 -144.667831
-1.659889 -77.041168 -161.888474
110.256462 -71.372070 -163.932251
112.586044 -70.535851 -153.710510
113.085823 -76.791458 -160.933273
-62.514103 -72.996674 -157.372726
-44.545952 -77.776047 -166.903259
-3.181507 -74.064713 -165.033646
-30.665455 -75.775688 -174.654465
105.921875 -71.261917 -169.151947
-32.276554 -79.825287 -159.513031
109.091812 -70.522995 -168.787445
-41.537727 -75.473595 -173.738007
108.243332 -69.544891 -171.113892
-152.886902 -78.330231 -177.079559
-25.658855 -69.673981 -176.970917
-19.375345 -74.975143 -183.690201
25.005095 -78.158478 -177.266998
14.463701 -72.605347 -184.020920
28.788397 -74.304451 -183.159210
102.961304 -78.545982 -186.003448
-152.163391 -72.651039 -181.603256
-18.981047 -77.135887 -182.185349
101.515617 -74.448341 -179.863846
102.933693 -67.517113 -190.260971
109.428329 -74.436073 -177.961304
100.232330 -74.153038 -194.424500
-150.910416 -75.346123 -196.038849
99.527634 -72.591484 -207.606888
-28.244631 -71.875618 -198.230179
96.465431 -72.036911 -195.768921
-119.342033 -80.701317 -200.112854
-29.902092 -79.902039 -188.213379
-142.653290 -70.475700 -196.340164
95.929008 -72.111290 -198.894119
8.312416 -73.853516 -199.711548
24.536182 -71.165543 -191.806259
-148.856079 -78.076637 -202.386871
-137.765915 -75.452103 -200.787140
-9.697207 -73.230026 -208.353882
-124.435226 -75.222679 -203.797302
-144.384415 -78.047348 -195.403519
1.520122 -74.315399 -198.689896
-25.798820 -76.665993 -199.894272
21.080446 -77.438484 -201.671738
5.397260 -75.292580 -213.048599
82.631248 -67.673256 -209.904343
-18.141872 -70.552971 -211.654114
90.403214 -68.792686 -210.068222
97.981148 -74.989716 -208.239990
-148.360031 -77.839859 -211.929138
94.981522 -74.580353 -212.788589
4.027750 -71.489670 -206.051849
2.322228 -75.711472 -214.463242
-32.167736 -73.647087 -205.359482
-89.654373 -74.306686 -211.662781
-25.175920 -76.438286 -209.621552
85.185608 -70.191544 -218.838272
90.241241 -70.542572 -216.669418
-31.627195 -72.702110 -211.087616
-84.168419 -70.443695 -218.363358
-0.395462 -75.404648 -219.386887
78.488541 -66.789131 -212.546783
-152.736771 -82.117523 -219.631485
-166.614197 -74.222015 -212.214035
-163.650925 -80.363914 -219.865677
-22.018616 -75.331657 -226.655060
-154.960815 -80.928894 -220.579834
-4.877379 -73.793289 -223.757507
5.621573 -75.167984 -218.520676
-169.532257 -76.088654 -224.149445
-157.544525 -76.100021 -226.319122
78.374687 -75.890762 -233.078583
-1.747138 -72.389290 -225.784317
-159.803146 -68.982834 -224.350479
-143.089264 -78.548134 -221.527634
-19.194254 -71.503258 -223.337265
-2.233232 -77.868919 -220.717453
79.297646 -67.924286 -227.559860
-161.502792 -73.471657 -225.866409
-142.609390 -71.997711 -230.875793
-126.324608 -72.808113 -230.107330
77.673409 -74.411438 -227.024002
-116.297203 -75.267670 -228.013901
-144.627243 -75.418564 -227.744278
-151.682571 -73.875023 -230.151138
-150.335617 -76.613754 -230.209961
-156.203384 -76.844887 -227.346680
-165.322784 -76.778229 -226.572769
-133.288727 -76.232590 -235.391022
-133.712448 -76.506302 -232.003647
-152.464188 -81.644012 -231.951691
-146.182220 -70.886688 -236.076584
-151.522690 -76.504890 -233.949661
75.109802 -74.785217 -234.263962
66.491203 -64.571991 -235.355865
-155.986389 -73.478607 -233.506775
72.140968 -65.335152 -233.719482
-21.094522 -70.558960 -236.069427
11.952745 -74.559814 -238.303452
7.232930 -73.426811 -235.938812
-156.294312 -75.660919 -239.580872
15.187099 -71.585403 -241.412781
58.722950 -69.629776 -239.107635
12.593741 -69.013916 -238.271378
4.110921 -72.625809 -241.329773
-7.287223 -69.200172 -239.433838
-22.438452 -70.878693 -242.579285
-3.007395 -72.780952 -240.701553
4.141274 -76.005806 -246.220642
56.879322 -73.203453 -241.563919
-55.272335 -79.072334 -244.291061
19.649122 -70.808998 -248.201950
-58.856831 -74.514374 -239.604736
-11.237561 -73.019157 -247.986694
-67.664864 -69.084808 -249.716217
-86.574020 -70.694534 -253.041901
-83.055656 -75.606750 -252.871262
-9.059777 -71.576942 -256.244446
-124.320534 -74.543671 -260.010345
-14.707845 -73.400322 -251.443787
-117.683060 -74.255363 -253.494308
-118.530273 -72.394463 -257.554901
-104.544968 -74.099472 -253.706512
-144.109436 -73.230507 -258.801208
-145.529053 -74.266411 -266.632599
-169.949707 -75.350929 -261.357117
20.159979 -75.807083 -280.898376
-61.361477 -69.878128 -284.356171
-69.281998 -71.595032 -281.548645
-43.261665 -74.444847 -282.160004
-28.054996 -72.622475 -286.981293
-96.918823 -76.238884 -289.715881
-32.868435 -69.624023 -284.295746
-4.812328 -71.091583 -285.528778
-168.485138 -74.856071 -287.916443
-19.555735 -74.695236 -285.178864
4.332212 -72.715782 -287.908295
13.024808 -77.426231 -280.751740
-58.125317 -76.369614 -285.119781
-36.306229 -73.310219 -291.632080
13.011840 -68.633163 -293.871033
-72.952560 -70.404114 -293.134430
-43.521942 -68.524025 -287.529053
-19.364351 -69.228271 -289.141388
13.134442 -74.023743 -291.752563
-13.384935 -74.146019 -295.515289
3.119804 -70.008873 -294.830933
13.284233 -74.451248 -289.033966
-136.225143 -72.827301 -292.765015
-146.395844 -76.706253 -296.488831
-154.823013 -73.272644 -311.750854
46.918636 -76.209862 -14.570845
32.105396 -77.166130 -11.941063
42.369884 -77.276306 -15.396274
24.982826 -72.505623 -18.157393
47.691956 -73.560051 -23.572084
28.270521 -73.788963 -25.131914
25.726660 -77.143280 -26.805538
28.461100 -77.540817 -40.955467
39.660461 -80.177368 -31.357264
28.082659 -81.906006 -37.764519
45.729382 -74.352150 -39.896027
34.097015 -77.111076 -41.288673
42.491791 -78.495972 -35.845940
32.652386 -74.872559 -40.307018
46.974144 -76.257805 -42.460716
34.559914 -75.678650 -37.911427
-40.394314 -76.550415 -46.927834
-27.757280 -71.446709 -49.631027
-88.415642 -78.532181 -52.561466
-88.389824 -78.798256 -65.029198
78.832779 -78.109840 -65.419136
85.933983 -73.275978 -73.571060
-19.284710 -74.195892 -74.509026
-86.483612 -76.367271 -70.986023
-23.546085 -75.043350 -76.290558
-48.044662 -78.259529 -84.036591
67.315590 -70.657234 -86.937943
53.364338 -72.869286 -94.254799
100.755707 -71.174202 -92.476189
70.309402 -76.746178 -97.620667
-68.494370 -77.395142 -88.371819
-58.766460 -72.758354 -97.857353
45.865982 -74.216621 -97.846336
78.617371 -71.658707 -98.844917
56.494690 -83.569160 -106.013283
103.027428 -73.093460 -96.529144
-93.498055 -79.903931 -106.321083
42.469753 -73.767342 -109.864006
108.608780 -74.418861 -110.621597
50.320179 -74.192581 -111.891617
101.666435 -74.729424 -111.890236
-83.750046 -75.692459 -115.957619
36.714359 -78.293900 -113.074394
108.292870 -70.713356 -117.718262
105.692139 -69.489738 -117.124367
105.094109 -73.411041 -116.149895
112.137291 -71.091492 -115.010124
42.274059 -77.592918 -108.638329
33.329441 -69.612633 -115.811623
40.385883 -73.698364 -112.794777
106.236610 -74.834656 -122.015427
42.000359 -71.616600 -121.792259
110.525215 -70.853096 -133.598801
110.840973 -70.640366 -132.097122
34.553490 -70.907005 -118.740036
-77.474983 -76.733055 -122.077904
113.276878 -68.254120 -134.602280
-52.420170 -75.412964 -137.223114
35.679192 -74.638977 -134.295761
-72.790855 -76.108704 -132.631729
26.523809 -77.476120 -130.092575
-80.158218 -76.658173 -142.533493
-44.685459 -78.493149 -141.148209
-74.618942 -77.973244 -137.445053
109.925064 -71.091339 -137.083893
120.277596 -69.189636 -142.246536
119.659714 -75.531204 -148.728394
-79.671356 -75.545006 -141.990311
7.173800 -69.066505 -150.290985
-50.203945 -75.575027 -146.938980
-51.358212 -76.201057 -153.900391
106.376129 -72.289337 -164.079620
-40.218208 -77.568787 -147.478287
14.815468 -70.253098 -158.008362
22.930340 -75.826881 -157.179321
114.714211 -69.497627 -166.017899
30.527538 -71.768753 -167.048935
-0.447434 -75.429741 -163.385742
32.311291 -73.849808 -160.267136
-67.262772 -73.553398 -154.973465
-66.125961 -75.083481 -157.843643
-69.431213 -72.496948 -164.914764
114.718956 -66.800377 -162.548569
-44.405048 -75.033646 -162.054062
16.610331 -73.259720 -164.792603
-63.698963 -72.915047 -168.614914
-64.422562 -71.850792 -170.266586
-42.593407 -76.260513 -159.848755
-34.346584 -77.784439 -166.931549
115.994209 -74.106651 -172.462051
-37.427639 -66.932037 -180.607986
12.618812 -74.291649 -172.074158
110.596390 -74.267853 -186.874619
-147.027527 -78.283966 -173.827789
-146.162674 -75.487679 -169.747665
-147.007492 -73.481194 -179.098755
-142.031799 -78.403885 -181.929886
-32.760860 -71.763214 -183.904129
-23.313208 -74.103516 -184.627136
23.389009 -66.916550 -191.904144
-140.764587 -74.768547 -184.297958
-147.893204 -76.324203 -186.489578
-22.076252 -70.980171 -184.590591
9.658366 -72.624695 -182.199005
-150.298264 -75.410042 -193.053360
-31.668991 -73.546341 -188.316452
99.754890 -71.346336 -188.951645
105.181053 -68.768990 -190.459976
24.654669 -66.297791 -193.019012
-10.661968 -73.022179 -187.776825
-28.660934 -75.628975 -191.957947
-156.416336 -77.746353 -198.732285
-132.996323 -76.413864 -194.633148
-125.870361 -71.473618 -192.494781
-126.263336 -73.415245 -195.310226
-22.179642 -68.094223 -194.170486
14.053921 -75.528236 -191.799179
91.451767 -76.728989 -201.976364
-151.498932 -70.569847 -191.813629
-144.560364 -71.935989 -196.495132
-151.940536 -75.369720 -198.635834
-155.037369 -72.677704 -193.927032
-24.236280 -71.825974 -198.821808
-8.733012 -69.121468 -194.153824
-145.356247 -69.535530 -200.411957
-20.313314 -71.923683 -201.525864
-160.933289 -74.863693 -199.312180
-134.795090 -74.709854 -196.967697
14.796224 -75.586166 -206.643860
-160.030014 -70.777992 -201.728043
-146.597198 -77.469116 -204.437668
6.562792 -69.641945 -203.813583
-154.673080 -71.920883 -199.807495
-25.664112 -71.731155 -201.902740
94.067345 -72.106972 -199.655731
-160.191162 -76.941795 -208.254486
-164.519379 -80.255241 -203.966278
-76.147057 -71.063126 -205.176910
89.721939 -69.871956 -208.720230
-4.370062 -71.104736 -219.208023
-156.856277 -73.660110 -210.314606
-87.559784 -74.612518 -211.149918
-10.166050 -76.302032 -210.430634
15.569487 -71.213448 -217.918442
-144.603516 -75.408577 -218.668243
-4.353546 -77.988274 -220.466568
-17.991152 -74.876793 -215.886581
-15.139159 -68.644073 -220.641861
90.959770 -70.452530 -221.733047
-20.457684 -70.897957 -215.316498
-33.943150 -71.960869 -217.054352
-108.452255 -67.410912 -223.648560
-17.090330 -70.133026 -223.131027
93.396919 -68.041733 -219.563004
74.752350 -72.033005 -222.099136
7.994806 -73.393486 -218.331757
-12.134889 -68.326225 -224.875092
78.579765 -70.742668 -222.219391
-121.899689 -79.228592 -223.548965
-18.549818 -69.788277 -222.921982
-96.116875 -73.206581 -221.733353
-101.329086 -73.958946 -221.237793
-130.124710 -76.700546 -227.364853
80.599823 -71.147354 -223.819809
-123.255424 -75.188065 -225.525650
3.597390 -70.604134 -228.911301
81.328964 -68.686607 -225.267441
-17.085232 -73.570381 -232.940323
-14.897454 -73.188576 -224.896683
-0.474314 -79.110680 -229.820328
11.020248 -74.607712 -227.606232
90.142128 -71.993393 -228.407593
8.650476 -69.684914 -230.768005
6.262977 -70.546181 -229.458160
-9.653036 -72.638000 -231.495544
-7.245270 -73.629158 -227.772675
19.362959 -69.953537 -233.309326
-13.256716 -68.274788 -232.280334
70.130730 -70.919456 -241.403259
-10.499318 -70.298080 -239.046036
18.681852 -72.292717 -235.641754
-161.478867 -72.064056 -237.220871
-6.715546 -68.714417 -235.412643
-7.967933 -73.854622 -238.832977
-168.282745 -75.717598 -247.834106
-11.901209 -69.090317 -243.438385
13.951479 -67.610100 -244.723984
-149.094193 -76.000381 -249.512436
-76.782440 -72.684647 -250.624542
-62.995232 -74.230263 -246.190948
50.422710 -66.944031 -247.136963
-73.934830 -72.089462 -244.801010
15.136096 -71.487717 -249.717194
-73.663933 -74.063774 -249.508682
-16.727844 -68.953827 -242.369080
-146.144470 -77.716362 -250.457504
44.290154 -65.455040 -251.064819
-81.865067 -76.715820 -255.586502
-104.268822 -68.985619 -253.500900
-101.285561 -74.798065 -252.717422
-122.351013 -69.864456 -249.536865
-107.245941 -68.743408 -255.460373
-106.173531 -72.047829 -255.681671
19.893671 -65.940414 -257.319183
-131.699585 -70.077415 -263.050171
-16.705765 -71.900566 -274.549408
-150.401352 -69.400612 -281.811981
-170.269257 -75.890434 -284.205536
-126.557510 -74.059898 -280.998444
-115.873253 -68.461906 -284.840118
-77.392616 -66.723610 -281.467224
-59.535145 -73.194672 -285.678406
-42.935524 -69.601921 -284.836426
-17.233723 -75.433678 -290.729553
-15.611531 -67.358986 -292.821045
-40.545418 -74.427948 -290.234833
-36.314125 -71.058517 -288.008942
-21.213634 -66.428955 -287.931305
-75.223526 -70.352837 -292.965393
-58.289406 -70.427948 -290.308716
-20.916035 -65.816711 -291.221649
-15.685897 -73.002121 -288.569122
-5.527281 -69.602249 -293.147827
0.585004 -65.332695 -292.554626
-95.633720 -71.900948 -292.070465
-140.158157 -75.870819 -294.259338
-117.387886 -73.463737 -290.951263
-155.414383 -70.191429 -291.224335
-152.521820 -73.987328 -297.179443
-149.479370 -69.597687 -297.928101
45.566444 -71.643181 -22.778603
22.419542 -79.952110 -23.421516
52.123791 -70.650665 -24.174713
49.206688 -75.984337 -35.970695
89.765396 -72.713097 -72.468620
97.509888 -75.092087 -75.457222
102.914276 -72.955894 -77.584068
99.622482 -72.398117 -85.143532
56.964985 -74.361092 -90.516960
45.158180 -80.480186 -89.993500
64.644394 -71.929688 -91.278877
-64.385162 -73.540344 -92.794098
73.128067 -71.258034 -87.815308
100.895126 -63.104736 -100.324104
75.533318 -72.669113 -102.559151
94.342400 -70.610382 -104.242531
-85.715042 -76.561295 -103.718170
46.993057 -71.415474 -96.178375
-86.801308 -77.559135 -98.778801
52.669456 -73.919533 -110.477173
37.819363 -81.178391 -103.402267
100.670578 -70.730034 -104.204262
37.650360 -73.386681 -104.651443
45.556015 -74.979462 -121.149292
43.305050 -73.420441 -113.290024
112.403320 -69.956261 -112.464417
-79.666367 -81.583260 -120.829582
113.775352 -76.665909 -123.872841
42.258808 -67.533318 -125.408089
40.742931 -72.632492 -120.097313
35.143791 -73.845474 -120.022530
-54.232246 -80.489067 -128.544769
30.394032 -71.618279 -123.250465
-77.541801 -71.022972 -137.133560
-54.318317 -79.388107 -131.555679
-79.031761 -71.978897 -133.561005
37.324837 -70.139603 -132.091934
-59.385601 -76.714165 -132.409851
35.835926 -71.874825 -133.077652
-70.836075 -72.138824 -138.413315
-58.981441 -69.555153 -141.220291
24.109644 -73.972923 -144.563370
112.367165 -74.010933 -144.120407
115.249649 -65.522919 -138.680206
30.772110 -73.028389 -142.929031
-49.368778 -76.906372 -138.847229
105.227264 -67.813553 -153.706833
-76.114159 -74.452011 -141.158340
-58.151405 -74.114174 -141.077286
31.908777 -66.011841 -146.008972
-77.955406 -76.525253 -144.698914
-70.081192 -73.683723 -148.585709
114.245995 -76.124481 -150.651260
-64.370842 -72.198059 -154.527130
-39.437122 -69.431305 -150.732300
24.762575 -70.883537 -144.545990
-71.735703 -75.231239 -142.839905
12.639318 -71.344963 -148.663971
31.967396 -71.568115 -158.547836
31.470644 -69.041939 -151.904984
17.545111 -77.744751 -153.710037
-50.524048 -76.482323 -152.105118
23.262234 -75.293839 -153.255585
-46.858376 -72.727142 -150.224319
3.512049 -72.844170 -154.034164
19.519789 -71.408302 -149.949326
-67.154541 -72.697937 -157.328156
-47.303509 -70.185165 -153.181396
-68.446007 -74.124153 -150.790131
20.222382 -70.708023 -158.631393
23.750816 -71.376656 -150.136230
2.389841 -72.511581 -166.311554
21.999025 -71.164841 -152.072189
30.479244 -70.673241 -168.917679
-47.267670 -74.467369 -163.280518
-38.434402 -82.458641 -163.945923
-41.687218 -74.915802 -160.391098
27.752720 -72.877213 -157.677917
-44.818207 -70.365616 -165.357620
-39.511539 -71.277885 -168.014847
21.627096 -69.943146 -165.318207
-39.958084 -73.642700 -175.691284
27.005083 -66.417419 -170.064468
110.131493 -65.670250 -164.513229
-34.552780 -73.102287 -171.516312
99.786812 -66.983383 -174.489471
-34.961254 -72.416794 -177.210510
-38.324894 -76.816910 -181.490982
22.528128 -75.066177 -178.459534
106.112564 -70.762619 -183.163986
-33.584358 -70.501694 -181.102585
-36.465485 -72.459702 -178.897583
-23.152630 -77.981590 -187.086243
-149.697327 -75.171936 -187.355423
10.692521 -71.144104 -183.288086
103.405594 -67.864296 -193.392761
-161.485703 -74.619293 -189.928238
-21.526596 -67.489594 -187.481049
-116.282066 -76.431961 -196.245377
-129.466919 -76.366631 -192.672363
-107.258377 -74.973038 -198.562881
-115.590919 -72.496429 -198.399094
-11.771339 -73.176659 -195.975800
19.107868 -68.689499 -195.867874
-16.738400 -66.963562 -201.510910
-129.146225 -73.917458 -204.284348
-21.220585 -66.779343 -200.497665
-128.749481 -71.573418 -200.920258
-17.361704 -71.544144 -198.191055
-147.910507 -72.899475 -199.224335
90.854744 -63.834457 -206.806564
-165.016342 -67.356544 -198.548492
-2.876012 -71.976616 -220.147186
11.458488 -72.869225 -210.296677
9.364209 -74.529861 -217.257111
81.400764 -69.403717 -216.842545
8.677311 -72.230766 -213.306839
10.440663 -69.515457 -214.940659
-16.610281 -74.896454 -214.989288
-91.179153 -74.121490 -211.343796
-99.420219 -73.028816 -215.192566
1.448948 -69.881859 -217.841934
-167.448700 -77.111069 -218.852661
15.311738 -67.478729 -217.916351
-145.686081 -73.065033 -217.916733
12.696903 -71.068451 -224.852280
-136.237823 -75.671677 -223.028915
-116.361252 -74.206947 -226.691223
16.391365 -69.719521 -220.139389
78.637978 -69.340919 -220.227234
5.249522 -71.364845 -223.535934
-109.874977 -71.428612 -229.765259
68.632423 -70.700577 -228.132278
84.619431 -70.495140 -230.296509
-127.487732 -72.576118 -234.991394
-119.879982 -72.729523 -228.157288
-10.355334 -66.015518 -225.510895
70.970665 -69.657150 -233.671448
63.524403 -69.772507 -232.815704
71.097412 -68.521851 -229.073975
-137.656174 -68.560921 -231.656021
68.115814 -70.702568 -231.248993
64.547752 -65.802177 -235.478622
-167.019165 -71.491661 -229.064789
1.089232 -78.793976 -242.246964
19.617496 -71.731140 -239.099014
-7.370965 -66.703476 -241.165833
15.760291 -62.801899 -239.060425
66.104851 -70.113388 -238.348404
6.173130 -67.192032 -244.533051
-12.908037 -63.258057 -239.622772
-2.984949 -66.333664 -235.097168
63.671322 -69.418030 -242.679550
0.238676 -70.129570 -242.193054
-7.202969 -71.216408 -242.839615
13.575588 -73.622223 -241.915009
-168.646667 -76.626015 -238.782700
53.011749 -70.325043 -247.602814
47.177998 -60.900368 -253.070374
58.536079 -69.699516 -243.654800
-13.574941 -67.451942 -247.455002
55.787411 -68.107689 -245.370361
-75.867172 -71.135681 -249.736572
48.958527 -69.481163 -248.483536
-88.851685 -70.813576 -251.538101
-123.180069 -73.203644 -256.341003
-133.234055 -72.875069 -250.302368
46.118011 -71.200600 -251.828705
-131.869995 -76.042007 -249.848465
-109.825661 -68.898926 -252.269440
-118.984497 -69.496185 -256.056763
-85.763161 -71.812569 -253.096649
-112.006294 -68.480141 -256.361176
-125.577515 -76.445831 -260.962006
-148.923553 -69.365891 -266.358643
-16.849543 -67.644272 -267.288910
-174.888489 -76.371620 -262.484344
-16.599625 -68.192673 -274.465454
-160.227463 -68.302750 -264.767090
-154.318512 -73.442612 -270.163208
-172.628464 -72.488426 -275.231262
-16.969992 -70.053902 -281.543671
-129.792343 -74.686714 -280.948486
-158.822830 -71.807976 -284.056854
-144.881577 -70.624382 -278.350067
-136.531601 -74.744774 -276.060516
-10.206109 -61.091000 -283.557556
-127.876938 -75.303719 -281.068787
-142.638092 -68.102165 -283.698975
-117.044777 -75.800896 -283.902588
-82.976074 -67.249718 -287.681458
-61.524258 -71.653091 -285.900116
-9.833371 -70.443680 -287.372772
-56.473152 -68.415352 -282.575195
-58.744350 -66.841492 -287.560608
-73.295204 -68.036324 -289.039581
-91.026680 -68.554947 -293.799042
-95.141716 -68.486893 -286.329468
-161.229187 -71.434982 -289.253693
-162.199158 -72.713669 -292.358398
-125.971588 -74.834213 -291.613495
-146.351120 -71.195045 -292.231842
-153.627533 -74.119591 -303.258575
-154.542847 -74.907913 -309.397491
50.376312 -73.294357 -13.319592
16.750195 -77.288544 -31.593227
44.058834 -69.263680 -35.429054
-13.232005 -78.420120 -65.785301
82.812859 -70.320419 -65.798775
91.622276 -67.289497 -66.829872
80.087143 -78.083824 -66.039963
73.319534 -74.953819 -70.647675
92.122139 -74.243599 -77.097038
-96.447403 -72.399101 -68.694321
67.258522 -73.057938 -75.787651
-35.180428 -77.732086 -77.150711
99.162239 -71.205627 -86.451256
63.315968 -68.248993 -91.013077
108.691589 -77.348747 -93.612007
100.426056 -76.734184 -100.104614
74.145515 -71.912254 -102.237175
-81.212700 -71.992287 -101.512589
55.087688 -71.023964 -106.332047
108.752861 -66.736397 -107.864433
46.489159 -71.691803 -114.413200
80.197090 -69.916382 -107.065994
41.974220 -71.687035 -108.399109
103.289261 -70.808548 -104.249840
47.982506 -71.782265 -108.295715
106.706856 -77.951698 -110.562347
111.406227 -75.229218 -111.329132
-79.707451 -71.838005 -113.023575
-82.997810 -71.909363 -119.188133
44.165150 -75.467621 -120.119621
113.968178 -72.144585 -124.321236
113.616974 -70.228981 -124.759315
-88.762321 -73.281837 -125.333702
105.365044 -73.012535 -128.396011
-59.378517 -79.569008 -131.162552
-85.989471 -75.069115 -126.671005
-70.544853 -75.032242 -125.625999
-60.042793 -69.613174 -125.754646
32.160076 -71.602051 -131.096695
44.150337 -67.769142 -136.157593
-71.434074 -73.487213 -135.113525
28.895102 -68.634438 -129.971176
112.704681 -69.339844 -146.068176
-38.376369 -73.081696 -148.850540
33.188343 -73.529320 -149.808014
112.936531 -67.140541 -150.215744
36.061405 -72.193893 -142.662277
109.770027 -68.226021 -140.842575
-51.850281 -72.592316 -148.822037
-73.614449 -69.687210 -150.326553
-57.562763 -73.592209 -150.121765
-42.826969 -77.507187 -164.419388
3.423498 -74.224487 -155.632751
108.678589 -70.014511 -154.231583
108.117256 -68.802536 -161.972168
10.720822 -71.189362 -156.745224
1.742931 -70.611687 -160.299530
20.966423 -69.143211 -154.178833
25.781790 -69.298409 -155.710190
106.967613 -68.660538 -166.513641
110.574684 -72.866302 -168.863785
23.481480 -67.157784 -176.048141
23.975157 -74.269096 -165.255493
111.158699 -66.198410 -163.268585
-30.425606 -69.962212 -178.212051
110.202049 -69.347214 -168.605621
17.530390 -71.264603 -165.078857
20.977272 -70.763695 -169.163345
107.551926 -69.243958 -173.695618
27.016521 -69.430420 -170.084366
113.005363 -66.548332 -186.178711
-39.144035 -71.224815 -178.705185
23.647608 -70.578186 -169.530350
107.208939 -68.238564 -185.828308
22.141813 -71.735847 -177.173080
-151.952133 -72.027550 -183.802551
-28.693970 -67.403534 -189.267670
23.491850 -67.016983 -185.188416
-116.019760 -75.440742 -190.610764
-112.595520 -69.508949 -190.882889
24.280521 -70.896194 -187.915802
10.131652 -67.095016 -184.481140
-27.809576 -67.050720 -189.800690
-29.517195 -76.670403 -188.848907
-29.523842 -71.842857 -187.615585
12.388651 -67.572952 -179.952316
-151.489716 -73.639091 -193.726532
-146.981995 -72.983826 -190.104004
-147.078201 -77.906227 -197.352539
-24.331684 -69.807373 -190.880432
13.504612 -66.544167 -199.576187
97.678772 -66.632797 -193.573822
-114.353973 -70.944717 -196.652084
20.531105 -74.668282 -197.977814
-14.554515 -69.110062 -194.385757
-18.046869 -70.386894 -198.046722
100.649551 -66.115807 -201.177200
6.412240 -73.090858 -198.181259
-22.982597 -68.742149 -196.153137
-121.366196 -76.588242 -202.566727
-135.261597 -73.623650 -201.216125
-115.296211 -66.066017 -204.083374
-142.935013 -77.358673 -201.196350
16.018023 -69.472137 -197.861038
91.920822 -70.247162 -201.007813
-166.353622 -67.682617 -197.558167
99.283936 -66.967667 -202.545425
-24.008026 -76.056274 -204.939117
93.667007 -64.013718 -210.190399
87.354622 -70.386383 -210.574936
9.894249 -72.643822 -203.345795
19.716433 -68.014526 -212.902664
12.358121 -65.447136 -208.116486
-11.974554 -69.872375 -223.238556
-94.769989 -75.015152 -218.323441
-12.988149 -73.061462 -210.954239
86.939995 -68.388123 -218.347610
-95.252472 -75.118568 -215.174973
-101.065430 -67.918785 -220.351486
-97.133080 -71.257149 -217.537796
88.108986 -70.333359 -223.483002
-136.853958 -73.405525 -223.208893
-132.186783 -79.032745 -225.927368
-117.556305 -72.301155 -222.956848
-114.470695 -68.854713 -219.736160
-133.920273 -69.748726 -225.844421
-114.109833 -81.127556 -226.754150
-112.449852 -70.997055 -226.675903
-8.028994 -74.501030 -223.739151
-16.195505 -73.387344 -222.829025
-2.050483 -66.238548 -229.513336
-11.182446 -65.586517 -226.374161
14.518308 -70.036362 -234.053299
-21.465528 -67.297485 -228.880417
-167.879028 -71.456581 -218.282242
-6.516742 -70.137726 -233.538513
79.757050 -63.237591 -232.911514
10.822613 -71.523094 -233.264771
-6.630922 -68.529739 -235.045593
-158.353683 -69.930290 -233.520020
-144.388290 -70.536118 -226.423996
59.795403 -66.545433 -237.095795
-6.745862 -70.356255 -232.939056
9.927169 -71.898239 -229.223953
68.496437 -71.380127 -228.268707
75.644112 -67.282845 -235.380844
70.346977 -68.918137 -243.135757
-3.020159 -73.426125 -234.631134
57.252834 -65.233391 -237.202560
-20.505259 -73.207993 -239.784668
-15.737955 -65.675842 -239.266708
6.559948 -68.756256 -238.368912
62.880531 -72.376205 -237.442108
66.035278 -65.359589 -242.008026
47.368973 -68.424431 -246.128387
59.739597 -71.983704 -243.269760
-16.535315 -75.903252 -248.735886
-85.451515 -66.536392 -255.064484
-78.420784 -67.700851 -252.286545
42.759323 -71.867004 -247.430313
-153.079712 -74.230835 -247.651062
33.807774 -67.405083 -257.201355
-93.622978 -76.375847 -250.566269
-158.717300 -66.886383 -251.544434
-141.467651 -62.458015 -249.716019
41.883011 -67.010963 -254.344498
-127.127579 -66.783173 -256.421967
-119.080711 -72.550377 -252.845352
-93.255852 -65.364822 -255.007614
-14.583378 -64.098640 -247.420364
30.587051 -67.333862 -256.459198
23.382959 -64.418098 -258.895691
-161.756577 -65.381409 -258.341919
-116.052315 -74.129158 -260.967529
-15.056608 -68.603836 -261.672577
-133.567154 -70.736687 -263.700470
-16.255302 -67.011658 -269.711609
-165.354019 -71.084099 -268.765869
-7.872370 -69.149010 -278.065613
-161.915344 -72.179100 -285.160004
-166.527191 -75.179214 -275.697784
-144.176971 -71.516968 -282.844788
-173.461945 -74.445190 -281.954590
12.549838 -70.851288 -288.705353
-105.022835 -71.469963 -284.719086
-89.713547 -63.331509 -283.775360
-170.598038 -67.693283 -281.347656
-94.447273 -76.672104 -280.425140
-157.667038 -72.057762 -286.623657
-79.100342 -71.069008 -295.345215
-74.089958 -68.350792 -287.430969
-85.302094 -71.476631 -290.473419
-5.530463 -65.567970 -287.609802
-92.148788 -69.612099 -285.710571
-101.173759 -72.264763 -288.812561
-120.492683 -70.392342 -290.951141
-118.844582 -66.001793 -290.937592
-136.184616 -70.930634 -289.124268
-144.517853 -70.086823 -298.398895
-146.820511 -71.687195 -309.774536
26.025324 -70.826126 -14.338502
35.141331 -73.308273 -15.941787
31.732178 -76.802811 -18.054321
46.550831 -70.156326 -19.768305
25.596405 -73.160080 -31.665884
-73.221252 -74.049011 -45.193134
90.709785 -65.721306 -67.118027
-17.862368 -70.074959 -66.245140
105.303535 -70.366035 -74.574829
95.133789 -75.640312 -76.650253
69.426285 -72.474075 -79.433319
73.107155 -75.822739 -82.811859
-43.166603 -77.716476 -81.072716
61.945152 -77.009705 -81.842957
-92.485863 -75.054291 -87.313194
-46.697098 -70.999092 -83.329056
-55.090313 -80.950706 -84.309151
103.433151 -77.520615 -99.664276
61.109062 -75.169800 -91.140503
68.201775 -70.399010 -91.308418
-93.868393 -67.260002 -95.347847
109.077156 -72.428070 -92.354774
43.471447 -69.706230 -99.320869
103.090042 -69.798294 -99.221611
107.930664 -66.699753 -107.307236
101.090271 -70.504219 -104.617912
75.192810 -74.558243 -99.871277
87.819946 -72.857025 -108.580811
51.096905 -69.603477 -111.342529
111.365181 -65.744339 -103.301079
48.416370 -75.581230 -104.704239
39.559570 -69.654144 -102.013832
114.169426 -70.533691 -111.579178
-77.506622 -69.419380 -107.288841
46.362289 -69.629105 -112.871971
34.129066 -74.388626 -116.026573
106.667938 -66.940475 -111.455177
38.342499 -68.071510 -111.519943
-86.473732 -73.472038 -109.620178
-94.507195 -69.418556 -112.456032
103.047264 -75.040642 -120.898323
-94.149292 -74.441231 -117.040016
40.171467 -74.689217 -121.084175
37.249447 -71.077736 -122.434486
-84.186844 -73.148987 -122.200577
33.647758 -68.488770 -133.950607
112.603981 -70.577728 -132.398132
-52.724373 -72.108078 -136.940475
-87.457977 -71.264603 -131.191498
38.905361 -75.479729 -130.662033
-86.701218 -67.505005 -134.611725
-87.697487 -76.170563 -139.043610
-49.643112 -72.605927 -135.098694
-70.673141 -69.736488 -137.351532
-50.187222 -71.504547 -131.302322
117.369400 -65.316391 -137.747528
-71.490952 -74.907936 -133.326965
38.000294 -71.765808 -130.661270
-78.177406 -70.424576 -139.302460
-71.924301 -72.785263 -133.799515
-93.304764 -70.348503 -139.960022
-54.796700 -68.147934 -144.344315
31.736712 -64.840279 -145.733902
27.592365 -68.557587 -148.836349
20.363701 -64.065369 -144.041290
112.801147 -67.904449 -147.189972
-91.196152 -70.534370 -149.830399
11.512822 -72.047127 -152.040802
-71.473503 -71.256096 -153.192230
23.971321 -68.564835 -148.959076
-49.163239 -70.054710 -154.143997
10.003376 -68.735435 -153.392639
16.826576 -73.407982 -158.834793
17.333067 -75.811264 -163.721664
-50.484440 -74.025032 -162.231415
-38.448761 -69.568558 -154.262070
-47.172546 -72.314812 -160.946640
-103.292320 -72.992744 -170.959854
21.808411 -71.381012 -174.647705
-33.941235 -70.631180 -176.864960
15.487400 -74.890602 -178.176788
-142.644363 -72.026337 -173.637558
-31.741028 -66.550575 -171.471039
-156.147644 -80.054230 -175.809448
24.285025 -62.919563 -181.332077
-33.934422 -72.652298 -169.588974
-107.072304 -69.168159 -174.077072
-107.015411 -77.969315 -182.431244
-30.901213 -63.964066 -184.662521
-24.233009 -75.771202 -180.949799
12.332244 -67.980171 -188.719391
15.625007 -65.326736 -198.325958
13.061122 -69.786606 -187.111771
-142.861191 -70.171066 -184.451141
23.371140 -64.094589 -189.476028
5.546798 -68.308990 -196.363113
-135.658905 -69.958290 -191.182846
-113.293610 -70.849442 -193.314362
14.413220 -66.393997 -203.130005
-118.735741 -69.605011 -194.785934
-108.093361 -64.204765 -190.358459
-166.977127 -73.976860 -198.864975
-24.861588 -67.740875 -199.086334
10.564177 -66.695549 -199.375473
-145.211761 -72.575058 -201.814178
-137.930801 -75.175201 -204.982361
-22.170275 -66.872261 -207.039276
-12.860926 -70.131943 -204.697342
-14.415562 -70.547058 -205.276550
-139.317886 -76.799751 -200.827957
-17.881529 -68.799522 -212.211380
-9.794283 -74.713516 -214.151306
17.310545 -64.643082 -210.917023
-17.289007 -74.502090 -211.251724
9.763115 -69.778152 -208.947083
-11.683781 -70.467262 -214.693726
-23.798496 -65.162148 -210.806290
11.202559 -75.172638 -220.656021
-2.949971 -75.191048 -218.945663
10.296941 -63.428783 -220.109711
-7.258868 -71.713509 -227.757553
-161.019318 -73.071922 -224.114609
79.879539 -70.175613 -220.373688
-136.512115 -68.478584 -221.689529
-135.947479 -74.039307 -219.888290
-8.842047 -69.491676 -224.623032
5.894279 -67.476250 -234.842773
-158.987244 -71.297615 -228.691147
88.537689 -64.725761 -220.748032
-2.504447 -66.737808 -225.893692
-0.032347 -69.124512 -221.130936
73.133377 -70.413826 -231.421036
-0.757120 -64.820992 -235.655243
