-148.528701782227 -74.927001953125 -283.737091064453 2.160418510437
-148.814178466797 -73.602348327637 -285.483459472656 2.663861751556
-4.150632858276 -73.396781921387 -286.783813476563 0.833954572678
-148.725570678711 -71.131950378418 -284.549621582031 1.058685779572
-26.428642272949 -79.073394775391 -287.832366943359 3.352084636688
-26.851585388184 -74.745300292969 -286.823547363281 0.775075495243
-14.287620544434 -75.054763793945 -295.169830322266 2.635689735413
-14.629590988159 -74.672615051270 -294.407348632813 1.996794342995
11.402647018433 -80.752128601074 -292.858215332031 3.483373880386
-125.611686706543 -77.550567626953 -291.565948486328 1.065787434578
-62.103603363037 -77.266563415527 -288.704681396484 2.942133188248
-42.257575988770 -74.152084350586 -291.865783691406 2.603597640991
-33.786556243896 -78.069625854492 -289.293884277344 1.757787346840
-9.196532249451 -75.705169677734 -295.384765625000 3.364911079407
4.956439971924 -79.167625427246 -289.587799072266 2.101265907288
-142.357696533203 -76.072441101074 -299.183319091797 4.241558551788
10.186474800110 -78.623390197754 -297.375000000000 4.675030231476
-154.093750000000 -72.473838806152 -304.066864013672 2.292510986328
-154.588562011719 -79.418685913086 -302.738494873047 2.918531656265
-153.896408081055 -70.982948303223 -313.669891357422 2.525743007660
-143.569961547852 -74.298675537109 -311.012695312500 1.656813621521
-51.179523468018 -77.406524658203 -52.078025817871 4.394456386566
-54.358741760254 -81.366653442383 -57.810363769531 2.942834138870
-67.677047729492 -75.337005615234 -56.237930297852 1.305975198746
-40.690441131592 -75.683715820313 -63.841419219971 2.041068077087
-36.009365081787 -78.082664489746 -60.920921325684 2.485602378845
-19.564188003540 -77.257148742676 -71.822006225586 2.475203752518
-81.765388488770 -74.105018615723 -70.705711364746 4.317334175110
84.847053527832 -80.675247192383 -80.091552734375 2.845515012741
-91.018608093262 -74.950836181641 -75.577049255371 3.015470743179
80.242858886719 -77.989379882813 -79.070343017578 2.380949497223
87.875320434570 -75.625595092773 -85.980178833008 3.618177652359
97.443092346191 -77.355697631836 -91.396400451660 3.210858345032
-61.360527038574 -80.109054565430 -97.858726501465 1.192012548447
81.831336975098 -81.323036193848 -98.116249084473 4.955471992493
76.355873107910 -84.341117858887 -92.677833557129 6.094781875610
86.161506652832 -80.016090393066 -92.095741271973 1.717513322830
-59.488418579102 -77.590599060059 -98.978881835938 4.428767204285
48.630405426025 -77.234352111816 -99.687652587891 1.481748104095
45.473285675049 -78.499198913574 -108.192985534668 2.513056755066
39.381172180176 -79.900329589844 -105.274085998535 1.775245428085
35.806270599365 -79.415191650391 -103.597473144531 4.649971961975
-92.137359619141 -72.291183471680 -105.559165954590 1.122323989868
35.204837799072 -77.135322570801 -118.922012329102 1.619177579880
-85.139328002930 -76.966796875000 -108.771888732910 2.019966363907
40.088325500488 -80.264572143555 -128.800415039063 3.685794115067
32.432659149170 -79.794403076172 -122.417587280273 2.230677127838
33.991878509521 -71.261222839355 -123.035140991211 0.708173274994
44.227928161621 -76.961776733398 -119.103652954102 0.523054897785
41.048248291016 -81.710876464844 -129.836624145508 4.477965831757
-51.493217468262 -70.822242736816 -136.556732177734 1.309069991112
37.215557098389 -83.058937072754 -135.807800292969 1.248773574829
35.426658630371 -78.323997497559 -145.655868530273 2.188962936401
-55.887454986572 -74.690315246582 -145.154479980469 2.663080692291
-45.277229309082 -77.323234558105 -141.649032592773 2.206478595734
34.768943786621 -77.166526794434 -144.110336303711 1.331022262573
110.290260314941 -75.261489868164 -142.331481933594 1.785688400269
112.181900024414 -76.362373352051 -147.929489135742 1.936848878860
26.217454910278 -79.929817199707 -143.145706176758 1.918268084526
-40.551601409912 -79.840980529785 -151.105239868164 1.775454998016
116.260185241699 -86.793563842773 -154.303848266602 9.570607185364
-37.600223541260 -75.066879272461 -154.042129516602 1.113605380058
-68.059577941895 -75.580024719238 -163.615051269531 1.592504858971
110.260337829590 -84.281890869141 -157.646286010742 6.633583068848
22.392257690430 -79.214836120605 -167.696456909180 1.630098462105
0.656234979630 -78.625320434570 -164.271148681641 0.674074172974
110.963516235352 -80.037277221680 -154.423034667969 3.868901729584
-64.426986694336 -76.018707275391 -167.571456909180 0.108008883893
-38.926975250244 -78.114807128906 -166.790115356445 0.437444537878
111.219673156738 -80.695976257324 -166.531433105469 3.078298091888
27.532846450806 -73.213737487793 -160.049057006836 2.127441167831
-61.938034057617 -70.115615844727 -165.892211914063 1.415808677673
112.420227050781 -80.231475830078 -167.545043945313 1.963155388832
-65.695518493652 -77.999130249023 -170.300003051758 2.782425165176
-49.304977416992 -79.569267272949 -183.624084472656 1.205560803413
105.936286926270 -79.009376525879 -172.909912109375 4.339920520782
-59.799591064453 -74.875846862793 -173.588256835938 1.754588007927
112.269035339355 -78.756973266602 -179.397796630859 2.782240629196
-61.482013702393 -75.528717041016 -177.662994384766 2.549559593201
-15.991313934326 -74.751609802246 -178.920944213867 3.596503496170
-10.364864349365 -82.634963989258 -183.820571899414 6.088047027588
107.443313598633 -81.644424438477 -168.466583251953 4.780974388123
21.208909988403 -79.338668823242 -172.878967285156 1.736964464188
30.460601806641 -73.481986999512 -170.726440429688 2.961563825607
-58.137115478516 -75.493965148926 -178.863891601563 2.186609029770
17.301177978516 -75.979454040527 -183.287994384766 1.963450074196
-57.763431549072 -77.144378662109 -176.229827880859 1.763188004494
-52.549171447754 -74.910453796387 -195.053298950195 4.252836227417
10.829768180847 -75.407264709473 -186.245300292969 2.066951751709
-56.201778411865 -71.739044189453 -180.900390625000 2.948041200638
106.075546264648 -77.019180297852 -189.980712890625 1.600116610527
25.514745712280 -80.848243713379 -183.440017700195 2.972438097000
-35.169597625732 -74.372940063477 -189.697616577148 2.992909431458
-43.303581237793 -79.071945190430 -191.371078491211 1.123390197754
10.976427078247 -79.853469848633 -193.183715820313 4.803503990173
-19.964260101318 -78.346717834473 -189.613418579102 1.786537766457
-47.892295837402 -78.005455017090 -196.881164550781 1.842337369919
101.627876281738 -83.527572631836 -184.361175537109 6.442698955536
9.610889434814 -81.164794921875 -191.812896728516 6.237701892853
-132.931472778320 -80.924285888672 -201.384979248047 2.575769662857
-48.671886444092 -78.798004150391 -196.888290405273 1.889401793480
94.429374694824 -78.409637451172 -200.357818603516 3.125882863998
-149.898254394531 -80.640151977539 -203.858947753906 2.384885311127
18.071060180664 -78.280685424805 -201.554763793945 1.297627449036
-43.528190612793 -73.479286193848 -207.400024414063 4.856227874756
-30.553127288818 -79.918304443359 -208.468338012695 2.507706165314
-37.493080139160 -77.854713439941 -203.053131103516 1.843149185181
-45.951580047607 -82.785552978516 -199.419509887695 1.677362799644
100.390289306641 -79.220405578613 -206.108367919922 2.690119981766
-21.419700622559 -81.036041259766 -201.780044555664 1.237330198288
-150.492355346680 -74.750106811523 -202.543090820313 2.194886207581
15.530803680420 -80.299308776855 -203.269973754883 2.109479188919
-77.502037048340 -80.464378356934 -207.199462890625 2.596812248230
-144.339782714844 -72.578414916992 -215.067535400391 3.157626152039
93.653381347656 -81.513450622559 -215.119812011719 4.641595840454
-33.225261688232 -75.380241394043 -208.484802246094 1.882310986519
-29.150964736938 -77.534233093262 -212.610549926758 1.148550271988
9.533732414246 -78.296356201172 -211.498611450195 2.056641340256
-72.067443847656 -80.331001281738 -209.317794799805 1.862659096718
-27.640298843384 -84.727340698242 -207.488632202148 4.652055740356
-8.390722274780 -78.795494079590 -218.374145507813 1.644949316978
-70.669227600098 -77.333503723145 -215.469345092773 2.604015827179
-14.330031394958 -77.720794677734 -218.990234375000 0.750314235687
7.604690074921 -69.611076354980 -212.917968750000 3.204502820969
12.488421440125 -80.609832763672 -222.696502685547 2.840143680573
-151.689865112305 -76.541007995605 -219.136352539063 3.172565937042
-9.272662162781 -77.274505615234 -215.702346801758 2.445587635040
-101.624580383301 -71.874664306641 -221.490371704102 1.331889748573
-22.218957901001 -76.653839111328 -220.934555053711 2.240862131119
88.399147033691 -84.763893127441 -213.700103759766 7.483577251434
8.840873718262 -75.785034179688 -226.176971435547 1.222680091858
20.829727172852 -77.560920715332 -217.864273071289 3.868066787720
79.762092590332 -80.520286560059 -215.835845947266 4.740335464478
0.974596977234 -81.662147521973 -231.297042846680 2.771763801575
85.067878723145 -79.589820861816 -218.327011108398 3.247347354889
-21.108051300049 -72.990242004395 -225.866317749023 0.525752961636
16.206155776978 -74.683639526367 -219.909255981445 2.536161661148
-148.729675292969 -76.315948486328 -220.397537231445 2.060792207718
-25.997859954834 -78.517982482910 -227.627960205078 5.104094028473
1.726060986519 -75.018882751465 -232.208541870117 2.432048797607
-156.683807373047 -80.008987426758 -226.917678833008 3.055201292038
-137.745132446289 -77.933715820313 -229.345199584961 1.665774941444
3.065995931625 -77.255630493164 -224.971298217773 3.009675502777
-3.944453001022 -73.998603820801 -226.840225219727 2.349829196930
-137.329391479492 -71.449699401855 -230.657592773438 1.388439297676
-147.429306030273 -75.173461914063 -243.208892822266 2.273025274277
-149.063034057617 -75.377204895020 -237.152084350586 2.382343769073
-31.992107391357 -78.165527343750 -238.297515869141 1.518772840500
-142.631591796875 -78.060272216797 -244.680694580078 3.738409280777
15.329440116882 -79.190490722656 -242.884979248047 2.348365068436
5.451138019562 -77.190391540527 -246.158721923828 1.729124903679
-150.889801025391 -69.302391052246 -239.517898559570 3.505481958389
-149.838806152344 -74.296821594238 -246.216171264648 0.939555764198
-45.896362304688 -78.607078552246 -247.142120361328 2.208647966385
-31.819435119629 -77.634368896484 -248.358917236328 5.425512313843
3.917699098587 -77.576530456543 -244.190887451172 1.203867316246
-36.530059814453 -78.775993347168 -246.848358154297 3.730465650558
21.743055343628 -78.142181396484 -247.956527709961 1.757180690765
-6.198723793030 -79.758499145508 -254.104553222656 1.433641791344
-144.800781250000 -75.867187500000 -254.423645019531 2.578948020935
-10.164560317993 -82.435668945313 -254.432830810547 2.649176359177
-148.554153442383 -72.578033447266 -248.535400390625 2.562454223633
-65.635681152344 -78.315025329590 -251.647338867188 1.841791033745
-147.307189941406 -82.081123352051 -260.560302734375 1.420417547226
-127.650489807129 -75.113945007324 -259.647705078125 1.425776124001
-153.013381958008 -74.266525268555 -258.712158203125 2.335724115372
-10.751043319702 -74.657844543457 -268.740173339844 3.719670772552
-146.000244140625 -80.894134521484 -273.659820556641 1.057874798775
-149.436126708984 -75.142333984375 -270.704742431641 1.822058081627
-11.960964202881 -77.699607849121 -272.277740478516 1.451949238777
-144.552307128906 -75.114120483398 -271.544372558594 3.530454874039
-6.482717037201 -75.991989135742 -278.096313476563 1.037715077400
-45.806503295898 -75.804214477539 -285.447174072266 2.748007535934
-134.958938598633 -72.325347900391 -289.850311279297 0.771604418755
-135.669296264648 -74.261466979980 -287.286041259766 0.645646691322
-123.332984924316 -71.757278442383 -283.309020996094 3.310657501221
-51.977146148682 -75.515373229980 -287.734741210938 1.626344561577
-112.146141052246 -73.782814025879 -285.327819824219 2.683998823166
16.332086563110 -76.924385070801 -293.881225585938 1.717423081398
-57.062847137451 -74.228080749512 -289.993041992188 0.724954903126
-140.926879882813 -74.407936096191 -294.681579589844 3.580247879028
-63.332580566406 -74.788108825684 -291.920928955078 1.297630429268
-144.858322143555 -79.851974487305 -295.020629882813 1.283057093620
-116.526641845703 -72.566886901855 -292.401519775391 1.961208701134
-46.045860290527 -78.964035034180 -291.785186767578 3.962077140808
-33.569293975830 -76.632301330566 -292.998870849609 3.015914440155
-137.764999389648 -70.365951538086 -297.533508300781 3.647410154343
-14.029618263245 -71.674423217773 -284.002899169922 2.520139217377
4.673291206360 -76.867286682129 -288.840057373047 1.400800824165
6.698020935059 -75.654792785645 -291.866821289063 1.662431955338
15.252028465271 -78.435325622559 -296.936553955078 2.745913743973
-149.840103149414 -78.815849304199 -299.561401367188 2.066203117371
-144.962631225586 -72.251022338867 -294.736267089844 1.593133687973
-66.574798583984 -74.817047119141 -63.608375549316 3.588090419769
88.759101867676 -80.946975708008 -73.938415527344 5.463284492493
78.671386718750 -80.294357299805 -78.777595520020 3.874515295029
-28.020690917969 -79.682510375977 -77.909645080566 2.179399251938
83.593544006348 -77.607376098633 -76.026191711426 3.665226459503
-38.091697692871 -79.521949768066 -81.280212402344 0.670573949814
82.767768859863 -75.434127807617 -83.316513061523 2.785645246506
96.082191467285 -75.623100280762 -81.289642333984 1.217765331268
-64.537094116211 -70.158706665039 -97.293190002441 2.589382886887
72.674507141113 -79.495887756348 -95.642623901367 4.278586864471
79.912033081055 -76.927162170410 -99.028053283691 3.315306425095
96.435264587402 -82.172851562500 -96.554138183594 6.668203353882
55.177669525146 -80.410102844238 -98.417030334473 3.507201671600
-67.220970153809 -73.917198181152 -102.778739929199 1.783239245415
-74.024909973145 -72.246704101563 -102.526435852051 1.856068134308
50.463390350342 -80.547660827637 -104.954696655273 2.244840860367
-87.894554138184 -77.280723571777 -103.769241333008 3.164193391800
47.161216735840 -75.328208923340 -119.386276245117 2.471519470215
110.590538024902 -78.717468261719 -121.176803588867 2.654301881790
112.842018127441 -81.553276062012 -131.725845336914 4.024473667145
20.786029815674 -75.628921508789 -138.431503295898 3.476973772049
110.179466247559 -81.166717529297 -128.135162353516 4.534251689911
28.656084060669 -75.293472290039 -134.756835937500 1.573128819466
112.913513183594 -73.725151062012 -133.506790161133 2.203383207321
37.112071990967 -75.699127197266 -135.985839843750 2.381417512894
-56.264610290527 -75.741340637207 -142.017089843750 3.534740209579
36.079166412354 -81.585723876953 -146.621566772461 3.974177122116
108.794807434082 -77.308860778809 -136.141983032227 3.165423154831
-46.137351989746 -74.589134216309 -145.269332885742 1.670348286629
32.020122528076 -76.449806213379 -151.532608032227 1.074429273605
-56.649887084961 -70.636718750000 -142.608734130859 1.366546511650
-59.060035705566 -75.830528259277 -146.099075317383 2.984076261520
-52.645782470703 -79.235107421875 -151.487716674805 3.504549741745
-64.483695983887 -78.722526550293 -157.223312377930 1.072573781013
111.858345031738 -83.411102294922 -148.546768188477 5.562875270844
-49.995639801025 -82.490676879883 -156.756423950195 4.206501007080
22.917425155640 -82.407737731934 -157.787536621094 4.640636444092
107.755729675293 -79.944305419922 -163.419418334961 3.822406291962
-65.443962097168 -75.791343688965 -156.187255859375 0.795190513134
-43.672779083252 -77.470542907715 -158.670303344727 2.610907077789
9.010515213013 -74.901321411133 -155.798812866211 1.591784477234
-68.341506958008 -76.230957031250 -156.529632568359 1.977542042732
-64.033439636230 -78.514976501465 -160.073486328125 1.071648478508
0.276995003223 -77.242408752441 -163.733154296875 1.470921039581
-43.832050323486 -72.612144470215 -169.239196777344 1.439439415932
29.024328231812 -75.395118713379 -168.691909790039 1.018827319145
-63.141193389893 -71.973930358887 -169.597320556641 1.735218882561
-56.081802368164 -78.032363891602 -168.066253662109 0.817532420158
14.915802001953 -80.540054321289 -161.332763671875 7.002232074738
-30.272613525391 -75.418235778809 -169.882675170898 2.288808107376
-28.751340866089 -79.161911010742 -167.980041503906 2.634557962418
15.054357528687 -78.743659973145 -176.026977539063 3.275829315186
-43.532516479492 -79.125755310059 -174.369964599609 3.162777662277
-10.615281105042 -78.278060913086 -173.735107421875 1.844693541527
-65.432739257813 -72.588714599609 -172.969558715820 2.580977916718
-7.362462043762 -74.414337158203 -175.328964233398 0.637748479843
-21.760013580322 -76.812736511230 -181.185195922852 1.803460717201
22.434123992920 -74.601531982422 -185.263061523438 3.042768239975
-38.908721923828 -77.993171691895 -173.732803344727 1.674071192741
20.932712554932 -73.519515991211 -177.148300170898 1.794025182724
-22.759590148926 -72.836196899414 -186.908050537109 1.224690198898
-32.166641235352 -78.961265563965 -179.406600952148 1.136233687401
-148.149383544922 -71.496871948242 -193.491699218750 1.341053128242
-18.158691406250 -81.019836425781 -185.356903076172 1.727784156799
-140.776504516602 -72.853080749512 -190.969802856445 3.530360698700
-153.667007446289 -74.437484741211 -188.738449096680 3.716361999512
-49.557243347168 -74.287376403809 -189.969451904297 2.415016889572
98.359382629395 -78.188514709473 -196.142669677734 3.447873830795
-144.938674926758 -75.555450439453 -192.140457153320 1.353823781013
-146.440093994141 -72.396835327148 -197.289886474609 1.109500527382
22.565645217896 -75.640556335449 -197.732437133789 2.680809259415
-138.387496948242 -74.733505249023 -197.664993286133 2.558428287506
13.877045631409 -73.439659118652 -200.428588867188 2.673005580902
-138.324417114258 -77.098045349121 -200.997268676758 1.586511969566
13.235432624817 -73.392959594727 -198.964111328125 1.862869858742
-133.046966552734 -71.149383544922 -197.581710815430 0.592008411884
5.329386234283 -73.685401916504 -203.917266845703 2.148619174957
-151.756011962891 -74.092895507813 -204.149642944336 1.921854615211
95.203811645508 -78.646553039551 -207.637985229492 2.616444587708
-16.790988922119 -79.095268249512 -209.391952514648 1.994302153587
-30.450403213501 -75.202789306641 -210.078216552734 0.832774579525
-11.892651557922 -71.905090332031 -206.647796630859 0.767963767052
-145.683883666992 -78.535804748535 -212.220108032227 1.023170590401
-35.481716156006 -76.213302612305 -204.771362304688 1.185050010681
-83.967185974121 -77.435104370117 -205.298614501953 5.875657558441
-26.855373382568 -77.830108642578 -209.820953369141 1.784315109253
14.806315422058 -77.622917175293 -214.789550781250 1.854188680649
-146.417984008789 -72.014564514160 -216.473953247070 2.183042287827
-89.233345031738 -77.342262268066 -220.150009155273 3.440324068069
-29.246561050415 -75.015945434570 -220.514831542969 3.632757186890
-27.204879760742 -76.108665466309 -221.891296386719 2.085738182068
-8.722922325134 -78.357170104980 -210.853973388672 2.156354427338
-27.317695617676 -75.514152526855 -209.588378906250 1.806580781937
-83.901260375977 -75.528793334961 -222.803909301758 4.316150665283
-89.722381591797 -80.350524902344 -220.990859985352 5.425318717957
-22.901371002197 -75.671829223633 -222.911788940430 0.942772507668
-2.058845996857 -84.675178527832 -226.157897949219 4.636148452759
-155.819091796875 -76.028060913086 -218.711639404297 2.923520326614
-2.421904087067 -78.377029418945 -222.710937500000 1.205320715904
87.503524780273 -82.645713806152 -228.613067626953 8.054049491882
-139.534973144531 -76.823463439941 -224.643661499023 1.670817732811
-4.239130020142 -77.391128540039 -222.720382690430 1.246287107468
-139.412734985352 -75.864028930664 -227.208877563477 1.709728717804
-147.221618652344 -82.305725097656 -226.686950683594 1.646246433258
-5.749022006989 -75.551124572754 -229.686233520508 1.079129338264
21.358520507813 -78.234672546387 -216.095993041992 4.282670974731
-138.939178466797 -72.397529602051 -230.762481689453 2.046824216843
-17.728065490723 -78.092041015625 -229.207992553711 2.854868888855
72.401168823242 -79.154022216797 -226.770721435547 6.088319778442
75.003105163574 -78.466400146484 -235.076248168945 4.964604854584
10.441849708557 -79.005912780762 -231.376083374023 1.686805725098
-33.592044830322 -77.454711914063 -237.308441162109 2.012060165405
-23.586141586304 -83.877830505371 -243.587158203125 5.238083362579
2.973095893860 -75.110046386719 -244.523468017578 2.258320569992
-46.625556945801 -71.488685607910 -244.833053588867 2.845914602280
-20.897142410278 -74.358566284180 -244.247192382813 2.489129781723
10.305086135864 -73.915214538574 -240.380493164063 1.119363903999
-63.085807800293 -76.066818237305 -246.898254394531 1.080788016319
-35.941146850586 -80.785461425781 -245.249298095703 3.711814880371
-38.581279754639 -74.645629882813 -246.765396118164 2.274283647537
-147.847396850586 -71.800323486328 -247.314224243164 2.302103042603
-44.905292510986 -78.892036437988 -249.730758666992 4.516894817352
-52.372386932373 -68.570892333984 -248.651168823242 4.993205070496
-65.638885498047 -75.307723999023 -250.297851562500 2.336328029633
-10.484550476074 -80.765617370605 -247.472579956055 5.512336254120
-78.914115905762 -76.608253479004 -256.410919189453 2.490951299667
-156.471313476563 -79.943084716797 -254.997390747070 2.934076070786
-140.377853393555 -72.945686340332 -255.084121704102 2.370786428452
-121.460029602051 -76.094139099121 -260.039245605469 3.692245006561
-158.098770141602 -70.294204711914 -259.946777343750 1.872350096703
19.175031661987 -83.469924926758 -267.694427490234 3.555904388428
-14.367668151855 -78.722763061523 -270.146209716797 1.601820588112
-154.584579467773 -76.612800598145 -275.491577148438 3.587460994720
-152.568771362305 -80.373146057129 -279.939056396484 2.763895988464
-145.623916625977 -76.485137939453 -286.989959716797 1.449867010117
-58.330215454102 -70.890731811523 -281.404724121094 3.696957826614
-38.419818878174 -70.780342102051 -286.824188232422 1.906644463539
-18.553625106812 -73.743331909180 -290.612304687500 2.038579702377
-9.095305442810 -72.554977416992 -280.496673583984 1.831836462021
-65.951515197754 -78.410003662109 -286.533233642578 2.559854269028
-80.759956359863 -79.177177429199 -287.420928955078 2.411623477936
-1.891862988472 -77.529930114746 -284.023651123047 2.485595703125
3.499674081802 -78.048751831055 -293.291381835938 2.037141084671
-139.361083984375 -72.544837951660 -287.602569580078 1.297769188881
-80.170135498047 -71.808410644531 -287.459136962891 1.886978507042
-146.772094726563 -72.725242614746 -288.896148681641 3.331911802292
-94.454185485840 -83.178779602051 -286.916076660156 7.786327838898
-78.445610046387 -74.468093872070 -287.140045166016 2.717001914978
-85.567001342773 -72.116333007813 -296.830200195313 5.269262790680
-62.645767211914 -74.861328125000 -293.064941406250 2.549157381058
-30.029279708862 -69.595626831055 -296.371856689453 4.983233451843
-7.988142967224 -75.837036132813 -291.859191894531 1.158163785934
-150.715087890625 -66.938102722168 -300.378540039063 1.392582893372
-148.538314819336 -71.443038940430 -302.120697021484 2.410030841827
-143.628158569336 -72.502914428711 -306.364776611328 3.088647603989
-157.383087158203 -73.058174133301 -306.285034179688 1.576244235039
-56.527591705322 -72.230659484863 -57.414749145508 2.930576324463
-48.286666870117 -75.148216247559 -54.227783203125 0.896374225616
-39.681282043457 -77.475967407227 -55.077224731445 3.480362653732
-77.398399353027 -77.914680480957 -63.647331237793 1.519248366356
-29.341102600098 -74.708969116211 -65.989372253418 3.298265695572
-34.553153991699 -75.268936157227 -81.061286926270 2.000967979431
74.293487548828 -81.956703186035 -84.092834472656 6.688928127289
75.065406799316 -78.426872253418 -80.751113891602 3.687071323395
72.574432373047 -75.631004333496 -84.656204223633 1.528592824936
100.039817810059 -75.048995971680 -91.443878173828 3.266991853714
68.454277038574 -80.266784667969 -90.329345703125 6.043706417084
48.126514434814 -80.387016296387 -90.247993469238 7.041017532349
51.575103759766 -83.145606994629 -102.529357910156 4.646878242493
-66.497489929199 -73.718055725098 -103.390472412109 2.362938165665
-73.983886718750 -70.164283752441 -103.769783020020 3.389503240585
44.831695556641 -78.747535705566 -104.332168579102 0.618496119976
-82.201583862305 -80.433181762695 -111.435989379883 2.186182737350
-92.881851196289 -72.840003967285 -111.918884277344 0.645833313465
51.185329437256 -77.424377441406 -109.599891662598 1.305465340614
107.388610839844 -77.429039001465 -116.658348083496 3.832617521286
33.059307098389 -79.127433776855 -126.591590881348 2.541062355042
42.747627258301 -78.871223449707 -119.855331420898 1.704982042313
40.178039550781 -75.901321411133 -124.314636230469 1.661279678345
30.013704299927 -78.713760375977 -123.529029846191 2.227613449097
109.227783203125 -78.603332519531 -122.165733337402 3.418828248978
39.190391540527 -80.060630798340 -132.638229370117 3.168152093887
34.567356109619 -73.024757385254 -133.576766967773 1.770293354988
-44.473102569580 -74.318161010742 -143.453826904297 1.149540066719
-70.265327453613 -78.175270080566 -144.717834472656 2.603934526443
-52.978015899658 -74.237747192383 -150.111389160156 0.402869522572
-74.565277099609 -79.404464721680 -147.318740844727 3.492501974106
-38.577495574951 -75.228393554688 -149.117340087891 3.221189022064
106.225120544434 -78.867820739746 -157.413177490234 4.210995674133
-71.723815917969 -77.243316650391 -157.718093872070 2.802566289902
23.402935028076 -81.804641723633 -147.752258300781 4.284842014313
28.685619354248 -79.605293273926 -151.029006958008 2.063662528992
111.294616699219 -81.732666015625 -163.654052734375 5.156342983246
9.665784835815 -79.766403198242 -160.562759399414 3.127626419067
33.215564727783 -74.522354125977 -156.669006347656 1.985919117928
-63.052600860596 -77.582374572754 -160.745361328125 1.248291969299
-40.467456817627 -77.718254089355 -174.813552856445 1.186340093613
21.445835113525 -76.660034179688 -164.482666015625 2.329022169113
-65.156181335449 -74.122230529785 -158.311157226563 0.381624639034
-70.032844543457 -75.118141174316 -166.998657226563 4.125842094421
113.817329406738 -80.655998229980 -167.267471313477 2.026737213135
-8.244792938232 -77.719116210938 -166.538543701172 1.896807670593
-65.380012512207 -73.623870849609 -173.425827026367 2.925463914871
-34.586261749268 -77.713996887207 -168.405944824219 0.952173292637
-54.324748992920 -74.104499816895 -173.138229370117 2.205878734589
30.463270187378 -76.176391601563 -176.103805541992 3.841162681580
111.393218994141 -75.822967529297 -173.883255004883 1.100469112396
102.282783508301 -76.745651245117 -184.527359008789 3.208256483078
104.901695251465 -77.850471496582 -190.395507812500 1.421942710876
106.668601989746 -75.758163452148 -177.294708251953 2.121317863464
-51.308757781982 -73.972450256348 -193.264129638672 2.976842880249
-47.813526153564 -71.987571716309 -184.501220703125 3.711347341537
27.335941314697 -76.699592590332 -184.875122070313 1.471512675285
-47.984401702881 -74.026931762695 -187.100463867188 2.730442523956
-20.754783630371 -76.248886108398 -185.125045776367 1.331913948059
-51.092380523682 -78.319236755371 -192.760284423828 2.390512466431
-151.882324218750 -72.488792419434 -194.042709350586 2.498589754105
101.020324707031 -80.393562316895 -193.586196899414 4.174219608307
-44.336643218994 -72.503440856934 -196.005477905273 3.870776414871
-12.693099975586 -77.692184448242 -200.365676879883 2.026325702667
-139.568023681641 -73.248115539551 -194.405349731445 3.031662464142
-41.650268554688 -72.898414611816 -199.959487915039 2.598563194275
101.222190856934 -76.792633056641 -197.629776000977 2.033310174942
107.638374328613 -76.194519042969 -186.069381713867 3.068904399872
-43.229713439941 -75.167564392090 -196.913787841797 2.478930473328
-22.634462356567 -83.164184570313 -200.409652709961 3.686573505402
-147.310058593750 -76.910636901855 -201.609466552734 3.302232503891
-25.100709915161 -75.578086853027 -196.882507324219 0.563089191914
-159.495513916016 -73.911132812500 -198.406631469727 4.081693172455
-152.848953247070 -80.818656921387 -206.522689819336 3.719991445541
-144.584503173828 -75.877670288086 -203.251937866211 1.503091573715
-38.569915771484 -76.344200134277 -202.035308837891 1.844402074814
101.653388977051 -79.276420593262 -204.102981567383 2.439719915390
-41.984638214111 -73.353256225586 -201.116699218750 2.078898906708
-142.581237792969 -77.523323059082 -206.277511596680 1.463958024979
-37.384880065918 -71.414428710938 -206.661605834961 2.553103208542
-22.096384048462 -81.339424133301 -211.157974243164 4.401704788208
97.609428405762 -80.862190246582 -206.759262084961 4.652230739594
90.336334228516 -79.520957946777 -215.647994995117 2.485262393951
-36.720035552979 -73.541252136230 -218.430953979492 5.450756072998
-88.218231201172 -76.153068542480 -211.504898071289 2.097911357880
-75.779121398926 -76.015594482422 -212.990539550781 1.145685434341
-19.261423110962 -75.973571777344 -211.685394287109 1.056107044220
-150.045883178711 -75.792556762695 -203.858444213867 1.031541824341
91.383491516113 -77.288177490234 -214.975250244141 0.863820374012
88.571105957031 -74.444274902344 -219.031768798828 2.582978010178
89.836494445801 -78.312591552734 -221.756881713867 1.974666953087
-102.751281738281 -75.347961425781 -220.118911743164 2.495996713638
-154.496856689453 -76.025482177734 -222.512817382813 2.357713460922
-20.276147842407 -73.844734191895 -224.939239501953 1.500978112221
80.628631591797 -74.008407592773 -228.296737670898 1.565488696098
-150.301620483398 -77.742233276367 -223.479187011719 1.508086442947
-29.113096237183 -77.239372253418 -218.687286376953 1.212814092636
-134.159027099609 -71.913597106934 -234.090194702148 1.520794749260
-11.396648406982 -78.807365417480 -232.641967773438 3.373581171036
17.177740097046 -75.267539978027 -229.794235229492 1.554992318153
20.031261444092 -77.444290161133 -234.504806518555 2.303357601166
-155.515350341797 -76.550300598145 -236.688796997070 3.794511795044
-126.448036193848 -69.881950378418 -234.049697875977 1.961203336716
-8.342048645020 -75.529357910156 -236.793853759766 2.319971561432
0.096753001213 -75.139411926270 -238.890014648438 1.573174715042
69.040992736816 -77.055397033691 -232.507812500000 2.486964464188
69.414909362793 -73.721275329590 -240.155334472656 1.788740634918
-0.316219985485 -73.679496765137 -241.469085693359 1.308856725693
16.047613143921 -71.924087524414 -241.223220825195 2.147461414337
-31.179256439209 -67.311256408691 -242.589996337891 7.985716819763
-32.828796386719 -84.395019531250 -243.498199462891 4.460452079773
-48.654323577881 -75.120681762695 -237.604888916016 1.940520048141
-40.431171417236 -73.020721435547 -241.276199340820 2.269749403000
-16.647880554199 -77.102722167969 -244.231124877930 2.140841484070
-52.020206451416 -73.065994262695 -245.545837402344 2.615705490112
1.631224036217 -76.669578552246 -246.522293090820 1.482729077339
-68.528633117676 -77.074150085449 -244.269668579102 2.528337240219
21.302446365356 -77.742004394531 -248.445419311523 2.004289388657
-142.689498901367 -76.261337280273 -245.470962524414 2.925299644470
-73.151008605957 -77.565010070801 -254.738616943359 2.008614540100
16.207843780518 -77.374794006348 -251.163955688477 1.144185900688
-161.220458984375 -72.045486450195 -250.705108642578 3.584685087204
13.132953643799 -80.573814392090 -254.927856445313 3.641477108002
-80.371322631836 -68.513717651367 -252.164749145508 2.549000501633
-75.857261657715 -75.183280944824 -251.793167114258 0.787978351116
18.469364166260 -78.349617004395 -255.528015136719 1.255295395851
-89.583969116211 -73.763717651367 -252.378128051758 1.349435567856
-125.859428405762 -70.057174682617 -255.904632568359 3.055278778076
-132.671356201172 -77.683097839355 -261.769531250000 2.786512136459
-136.265914916992 -76.925819396973 -254.109252929688 1.440502285957
-147.029937744141 -75.461296081543 -262.910125732422 3.090597867966
-146.006927490234 -70.049362182617 -253.957031250000 2.451224327087
-134.340042114258 -71.904846191406 -263.076263427734 1.267653465271
-161.805877685547 -69.489433288574 -261.745117187500 1.820480823517
-128.099380493164 -73.652786254883 -268.529815673828 4.571017265320
-136.355178833008 -68.054374694824 -264.258850097656 0.316211968660
-162.585601806641 -69.792205810547 -271.226135253906 1.100747466087
-155.769348144531 -70.399665832520 -265.886505126953 2.572322130203
-148.268692016602 -71.439605712891 -267.070648193359 2.766106843948
-148.882843017578 -74.178169250488 -267.043182373047 2.126969099045
17.042152404785 -78.709686279297 -280.241424560547 3.485471248627
-166.549514770508 -73.147926330566 -267.238403320313 2.623541593552
-151.645843505859 -75.002098083496 -274.800598144531 2.376600980759
-5.378577232361 -84.078193664551 -273.957489013672 3.626109123230
-155.289138793945 -70.555610656738 -276.270874023438 3.480919599533
11.806645393372 -79.723434448242 -284.550720214844 1.252431631088
-152.803924560547 -72.686523437500 -282.830047607422 1.657348394394
-166.021392822266 -74.352516174316 -289.923309326172 2.815941095352
-155.554275512695 -76.181037902832 -279.498046875000 4.567193031311
-164.644042968750 -70.502578735352 -290.362274169922 2.010949373245
0.407281994820 -79.577690124512 -288.398193359375 4.045155525208
7.076233863831 -81.435226440430 -282.929290771484 2.914028406143
-105.057121276855 -71.814605712891 -293.879486083984 3.652883291245
-156.213531494141 -79.677589416504 -289.118377685547 0.987892925739
-148.121353149414 -70.703834533691 -286.469543457031 1.723612785339
-106.149360656738 -72.720954895020 -293.162750244141 3.186923265457
-153.334243774414 -76.501289367676 -294.314453125000 0.682979106903
-148.508483886719 -77.716262817383 -290.071624755859 1.663508892059
-74.991462707520 -78.156745910645 -294.681976318359 5.351047039032
-167.924514770508 -75.389289855957 -290.280578613281 4.628973484039
-122.629699707031 -69.808654785156 -292.821960449219 1.155526757240
-43.078926086426 -79.857749938965 -287.244445800781 2.262485504150
-151.599472045898 -72.835235595703 -289.062225341797 1.841425299644
-131.563644409180 -68.255493164063 -295.014770507813 3.330029964447
-20.021064758301 -72.907913208008 -296.033386230469 4.865960121155
-129.055847167969 -69.400413513184 -294.403106689453 2.626703262329
6.101973056793 -77.157196044922 -296.322662353516 3.202340126038
15.121692657471 -73.339797973633 -293.723480224609 1.766528964043
-133.357925415039 -69.077789306641 -292.248443603516 1.722009658813
-145.613586425781 -75.251739501953 -299.864105224609 1.219334006310
-156.425369262695 -76.578285217285 -316.599395751953 5.371774196625
-71.715957641602 -69.795051574707 -54.137283325195 3.332791090012
-21.721597671509 -69.250366210938 -67.185890197754 4.359314918518
-19.626935958862 -78.662658691406 -66.467765808105 2.999973535538
71.279464721680 -74.701980590820 -79.862411499023 2.057045459747
90.337028503418 -76.778076171875 -77.213928222656 1.254267334938
-36.343475341797 -75.179328918457 -81.302612304688 1.566271305084
76.013717651367 -76.219795227051 -82.110588073730 1.590480089188
89.999961853027 -81.399978637695 -84.255729675293 3.902010202408
66.334678649902 -77.347282409668 -85.605613708496 5.060765266418
73.208847045898 -75.737617492676 -91.937767028809 2.023255109787
-50.120273590088 -75.660072326660 -86.591773986816 1.207885742188
-91.879119873047 -77.007049560547 -90.943374633789 1.673231244087
59.204311370850 -79.967979431152 -95.376411437988 5.903343677521
50.280090332031 -79.152435302734 -101.487915039063 1.303006291389
92.922431945801 -73.506446838379 -102.660072326660 2.199088573456
-90.839370727539 -68.612319946289 -103.138305664063 4.214956760406
80.294776916504 -72.041603088379 -101.691001892090 1.567194938660
71.778495788574 -77.839004516602 -102.706443786621 6.411460876465
91.203956604004 -80.158462524414 -99.532905578613 5.543303012848
83.626564025879 -77.524063110352 -98.029983520508 2.178174734116
80.700057983398 -80.325988769531 -100.464950561523 6.004724502563
-88.265693664551 -76.077758789063 -104.136413574219 4.467252254486
43.977317810059 -73.736984252930 -106.472602844238 2.985426187515
104.832550048828 -79.072250366211 -112.264495849609 4.539890289307
106.859283447266 -78.553649902344 -112.170669555664 3.673376321793
49.578716278076 -80.159866333008 -121.757194519043 4.545809268951
112.881378173828 -81.375846862793 -121.163078308105 5.612150192261
117.197639465332 -81.666358947754 -136.601409912109 6.017114162445
-50.718536376953 -71.828727722168 -130.967514038086 1.206336021423
27.651327133179 -75.723045349121 -136.358337402344 1.600717425346
40.903041839600 -80.262107849121 -135.254623413086 4.688398361206
24.551359176636 -73.253906250000 -143.545837402344 1.061056017876
112.620117187500 -81.919769287109 -138.598419189453 4.007805347443
111.341438293457 -79.420143127441 -131.810394287109 2.802886247635
-73.669960021973 -73.931007385254 -149.852584838867 2.611214637756
-43.678321838379 -73.636627197266 -142.179473876953 1.523629784584
-71.407295227051 -72.045928955078 -154.091415405273 1.782209396362
18.585737228394 -73.768119812012 -149.681747436523 3.379441022873
112.014389038086 -74.652809143066 -149.664642333984 1.994787573814
-54.233661651611 -76.364273071289 -153.646484375000 4.264186382294
-72.366615295410 -72.961395263672 -153.782577514648 1.996923804283
-39.414588928223 -78.135108947754 -153.016937255859 2.381196737289
31.708269119263 -70.307281494141 -155.383605957031 1.031047224998
108.763198852539 -73.553886413574 -151.958831787109 1.922191143036
116.641555786133 -76.547760009766 -163.348968505859 3.299543142319
-68.331275939941 -70.736434936523 -157.587615966797 1.918409347534
-74.966598510742 -76.612281799316 -161.849639892578 4.476037025452
21.705770492554 -80.658287048340 -165.028823852539 3.111713647842
-60.383792877197 -71.634811401367 -168.665496826172 1.831716656685
-32.563777923584 -72.400901794434 -164.990798950195 2.155255317688
8.380956649780 -77.445678710938 -165.589767456055 3.210904121399
107.325889587402 -74.521774291992 -163.044723510742 2.144861936569
9.685598373413 -79.693351745605 -169.844726562500 7.625159263611
-32.573551177979 -75.085899353027 -167.455581665039 1.930312275887
-3.389197111130 -69.578964233398 -166.336166381836 4.071652412415
106.637916564941 -73.293426513672 -168.421325683594 1.532394409180
-41.828235626221 -71.994125366211 -165.306457519531 2.253659725189
30.207193374634 -73.169540405273 -174.941223144531 3.051981210709
114.191307067871 -82.277397155762 -173.931549072266 4.890578269958
-57.200622558594 -70.679519653320 -177.272079467773 2.347784757614
-28.055646896362 -78.326843261719 -177.181121826172 0.534644603729
101.575973510742 -78.006988525391 -175.976974487305 5.785911083221
29.264600753784 -73.333702087402 -169.468399047852 2.437019586563
104.543464660645 -79.179679870605 -177.385803222656 3.669394254684
-36.904216766357 -70.106674194336 -180.788787841797 1.941599130630
109.466781616211 -81.437896728516 -182.360748291016 5.722196102142
-63.281936645508 -70.540359497070 -179.165145874023 5.157092094421
-25.963388442993 -79.464004516602 -179.411254882813 1.626003742218
-147.396179199219 -65.825691223145 -186.073883056641 1.966295480728
-54.112590789795 -73.151954650879 -180.668487548828 2.038825988770
-147.497863769531 -72.901123046875 -187.526977539063 1.265337944031
-35.022895812988 -72.068847656250 -185.104995727539 1.346501708031
28.795312881470 -81.371475219727 -180.456405639648 3.386176586151
105.668449401855 -78.495796203613 -185.087966918945 3.205807209015
-36.403469085693 -73.840591430664 -183.622039794922 2.492274999619
10.387953758240 -75.977470397949 -192.485519409180 1.423018336296
16.114656448364 -74.988456726074 -206.959320068359 1.855829834938
-149.330551147461 -72.934181213379 -189.707855224609 1.957339763641
106.322662353516 -80.659507751465 -197.463409423828 2.182871103287
-23.342496871948 -72.457878112793 -194.429748535156 2.808997392654
100.484603881836 -78.772323608398 -188.703674316406 3.532711029053
11.925902366638 -72.333175659180 -191.949630737305 2.601586341858
-139.950180053711 -72.248771667480 -207.229904174805 4.817245960236
-137.792953491211 -71.551788330078 -201.003463745117 1.759533047676
102.032333374023 -81.220985412598 -203.110366821289 3.957902431488
-11.964019775391 -79.547172546387 -201.496002197266 1.862254261971
-17.345714569092 -75.389251708984 -205.814926147461 1.335363507271
11.242177009583 -77.937294006348 -209.022872924805 1.707718968391
-149.975891113281 -71.249359130859 -207.768920898438 2.879486322403
-146.558609008789 -73.553184509277 -211.028854370117 1.044611573219
101.076950073242 -71.014793395996 -207.111999511719 3.566953897476
-84.586036682129 -73.119171142578 -209.059539794922 3.377694129944
-35.368759155273 -75.782852172852 -202.109130859375 2.180980682373
19.943939208984 -79.246238708496 -216.589370727539 3.669439792633
-24.662122726440 -75.294677734375 -212.379577636719 0.824258029461
-75.051338195801 -71.555809020996 -207.362106323242 1.541056036949
90.942604064941 -77.090347290039 -210.542617797852 2.305428743362
-79.222221374512 -70.506706237793 -213.695755004883 2.520720720291
-147.992294311523 -71.966781616211 -220.743789672852 2.275077342987
-80.306259155273 -71.552101135254 -214.074478149414 1.583770513535
-11.684323310852 -68.643890380859 -209.173645019531 2.027321100235
-20.457698822021 -71.572593688965 -221.557403564453 1.971622109413
18.326219558716 -76.042266845703 -216.081237792969 1.137939929962
-5.238790035248 -76.659950256348 -223.412811279297 1.346740007401
-88.545852661133 -79.083908081055 -220.742736816406 4.091227531433
92.985610961914 -75.917701721191 -215.289230346680 1.486808776855
-99.992904663086 -71.377532958984 -216.932464599609 1.645223498344
-153.738922119141 -69.989791870117 -226.788330078125 2.503973484039
-28.778919219971 -73.567947387695 -226.022109985352 4.470030784607
18.831281661987 -76.672576904297 -217.229995727539 2.342836380005
-102.221061706543 -73.752250671387 -221.546203613281 0.919707298279
7.395511150360 -70.307693481445 -219.050445556641 2.950331926346
-27.121408462524 -74.391273498535 -216.188964843750 1.492572188377
82.442070007324 -74.278411865234 -226.285339355469 2.571790695190
-144.531311035156 -70.449546813965 -218.989669799805 1.968185305595
13.940784454346 -74.382858276367 -227.337020874023 2.887980222702
-9.549227714539 -78.602500915527 -229.274780273438 1.130839824677
17.848773956299 -67.402938842773 -224.934356689453 3.417818307877
83.862991333008 -78.078956604004 -224.200836181641 2.641641616821
-14.483059883118 -78.420310974121 -230.696716308594 4.133317947388
-130.488433837891 -74.488906860352 -228.528640747070 1.628684759140
-14.921063423157 -74.424064636230 -225.696807861328 1.615082025528
16.700323104858 -75.025367736816 -230.869659423828 1.675289392471
-127.743652343750 -75.496864318848 -228.624588012695 2.528510093689
-153.228347778320 -68.231002807617 -232.538284301758 2.190369367599
-143.036193847656 -70.868766784668 -230.681060791016 2.369714498520
-128.577972412109 -69.980895996094 -228.018005371094 2.236915588379
-11.516093254089 -71.552368164063 -225.721923828125 1.487886548042
71.897758483887 -76.051582336426 -228.678070068359 2.838130474091
-144.277999877930 -67.262298583984 -240.751251220703 1.886036396027
68.720069885254 -77.277229309082 -229.716049194336 3.594901323318
-21.225181579590 -78.659339904785 -232.639083862305 2.366351127625
-142.588088989258 -75.129981994629 -229.787521362305 0.614678323269
76.429359436035 -84.240409851074 -230.714920043945 7.906391143799
10.059558868408 -80.331329345703 -233.609375000000 1.679006576538
-140.252197265625 -75.989334106445 -237.667892456055 4.679665565491
-149.584289550781 -70.952232360840 -234.746047973633 3.006168842316
17.715042114258 -70.834716796875 -232.169708251953 1.912582516670
-2.542634010315 -78.626892089844 -240.547470092773 2.709820985794
-29.463270187378 -73.248283386230 -238.317916870117 2.541363477707
-1.428936004639 -69.894325256348 -237.825897216797 1.955214023590
-160.609298706055 -75.037338256836 -239.470733642578 1.864043354988
6.011738777161 -72.597999572754 -244.223693847656 2.290269136429
-164.820114135742 -72.888046264648 -242.315689086914 3.149243831635
-11.998927116394 -75.810218811035 -238.960098266602 2.694856882095
58.967227935791 -77.022155761719 -240.616394042969 2.147104263306
-13.487981796265 -72.993171691895 -238.138717651367 1.163519024849
-24.990776062012 -73.899719238281 -248.564086914063 6.135806560516
-24.407218933105 -73.819519042969 -243.221191406250 2.070855379105
-11.050542831421 -78.617248535156 -241.529403686523 5.871231079102
-146.396865844727 -72.824684143066 -230.022613525391 1.176377654076
7.888503074646 -73.693359375000 -242.968444824219 1.426942586899
64.125480651855 -75.694686889648 -246.127380371094 4.917008399963
15.648580551147 -71.986396789551 -246.651519775391 0.709998190403
-168.636184692383 -69.399223327637 -244.309219360352 2.863712072372
-51.483558654785 -72.599014282227 -240.445983886719 2.924111366272
4.869602203369 -82.138740539551 -250.359283447266 2.899703741074
17.277946472168 -75.529373168945 -244.770935058594 2.598755836487
-53.808494567871 -73.274826049805 -248.934020996094 2.122477769852
-1.915227055550 -69.204330444336 -251.447280883789 5.422121524811
20.531011581421 -82.390060424805 -250.210906982422 1.719093561172
-171.605895996094 -68.674163818359 -250.698257446289 5.182721614838
-65.576576232910 -77.800155639648 -250.580886840820 1.893243789673
-52.281017303467 -71.670692443848 -249.209335327148 3.615346670151
-82.522979736328 -71.176300048828 -254.319473266602 1.223526120186
-161.888854980469 -73.171455383301 -248.049652099609 1.741579294205
-150.481994628906 -62.590774536133 -249.613403320313 1.301596403122
-60.589424133301 -75.749320983887 -251.374404907227 2.651366472244
-68.638046264648 -72.866256713867 -250.498794555664 1.865457534790
-153.578903198242 -68.905921936035 -253.799057006836 1.398266315460
-152.105545043945 -73.044876098633 -253.781448364258 1.529773116112
-74.688896179199 -68.201385498047 -256.497650146484 4.966005325317
-93.436210632324 -69.193046569824 -258.112091064453 2.291734695435
-163.189453125000 -64.473114013672 -255.122604370117 5.159167289734
-157.326126098633 -71.937438964844 -262.808776855469 2.702738523483
-135.392913818359 -74.096755981445 -261.722137451172 1.724591135979
-83.281303405762 -72.400581359863 -251.538345336914 1.058748245239
-161.666427612305 -67.160102844238 -255.249435424805 3.466404199600
-141.591445922852 -68.906143188477 -258.876678466797 2.169457197189
-84.840194702148 -71.768363952637 -250.455047607422 1.659612059593
-97.353111267090 -70.480041503906 -263.311584472656 4.113061428070
-143.291488647461 -73.007331848145 -256.940765380859 1.871205806732
-92.524612426758 -72.442268371582 -257.399017333984 1.724601030350
-154.368820190430 -69.145370483398 -257.084869384766 0.882999598980
-103.681037902832 -71.943878173828 -256.345489501953 1.088738679886
-170.846939086914 -69.895500183105 -260.348419189453 2.674908399582
-162.137832641602 -73.494445800781 -267.742828369141 3.631395339966
-127.891036987305 -76.451881408691 -257.819671630859 1.687658905983
-152.437713623047 -72.012466430664 -261.271636962891 2.683749675751
-109.897941589355 -68.232566833496 -264.424255371094 3.035516500473
-13.927206039429 -72.016471862793 -263.610931396484 1.751790165901
-140.824066162109 -71.280967712402 -262.315093994141 2.505658149719
-126.801757812500 -70.911163330078 -261.785400390625 1.329775571823
-153.353698730469 -69.057067871094 -265.013092041016 2.439225196838
24.632091522217 -76.124557495117 -273.704223632813 3.994056940079
-149.571121215820 -74.272148132324 -281.071197509766 2.741040945053
-169.019485473633 -71.424560546875 -283.791259765625 2.593128681183
-8.818104743958 -73.175376892090 -281.317138671875 2.032429695129
