-45.220314025879 -73.332870483398 -163.930206298828 0.944443404675
15.846910476685 -73.843650817871 -165.943588256836 2.214878559113
-64.346778869629 -70.729164123535 -170.799499511719 3.365302801132
-65.011924743652 -69.692192077637 -172.492584228516 4.306059360504
-43.480274200439 -74.553977966309 -161.664855957031 2.167018890381
-35.212535858154 -76.596435546875 -168.590988159180 1.574659943581
115.216636657715 -78.508926391602 -172.313858032227 3.370190382004
-37.737506866455 -66.076988220215 -182.636581420898 5.980698108673
11.905445098877 -74.960418701172 -173.239883422852 6.024853229523
109.984497070313 -78.930290222168 -186.782165527344 4.331779956818
-147.749206542969 -73.256912231445 -176.906021118164 2.369239330292
-146.830718994141 -70.366256713867 -172.904129028320 3.355173110962
-147.493179321289 -68.626640319824 -182.323135375977 0.990450978279
-142.667266845703 -73.812103271484 -184.936035156250 2.768963813782
-33.211551666260 -71.174591064453 -185.721023559570 0.841911435127
-23.847520828247 -73.875091552734 -186.250244140625 0.460198312998
23.166685104370 -68.606994628906 -193.150588989258 1.812682509422
-141.241195678711 -70.301246643066 -187.399673461914 1.813499331474
-148.395706176758 -71.667655944824 -189.632659912109 2.512630939484
-22.498271942139 -70.798698425293 -186.295074462891 1.828358769417
9.125546455383 -73.508201599121 -183.448654174805 3.742260456085
-150.689437866211 -70.875030517578 -196.251861572266 1.145739793777
-32.134033203125 -73.134162902832 -190.061462402344 2.992413997650
99.281349182129 -75.687400817871 -189.087265014648 2.078944683075
104.814849853516 -73.355903625488 -190.605651855469 1.641079068184
24.466894149780 -68.069671630859 -194.267913818359 2.184420347214
-11.129549026489 -73.349739074707 -189.270309448242 5.532977581024
-29.161584854126 -75.437561035156 -193.597717285156 0.488158017397
-156.821990966797 -73.167579650879 -201.932998657227 2.860128402710
-133.418273925781 -72.550323486328 -197.578704833984 1.274135589600
-126.142654418945 -67.804794311523 -195.504257202148 2.550793409348
-126.573234558105 -69.818855285645 -198.262725830078 3.519028186798
-22.385192871094 -68.214538574219 -195.960647583008 1.104701042175
13.523913383484 -76.869476318359 -192.896987915039 2.245022773743
90.939949035645 -81.175872802734 -202.043182373047 4.992878913879
-151.727569580078 -65.958053588867 -195.178695678711 1.049936413765
-144.789306640625 -67.720062255859 -199.726501464844 2.736246347427
-152.264114379883 -70.951736450195 -201.853393554688 1.498645305634
-155.315521240234 -68.002792358398 -197.270523071289 2.071983098984
-24.521991729736 -72.014709472656 -200.519515991211 2.446702241898
-8.985939979553 -69.724098205566 -195.740402221680 4.562233924866
-145.451751708984 -65.417266845703 -203.725936889648 2.380819320679
-20.573997497559 -72.338813781738 -203.168930053711 0.427514344454
-161.224044799805 -70.143928527832 -202.659881591797 1.766563057899
-135.126586914063 -70.857162475586 -199.987884521484 2.258882999420
14.436203002930 -77.422340393066 -207.721984863281 2.069859743118
-160.144699096680 -66.171630859375 -205.189926147461 3.326790571213
-146.933578491211 -73.424087524414 -207.518447875977 1.957732796669
6.392104148865 -71.099281311035 -205.183288574219 3.402112245560
-154.855590820313 -67.445449829102 -203.166549682617 1.642627239227
-25.909502029419 -71.965797424316 -203.619888305664 2.361060380936
93.694763183594 -76.580101013184 -199.834243774414 3.100387573242
-160.454055786133 -72.528450012207 -211.523025512695 2.221328020096
-164.949508666992 -75.547027587891 -207.189422607422 4.249764919281
-76.293228149414 -69.584648132324 -207.557327270508 2.805788993835
89.539253234863 -74.477172851563 -209.018600463867 3.081506967545
-4.406956195831 -72.652488708496 -220.663070678711 2.701643943787
-156.978256225586 -69.435554504395 -213.641494750977 3.414249897003
-87.757278442383 -72.907585144043 -213.562225341797 3.044594287872
-10.489855766296 -77.358306884766 -211.802978515625 0.675186932087
15.499088287354 -73.438125610352 -219.116333007813 1.548310637474
-144.700897216797 -71.886581420898 -221.779632568359 1.190234899521
-4.626224040985 -79.568435668945 -221.706588745117 1.541597127914
-18.193948745728 -75.825141906738 -217.400039672852 1.256215929985
-15.062003135681 -69.852233886719 -222.310089111328 0.809244632721
90.906387329102 -75.512130737305 -221.990203857422 1.196495056152
-20.520568847656 -71.744094848633 -216.985519409180 1.915579557419
-34.014648437500 -72.375198364258 -218.861450195313 3.325967550278
-108.227172851563 -65.356468200684 -226.544479370117 1.786646366119
-17.036968231201 -71.347770690918 -224.776443481445 2.460492610931
93.404220581055 -73.123367309570 -219.865264892578 3.445530414581
74.657562255859 -76.518951416016 -222.513793945313 4.708036899567
7.855438232422 -75.356056213379 -219.558303833008 0.941743135452
-11.999134063721 -69.776428222656 -226.512466430664 1.289762377739
78.530525207520 -75.371650695801 -222.625259399414 1.265952229500
-122.095848083496 -76.673423767090 -226.248992919922 2.606324911118
-18.485280990601 -70.944282531738 -224.596878051758 2.647025346756
-96.133895874023 -71.529106140137 -224.292617797852 1.286446571350
-101.375434875488 -72.077354431152 -223.840469360352 1.469936728477
-130.178512573242 -73.972579956055 -230.246337890625 1.950641870499
80.552993774414 -75.899078369141 -224.186401367188 1.543315291405
-123.280616760254 -72.651077270508 -228.367538452148 1.054781198502
3.685735940933 -72.745346069336 -230.274734497070 1.715426802635
81.387954711914 -73.513061523438 -225.700454711914 2.680616617203
-17.042839050293 -75.090805053711 -234.473220825195 3.591938257217
-14.936312675476 -74.534446716309 -226.418075561523 1.093813180923
-0.681874990463 -81.124252319336 -230.970642089844 3.435313224792
10.942358016968 -76.970352172852 -228.751144409180 2.654363870621
90.110908508301 -77.232353210449 -228.623489379883 6.056044101715
8.790165901184 -72.067634582520 -232.094497680664 2.283831357956
6.357844829559 -72.800659179688 -230.789077758789 0.676159501076
-9.598953247070 -74.381439208984 -232.963394165039 0.831504940987
-7.272294998169 -75.340698242188 -229.181076049805 2.161583900452
19.514612197876 -72.801719665527 -234.489303588867 2.242159605026
-13.032151222229 -69.918266296387 -233.929458618164 2.205013513565
70.304321289063 -75.849273681641 -241.900619506836 2.790257692337
-10.271688461304 -72.251922607422 -240.593200683594 0.970677077770
18.776033401489 -75.187278747559 -236.756347656250 1.702340841293
-161.226516723633 -68.523704528809 -240.641204833984 0.626906633377
-6.475320816040 -70.691658020020 -236.962814331055 1.200888156891
-7.874008178711 -75.888786315918 -240.237335205078 2.327231168747
-168.034896850586 -72.262947082520 -251.221633911133 1.865641713142
-11.577539443970 -71.133644104004 -245.038528442383 1.561334133148
14.325078010559 -70.626258850098 -246.039474487305 2.554991006851
-148.851135253906 -73.289054870605 -252.645309448242 1.264104008675
-76.458602905273 -72.615104675293 -252.936950683594 2.484500169754
-62.789237976074 -74.515373229980 -248.281814575195 1.861433744431
50.821983337402 -71.349868774414 -248.006286621094 1.953269600868
-73.659141540527 -71.939392089844 -247.098876953125 1.880741596222
15.425839424133 -74.699584960938 -250.894134521484 3.151812076569
-73.405509948730 -74.069702148438 -251.739013671875 1.147490382195
-16.408123016357 -70.789840698242 -244.035675048828 3.196614503860
-145.954986572266 -75.139053344727 -253.498825073242 1.816966772079
44.793746948242 -69.765747070313 -252.056518554688 1.448821067810
-81.626457214355 -76.615226745605 -257.835601806641 3.279758214951
-103.756904602051 -68.021667480469 -256.277557373047 2.636304855347
-100.996383666992 -73.910118103027 -255.275665283203 1.077095627785
-121.903976440430 -68.123565673828 -252.519226074219 4.285845279694
-106.700256347656 -67.734375000000 -258.281463623047 2.732795000076
-105.746253967285 -71.080589294434 -258.386169433594 1.958362102509
20.470146179199 -69.569694519043 -258.603637695313 3.268341064453
-131.096313476563 -68.426055908203 -266.137573242188 3.383378744125
-16.119014739990 -74.749137878418 -276.105895996094 3.726576805115
-149.541610717773 -67.668701171875 -285.148559570313 1.671528697014
-169.603286743164 -73.511428833008 -287.592498779297 2.980100393295
-125.894134521484 -73.155258178711 -283.886230468750 1.192600607872
-114.969360351563 -68.069450378418 -287.763458251953 1.741035223007
-76.492797851563 -67.611877441406 -283.955413818359 3.961710214615
-58.834785461426 -74.851158142090 -287.735015869141 2.881195068359
-42.126377105713 -71.833480834961 -286.793365478516 1.859268546104
-16.586948394775 -78.769599914551 -292.173736572266 2.110274314880
-14.647877693176 -70.828529357910 -294.494476318359 2.229321479797
-39.850795745850 -76.910301208496 -292.008117675781 1.612964749336
-35.525905609131 -73.626831054688 -289.834289550781 2.537242412567
-20.268924713135 -69.543670654297 -289.707946777344 3.891202211380
-74.323593139648 -71.677734375000 -295.306488037109 5.129862308502
-57.435462951660 -72.278511047363 -292.432861328125 2.569867372513
-19.911005020142 -69.046638488770 -293.011657714844 4.516754150391
-14.976922035217 -76.328392028809 -290.070404052734 2.019455432892
-4.648791790009 -73.442520141602 -294.622589111328 4.071129798889
1.607450008392 -69.379165649414 -294.084503173828 1.613457441330
-94.785614013672 -72.461166381836 -294.624450683594 2.986104965210
-139.396530151367 -74.892860412598 -297.256896972656 4.859814167023
-116.593772888184 -73.203804016113 -293.734924316406 0.945562124252
-154.470306396484 -68.575073242188 -294.594970703125 0.242555782199
-151.648681640625 -72.658599853516 -300.391754150391 2.779113531113
-148.440063476563 -68.407119750977 -301.237670898438 3.399987220764
43.189151763916 -68.791366577148 -23.690534591675 1.743755936623
19.764358520508 -76.277877807617 -24.370086669922 3.718508243561
49.794052124023 -68.080070495605 -25.033031463623 2.608936548233
46.822235107422 -73.674736022949 -36.693683624268 2.814173221588
87.894790649414 -73.018516540527 -72.755050659180 1.835641384125
95.581840515137 -75.767829895020 -75.569122314453 2.699469089508
101.084724426270 -73.895706176758 -77.692230224609 2.233212709427
97.903541564941 -73.458549499512 -85.306785583496 1.096378803253
55.268260955811 -74.053298950195 -91.160591125488 2.285120487213
43.241386413574 -79.723869323730 -90.597793579102 8.090076446533
63.039371490479 -71.925132751465 -91.899681091309 2.259444236755
-65.936973571777 -68.937255859375 -95.010848999023 2.962822675705
71.501014709473 -71.450370788574 -88.350685119629 2.169566631317
99.689872741699 -64.700500488281 -100.751594543457 2.614411830902
74.024635314941 -73.411506652832 -103.011604309082 2.764178037643
92.914459228516 -72.085289001465 -104.517990112305 1.555944085121
-87.234146118164 -71.531562805176 -106.107032775879 3.532096624374
45.476604461670 -70.930702209473 -97.037704467773 1.371223449707
-88.413360595703 -72.333343505859 -101.153274536133 5.971407890320
51.224056243896 -74.087272644043 -111.178085327148 2.828730344772
36.038463592529 -80.580093383789 -104.070945739746 4.716697216034
99.233222961426 -72.431381225586 -104.395256042480 3.847565412521
36.167552947998 -72.830635070801 -105.563919067383 4.511046886444
44.201358795166 -75.226593017578 -121.902000427246 0.798777699471
41.917354583740 -73.340415954590 -114.124397277832 1.713006973267
111.081604003906 -72.341392517090 -112.525054931641 1.336060047150
-81.173576354980 -77.305282592773 -122.975364685059 6.269731998444
112.341224670410 -79.452613830566 -123.700820922852 3.821650028229
41.226963043213 -67.804641723633 -126.432075500488 4.637668609619
39.464931488037 -72.675880432129 -120.985046386719 3.195831060410
33.824886322021 -73.683563232422 -120.944046020508 1.735042691231
-55.628490447998 -77.371238708496 -130.395599365234 4.267917156219
29.197149276733 -71.389778137207 -124.300056457520 0.849787771702
-78.476791381836 -67.347885131836 -139.571472167969 1.435501813889
-55.639434814453 -76.363426208496 -133.440155029297 3.201093435287
-80.041992187500 -68.136383056641 -135.990219116211 1.607724189758
36.279510498047 -70.441184997559 -133.094055175781 2.392154455185
-60.595813751221 -73.537094116211 -134.441680908203 3.771564483643
34.740024566650 -72.151916503906 -134.044250488281 2.191969633102
-71.801673889160 -68.744201660156 -140.730209350586 1.311136245728
-59.829059600830 -66.678756713867 -143.464660644531 2.177019596100
23.079549789429 -74.187835693359 -145.607879638672 0.972648262978
111.266120910645 -77.388717651367 -144.037506103516 3.155776023865
114.392013549805 -68.842567443848 -138.827590942383 2.088726997375
29.752506256104 -73.432647705078 -143.918823242188 3.568030357361
-50.518432617188 -74.292701721191 -140.741592407227 2.637926578522
104.468368530273 -71.243835449219 -153.902404785156 4.474069595337
-77.128128051758 -70.951354980469 -143.469116210938 1.480164051056
-59.167140960693 -71.257926940918 -143.169342041016 1.744066238403
31.179409027100 -66.562210083008 -147.200744628906 2.008202552795
-79.002281188965 -73.067626953125 -146.966690063477 3.421061038971
-70.985237121582 -70.635398864746 -150.839157104492 1.378519892693
113.142639160156 -79.773490905762 -150.474945068359 3.477972030640
-65.155921936035 -69.544410705566 -156.750564575195 1.689477801323
-40.183879852295 -67.558616638184 -152.725692749023 3.277110815048
23.844186782837 -71.124946594238 -145.678268432617 1.593333721161
-72.761657714844 -71.940338134766 -145.069595336914 1.582949280739
11.760883331299 -71.279365539551 -149.934310913086 2.510224580765
31.181680679321 -72.509773254395 -159.558959960938 2.606912612915
30.699935913086 -69.759063720703 -153.004776000977 1.367018818855
16.488967895508 -78.007583618164 -154.715866088867 4.852210998535
-51.503250122070 -74.245780944824 -154.019912719727 2.856552600861
22.285791397095 -75.750938415527 -154.264923095703 2.578773260117
-47.725521087646 -70.567520141602 -152.210205078125 2.171580076218
2.648190021515 -72.617713928223 -155.371337890625 3.848394393921
18.648975372314 -71.630844116211 -151.129150390625 2.867675542831
-67.923194885254 -70.031867980957 -159.569976806641 2.447169065475
-48.043468475342 -68.105720520020 -155.250350952148 3.267143964767
-69.341636657715 -71.203727722168 -153.007781982422 1.280790805817
19.477497100830 -71.230529785156 -159.819122314453 2.028454780579
22.880239486694 -71.757423400879 -151.262924194336 1.500280380249
1.681679010391 -72.632400512695 -167.666458129883 3.094863414764
21.159948348999 -71.543861389160 -153.226730346680 0.875790297985
29.847763061523 -71.889480590820 -169.969772338867 2.082086324692
-48.045986175537 -72.702888488770 -165.210113525391 1.250976085663
-39.502132415771 -81.023948669434 -165.513839721680 1.943304061890
-42.519523620605 -73.260536193848 -162.237167358398 1.782566666603
26.912342071533 -73.638221740723 -158.702606201172 2.157473564148
-45.424942016602 -68.759529113770 -167.382354736328 4.302325725555
-40.124431610107 -69.945594787598 -169.941970825195 1.175460815430
20.986774444580 -70.728034973145 -166.508026123047 2.043132305145
-40.567401885986 -72.533775329590 -177.546234130859 1.918038845062
26.544292449951 -67.549659729004 -171.292633056641 3.100017786026
109.572654724121 -69.620407104492 -164.706756591797 0.494777709246
-35.194938659668 -72.056854248047 -173.321426391602 1.515974402428
99.303771972656 -70.874382019043 -174.768554687500 6.163924694061
-35.511959075928 -71.537063598633 -179.038940429688 1.881111741066
-38.983428955078 -75.946090698242 -183.223068237305 4.578450202942
21.853610992432 -76.292175292969 -179.471084594727 3.226006269455
105.588302612305 -75.150627136230 -183.239883422852 1.297509431839
-34.021137237549 -69.796501159668 -182.970809936523 2.801702737808
-36.997032165527 -71.578994750977 -180.742919921875 0.988229036331
-23.799537658691 -77.832077026367 -188.585296630859 2.191161394119
-150.146530151367 -70.479080200195 -190.556884765625 1.677528262138
10.225473403931 -72.100891113281 -184.569961547852 2.944965124130
103.107704162598 -72.480850219727 -193.587585449219 2.076224327087
-161.876281738281 -69.583900451660 -193.295898437500 2.770925760269
-21.788423538208 -67.423080444336 -189.285461425781 1.611451864243
-116.698112487793 -73.220901489258 -198.976119995117 3.177326440811
-129.912521362305 -72.568336486816 -195.575439453125 1.590677380562
-107.600990295410 -72.161567687988 -201.222518920898 3.934700250626
-115.839256286621 -69.382698059082 -201.242202758789 2.612168312073
-12.148381233215 -73.722747802734 -197.473999023438 1.058471322060
18.870267868042 -70.348846435547 -197.111572265625 1.889936923981
-16.821426391602 -67.512588500977 -203.262649536133 2.800715684891
-129.367935180664 -70.499816894531 -207.252944946289 3.490839719772
-21.305421829224 -67.135276794434 -202.312896728516 3.657297372818
-128.925323486328 -68.066627502441 -203.958602905273 2.796856880188
-17.649515151978 -71.960754394531 -199.810134887695 2.154155731201
-148.140319824219 -68.647949218750 -202.466964721680 2.350142478943
90.868606567383 -68.427001953125 -207.279342651367 3.279881954193
-165.039901733398 -62.474315643311 -202.182235717773 3.535918951035
-2.934791088104 -73.606773376465 -221.555511474609 1.789928078651
11.242219924927 -74.703598022461 -211.499862670898 2.885265350342
9.170004844666 -76.506515502930 -218.431427001953 1.461472272873
81.335639953613 -73.966171264648 -217.257095336914 3.385061979294
8.521305084229 -74.060714721680 -214.563674926758 2.258067369461
10.401147842407 -71.463531494141 -216.258514404297 3.034628629684
-16.825237274170 -75.866188049316 -216.485031127930 2.475138664246
-91.353881835938 -72.292953491211 -213.817474365234 1.217196106911
-99.504432678223 -71.026306152344 -217.803222656250 1.063406348228
1.436406016350 -71.597373962402 -219.261520385742 2.421731472015
-167.589202880859 -72.770606994629 -222.202590942383 2.258100986481
15.377365112305 -69.698341369629 -219.233703613281 1.322835803032
-145.706161499023 -69.483047485352 -221.115264892578 2.325066804886
12.714512825012 -73.408630371094 -226.087432861328 2.091215610504
-136.300170898438 -72.588066101074 -226.022888183594 2.194366693497
-116.342231750488 -71.956008911133 -229.474975585938 0.967360258102
16.400541305542 -72.045562744141 -221.372009277344 2.686259746552
78.616516113281 -73.910758972168 -220.677078247070 2.891621112823
5.246477127075 -73.395080566406 -224.857666015625 0.973178684711
-109.723869323730 -69.511306762695 -232.550903320313 0.799045145512
68.660736083984 -75.158073425293 -228.663070678711 3.037907838821
84.668716430664 -75.596611022949 -230.628417968750 3.355742216110
-127.304733276367 -70.188377380371 -237.963195800781 2.942272901535
-119.787597656250 -70.399871826172 -231.031082153320 2.192071437836
-10.129425048828 -67.552482604980 -227.197067260742 2.184833526611
71.099647521973 -74.374748229980 -234.201736450195 2.582111358643
63.644672393799 -74.194938659668 -233.437927246094 4.201063156128
71.214134216309 -73.100280761719 -229.640533447266 0.934789478779
-137.358474731445 -65.706542968750 -234.884384155273 2.792054414749
68.180679321289 -75.239784240723 -231.784561157227 1.113410592079
64.842674255371 -70.350006103516 -236.209762573242 1.577569603920
-166.836791992188 -67.495246887207 -232.578231811523 2.499424219131
1.036566019058 -81.256195068359 -243.380157470703 4.085602283478
19.771629333496 -74.769081115723 -240.217178344727 1.708814740181
-6.990200996399 -68.840911865234 -242.783676147461 2.372983694077
16.241617202759 -65.710021972656 -240.505584716797 2.276046276093
66.275177001953 -74.802848815918 -238.923965454102 2.127318859100
6.565392971039 -69.922660827637 -245.960922241211 3.289214611053
-12.415840148926 -65.151458740234 -241.419326782227 2.553627967834
-2.664509057999 -68.437973022461 -236.673965454102 1.810894489288
63.919086456299 -74.157318115234 -243.305343627930 2.183848619461
0.501196980476 -72.569404602051 -243.606628417969 2.608420610428
-6.967034816742 -73.407524108887 -244.313995361328 1.678058505058
13.698086738586 -76.529357910156 -243.049880981445 2.017810106277
-168.536865234375 -72.871688842773 -242.151733398438 3.222352266312
53.291553497314 -74.834899902344 -248.333663940430 2.137503385544
47.868495941162 -65.383514404297 -254.165740966797 2.502324581146
58.788696289063 -74.284400939941 -244.336837768555 2.320343732834
-13.143737792969 -69.563606262207 -249.125183105469 1.819839119911
56.119888305664 -72.649574279785 -246.136016845703 1.156937718391
-75.497978210449 -71.072853088379 -252.085983276367 1.248405456543
49.282230377197 -73.873870849609 -249.291870117188 1.229445815086
-88.440345764160 -70.340553283691 -254.062225341797 1.236523270607
-122.774765014648 -71.643722534180 -259.226257324219 3.304021835327
-132.879684448242 -70.763130187988 -253.329559326172 2.184098958969
46.420143127441 -75.594619750977 -252.617935180664 4.175304889679
-131.637115478516 -73.961227416992 -252.760009765625 1.693794608116
-109.320854187012 -67.696205139160 -255.120422363281 1.839251875877
-118.450691223145 -68.082572937012 -259.003936767578 1.205119967461
-85.372291564941 -71.498741149902 -255.549407958984 0.729536294937
-111.437080383301 -67.328475952148 -259.250701904297 1.313315868378
-125.234664916992 -74.941673278809 -263.774383544922 1.077714204788
-148.243362426758 -67.199722290039 -269.686157226563 3.601233482361
-16.192287445068 -70.263504028320 -268.983703613281 2.310630083084
-174.489242553711 -73.140586853027 -265.927581787109 6.194251060486
-15.879042625427 -71.046669006348 -276.135955810547 3.173494100571
-159.518844604492 -65.680709838867 -268.272888183594 3.892375230789
-153.738418579102 -71.197593688965 -273.430633544922 1.610879063606
-171.941375732422 -69.745300292969 -278.759216308594 5.152608394623
-16.234531402588 -73.115715026855 -283.157012939453 3.546751260757
-129.149993896484 -73.663330078125 -283.858093261719 2.461098194122
-158.018417358398 -69.840980529785 -287.424774169922 3.492203235626
-144.110641479492 -68.980537414551 -281.580078125000 1.703216314316
-135.943298339844 -73.324546813965 -279.057098388672 5.751890182495
-9.126113891602 -64.470085144043 -285.362213134766 5.134693622589
-127.257034301758 -74.352371215820 -283.934692382813 2.340263366699
-141.714843750000 -66.710708618164 -286.975769042969 1.377336621284
-116.417907714844 -75.328285217285 -286.613159179688 1.834083795547
-82.019050598145 -68.132438659668 -290.221008300781 0.818120896816
-60.763790130615 -73.246742248535 -288.029937744141 2.284429788589
-9.049510002136 -73.945808410645 -288.879577636719 2.193767786026
-55.637256622314 -70.089637756348 -284.743103027344 2.014442205429
-57.791564941406 -68.593093872070 -289.803649902344 1.904469370842
-72.358062744141 -69.309455871582 -291.430358886719 2.676868438721
-90.040122985840 -69.339355468750 -296.397308349609 3.723409414291
-94.236541748047 -68.887634277344 -288.986602783203 1.000986456871
-160.349014282227 -69.545730590820 -292.660980224609 1.856907844543
-161.328689575195 -70.885978698730 -295.736541748047 2.353932380676
-125.213363647461 -74.284622192383 -294.463714599609 2.528082370758
-145.438446044922 -69.935562133789 -295.455017089844 2.162534952164
-152.687698364258 -72.942680358887 -306.477416992188 2.979356765747
-153.559646606445 -73.890808105469 -312.600067138672 1.843908309937
47.825439453125 -70.315399169922 -14.124119758606 2.700718879700
14.291074752808 -73.671073913574 -32.692386627197 5.714852333069
41.916316986084 -66.759399414063 -36.427089691162 2.097459077835
-15.312770843506 -74.800720214844 -67.212631225586 2.966132879257
80.956802368164 -70.167915344238 -66.252136230469 2.744067668915
89.882041931152 -67.490097045898 -67.264480590820 2.139056921005
77.953460693359 -77.831924438477 -66.286506652832 6.811154842377
71.358245849609 -74.607246398926 -71.075347900391 3.720760583878
90.247962951660 -74.778099060059 -77.303176879883 1.182563066483
-98.214569091797 -65.882980346680 -71.369415283203 3.144582271576
65.430397033691 -72.657516479492 -76.348754882813 3.596268177032
-37.087970733643 -73.681953430176 -78.873161315918 2.197981834412
97.502220153809 -72.292106628418 -86.656730651855 1.817498564720
61.842723846436 -68.192459106445 -91.765472412109 1.232545852661
106.884414672852 -78.997093200684 -93.500740051270 7.905654907227
98.722778320313 -78.290519714355 -100.114288330078 3.663046360016
72.661636352539 -72.595405578613 -102.731063842773 2.704917669296
-82.594528198242 -67.060279846191 -103.987342834473 0.605046272278
53.697650909424 -71.151313781738 -107.094497680664 1.167501807213
107.497444152832 -68.848709106445 -108.074409484863 0.345991432667
45.175083160400 -71.763793945313 -115.260063171387 2.618287801743
78.837554931641 -70.971977233887 -107.541992187500 3.742452383041
40.593669891357 -71.406799316406 -109.307144165039 0.891957879066
101.847663879395 -72.605499267578 -104.404937744141 1.606145143509
46.592906951904 -71.714935302734 -109.124160766602 1.769956827164
105.076324462891 -80.062614440918 -110.448081970215 5.420156955719
109.880218505859 -77.536598205566 -111.239128112793 3.132975578308
-80.950897216797 -67.323471069336 -115.477401733398 3.102256774902
-84.169761657715 -67.470771789551 -121.678253173828 1.637571215630
42.781776428223 -75.631645202637 -120.875480651855 1.995613574982
112.703605651855 -74.957557678223 -124.287132263184 1.939057707787
112.427436828613 -73.045326232910 -124.789031982422 1.201364040375
-89.908523559570 -68.828048706055 -127.851242065430 1.160286426544
104.122558593750 -75.643379211426 -128.442413330078 5.540464401245
-60.707096099854 -76.349571228027 -133.106201171875 4.957478523254
-87.187164306641 -70.755264282227 -129.096801757813 1.905845284462
-71.764633178711 -71.241409301758 -127.856407165527 3.509335994720
-61.071605682373 -66.210639953613 -128.019500732422 1.555795788765
31.053745269775 -71.684654235840 -132.119812011719 0.695605933666
43.233543395996 -68.447380065918 -137.144027709961 5.551730632782
-72.486656188965 -69.965431213379 -137.397979736328 1.174685716629
27.886018753052 -68.567405700684 -131.128906250000 3.214053630829
111.795959472656 -72.796569824219 -146.125137329102 1.780400991440
-39.278579711914 -71.183647155762 -150.717895507813 2.341064929962
32.228752136230 -74.236984252930 -150.747497558594 1.837110638618
112.155883789063 -70.738967895508 -150.335815429688 2.132548809052
35.065196990967 -72.781089782715 -143.610656738281 2.784458637238
108.843200683594 -71.413543701172 -140.974609375000 1.490518212318
-52.725185394287 -70.208930969238 -150.876617431641 1.559480190277
-74.350288391113 -66.571205139160 -152.748443603516 2.355157136917
-58.454757690430 -71.043052673340 -152.217422485352 6.058632373810
-43.705863952637 -75.934989929199 -166.197113037109 2.096571683884
2.528081893921 -74.043693542480 -156.927215576172 3.224671840668
107.843208312988 -73.583061218262 -154.314346313477 3.582409143448
107.416389465332 -72.596443176270 -162.095413208008 1.157892227173
9.943428039551 -71.309806823730 -158.040328979492 2.471509456635
1.034438967705 -70.521751403809 -161.725189208984 2.633398056030
20.226140975952 -69.553840637207 -155.408264160156 3.460460901260
25.050155639648 -69.930496215820 -156.872467041016 1.978570103645
106.325561523438 -72.556488037109 -166.653411865234 1.351291179657
109.804344177246 -76.961410522461 -168.825378417969 0.577121615410
23.065914154053 -68.351097106934 -177.294860839844 1.124679207802
23.175025939941 -75.131568908691 -166.280822753906 2.441599369049
110.565422058105 -70.145683288574 -163.433273315430 1.441545009613
-30.878679275513 -69.280151367188 -180.058364868164 2.224749326706
109.556991577148 -73.424797058105 -168.681579589844 1.828517675400
16.842205047607 -71.892967224121 -166.279998779297 1.457686305046
20.352293014526 -71.645553588867 -170.333755493164 3.101760625839
106.971748352051 -73.386833190918 -173.805725097656 1.668885588646
26.446348190308 -70.560241699219 -171.218643188477 1.675824046135
112.664436340332 -71.284385681152 -186.296005249023 3.461222171783
-39.630943298340 -70.243034362793 -180.623245239258 3.604190111160
23.031696319580 -71.567947387695 -170.672241210938 1.945705294609
106.806686401367 -72.752975463867 -185.967224121094 2.303190469742
21.573768615723 -72.911178588867 -178.293869018555 0.791564822197
-152.326629638672 -67.145057678223 -187.132598876953 1.893606781960
-28.926658630371 -67.135498046875 -191.165222167969 0.871106982231
23.187696456909 -68.499160766602 -186.434204101563 1.419354319572
-116.465469360352 -72.062515258789 -193.372161865234 0.556993663311
-112.824775695801 -66.269355773926 -193.784942626953 2.192727088928
23.866392135620 -72.488349914551 -189.029342651367 1.254334926605
9.826185226440 -68.073883056641 -185.895446777344 5.758096218109
-28.023876190186 -66.831726074219 -191.697631835938 1.525340795517
-30.091260910034 -76.348899841309 -190.468963623047 2.663930654526
-29.936630249023 -71.487739562988 -189.386581420898 2.490426778793
12.011483192444 -68.489654541016 -181.325500488281 3.810516834259
-151.807754516602 -69.084449768066 -196.994949340820 2.176518917084
-147.321609497070 -68.477928161621 -193.337310791016 2.038977384567
-147.512527465820 -73.619880676270 -200.429870605469 1.116768836975
-24.636247634888 -69.744476318359 -192.646621704102 1.706261396408
13.392270088196 -68.121253967285 -200.956039428711 2.069425344467
97.431961059570 -71.050338745117 -193.879943847656 1.131404519081
-114.567085266113 -67.822181701660 -199.528656005859 3.027221679688
20.099506378174 -76.438560485840 -199.016189575195 2.002727985382
-14.800082206726 -69.510475158691 -196.046859741211 1.785927891731
-18.293762207031 -70.775627136230 -199.710632324219 1.545804262161
100.507804870605 -70.880729675293 -201.457183837891 1.613700151443
6.050695896149 -74.361152648926 -199.448791503906 4.062448024750
-23.188076019287 -68.895362854004 -197.932266235352 1.572711706161
-121.710700988770 -73.393409729004 -205.353927612305 3.556445598602
-135.503829956055 -69.889427185059 -204.273651123047 3.040661096573
-115.244735717773 -63.149578094482 -207.119537353516 4.474767684937
-143.307739257813 -73.343345642090 -204.235671997070 2.388131380081
15.777386665344 -71.082237243652 -199.118713378906 2.096972227097
91.633186340332 -74.687812805176 -201.270797729492 3.288678884506
-166.399566650391 -62.720638275146 -201.199401855469 2.788076400757
99.128105163574 -71.725616455078 -202.815567016602 0.918468654156
-24.376651763916 -76.441352844238 -206.498886108398 4.226119041443
93.711647033691 -68.814033508301 -210.619796752930 1.777481794357
87.176521301270 -74.964302062988 -210.886459350586 2.321712017059
9.606487274170 -74.202880859375 -204.579879760742 2.564313173294
19.701047897339 -70.233917236328 -214.149978637695 2.783568620682
12.385841369629 -67.253623962402 -209.540267944336 1.815784573555
-11.914193153381 -71.274948120117 -224.826721191406 1.704747676849
-94.893440246582 -73.276512145996 -220.811203002930 0.700088083744
-13.185920715332 -74.036392211914 -212.463088989258 3.618448257446
86.925277709961 -73.198608398438 -218.722198486328 1.509738802910
-95.415954589844 -73.263130187988 -217.667449951172 1.139114141464
-100.902549743652 -66.025650024414 -223.139175415039 2.069063186646
-97.127243041992 -69.412979125977 -220.173049926758 2.061866998672
88.082366943359 -75.345687866211 -223.779251098633 2.459623098373
-136.831329345703 -70.308013916016 -226.281097412109 2.950836420059
-132.340652465820 -76.182533264160 -228.763442993164 2.251049757004
-117.510520935059 -69.891586303711 -225.817230224609 2.177137613297
-114.339233398438 -66.458564758301 -222.666183471680 2.382477998734
-133.736099243164 -66.844139099121 -228.991439819336 2.612557411194
-114.343482971191 -78.951713562012 -229.293869018555 3.513811588287
-112.317092895508 -68.890106201172 -229.509582519531 2.581914186478
-8.134071350098 -76.056121826172 -225.132720947266 1.232328295708
-16.264692306519 -74.621040344238 -224.361984252930 1.864727377892
-1.792201995850 -68.200454711914 -231.084320068359 1.070739746094
-10.930287361145 -67.121437072754 -228.083755493164 2.079553127289
14.679136276245 -72.733535766602 -235.292114257813 2.446723461151
-21.238960266113 -68.539352416992 -230.666625976563 4.699985504150
-167.820144653320 -67.089118957520 -221.813842773438 1.591073632240
-6.350234985352 -72.061378479004 -235.042953491211 0.887566506863
80.104316711426 -68.254844665527 -233.529739379883 3.817465543747
10.922884941101 -74.060661315918 -234.504959106445 3.254624128342
-6.388309001923 -70.498664855957 -236.600646972656 1.088472008705
-158.069030761719 -66.388130187988 -236.968902587891 2.219393014908
-144.218383789063 -67.272109985352 -229.679809570313 2.081315994263
60.085559844971 -70.972358703613 -237.863555908203 2.134602546692
-6.594109058380 -72.252494812012 -234.439956665039 0.495569556952
9.967454910278 -74.275672912598 -230.466186523438 1.297471523285
68.501716613770 -75.836250305176 -228.780044555664 3.209945678711
75.875930786133 -72.225303649902 -235.924362182617 1.346153974533
70.613365173340 -73.912681579590 -243.691635131836 3.797214746475
-2.963121891022 -75.506332397461 -235.988052368164 2.896085977554
57.593818664551 -69.573661804199 -238.043533325195 2.882628679276
-20.367591857910 -74.821640014648 -241.368621826172 2.155972242355
-15.335787773132 -67.453376770020 -241.024383544922 2.226639270782
6.823340892792 -71.304565429688 -239.746673583984 2.433221578598
62.960353851318 -76.918426513672 -237.988952636719 3.704222440720
66.421142578125 -70.167434692383 -242.730270385742 1.024075627327
47.704891204834 -72.686843872070 -246.991210937500 2.616099596024
59.903762817383 -76.597145080566 -243.865600585938 3.346931219101
-16.394495010376 -77.939071655273 -250.180282592773 4.883186340332
-84.846054077148 -66.301902770996 -257.676269531250 4.364199161530
-77.895118713379 -67.630470275879 -254.773925781250 2.380504369736
42.988510131836 -76.000610351563 -248.244155883789 4.842361927032
-152.791000366211 -71.319358825684 -250.890884399414 2.119786500931
34.319442749023 -71.529815673828 -258.262725830078 2.758072614670
-93.421798706055 -75.694053649902 -252.978851318359 1.026074767113
-158.112030029297 -63.903213500977 -255.082458496094 3.260647773743
-140.735137939453 -60.043151855469 -253.172653198242 5.315531253815
42.369899749756 -71.336708068848 -255.316665649414 2.228307485580
-126.484886169434 -65.091072082520 -259.557220458984 1.046615123749
-118.695281982422 -71.028488159180 -255.700576782227 2.144372940063
-92.602737426758 -64.848960876465 -257.755493164063 2.901044845581
-14.029855728149 -66.176750183105 -249.207748413086 2.603401422501
31.095031738281 -71.319335937500 -257.564331054688 1.556768774986
24.030601501465 -68.224456787109 -260.182067871094 2.201799154282
-161.015289306641 -62.504985809326 -261.961700439453 5.059772014618
-115.632080078125 -72.970687866211 -263.730407714844 1.282617568970
-14.500885009766 -71.109344482422 -263.317840576172 1.112135767937
-132.978942871094 -69.037857055664 -266.790863037109 3.648137331009
-15.547293663025 -69.729431152344 -271.417144775391 2.184165000916
-164.696334838867 -68.400482177734 -272.248321533203 2.789879798889
-7.151081085205 -72.429618835449 -279.592926025391 2.493044376373
-161.109344482422 -70.135154724121 -288.555236816406 2.015839576721
-165.936996459961 -72.667343139648 -279.063903808594 2.286140680313
-143.386749267578 -70.039253234863 -286.035522460938 2.040563583374
-172.767242431641 -71.881912231445 -285.428527832031 4.984220027924
13.318031311035 -75.200691223145 -289.913055419922 0.670842587948
-104.237693786621 -71.460807800293 -287.410461425781 3.029416322708
-88.654495239258 -63.852977752686 -286.524993896484 5.696478843689
-169.666854858398 -65.221687316895 -284.995391845703 4.820916175842
-93.909034729004 -76.902206420898 -282.822143554688 4.562163352966
-156.842712402344 -70.213058471680 -289.967590332031 1.868756651878
-78.195953369141 -72.328605651855 -297.712188720703 7.474732875824
-73.182388305664 -69.544204711914 -289.822998046875 2.472467184067
-84.464668273926 -72.358856201172 -292.909606933594 1.342718720436
-4.569618225098 -69.238052368164 -289.213226318359 1.788042664528
-91.293930053711 -70.099754333496 -288.294860839844 1.455216169357
-100.372734069824 -72.522377014160 -291.427795410156 2.165718793869
-119.584571838379 -70.024169921875 -293.869964599609 3.109343290329
-117.778114318848 -65.697547912598 -293.971954345703 3.414162635803
-135.305877685547 -69.939369201660 -292.227661132813 0.304635226727
-143.494491577148 -69.089134216309 -301.629669189453 0.964040815830
-145.721389770508 -70.963645935059 -312.978485107422 2.196094751358
23.593862533569 -67.005615234375 -15.530033111572 3.756008148193
32.631565093994 -69.863624572754 -16.938854217529 1.610703825951
29.122343063354 -73.298080444336 -18.985013961792 2.096709012985
44.191898345947 -67.246696472168 -20.715620040894 3.247938871384
23.281858444214 -69.868049621582 -32.780502319336 2.358331203461
-75.338699340820 -67.625686645508 -47.533740997314 2.368016719818
89.030609130859 -65.899948120117 -67.612899780273 2.110326766968
-19.630826950073 -66.312957763672 -67.990875244141 4.909820556641
103.531463623047 -71.299888610840 -74.734748840332 3.024037122726
93.201408386230 -76.267532348633 -76.774757385254 2.798943519592
67.660209655762 -72.267356872559 -79.982856750488 2.110656023026
71.255874633789 -75.851257324219 -83.208343505859 1.172409892082
-45.022140502930 -73.502616882324 -82.895362854004 1.274304628372
60.047569274902 -76.604515075684 -82.345542907715 6.217072010040
-94.135978698730 -69.265060424805 -89.844612121582 1.670227766037
-48.279453277588 -66.737022399902 -85.404426574707 1.952874660492
-57.017162322998 -76.406028747559 -86.181564331055 4.854738712311
101.693954467773 -79.170402526855 -99.611358642578 5.350109577179
59.387145996094 -75.029914855957 -91.705734252930 1.219197750092
66.650184631348 -70.525192260742 -91.931411743164 2.388571977615
-95.140525817871 -61.683399200439 -98.134811401367 3.624607801437
107.434089660645 -74.056274414063 -92.392349243164 4.994282722473
42.056289672852 -69.195785522461 -100.276535034180 2.017425537109
101.626869201660 -71.430618286133 -99.413513183594 0.982358038425
106.670700073242 -68.764930725098 -107.529159545898 1.180411338806
99.665634155273 -72.233978271484 -104.810333251953 3.723745584488
73.584396362305 -75.201431274414 -100.270828247070 3.188241958618
86.365486145020 -74.231422424316 -108.867195129395 5.930324554443
49.819725036621 -69.746864318848 -112.197265625000 3.187469959259
110.090888977051 -67.807861328125 -103.511146545410 1.252347946167
46.846488952637 -75.411865234375 -105.411010742188 2.283120155334
38.180477142334 -69.087890625000 -103.019523620605 3.144045114517
112.815124511719 -72.953804016113 -111.599815368652 1.224517822266
-78.730384826660 -64.805938720703 -109.793052673340 0.846189975739
45.105419158936 -69.650283813477 -113.785476684570 1.856896400452
32.744670867920 -74.063514709473 -116.946403503418 1.793883562088
105.448387145996 -69.090774536133 -111.683387756348 1.575665235519
37.132419586182 -67.763137817383 -112.585021972656 2.979546546936
-87.811264038086 -68.604713439941 -112.111465454102 1.472151994705
-95.658424377441 -64.356170654297 -115.174339294434 2.619080305099
101.645500183105 -77.349220275879 -120.915466308594 6.460509300232
-95.430191040039 -69.530570983887 -119.594940185547 0.865872383118
38.830539703369 -74.740806579590 -121.914672851563 2.279425382614
36.057739257813 -71.070877075195 -123.413848876953 1.420814633369
-85.367988586426 -68.761207580566 -124.665618896484 1.869998097420
32.686782836914 -68.718513488770 -135.049957275391 2.215596199036
111.491333007813 -73.598182678223 -132.425613403320 2.062159776688
-53.719200134277 -69.318977355957 -139.027984619141 2.453991413116
-88.463630676270 -67.044853210449 -133.751815795898 2.688344955444
37.647987365723 -75.786972045898 -131.478698730469 2.261514425278
-87.530876159668 -63.424697875977 -137.277389526367 1.823398709297
-88.790115356445 -72.184272766113 -141.449951171875 4.757569789886
-50.679718017578 -69.869064331055 -137.132431030273 2.412238597870
-71.563819885254 -66.316993713379 -139.741668701172 2.072052001953
-51.227512359619 -68.629608154297 -133.379409790039 2.262722253799
116.506881713867 -68.683158874512 -137.874816894531 3.354265213013
-72.615959167480 -71.326118469238 -135.568969726563 2.413722991943
36.878677368164 -72.044700622559 -131.604995727539 1.666382074356
-79.064941406250 -66.795715332031 -141.765869140625 2.728033065796
-72.966278076172 -69.205192565918 -136.112792968750 1.357838988304
-94.170845031738 -66.195953369141 -142.618499755859 1.463287234306
-55.559848785400 -65.522331237793 -146.577270507813 2.760797977448
31.046888351440 -65.377128601074 -146.964477539063 3.188900232315
26.806419372559 -69.038856506348 -150.002426147461 0.974440276623
19.690685272217 -64.140327453613 -145.442077636719 1.106128692627
111.957626342773 -71.401679992676 -147.289718627930 2.655387163162
-91.955749511719 -66.768875122070 -152.450607299805 2.053167819977
10.648937225342 -72.046691894531 -153.301788330078 2.293193101883
-72.234657287598 -68.305747985840 -155.536376953125 2.801382541656
23.189182281494 -68.919631958008 -150.171081542969 2.203303813934
-49.885902404785 -67.938835144043 -156.240203857422 2.469465017319
9.276785850525 -68.727111816406 -154.775115966797 1.081706166267
15.988318443298 -73.811576843262 -159.981765747070 2.332486391068
16.463844299316 -76.384498596191 -164.784667968750 3.425978422165
-51.256515502930 -72.112174987793 -164.216415405273 3.920117616653
-39.160182952881 -67.842643737793 -156.236572265625 2.056304693222
-47.899768829346 -70.482597351074 -162.943298339844 0.673205971718
-103.886795043945 -69.455558776855 -173.646057128906 1.773705601692
21.224147796631 -72.465080261230 -175.785202026367 2.627001047134
-34.431747436523 -69.779312133789 -178.736099243164 3.140371322632
14.821121215820 -75.854446411133 -179.283813476563 2.228848457336
-143.143814086914 -67.158226013184 -176.854583740234 2.053632974625
-32.147426605225 -65.612434387207 -173.444076538086 1.447036266327
-156.904022216797 -74.759368896484 -178.947891235352 5.253592014313
24.084499359131 -64.313339233398 -182.697372436523 5.148830890656
-34.583076477051 -71.568840026855 -171.401290893555 2.538042783737
-107.488632202148 -65.597633361816 -176.928710937500 1.356366395950
-107.654800415039 -74.654281616211 -185.003707885742 5.231439113617
-31.060724258423 -63.475242614746 -186.697830200195 5.972576141357
-24.870082855225 -75.391754150391 -182.534851074219 1.836710333824
12.042259216309 -69.170936584473 -190.075668334961 2.657830953598
15.540863990784 -66.942108154297 -199.717315673828 2.054553985596
12.686195373535 -70.950820922852 -188.403472900391 1.343184232712
-143.167251586914 -65.638389587402 -187.722534179688 1.114588975906
23.223247528076 -65.711021423340 -190.811843872070 4.275111198425
5.338696002960 -69.496253967285 -197.791458129883 2.086354970932
-135.884185791016 -65.897468566895 -194.365112304688 1.889893651009
-113.542846679688 -67.659889221191 -196.182266235352 1.907584190369
14.347005844116 -68.116073608398 -204.500915527344 1.113320350647
-118.918617248535 -66.267410278320 -197.761169433594 2.918916463852
-108.139045715332 -61.116771697998 -193.368316650391 5.815312862396
-167.236404418945 -69.026451110840 -202.317657470703 0.666172981262
-24.995159149170 -67.920127868652 -200.918930053711 0.701070666313
10.446138381958 -68.160293579102 -200.788253784180 1.387365341187
-145.401626586914 -68.502746582031 -205.030990600586 3.053660392761
-138.183731079102 -71.461936950684 -208.023574829102 5.301096916199
-22.181722640991 -67.400268554688 -208.860046386719 2.771610260010
-13.024984359741 -70.917427062988 -206.299240112305 1.108830451965
-14.586851119995 -71.294380187988 -206.885040283203 2.156571865082
-139.677200317383 -72.903640747070 -203.838699340820 2.162773609161
-17.906070709229 -69.642852783203 -213.914535522461 2.222569227219
-10.017303466797 -75.902359008789 -215.566207885742 2.317574977875
17.396469116211 -66.717102050781 -212.301010131836 2.254875898361
-17.532588958740 -75.329940795898 -212.770492553711 2.070545196533
9.644835472107 -71.512474060059 -210.268814086914 1.643741011620
-11.744644165039 -71.610069274902 -216.264495849609 1.797601342201
-23.702737808228 -65.752334594727 -212.698898315430 6.605068206787
11.023157119751 -77.321952819824 -221.784973144531 2.161229133606
-3.139602899551 -76.776954650879 -220.255645751953 1.540736913681
10.539063453674 -65.541717529297 -221.615798950195 0.935718536377
-7.216372013092 -73.426269531250 -229.225723266602 1.915314793587
-160.956375122070 -69.133514404297 -227.505126953125 2.996063709259
79.828514099121 -74.793807983398 -220.781646728516 2.120581388474
-136.328170776367 -65.351097106934 -224.911483764648 1.915486097336
-135.987182617188 -70.868942260742 -222.931091308594 2.653581142426
-8.754022598267 -71.051124572754 -226.182281494141 0.762880861759
6.163713932037 -69.890830993652 -236.270843505859 1.899857044220
-158.808013916016 -67.578750610352 -232.108337402344 2.217193603516
88.682952880859 -69.673667907715 -221.214782714844 2.638988733292
-2.306091070175 -68.568618774414 -227.456985473633 1.359314918518
0.021993000060 -70.891326904297 -222.591140747070 1.732833862305
73.207084655762 -75.137413024902 -231.901443481445 2.476931333542
-0.376789003611 -67.024826049805 -237.250335693359 0.981449186802
-14.608725547791 -71.759063720703 -226.249313354492 1.962218642235
-128.078613281250 -64.817665100098 -234.925277709961 1.262916445732
-5.885076999664 -69.780990600586 -238.933746337891 1.806247711182
1.875427007675 -67.475532531738 -231.536682128906 1.499284029007
65.451683044434 -68.137123107910 -239.212997436523 0.429656445980
-158.846466064453 -70.423248291016 -238.454284667969 2.691005706787
-13.943422317505 -68.309043884277 -246.532699584961 1.081593275070
-170.925537109375 -71.037475585938 -240.125427246094 3.400081157684
9.811383247375 -65.482398986816 -242.618759155273 2.779219865799
-164.455963134766 -69.590461730957 -239.901916503906 1.847481966019
-160.922454833984 -70.159049987793 -248.087432861328 2.228061437607
57.191024780273 -71.790664672852 -246.037628173828 1.524214029312
60.376331329346 -73.676971435547 -243.308319091797 2.335675477982
54.822166442871 -72.270103454590 -246.734191894531 1.675836086273
50.676342010498 -71.148719787598 -250.441848754883 1.422117114067
-154.163360595703 -69.692588806152 -244.192810058594 1.599182486534
-156.995681762695 -64.001510620117 -248.065261840820 4.483289241791
-13.510823249817 -75.023025512695 -250.520477294922 1.872431993484
-151.583862304688 -67.340431213379 -248.473052978516 1.428351998329
17.495086669922 -71.217903137207 -252.180755615234 2.160458087921
-171.923843383789 -74.505813598633 -252.518875122070 4.685886859894
-169.525451660156 -65.818092346191 -251.236755371094 3.860105514526
-83.004203796387 -71.476341247559 -248.549804687500 1.758367061615
-171.333816528320 -66.822105407715 -259.418365478516 3.868245124817
-85.984771728516 -68.788513183594 -259.128021240234 2.640373229980
42.106132507324 -69.800209045410 -254.713012695313 0.755029439926
20.930101394653 -74.344360351563 -258.194824218750 2.618332386017
-158.920242309570 -69.474555969238 -264.261291503906 1.395824790001
-101.896591186523 -61.161956787109 -261.177276611328 1.947582602501
38.954368591309 -70.689529418945 -255.989471435547 1.090268373489
-107.739082336426 -77.832931518555 -259.527832031250 3.212688684464
-154.412521362305 -64.203201293945 -267.050445556641 2.710517883301
-104.928413391113 -67.843093872070 -258.165679931641 3.534825801849
-170.060577392578 -71.176002502441 -260.647308349609 2.313192367554
-114.054908752441 -69.708709716797 -265.080413818359 3.121462345123
