17.495594024658 -89.557388305664 -246.473892211914 5.749550342560
14.493874549866 -82.257286071777 -245.585464477539 1.201111078262
9.678491592407 -86.249000549316 -253.446517944336 4.026838302612
13.410870552063 -82.357856750488 -253.822494506836 2.058659315109
-156.326934814453 -83.494392395020 -256.290679931641 1.998437285423
-134.050704956055 -75.775375366211 -255.509292602539 1.460319876671
15.245382308960 -81.778732299805 -263.270202636719 1.170678257942
-149.694046020508 -84.303428649902 -272.729064941406 3.198380947113
-146.458145141602 -80.762527465820 -274.139862060547 1.404432773590
2.883126974106 -81.413497924805 -272.831848144531 3.056456565857
-144.915420532227 -78.308151245117 -275.333038330078 2.248064994812
-143.112701416016 -84.077178955078 -288.073486328125 1.320269584656
-148.051956176758 -83.105720520020 -287.012878417969 1.749995708466
-151.323242187500 -84.369087219238 -287.155700683594 0.864795863628
-154.860366821289 -79.084754943848 -295.229644775391 2.222324132919
-133.108383178711 -79.469665527344 -295.396820068359 3.396565437317
-153.357116699219 -76.567779541016 -294.816040039063 0.879826903343
-56.120647430420 -76.506645202637 -67.671043395996 3.839609861374
-57.935836791992 -83.739517211914 -73.340911865234 2.024539232254
-43.882766723633 -83.028839111328 -75.052200317383 2.067946672440
-81.798500061035 -81.403961181641 -82.217201232910 1.406600236893
-39.060058593750 -84.098861694336 -79.253646850586 1.901324868202
-47.899765014648 -78.541427612305 -85.739181518555 1.672462344170
-85.129745483398 -85.801361083984 -106.704322814941 2.495967149734
-75.750953674316 -76.913459777832 -101.054039001465 1.716303110123
28.405118942261 -82.989112854004 -124.940689086914 6.040396213531
32.405677795410 -80.386917114258 -142.138488769531 2.252965688705
-14.270885467529 -82.356079101563 -184.187240600586 4.092222690582
-20.213449478149 -80.362663269043 -183.336517333984 2.516834259033
-24.637683868408 -84.355186462402 -180.432479858398 2.612207412720
-38.675193786621 -83.866744995117 -190.178863525391 2.276004314423
-54.075057983398 -81.609718322754 -191.460906982422 3.999475002289
-34.031066894531 -81.875297546387 -196.097915649414 2.450488805771
-140.537658691406 -75.188087463379 -188.097732543945 2.649635314941
-153.872833251953 -77.610794067383 -197.943405151367 2.165640354156
-153.938522338867 -78.249916076660 -201.342880249023 1.801456809044
-150.126312255859 -77.288597106934 -202.090148925781 1.103795051575
-72.179779052734 -85.351852416992 -211.271148681641 2.431355953217
-61.444049835205 -78.691383361816 -205.534896850586 1.427121877670
-150.602630615234 -78.627082824707 -215.469329833984 1.850301384926
-73.855667114258 -82.169349670410 -212.666229248047 1.661921024323
-72.660064697266 -83.131248474121 -214.152450561523 3.128017902374
-77.297218322754 -77.610427856445 -211.404129028320 0.865858018398
-143.441833496094 -80.365547180176 -226.533065795898 1.259631872177
-146.357208251953 -80.406539916992 -232.994689941406 1.884228706360
-151.614837646484 -81.443824768066 -254.229156494141 1.782456278801
13.836971282959 -79.144790649414 -246.084945678711 3.380314350128
10.026673316956 -79.178405761719 -247.323272705078 0.793948948383
-136.131683349609 -81.396202087402 -260.993316650391 2.659983396530
12.957570075989 -86.674789428711 -253.803573608398 2.614123106003
8.942428588867 -83.235610961914 -255.720413208008 3.504015684128
-151.266204833984 -82.189590454102 -266.101135253906 2.480005502701
-155.429519653320 -76.525024414063 -276.900604248047 4.811211109161
-7.321003913879 -80.799552917480 -273.737945556641 1.508662462234
10.688463211060 -84.082542419434 -279.907775878906 2.744609832764
-154.811965942383 -83.868888854980 -285.022460937500 1.431486606598
-141.362091064453 -83.447921752930 -276.937042236328 3.829541683197
-144.147933959961 -79.668807983398 -305.964202880859 2.401452064514
-44.816909790039 -84.057617187500 -72.310333251953 2.725375413895
-71.066757202148 -77.401367187500 -71.401451110840 3.506487131119
-43.685237884521 -83.858192443848 -71.881225585938 2.376436233521
-31.743772506714 -83.581611633301 -77.058280944824 1.529062390327
-73.455894470215 -77.901878356934 -69.945838928223 1.082481026649
-35.095672607422 -83.773056030273 -74.937599182129 3.460625648499
-47.561355590820 -74.691589355469 -84.712387084961 3.396292209625
-56.309932708740 -75.647705078125 -91.047889709473 1.082350134850
-66.261299133301 -85.599891662598 -90.923461914063 2.429656028748
-63.058265686035 -80.739479064941 -101.207870483398 4.084424018860
-93.658950805664 -79.615493774414 -112.360031127930 4.783303737640
39.579406738281 -80.792137145996 -120.692047119141 0.793701648712
36.695766448975 -86.862739562988 -120.526016235352 5.312628269196
-43.224025726318 -84.157020568848 -167.785385131836 5.476795196533
-43.522617340088 -80.154716491699 -160.227340698242 2.200644254684
-5.509932994843 -81.593666076660 -172.597167968750 2.373796224594
-63.284549713135 -86.291572570801 -168.479019165039 5.117156982422
-61.398616790771 -80.826591491699 -181.160049438477 4.566011905670
-58.499546051025 -80.419212341309 -174.832504272461 1.011822700500
-34.093582153320 -81.207283020020 -172.722335815430 1.352301597595
-58.700309753418 -79.435913085938 -181.351776123047 1.875122547150
-32.420284271240 -78.967124938965 -181.146759033203 0.667688131332
-147.273406982422 -76.743019104004 -185.258590698242 1.126823663712
-52.832542419434 -80.347778320313 -182.635498046875 1.683128476143
-47.344284057617 -78.888816833496 -195.581192016602 1.375030040741
-31.049085617065 -81.836639404297 -182.819778442383 2.896685838699
-34.050392150879 -84.121368408203 -188.548141479492 1.184834003448
-34.753684997559 -77.735900878906 -193.009948730469 2.797313213348
-22.954418182373 -83.370765686035 -188.843597412109 0.285522162914
-48.668029785156 -80.504531860352 -201.091354370117 1.955797076225
-145.397430419922 -72.025177001953 -193.803512573242 2.179028272629
-40.993030548096 -74.720870971680 -194.550399780273 1.956316351891
-39.877883911133 -77.680854797363 -203.511199951172 1.293045282364
-40.456066131592 -83.348312377930 -203.399215698242 3.095677852631
-45.435272216797 -77.373085021973 -201.460647583008 3.004442691803
-133.718887329102 -77.515785217285 -195.787582397461 2.681138753891
-136.699096679688 -76.517448425293 -201.157958984375 2.046893119812
-50.321422576904 -79.158218383789 -204.605102539063 2.859399318695
-61.309398651123 -84.752273559570 -206.068237304688 1.674557328224
-42.301517486572 -80.550247192383 -204.024642944336 3.050951480865
-142.797332763672 -79.500686645508 -206.504013061523 1.007993578911
-70.194068908691 -73.735717773438 -208.719116210938 1.723363637924
-38.483608245850 -83.974609375000 -209.685287475586 5.749068737030
15.025976181030 -83.463111877441 -206.323776245117 2.658042669296
-73.971626281738 -81.072006225586 -214.087921142578 1.799251556396
-29.817937850952 -77.695281982422 -214.720108032227 0.539557456970
11.515425682068 -80.514411926270 -220.234054565430 1.606590867043
-154.192565917969 -77.836044311523 -218.379333496094 4.288715362549
5.994440078735 -80.164779663086 -228.091735839844 1.938848733902
11.684447288513 -82.661643981934 -225.160919189453 2.237662792206
17.078777313232 -78.858169555664 -225.578903198242 0.502190291882
-139.395446777344 -82.450981140137 -227.268737792969 2.121794462204
-145.587051391602 -76.487457275391 -230.110366821289 1.777076601982
11.023838996887 -82.658363342285 -236.770874023438 2.116510868073
16.423427581787 -79.373168945313 -237.165832519531 1.609666228294
14.481170654297 -80.788551330566 -237.365264892578 1.114164233208
-149.689208984375 -80.647613525391 -242.579727172852 1.713118553162
-146.694595336914 -87.746711730957 -239.611648559570 3.363901138306
10.542314529419 -82.560317993164 -235.140380859375 0.774753689766
-42.764686584473 -80.547035217285 -245.085403442383 0.389713555574
17.147932052612 -81.201690673828 -248.350173950195 0.740871489048
-44.832553863525 -82.333511352539 -243.620529174805 2.022019624710
-145.531188964844 -82.061592102051 -258.949340820313 1.201259493828
17.647829055786 -83.215827941895 -253.093673706055 2.175279617310
-145.012603759766 -80.075492858887 -256.978210449219 2.968398571014
-155.170776367188 -78.897277832031 -259.843841552734 1.638556838036
12.421577453613 -80.413696289063 -255.827590942383 4.014608383179
-9.670976638794 -76.518714904785 -252.262115478516 1.036323189735
-9.673347473145 -79.687690734863 -264.330383300781 1.984292268753
-145.212615966797 -84.084533691406 -261.115478515625 1.544942021370
-156.731307983398 -71.980888366699 -263.308013916016 2.896399021149
-144.791763305664 -80.611701965332 -265.044525146484 1.466165781021
-151.054901123047 -74.426788330078 -272.429534912109 2.594878435135
-148.299011230469 -79.547561645508 -269.354187011719 1.485908865929
-8.425764083862 -83.425651550293 -270.234985351563 3.537191390991
-6.976450920105 -80.681610107422 -272.519409179688 1.246810555458
12.952036857605 -81.118827819824 -266.979644775391 2.482625007629
2.313061952591 -83.589576721191 -278.435821533203 2.799266099930
2.032267093658 -78.609504699707 -287.489837646484 3.237669467926
-139.719329833984 -74.874519348145 -290.942108154297 2.291754961014
-146.964218139648 -77.453056335449 -294.510772705078 1.849500060081
-61.271312713623 -77.764160156250 -63.787658691406 2.559230089188
-46.275688171387 -77.852546691895 -65.836860656738 2.249549388885
-46.344631195068 -73.885742187500 -67.216011047363 3.988912105560
-45.968719482422 -75.749595642090 -66.353401184082 2.576606035233
-67.617897033691 -83.805458068848 -67.491668701172 3.660138845444
-77.147575378418 -76.188652038574 -71.444389343262 4.933307647705
-41.040847778320 -78.803367614746 -77.432815551758 2.872534990311
-42.915557861328 -82.765228271484 -86.866645812988 3.450846433640
-49.756153106689 -85.130966186523 -88.594696044922 2.650094985962
-86.061950683594 -75.851295471191 -88.702148437500 5.645542144775
-73.776687622070 -82.172416687012 -108.842048645020 6.214653015137
42.913234710693 -79.771255493164 -108.224685668945 1.560106873512
-86.065559387207 -77.346015930176 -110.035415649414 1.489605307579
42.878593444824 -81.719909667969 -121.481643676758 2.769172191620
40.139274597168 -79.039497375488 -124.630668640137 1.471448779106
33.039600372314 -79.209571838379 -122.151641845703 2.127838850021
28.005399703979 -84.847213745117 -127.606712341309 5.088912487030
29.432085037231 -79.206756591797 -133.834411621094 2.439792871475
22.818025588989 -76.781867980957 -146.277923583984 1.810066699982
-49.410152435303 -82.498504638672 -157.186004638672 3.969628334045
29.633516311646 -80.289596557617 -142.930770874023 1.425095081329
23.626659393311 -83.799438476563 -156.996597290039 4.622590065002
-43.284488677979 -81.691909790039 -152.045242309570 2.499981641769
25.332126617432 -80.798522949219 -155.625534057617 1.970009207726
-49.593181610107 -75.771987915039 -160.477066040039 1.568821191788
24.492645263672 -80.665184020996 -166.728744506836 2.006877422333
-62.430362701416 -80.165657043457 -170.993377685547 1.762059926987
-4.850417137146 -83.405151367188 -173.906967163086 3.650042295456
-33.653446197510 -78.709136962891 -174.101699829102 0.930208802223
-9.729211807251 -81.601692199707 -172.558425903320 1.109743714333
-58.549160003662 -78.798233032227 -176.525070190430 1.933163404465
22.761957168579 -83.581016540527 -172.904708862305 4.821675300598
-14.388777732849 -77.978538513184 -185.351028442383 1.620553970337
-24.958795547485 -74.146171569824 -187.675537109375 1.352269530296
-52.954074859619 -75.346397399902 -183.889816284180 1.153279900551
-30.602703094482 -80.573623657227 -187.836578369141 1.742654681206
15.837875366211 -83.678955078125 -192.344177246094 4.181619167328
-149.728836059570 -79.993400573730 -189.284469604492 1.358934640884
-30.795700073242 -80.098678588867 -189.929595947266 1.495859503746
-50.348152160645 -75.837059020996 -190.423767089844 1.399708509445
-151.729385375977 -81.104873657227 -190.648941040039 2.204479217529
-143.380722045898 -78.247528076172 -197.447998046875 1.421779155731
-25.333227157593 -79.584274291992 -198.391860961914 2.834167480469
-24.265554428101 -80.225517272949 -195.783554077148 0.391637504101
-46.363426208496 -77.815116882324 -195.807128906250 0.525031805038
-19.741250991821 -82.091850280762 -195.785049438477 2.499256610870
-49.126216888428 -79.192649841309 -198.995697021484 0.608744859695
-48.152294158936 -79.770225524902 -197.890609741211 1.623457193375
-54.888923645020 -81.685760498047 -200.906295776367 2.362128257751
-20.679174423218 -75.744476318359 -207.067962646484 2.378011941910
-146.008041381836 -77.436508178711 -217.305541992188 1.822458028793
-59.687892913818 -76.818717956543 -210.625595092773 2.162493467331
-60.474685668945 -75.305442810059 -210.912841796875 3.798175096512
-34.145786285400 -72.407615661621 -209.004943847656 1.788390517235
-12.846902847290 -76.291252136230 -207.640625000000 1.730413913727
-35.483585357666 -77.064918518066 -210.487457275391 2.273937702179
-81.412803649902 -77.814117431641 -210.522796630859 1.585473418236
-145.068115234375 -83.559997558594 -210.761337280273 0.948994517326
-34.361454010010 -80.701126098633 -209.996871948242 2.859562873840
4.786499977112 -83.828079223633 -209.452987670898 6.486850738525
-68.454399108887 -81.194076538086 -212.982727050781 1.793266177177
-65.107276916504 -77.991073608398 -215.630004882813 3.407923460007
-26.238363265991 -74.448783874512 -215.298156738281 1.635404586792
-10.758927345276 -87.369338989258 -213.729324340820 6.143575191498
-28.276367187500 -81.962074279785 -217.592407226563 3.712965011597
18.212722778320 -79.838859558105 -216.038360595703 3.089139461517
-151.872161865234 -72.062515258789 -219.878173828125 3.425573110580
-12.904945373535 -86.300804138184 -219.997222900391 5.103160858154
-158.530670166016 -79.164344787598 -227.586380004883 4.729463100433
6.421748161316 -81.507179260254 -231.505844116211 3.101088523865
12.014536857605 -75.891967773438 -227.277938842773 3.048615932465
-2.214229106903 -79.739326477051 -223.370864868164 1.120703458786
14.915067672729 -81.388900756836 -229.546096801758 1.497878193855
-140.501754760742 -83.074073791504 -235.645584106445 3.243606090546
10.725623130798 -81.486602783203 -228.176910400391 1.280852317810
-154.856628417969 -74.694869995117 -229.767196655273 2.649132728577
-146.204925537109 -77.939643859863 -235.327087402344 2.724875926971
-1.511747956276 -81.531959533691 -222.241027832031 1.835113286972
17.723268508911 -84.359405517578 -234.297607421875 3.650770902634
-31.767951965332 -75.872566223145 -239.155761718750 2.391762018204
-146.655166625977 -77.220550537109 -240.503890991211 1.967170715332
-37.509605407715 -77.902938842773 -245.505142211914 2.439861536026
-47.385589599609 -77.186790466309 -241.807174682617 1.051764607430
-37.642002105713 -76.673332214355 -241.075164794922 1.598649024963
18.823005676270 -81.180152893066 -244.701293945313 0.748194158077
-50.722572326660 -72.911041259766 -247.512207031250 1.262487411499
16.643936157227 -80.922943115234 -246.288223266602 1.795329809189
12.520443916321 -77.602012634277 -241.193283081055 2.547788858414
8.480403900146 -81.978767395020 -250.448562622070 0.786762714386
-40.545848846436 -83.142158508301 -247.861007690430 4.306683540344
23.535339355469 -83.362930297852 -247.549957275391 4.298942089081
-143.793243408203 -77.509887695313 -248.346969604492 0.738396286964
19.777149200439 -78.057685852051 -251.787231445313 2.547526836395
-0.641983985901 -84.938041687012 -250.419906616211 2.613226652145
9.419552803040 -80.097892761230 -242.248855590820 1.590088009834
-150.860824584961 -71.883819580078 -255.607330322266 1.471964240074
-147.521987915039 -81.431610107422 -259.265899658203 2.195597887039
-142.624649047852 -78.001365661621 -258.523803710938 0.804176092148
-152.809509277344 -76.642341613770 -261.176147460938 3.786192655563
14.861531257629 -75.290634155273 -264.333007812500 4.657712459564
-155.404754638672 -72.027648925781 -273.476989746094 1.709375739098
-7.552770137787 -80.415634155273 -275.127044677734 2.606864690781
-152.679473876953 -79.166175842285 -268.838623046875 2.471220016479
-144.866195678711 -74.892692565918 -282.880157470703 1.558087944984
-154.644943237305 -72.796623229980 -276.843566894531 3.166585206985
-154.554412841797 -79.668190002441 -285.584350585938 0.993867576122
-131.562118530273 -80.521110534668 -290.337249755859 3.353868246078
-154.198181152344 -77.554977416992 -290.527404785156 2.537382364273
-146.939193725586 -80.626205444336 -292.203704833984 2.249551057816
-147.718673706055 -77.487457275391 -291.068634033203 1.961854338646
-154.042404174805 -79.264144897461 -297.733612060547 1.709616780281
-145.788223266602 -74.147270202637 -293.402954101563 2.299818277359
-153.255187988281 -76.993133544922 -302.497131347656 2.087046623230
-148.044387817383 -78.437156677246 -304.696502685547 2.873821496964
-147.909698486328 -72.543731689453 -307.112487792969 3.237157106400
-57.390022277832 -69.997932434082 -62.471199035645 6.694599628448
-65.407852172852 -77.200859069824 -65.452896118164 3.029971361160
-48.063365936279 -78.034759521484 -62.520835876465 1.753098368645
-25.545356750488 -80.374397277832 -76.937889099121 3.253640651703
-52.944766998291 -81.847518920898 -89.263175964355 1.090882539749
-89.344856262207 -85.654640197754 -98.985603332520 6.874521255493
40.830982208252 -81.161552429199 -107.937805175781 2.121764659882
-75.548904418945 -80.291442871094 -101.377609252930 1.811489939690
43.311405181885 -83.501640319824 -114.925285339355 0.835701167583
40.610389709473 -80.438713073730 -123.748405456543 1.343378543854
40.197631835938 -81.207626342773 -124.958168029785 1.730189919472
34.838920593262 -81.054771423340 -135.914199829102 1.377770662308
31.079999923706 -78.573577880859 -135.444152832031 2.013371229172
32.722148895264 -87.833709716797 -135.924453735352 5.927291393280
31.458961486816 -77.257804870605 -151.580780029297 1.398033499718
-46.225681304932 -74.320510864258 -151.114868164063 1.488944053650
28.502717971802 -82.533691406250 -140.858520507813 2.683598041534
-67.115501403809 -73.772621154785 -154.252761840820 1.003364205360
-36.762798309326 -81.463500976563 -153.791213989258 3.236617565155
-62.090282440186 -80.181983947754 -164.405822753906 1.559357285500
-39.993732452393 -80.406318664551 -159.521652221680 2.676742792130
30.708738327026 -81.202194213867 -158.283569335938 3.143446922302
-36.859252929688 -85.135223388672 -158.938079833984 2.672544002533
-1.928591012955 -80.376243591309 -175.161895751953 4.975248813629
33.750473022461 -74.419128417969 -165.830184936523 3.082132339478
-11.135845184326 -79.992965698242 -172.099945068359 1.288399219513
-59.380084991455 -78.177795410156 -164.065811157227 1.245191812515
-38.078395843506 -75.210395812988 -171.399856567383 0.745324969292
-32.960922241211 -75.540824890137 -175.161941528320 3.044303894043
23.129240036011 -81.923316955566 -178.284957885742 2.938651800156
-54.197502136230 -79.738784790039 -177.489746093750 1.310720682144
-28.398723602295 -74.226394653320 -176.076812744141 2.750062942505
21.680107116699 -79.541809082031 -186.045440673828 2.406106233597
-52.356105804443 -79.594139099121 -186.801544189453 1.286296129227
-25.514736175537 -73.243438720703 -181.768234252930 0.690583229065
-55.223197937012 -75.078201293945 -185.697204589844 2.808550357819
-41.902870178223 -77.630836486816 -196.331741333008 0.959415435791
-29.927814483643 -77.184272766113 -190.771011352539 2.801663398743
-42.047523498535 -80.425903320313 -197.006317138672 1.498822569847
-23.542530059814 -78.348579406738 -193.431777954102 1.736977458000
-138.594421386719 -77.896354675293 -198.228225708008 2.269472599030
20.144989013672 -79.577880859375 -202.030364990234 3.195748806000
-134.168640136719 -74.919486999512 -200.436462402344 0.999726533890
-21.461740493774 -75.943725585938 -197.306411743164 1.129030346870
-21.257230758667 -76.066062927246 -197.910736083984 0.524847686291
-42.816371917725 -79.205589294434 -195.563125610352 1.547984123230
11.365715026855 -76.813949584961 -199.100875854492 1.707209587097
-17.092239379883 -82.101890563965 -199.545318603516 2.944865226746
-56.320945739746 -79.957099914551 -206.176498413086 2.129664421082
-35.410945892334 -78.845901489258 -204.822433471680 1.244087934494
-61.415878295898 -75.170372009277 -208.084030151367 2.769853353500
-69.185081481934 -76.396080017090 -212.157455444336 2.842731237411
16.160215377808 -77.707496643066 -210.554824829102 1.125633955002
-86.944244384766 -76.350746154785 -213.029479980469 1.194054365158
-29.054477691650 -79.061439514160 -216.455841064453 1.326957464218
-81.048217773438 -78.630317687988 -211.147079467773 1.849214911461
-149.823211669922 -77.664215087891 -215.128234863281 2.053344249725
-7.810033798218 -79.376449584961 -215.882980346680 2.654506683350
-7.179468154907 -77.450576782227 -219.106491088867 1.687800645828
11.988038063049 -80.436470031738 -218.316482543945 1.584046244621
12.036858558655 -73.303710937500 -227.138122558594 1.964592695236
-1.871961951256 -81.039733886719 -229.545516967773 3.023125410080
-142.693664550781 -75.270561218262 -221.271301269531 1.825487494469
-150.307022094727 -81.013923645020 -235.870178222656 3.282093286514
-154.192153930664 -73.297683715820 -234.246170043945 2.247980833054
0.772583007813 -82.041656494141 -237.503753662109 3.580495595932
1.914561033249 -77.669837951660 -238.323150634766 0.465062260628
-24.661197662354 -83.706413269043 -243.560058593750 5.510269165039
-151.118118286133 -74.089149475098 -239.965744018555 0.469639301300
9.490865707397 -80.975822448730 -244.457992553711 2.213819265366
-23.502656936646 -73.174133300781 -242.544296264648 1.213697671890
18.445266723633 -79.446380615234 -237.114517211914 2.681349992752
-53.441616058350 -76.972793579102 -244.621246337891 0.992189943790
-51.035854339600 -78.333198547363 -250.751464843750 2.941301584244
-147.522109985352 -82.085769653320 -246.906265258789 2.698370933533
-62.684646606445 -79.105133056641 -249.468399047852 2.135340929031
-3.289542913437 -78.829475402832 -247.327560424805 2.479770898819
-10.852452278137 -76.340972900391 -255.570144653320 1.376477360725
-147.802902221680 -80.973846435547 -260.230560302734 1.401323914528
-132.534561157227 -74.995826721191 -257.438415527344 1.695604205132
-135.948135375977 -74.548210144043 -258.923797607422 0.846708238125
16.658248901367 -78.542045593262 -259.297485351563 3.072286605835
-146.331008911133 -78.038063049316 -273.286926269531 2.398690223694
17.340009689331 -80.615089416504 -267.433044433594 2.088717937469
-144.978851318359 -74.570724487305 -276.012420654297 1.910034656525
2.249113082886 -81.586914062500 -278.385223388672 2.202926397324
-142.659881591797 -77.301177978516 -283.184509277344 1.879622220993
-1.401478052139 -81.879249572754 -284.369873046875 3.411302328110
-153.540832519531 -74.012702941895 -285.438568115234 2.245987415314
-144.255691528320 -73.442619323730 -284.396697998047 0.807021915913
-137.026321411133 -80.829978942871 -287.416137695313 1.123469948769
-150.020278930664 -79.262847900391 -295.305938720703 2.476667642593
-21.325874328613 -76.534973144531 -291.289855957031 1.211525321007
-151.860443115234 -75.552520751953 -293.159759521484 1.028625249863
-147.751098632813 -80.015922546387 -296.376678466797 1.274034976959
-152.098281860352 -75.285079956055 -308.919494628906 2.624899387360
-56.742343902588 -74.969284057617 -57.978878021240 2.053698062897
-40.217273712158 -82.844619750977 -64.009605407715 3.048022747040
-76.474990844727 -80.053169250488 -68.875526428223 3.239577293396
-31.478649139404 -76.096969604492 -67.925163269043 2.338227987289
-27.737306594849 -79.269393920898 -71.888061523438 3.084681034088
-87.404037475586 -77.824172973633 -80.480911254883 1.835506558418
84.465110778809 -82.520568847656 -85.472839355469 2.985705137253
-35.745121002197 -75.564002990723 -86.374603271484 4.306709289551
81.387489318848 -84.450958251953 -86.931793212891 5.191528320313
78.121253967285 -80.921783447266 -89.699249267578 4.001327514648
84.385902404785 -80.291801452637 -87.162818908691 1.596168160439
85.028701782227 -78.211921691895 -91.878738403320 1.137670397758
89.482864379883 -79.486244201660 -95.208877563477 3.161088228226
-91.607192993164 -73.391456604004 -94.750274658203 3.270423412323
55.147274017334 -80.033966064453 -106.296379089355 2.933958292007
-96.684173583984 -66.130035400391 -112.987937927246 3.405241966248
45.962535858154 -82.250839233398 -108.661819458008 4.551952362061
49.460674285889 -80.511596679688 -114.043952941895 4.602732181549
38.169445037842 -78.458930969238 -115.490280151367 1.445739030838
33.372489929199 -79.645645141602 -138.339935302734 1.833683133125
26.352149963379 -78.320716857910 -141.685943603516 1.565264225006
21.574914932251 -71.908943176270 -144.612228393555 2.738010406494
32.169376373291 -75.190788269043 -143.816589355469 2.331768989563
-47.075031280518 -80.035995483398 -154.761444091797 0.121142253280
-49.563602447510 -78.608436584473 -151.993789672852 1.927237510681
-41.347793579102 -76.556510925293 -158.804428100586 1.705548048019
22.852537155151 -76.578094482422 -155.021118164063 1.596131682396
29.287467956543 -77.682861328125 -168.859710693359 2.767374277115
-33.643753051758 -74.115470886230 -169.758682250977 3.819947481155
-35.782543182373 -72.595756530762 -159.831436157227 1.702180624008
-46.335601806641 -79.667953491211 -159.987579345703 3.040464162827
1.424631953239 -75.456886291504 -164.243408203125 2.408677577972
24.247592926025 -79.550025939941 -152.102569580078 1.130385518074
32.659645080566 -75.098777770996 -160.413375854492 1.650954365730
28.650032043457 -76.737869262695 -171.218444824219 0.991208136082
-6.716734886169 -77.407760620117 -173.345184326172 2.406082391739
-5.042528152466 -78.880989074707 -171.237030029297 1.299369096756
-58.660720825195 -75.128585815430 -167.606521606445 1.877371788025
-61.265018463135 -76.385261535645 -171.870422363281 1.424410104752
-44.278408050537 -78.623947143555 -170.455856323242 1.778226494789
-38.428684234619 -75.530967712402 -168.387237548828 2.493136882782
21.339420318604 -73.687446594238 -172.166641235352 3.489227294922
-23.526548385620 -81.993553161621 -179.052474975586 2.975472450256
-30.811607360840 -74.494972229004 -182.280471801758 2.768166303635
-63.053695678711 -80.342147827148 -180.065826416016 4.539105415344
97.672409057617 -81.365226745605 -182.846679687500 6.833498954773
20.604404449463 -82.004104614258 -176.018875122070 2.387687206268
-26.273767471313 -77.316558837891 -180.661773681641 0.996413528919
-51.990367889404 -76.950767517090 -179.231842041016 0.624408006668
-21.756998062134 -74.195816040039 -181.445266723633 0.995250999928
112.113594055176 -80.321784973145 -182.596466064453 5.855163574219
-56.000625610352 -79.084152221680 -185.771209716797 1.747696638107
12.085629463196 -80.169898986816 -190.962219238281 3.854262113571
17.416181564331 -78.265968322754 -179.520507812500 2.204541206360
-56.550483703613 -82.318916320801 -177.928253173828 4.017789363861
-24.973224639893 -76.073944091797 -183.349502563477 2.404689550400
-56.449325561523 -80.268020629883 -178.011138916016 3.042088031769
-36.893169403076 -78.952590942383 -178.250625610352 1.335147976875
-29.418825149536 -77.353538513184 -188.230712890625 0.459371685982
19.323183059692 -78.791679382324 -189.319168090820 2.310017347336
-48.738281250000 -78.647460937500 -189.253234863281 1.915334582329
103.115020751953 -78.975990295410 -191.045059204102 2.884466648102
-51.255970001221 -73.451942443848 -190.228927612305 2.697615623474
6.550366878510 -77.431221008301 -203.549865722656 2.357699632645
20.444375991821 -77.147819519043 -199.292144775391 1.930367827415
-49.885898590088 -77.021797180176 -192.307739257813 0.992206573486
-17.037279129028 -78.516113281250 -190.049880981445 3.294810771942
99.351745605469 -79.589447021484 -195.744979858398 4.582356452942
95.816749572754 -83.733184814453 -196.105880737305 7.511210441589
-50.265312194824 -75.714309692383 -187.773147583008 1.361690759659
-150.152740478516 -81.519561767578 -200.461486816406 1.683637022972
-46.034328460693 -76.810882568359 -197.049453735352 0.919691503048
-145.481369018555 -76.397300720215 -197.872558593750 2.342305183411
-135.577011108398 -71.410346984863 -198.370346069336 2.671020984650
-47.107715606689 -79.926818847656 -196.950347900391 0.443132400513
9.319953918457 -79.881813049316 -207.959716796875 2.243134737015
-16.445682525635 -74.968589782715 -205.707443237305 1.376314997673
15.564946174622 -75.632835388184 -201.951965332031 2.115715026855
91.024284362793 -83.513648986816 -213.595336914063 6.049744606018
-35.535816192627 -75.500350952148 -203.101806640625 2.467698574066
-14.649295806885 -75.692863464355 -204.716079711914 2.171600341797
-16.572217941284 -75.221710205078 -214.699707031250 0.815562129021
-35.786415100098 -76.145324707031 -205.169509887695 0.905710279942
5.770779132843 -78.175628662109 -207.048385620117 2.385596036911
-79.868759155273 -77.467811584473 -211.428024291992 1.275398492813
15.713870048523 -79.143211364746 -215.485458374023 1.261764645576
-35.664226531982 -76.254806518555 -206.475387573242 1.117367148399
-145.822158813477 -79.208580017090 -207.959243774414 3.076512575150
-142.234863281250 -71.364593505859 -210.968734741211 3.588346242905
-88.801116943359 -76.840057373047 -213.579772949219 1.647086858749
-35.521793365479 -74.968978881836 -210.023254394531 2.992470741272
-15.478955268860 -82.540985107422 -213.140411376953 3.735440254211
-33.881740570068 -78.306114196777 -206.894500732422 1.598866462708
-91.524681091309 -78.628662109375 -217.797302246094 2.235836029053
-87.593276977539 -78.063568115234 -214.395782470703 0.985299348831
5.665699005127 -83.524154663086 -221.443984985352 3.192509889603
-150.090408325195 -69.693893432617 -213.682678222656 0.910312414169
-15.289132118225 -81.437446594238 -213.358718872070 2.917662858963
8.360857963562 -84.646934509277 -219.669845581055 3.188766479492
-144.943984985352 -73.780792236328 -220.687332153320 1.761110305786
-23.711860656738 -79.103813171387 -216.766571044922 1.241545200348
0.408235013485 -73.724647521973 -220.649063110352 2.833700656891
-8.858710289001 -78.766677856445 -220.451080322266 0.778079569340
-153.097946166992 -70.995376586914 -224.047744750977 1.038162350655
-140.376754760742 -65.488243103027 -226.979995727539 1.618272423744
-4.877473831177 -78.072837829590 -226.419784545898 1.388415932655
-149.066955566406 -80.420448303223 -227.604812622070 1.736826419830
0.456903010607 -73.219619750977 -230.161682128906 2.890772581100
16.991279602051 -77.319984436035 -236.256286621094 1.822369217873
-2.786293983459 -80.348968505859 -230.589233398438 3.345122814178
-2.380733013153 -72.195922851563 -233.332122802734 0.773841083050
7.909944057465 -76.571945190430 -232.500076293945 1.246881961823
-152.968536376953 -75.577110290527 -240.070693969727 2.256048440933
-20.343589782715 -75.012695312500 -234.450698852539 4.463156700134
-35.272949218750 -79.362846374512 -239.467926025391 2.066067457199
1.103698015213 -76.311546325684 -235.379928588867 1.277839899063
2.278788089752 -82.904220581055 -243.419052124023 4.826803207397
1.037107944489 -76.157684326172 -233.996826171875 2.486265420914
-58.938232421875 -75.928771972656 -242.997619628906 2.386346578598
-149.420700073242 -71.205238342285 -249.688842773438 3.641845941544
-153.837829589844 -74.800209045410 -248.149444580078 2.636373758316
11.054682731628 -79.762329101563 -247.845962524414 1.727336764336
24.511699676514 -80.316772460938 -247.030761718750 3.089988708496
-61.873439788818 -73.444236755371 -248.048004150391 0.862460434437
-143.126251220703 -79.454429626465 -252.938415527344 1.587807416916
-154.096878051758 -78.142044067383 -255.261566162109 2.844367265701
-154.650985717773 -78.927635192871 -257.689147949219 2.703303098679
-143.588699340820 -71.932106018066 -262.797271728516 1.924929499626
-142.260437011719 -75.740180969238 -257.210327148438 1.976916670799
-7.784512996674 -79.251098632813 -256.907135009766 1.908649086952
-146.142364501953 -76.222076416016 -262.870971679688 3.046224832535
-14.947083473206 -78.302993774414 -268.632232666016 2.919584989548
-148.195648193359 -73.361106872559 -272.562744140625 4.243520736694
-148.614562988281 -74.106239318848 -282.992858886719 2.576872110367
-148.895996093750 -72.781982421875 -284.740173339844 2.350359916687
-4.230687141418 -72.754844665527 -285.841491699219 0.987551331520
-148.805648803711 -70.311294555664 -283.807250976563 1.469067454338
-26.514196395874 -78.404510498047 -286.918304443359 3.233523845673
-26.933200836182 -74.075469970703 -285.911926269531 1.177080631256
-14.358158111572 -74.403938293457 -294.240753173828 1.643179416656
-14.700705528259 -74.021041870117 -293.478912353516 1.304387331009
11.321873664856 -80.131896972656 -291.891387939453 2.586568117142
-125.690048217773 -76.761314392090 -290.789031982422 1.078374147415
-62.185665130615 -76.554183959961 -287.840484619141 2.161249160767
-42.331497192383 -73.465461730957 -290.975616455078 2.654219388962
-33.868850708008 -77.392311096191 -288.390380859375 1.029877901077
-9.267583847046 -75.060691833496 -294.448425292969 2.496957778931
4.873127937317 -78.538078308105 -288.630493164063 2.491326093674
-142.423736572266 -75.265838623047 -298.430053710938 4.301213741302
10.114535331726 -78.003585815430 -296.410705566406 3.757494211197
-154.148605346680 -71.654891967773 -303.331268310547 2.696083307266
-154.653793334961 -78.598556518555 -302.000640869141 1.826995372772
-153.936233520508 -70.168334960938 -312.934661865234 2.995352268219
-143.617538452148 -73.495620727539 -310.261840820313 2.215687990189
-51.587318420410 -76.606834411621 -51.199001312256 4.722208023071
-54.763519287109 -80.565498352051 -56.934028625488 2.893433332443
-68.076545715332 -74.518806457520 -55.382484436035 2.132698774338
-41.079952239990 -74.901939392090 -62.948677062988 2.300007104874
-36.405853271484 -77.305397033691 -60.020721435547 2.131514072418
-19.944696426392 -76.504737854004 -70.899513244629 2.618181467056
-82.143440246582 -73.275657653809 -69.870162963867 4.544821262360
84.473526000977 -80.054748535156 -79.023902893066 2.473070859909
-91.390975952148 -74.112174987793 -74.753868103027 1.996060967445
79.871231079102 -77.362785339355 -78.010169982910 2.142655611038
87.516098022461 -75.011329650879 -84.910491943359 2.803167581558
97.089172363281 -76.755493164063 -90.312812805176 3.161713600159
-61.708648681641 -79.316329956055 -96.992515563965 1.894639730453
81.481811523438 -80.706497192383 -97.052452087402 4.283310890198
75.995162963867 -83.715530395508 -91.620300292969 6.012290954590
85.805297851563 -79.402313232422 -91.026542663574 0.958926737309
-59.831901550293 -76.800659179688 -98.111167907715 4.298364639282
48.288135528564 -76.577659606934 -98.671287536621 1.879474043846
45.141166687012 -77.842247009277 -107.180412292480 2.460366964340
39.043323516846 -79.234642028809 -104.269309997559 1.876184940338
35.466720581055 -78.744392395020 -102.597824096680 5.329119205475
-92.465209960938 -71.463912963867 -104.738624572754 1.281597971916
34.889175415039 -76.470314025879 -117.924140930176 2.069738626480
-85.468528747559 -76.149490356445 -107.939720153809 2.725867509842
39.782394409180 -79.609771728516 -127.794479370117 3.097513198853
32.118537902832 -79.127464294434 -121.422393798828 1.571953415871
33.689105987549 -70.596481323242 -122.041419982910 1.643103241920
43.912712097168 -76.307937622070 -118.093437194824 1.049241185188
40.741962432861 -81.057693481445 -128.828750610352 4.270636558533
-51.776691436768 -70.058143615723 -135.680831909180 1.015459179878
36.915832519531 -82.403579711914 -134.804626464844 1.114246368408
35.146312713623 -77.670639038086 -144.657165527344 1.417180657387
-56.163848876953 -73.924468994141 -144.282974243164 2.026293039322
-45.561706542969 -76.568939208984 -140.761825561523 1.985954165459
34.487895965576 -76.511703491211 -143.113021850586 1.989892482758
110.008972167969 -74.698776245117 -141.231048583984 2.132095575333
111.906951904297 -75.804359436035 -146.825973510742 2.241079807281
25.931697845459 -79.264060974121 -142.158996582031 1.746770739555
-40.826175689697 -79.096519470215 -150.210433959961 0.768169224262
115.981170654297 -86.243278503418 -153.190292358398 8.836363792419
-37.864891052246 -74.327301025391 -153.145294189453 1.371983289719
-68.311645507813 -74.807075500488 -162.759902954102 1.262049555779
109.989021301270 -83.725646972656 -156.542053222656 6.394492149353
22.141162872314 -78.554840087891 -166.715286254883 1.920837640762
0.401192992926 -77.937133789063 -163.320129394531 1.448037505150
110.692985534668 -79.480529785156 -153.319625854492 3.800684690475
-64.674156188965 -75.251899719238 -166.711135864258 1.088842868805
-39.177852630615 -77.379020690918 -165.893798828125 1.267800927162
110.964988708496 -80.144699096680 -165.427383422852 3.504465818405
27.278604507446 -72.556808471680 -159.063354492188 2.269632577896
-62.180259704590 -69.351165771484 -165.030960083008 1.544207096100
112.167510986328 -79.682106018066 -166.439529418945 2.035840272903
-65.941368103027 -77.231925964355 -169.440567016602 2.492405891418
-49.534461975098 -78.827880859375 -182.741409301758 0.750327348709
105.692466735840 -78.454322814941 -171.813842773438 3.688274860382
-60.037090301514 -74.117294311523 -172.722030639648 1.345496773720
112.034439086914 -78.212471008301 -178.293106079102 1.682926297188
-61.714706420898 -74.769828796387 -176.798812866211 2.770585298538
-16.221405029297 -74.049194335938 -177.994476318359 3.083324670792
-10.597923278809 -81.941543579102 -182.883010864258 5.189596176147
107.190132141113 -81.089324951172 -167.367324829102 4.634619235992
20.964794158936 -78.679420471191 -171.899368286133 1.451914072037
30.220714569092 -72.833206176758 -169.736587524414 2.846102476120
-58.368122100830 -74.739700317383 -177.995117187500 2.303664207458
17.075521469116 -75.319831848145 -182.315170288086 1.201039791107
-58.000091552734 -76.389450073242 -175.359832763672 1.374261856079
-52.757194519043 -74.169952392578 -194.177047729492 4.081334114075
10.608897209167 -74.740951538086 -185.281631469727 1.768095374107
-56.425365447998 -70.988029479980 -180.030532836914 3.225419759750
105.857658386230 -76.471565246582 -188.885269165039 1.408307552338
25.283294677734 -80.198783874512 -182.453826904297 2.559915781021
-35.384361267090 -73.651535034180 -188.797683715820 3.686484098434
-43.521808624268 -78.341247558594 -190.480346679688 1.418402910233
10.759632110596 -79.190284729004 -192.217956542969 4.145992755890
-20.184057235718 -77.643966674805 -188.690872192383 1.633381843567
-48.101623535156 -77.271453857422 -195.997207641602 1.022927522659
101.394256591797 -82.972091674805 -183.269104003906 5.646341800690
9.390597343445 -80.499336242676 -190.848449707031 5.698870658875
-133.138031005859 -80.087638854980 -200.616806030273 2.565224885941
-48.882175445557 -78.063049316406 -196.005065917969 1.784867286682
94.224075317383 -77.852119445801 -199.277801513672 3.514834403992
-150.101028442383 -79.783691406250 -203.114242553711 2.409193754196
17.867702484131 -77.629783630371 -200.579895019531 0.412711262703
-43.717483520508 -72.755134582520 -206.511962890625 4.594839572906
-30.748895645142 -79.210556030273 -207.559692382813 2.023818731308
-37.693748474121 -77.136131286621 -202.154907226563 2.226325273514
-46.163299560547 -82.055015563965 -198.530838012695 2.039500713348
100.191886901855 -78.672660827637 -205.019805908203 2.000471353531
-21.626064300537 -80.336677551270 -200.858352661133 0.780683457851
-150.689697265625 -73.892364501953 -201.801696777344 2.256465673447
15.327327728271 -79.646011352539 -202.297744750977 1.520927309990
-77.700141906738 -79.698364257813 -206.355194091797 2.223689317703
-144.517227172852 -71.733566284180 -214.318588256836 3.346293687820
93.464569091797 -80.961257934570 -214.039535522461 4.291496753693
-33.415420532227 -74.669219970703 -207.581756591797 1.793466567993
-29.338106155396 -76.829978942871 -211.700973510742 1.471639394760
9.344052314758 -77.639190673828 -210.535476684570 1.196279406548
-72.262481689453 -79.572563171387 -208.466110229492 1.588655233383
-27.843338012695 -84.022750854492 -206.573944091797 4.538367271423
-8.571524620056 -78.119216918945 -217.435455322266 2.295867681503
-70.852111816406 -76.579414367676 -214.616989135742 2.295139074326
-14.508652687073 -77.037483215332 -218.060180664063 1.126458764076
7.427650928497 -68.952156066895 -211.961166381836 2.852921247482
12.311294555664 -79.961067199707 -221.728302001953 2.793079137802
-151.866577148438 -75.688858032227 -218.395843505859 3.310248613358
-9.455266952515 -76.596008300781 -214.765533447266 1.826354026794
-101.792404174805 -71.085075378418 -220.682922363281 1.366428613663
-22.393575668335 -75.961654663086 -220.015792846680 1.768012046814
88.204391479492 -84.204635620117 -212.625686645508 7.016650676727
8.674478530884 -75.133270263672 -225.215835571289 1.740312576294
20.649688720703 -76.920356750488 -216.885894775391 3.617733240128
79.575515747070 -79.951316833496 -214.775100708008 4.573060989380
0.808030009270 -81.002883911133 -230.344223022461 2.138326644897
84.885856628418 -79.028434753418 -217.259353637695 2.868457078934
-21.271381378174 -72.301521301270 -224.947586059570 0.981614112854
16.032478332520 -74.038269042969 -218.938461303711 2.303949356079
-148.904388427734 -75.467971801758 -219.653045654297 2.397839069366
-26.165557861328 -77.823997497559 -226.713607788086 4.100737571716
1.568918943405 -74.360939025879 -231.257507324219 2.191470384598
-156.854064941406 -79.153999328613 -226.182556152344 2.558144330978
-137.909530639648 -77.103050231934 -228.584884643555 2.352189540863
2.896142959595 -76.596252441406 -224.017486572266 2.612329244614
-4.107715129852 -73.331405639648 -225.897445678711 2.827737808228
-137.484008789063 -70.620117187500 -229.899459838867 2.405198812485
-147.571228027344 -74.336799621582 -242.463058471680 1.928910136223
-149.213531494141 -74.535949707031 -236.408432006836 2.030167102814
-32.144680023193 -77.468704223633 -237.391555786133 2.281424522400
-142.775054931641 -77.230125427246 -243.927047729492 3.308600902557
15.181827545166 -78.553810119629 -241.913452148438 1.614252209663
5.310510158539 -76.542968750000 -245.201644897461 0.904287099838
-151.029571533203 -68.459907531738 -238.779342651367 2.738176107407
-149.975509643555 -73.458480834961 -245.474029541016 1.060313344002
-46.037284851074 -77.896926879883 -246.255096435547 1.561836838722
-31.957513809204 -76.942047119141 -247.452926635742 4.484275817871
3.773890972137 -76.926376342773 -243.235748291016 1.096629858017
-36.671611785889 -78.077239990234 -245.948379516602 2.638321876526
21.603700637817 -77.515548706055 -246.976608276367 2.044371843338
-6.331559181213 -79.100128173828 -253.162399291992 1.374195456505
-144.928131103516 -75.038528442383 -253.673889160156 1.511263251305
-10.300229072571 -81.772560119629 -253.494995117188 3.444228887558
-148.685546875000 -71.742256164551 -247.792221069336 2.298965930939
-65.770011901855 -77.582519531250 -250.787597656250 2.185406446457
-147.433731079102 -81.251991271973 -259.811340332031 1.816400647163
-127.769760131836 -74.308593750000 -258.874664306641 2.386899232864
-153.132843017578 -73.429595947266 -257.974365234375 2.467712163925
-10.857459068298 -74.000106811523 -267.806427001953 3.660307645798
-146.107315063477 -80.072189331055 -272.909576416016 0.833400368690
-149.540176391602 -74.314910888672 -269.961639404297 1.797983050346
-12.066253662109 -77.041893005371 -271.344360351563 1.549113273621
-144.655181884766 -74.293060302734 -270.794586181641 3.604513645172
-6.577910900116 -75.343490600586 -277.156097412109 0.943720221519
-45.891281127930 -75.110488891602 -284.561157226563 2.511921882629
-135.033218383789 -71.523872375488 -289.088470458984 1.795123338699
-135.749481201172 -73.458023071289 -286.524383544922 0.687898814678
-123.415580749512 -70.967323303223 -282.531433105469 3.779357433319
-52.058406829834 -74.815032958984 -286.857360839844 2.245436906815
-112.228469848633 -73.007469177246 -284.533996582031 2.444168567657
16.257419586182 -76.310653686523 -292.909240722656 1.144449472427
-57.139411926270 -73.522453308105 -289.123199462891 0.656440854073
-140.997070312500 -73.601181030273 -293.927093505859 2.532307386398
-63.407165527344 -74.075584411621 -291.059478759766 1.161531686783
-144.934722900391 -79.040527343750 -294.269226074219 1.883986473083
-116.597740173340 -71.789169311523 -291.614196777344 2.143821716309
-46.125804901123 -78.272705078125 -290.898162841797 3.296184539795
-33.644721984863 -75.956840515137 -292.095672607422 3.349999904633
-137.826293945313 -69.564308166504 -296.776336669922 3.112514972687
-14.111360549927 -71.019157409668 -283.074920654297 3.535859107971
4.591780185699 -76.237075805664 -287.884155273438 2.145373106003
6.622162818909 -75.028358459473 -290.908630371094 2.707241773605
15.179707527161 -77.821563720703 -295.965393066406 1.742875814438
-149.908966064453 -78.000205993652 -298.817291259766 2.034605026245
-145.030075073242 -71.439331054688 -293.988250732422 1.485359072685
-66.963523864746 -74.003341674805 -62.751625061035 3.504203557968
88.376762390137 -80.328666687012 -72.865272521973 4.936519145966
78.296531677246 -79.665702819824 -77.718605041504 4.671782493591
-28.395792007446 -78.922294616699 -76.997756958008 2.646748542786
83.218200683594 -76.983604431152 -74.961570739746 2.414160966873
-38.461944580078 -78.750785827637 -80.382247924805 1.492994308472
82.405128479004 -74.812446594238 -82.253944396973 3.390423059464
95.716506958008 -75.016929626465 -80.208671569824 0.925840437412
-64.873748779297 -69.361854553223 -96.435569763184 2.833730459213
72.323844909668 -78.867042541504 -94.592208862305 3.841236591339
79.569175720215 -76.308654785156 -97.968765258789 2.837341785431
96.082519531250 -81.573600769043 -95.469886779785 5.469101905823
54.829730987549 -79.760917663574 -97.390304565430 3.883908748627
-67.554695129395 -73.119369506836 -101.923217773438 2.372010946274
-74.356910705566 -71.440414428711 -101.680984497070 2.392688035965
50.124282836914 -79.895462036133 -103.934394836426 1.677769780159
-88.231010437012 -76.457901000977 -102.940742492676 4.029213905334
46.848392486572 -74.678100585938 -118.372711181641 2.523253202438
110.275886535645 -78.146118164063 -120.074508666992 1.483683824539
112.538391113281 -80.989181518555 -130.619247436523 4.437116622925
20.499088287354 -74.954490661621 -137.454086303711 4.383560657501
109.871383666992 -80.597816467285 -127.032394409180 3.687875509262
28.364484786987 -74.627151489258 -133.768737792969 1.589254617691
112.621963500977 -73.161903381348 -132.403396606445 2.701776027679
36.821651458740 -75.043731689453 -134.985931396484 2.781401157379
-56.546615600586 -74.973693847656 -141.145660400391 2.969863176346
35.796134948730 -80.933570861816 -145.620574951172 3.304190397263
108.502487182617 -76.741668701172 -135.042739868164 3.357888221741
-46.413486480713 -73.835327148438 -144.384460449219 2.086334943771
31.750173568726 -75.794761657715 -150.539367675781 1.602183103561
-56.924797058105 -69.868850708008 -141.740005493164 0.879952728748
-59.336528778076 -75.061180114746 -145.231460571289 3.766822576523
-52.919059753418 -78.475936889648 -150.609817504883 2.317174434662
-64.748435974121 -77.951248168945 -156.361923217773 1.631590247154
111.575576782227 -82.852951049805 -147.440704345703 4.823633670807
-50.265682220459 -81.737007141113 -155.873489379883 3.693844795227
22.648769378662 -81.744155883789 -156.804290771484 3.693232774734
107.497695922852 -79.387443542480 -162.320449829102 3.782163619995
-65.706512451172 -75.018440246582 -155.328430175781 1.000023007393
-43.934024810791 -76.725463867188 -157.780807495117 2.178229570389
8.748384475708 -74.219802856445 -154.837905883789 0.529968380928
-68.604125976563 -75.454635620117 -155.674606323242 2.331155538559
-64.293998718262 -77.745460510254 -159.211563110352 1.963521242142
