-132.347061157227 -67.008499145508 -224.849182128906 1.384507417679
-0.312213987112 -76.784545898438 -238.510757446289 1.719843506813
-146.296585083008 -75.655319213867 -243.353820800781 2.049477338791
12.086222648621 -77.342247009277 -204.099578857422 1.648707389832
-20.112628936768 -77.704475402832 -237.838378906250 0.747598409653
6.152010917664 -76.105995178223 -214.818847656250 0.505946993828
-50.516567230225 -78.064704895020 -242.247451782227 2.175201416016
-44.440837860107 -78.697814941406 -245.598846435547 1.414900183678
-150.136688232422 -75.266242980957 -245.922637939453 1.172936797142
-155.882003784180 -69.076408386230 -245.964141845703 1.479642152786
-108.120162963867 -67.694534301758 -195.430099487305 1.417582035065
-150.386596679688 -77.384872436523 -265.323760986328 0.301015466452
-158.620468139648 -69.046287536621 -263.828613281250 0.769545793533
-83.127090454102 -72.908843994141 -61.559017181396 2.988966941833
84.409095764160 -75.396240234375 -224.581726074219 1.379636168480
-60.563949584961 -66.269836425781 -89.218986511230 1.294503927231
22.929000854492 -73.258796691895 -153.116088867188 1.150191426277
-125.864616394043 -75.244606018066 -293.337738037109 1.329767107964
-154.102294921875 -73.933425903320 -270.473327636719 3.301635265350
-146.682769775391 -75.758117675781 -273.569366455078 1.907211303711
-156.783126831055 -70.073249816895 -268.129608154297 2.965839862823
-108.226989746094 -69.151893615723 -287.468109130859 1.205600857735
26.639822006226 -67.820228576660 -148.505691528320 1.655678391457
-152.458786010742 -62.723747253418 -256.844573974609 0.621670961380
77.009201049805 -69.792007446289 -231.736007690430 1.811049580574
18.913614273071 -63.845802307129 -23.228893280029 1.839770197868
-9.302414894104 -68.031791687012 -258.660675048828 3.047519922256
-8.817490577698 -79.209922790527 -270.720764160156 1.746345162392
-5.412468910217 -76.672767639160 -279.969238281250 1.193751096725
8.825458526611 -77.769477844238 -283.141235351563 0.781555473804
-68.688812255859 -61.193523406982 -111.180702209473 0.792423903942
-161.494476318359 -74.518646240234 -291.612854003906 1.626665472984
-155.334304809570 -79.264030456543 -287.914550781250 1.743133425713
-143.915435791016 -75.123352050781 -305.449005126953 0.932377099991
-113.845367431641 -72.008857727051 -257.597229003906 1.006607651711
-110.161941528320 -72.958953857422 -260.070922851563 1.869023084641
96.571090698242 -73.576194763184 -195.265502929688 2.434643030167
-26.643270492554 -76.601867675781 -286.262084960938 0.853833675385
-22.393030166626 -78.146568298340 -287.880828857422 1.169101953506
6.873373985291 -61.685806274414 -271.517059326172 1.706505417824
-35.397182464600 -78.117195129395 -289.381561279297 2.170331954956
-28.606575012207 -77.286170959473 -286.465576171875 1.595316290855
115.164176940918 -70.583488464355 -152.422042846680 1.154831290245
-10.843294143677 -76.912223815918 -286.586914062500 1.169890165329
-18.360448837280 -78.372261047363 -288.428894042969 1.031032443047
13.069367408752 -77.614166259766 -292.690399169922 1.235073804855
-101.989913940430 -73.264305114746 -221.681091308594 1.320968747139
-51.151371002197 -75.604545593262 -57.264953613281 1.868024349213
16.389709472656 -76.335968017578 -278.833038330078 0.939817309380
-63.790443420410 -75.857109069824 -57.682514190674 1.073995590210
114.354072570801 -70.857452392578 -159.881134033203 1.610186100006
-2.954585075378 -75.426612854004 -284.927703857422 0.934476852417
-53.004837036133 -76.384918212891 -58.724208831787 1.615000128746
-8.386883735657 -77.963508605957 -289.850036621094 2.575032472610
25.488370895386 -64.348693847656 -268.718566894531 0.622773051262
-40.768367767334 -75.943351745605 -60.012451171875 2.477453947067
97.839912414551 -76.802169799805 -195.666946411133 1.483701467514
-74.598396301270 -66.461357116699 -103.290657043457 1.656823396683
-162.715301513672 -71.003303527832 -291.836151123047 0.887820839882
-143.647903442383 -74.001663208008 -306.132781982422 1.842348217964
74.783882141113 -75.985946655273 -229.316162109375 0.895292520523
-84.639892578125 -75.117500305176 -68.149925231934 2.641145944595
-8.748491287231 -67.637916564941 -256.926147460938 3.598331928253
67.178825378418 -63.970439910889 -99.220214843750 1.601161003113
-22.314331054688 -63.410911560059 -51.526744842529 3.412827253342
-22.932224273682 -71.312973022461 -60.015354156494 2.181516408920
-26.037176132202 -76.101860046387 -69.334289550781 1.673626065254
-26.235198974609 -77.011459350586 -72.975265502930 1.797438740730
17.549749374390 -73.113609313965 -246.919662475586 0.727784931660
106.373626708984 -71.835395812988 -189.587173461914 1.627693295479
32.631717681885 -66.747421264648 -38.062042236328 1.766505479813
105.500396728516 -67.450111389160 -108.906929016113 1.337228894234
-60.151897430420 -71.323150634766 -137.656036376953 0.449012696743
9.945017814636 -72.638076782227 -204.345016479492 1.997072219849
-35.978012084961 -76.347572326660 -80.665184020996 1.261390209198
-91.546363830566 -75.634666442871 -215.182250976563 1.405863523483
83.216468811035 -76.364692687988 -78.926979064941 1.461227178574
96.178779602051 -68.228958129883 -101.178855895996 2.221351623535
-4.625307083130 -67.211906433105 -271.011444091797 0.597425103188
-118.500961303711 -75.265937805176 -290.782867431641 1.637631297112
-143.571807861328 -75.922225952148 -263.750793457031 2.677423954010
-93.853881835938 -61.220016479492 -58.418388366699 1.233152747154
84.115417480469 -76.708999633789 -83.032524108887 1.331159472466
74.710525512695 -76.151870727539 -80.912269592285 0.831529915333
67.402000427246 -65.859420776367 -98.256401062012 0.818506598473
-43.514793395996 -75.691093444824 -83.897705078125 1.196485638618
79.469367980957 -77.276649475098 -84.989135742188 2.342645406723
-12.380608558655 -77.079238891602 -265.088256835938 1.569935917854
15.791486740112 -76.785720825195 -292.324981689453 0.188757553697
84.302589416504 -76.956550598145 -88.091339111328 1.681110858917
-61.495178222656 -61.934906005859 -85.195365905762 0.754735171795
79.555168151855 -77.198455810547 -89.631637573242 1.092373132706
71.374763488770 -74.240760803223 -81.360877990723 0.858288645744
-94.986038208008 -62.744747161865 -61.871337890625 2.064560651779
27.761936187744 -62.662498474121 -39.489738464355 2.403918743134
88.088508605957 -77.148551940918 -86.335975646973 0.821637928486
79.371528625488 -75.861076354980 -94.480392456055 1.653820633888
-8.488314628601 -75.787086486816 -275.941009521484 1.697882771492
-90.611968994141 -69.022865295410 -63.595684051514 1.829846382141
-65.440811157227 -76.380157470703 -97.257263183594 0.823521018028
44.649749755859 -77.247726440430 -107.116592407227 1.806450128555
80.393844604492 -73.997024536133 -71.339462280273 1.578046560287
-47.832260131836 -75.948593139648 -140.826431274414 1.633511424065
16.009069442749 -77.020416259766 -208.248794555664 2.005970716476
-45.956790924072 -75.014129638672 -145.624542236328 1.346367597580
-165.933105468750 -67.905662536621 -239.471160888672 1.171191692352
-133.898849487305 -67.455345153809 -203.850372314453 0.367347061634
-101.065299987793 -67.085868835449 -256.604919433594 0.629402220249
-161.741683959961 -66.289062500000 -197.723922729492 0.244261443615
-40.255695343018 -75.785041809082 -150.672119140625 0.991685807705
42.830490112305 -59.050048828125 -119.510505676270 1.264833450317
-60.204143524170 -76.905822753906 -163.946014404297 0.883246958256
-17.147850036621 -77.326866149902 -204.849487304688 1.036128163338
-121.057518005371 -71.752189636230 -226.596664428711 2.466879129410
-123.207374572754 -67.884834289551 -233.984466552734 0.698144197464
-68.135482788086 -74.467109680176 -155.578338623047 1.696446299553
23.832172393799 -76.786796569824 -156.014404296875 1.495862483978
-68.599220275879 -76.156280517578 -162.226150512695 1.923296213150
-17.357717514038 -75.511825561523 -212.130416870117 2.072440147400
-10.128454208374 -77.476989746094 -205.774917602539 0.898037374020
108.433029174805 -76.894790649414 -165.365951538086 1.077996730804
-56.281036376953 -75.536193847656 -170.925262451172 2.177685022354
-24.737615585327 -76.230659484863 -199.099822998047 1.432721853256
8.607780456543 -69.906578063965 -224.621307373047 0.861890017986
-79.533172607422 -65.440727233887 -135.675750732422 1.384107589722
111.071334838867 -76.791526794434 -174.403060913086 0.338833689690
-64.326087951660 -76.035247802734 -171.474212646484 2.547309398651
110.287048339844 -74.963027954102 -169.362258911133 1.015057802200
-16.038061141968 -77.029640197754 -175.667449951172 1.474509119987
-35.328941345215 -75.474060058594 -158.498474121094 1.247405409813
110.782913208008 -75.845283508301 -178.519378662109 1.926693916321
23.979988098145 -76.468536376953 -186.743438720703 1.696911931038
16.026601791382 -77.181266784668 -195.552871704102 1.673990130424
-47.802555084229 -75.635314941406 -290.548583984375 1.011462211609
-144.585998535156 -75.734359741211 -191.666534423828 1.622325420380
15.528399467468 -62.800186157227 -239.426177978516 0.512036204338
-25.732990264893 -69.033653259277 -74.764701843262 2.325128555298
-23.954751968384 -66.659080505371 -71.392959594727 1.120217084885
-77.540054321289 -64.467979431152 -114.625503540039 0.573705613613
106.140480041504 -76.353797912598 -190.623992919922 1.353113532066
-153.374160766602 -71.447319030762 -214.730239868164 2.683164596558
-140.782058715820 -74.377334594727 -197.614715576172 0.708966553211
-150.700653076172 -65.992835998535 -212.890167236328 1.770889759064
-126.132919311523 -62.909889221191 -230.346817016602 0.923528492451
-146.061233520508 -62.531822204590 -215.401107788086 1.359496355057
41.706249237061 -67.926490783691 -114.418663024902 2.032423734665
-102.650398254395 -68.597251892090 -260.073303222656 1.297553539276
-90.942176818848 -64.633743286133 -118.449554443359 1.907390356064
59.549686431885 -72.212127685547 -245.395706176758 1.075651288033
-47.342323303223 -76.027847290039 -196.235778808594 0.531769990921
11.410476684570 -77.137306213379 -196.013198852539 1.389205336571
-104.435104370117 -62.260681152344 -171.440780639648 1.688826799393
21.020967483521 -76.923019409180 -195.889160156250 1.780846476555
41.123279571533 -66.426971435547 -19.939313888550 1.121263384819
-104.192398071289 -63.502651214600 -161.442321777344 1.526016712189
-12.018597602844 -74.635940551758 -200.392364501953 1.451222062111
8.272170066833 -73.698707580566 -224.098785400391 2.924285411835
-22.211036682129 -75.499023437500 -199.505218505859 1.317122340202
-128.571166992188 -71.944114685059 -203.523620605469 2.827908277512
-123.186782836914 -68.844825744629 -204.065475463867 1.485217690468
17.040458679199 -77.041160583496 -200.025405883789 1.540221214294
96.846694946289 -77.338645935059 -198.789581298828 1.489647746086
97.277969360352 -77.873138427734 -202.970199584961 1.592309236526
-70.449020385742 -76.876533508301 -208.275314331055 0.813096404076
-62.953418731689 -75.080802917480 -163.628616333008 0.911510527134
-15.459970474243 -77.514328002930 -207.637237548828 2.502901077271
-153.513519287109 -66.749389648438 -233.799392700195 0.649626076221
-72.547737121582 -76.079505920410 -289.480651855469 2.238280534744
-145.317138671875 -76.852386474609 -218.117309570313 0.984452784061
43.837615966797 -59.437129974365 -36.809066772461 1.354316353798
-30.207674026489 -76.988822937012 -216.315856933594 1.230133175850
-73.790748596191 -74.102386474609 -145.586746215820 1.320544362068
-2.083326101303 -77.649093627930 -218.253250122070 0.387678653002
1.897204041481 -64.752410888672 -238.242843627930 1.122129797935
5.931213855743 -76.167396545410 -221.541137695313 0.873471677303
-34.842723846436 -75.143493652344 -242.841217041016 1.685227155685
-17.610786437988 -76.867118835449 -226.096389770508 0.690847158432
15.917600631714 -67.353248596191 -202.550765991211 1.192945480347
-60.900119781494 -67.305938720703 -129.033386230469 1.628837227821
-149.185073852539 -75.868721008301 -228.486373901367 0.613956868649
-156.642593383789 -67.953018188477 -225.127593994141 0.912900149822
-138.523834228516 -76.433158874512 -231.280319213867 1.902554273605
-129.280181884766 -62.969638824463 -196.748046875000 1.212263941765
-4.673558235168 -71.574485778809 -234.910491943359 1.397170424461
-7.964160919189 -67.509567260742 -233.201110839844 1.187137961388
-149.798995971680 -76.475883483887 -235.668731689453 0.565412938595
-106.066223144531 -66.714294433594 -183.124679565430 1.117295980453
-157.706512451172 -67.897758483887 -234.570770263672 1.815630912781
-70.904266357422 -70.446487426758 -290.097290039063 1.625165462494
-56.591754913330 -75.947738647461 -243.159332275391 2.411317586899
-76.953918457031 -64.329147338867 -136.636001586914 1.863263726234
1.684255957603 -79.048294067383 -246.069656372070 0.866189002991
109.537170410156 -70.845161437988 -151.723159790039 0.518577694893
20.920957565308 -76.807838439941 -255.729080200195 0.918335974216
111.761054992676 -69.409835815430 -149.347396850586 2.463559627533
-55.170738220215 -75.439918518066 -56.498718261719 1.953549981117
-93.798461914063 -73.895004272461 -96.513641357422 0.315931797028
21.057209014893 -76.042701721191 -269.032226562500 1.708991765976
20.341114044189 -76.034248352051 -270.578033447266 2.148094654083
-80.819137573242 -75.295753479004 -253.118560791016 0.451408475637
-45.483188629150 -77.069831848145 -286.359832763672 2.946753978729
-72.313629150391 -75.901023864746 -250.928527832031 2.212169170380
-115.658767700195 -67.648880004883 -233.834106445313 1.418843269348
-38.462680816650 -76.902702331543 -286.320709228516 0.805711150169
-38.768680572510 -77.815368652344 -287.335571289063 1.529251217842
-28.024921417236 -74.868484497070 -64.167594909668 1.839490532875
41.909988403320 -65.270378112793 -255.298294067383 1.041871190071
113.177818298340 -72.870285034180 -150.255340576172 0.731792628765
-11.622170448303 -78.035842895508 -287.749877929688 1.347842335701
113.757995605469 -69.617530822754 -152.236328125000 1.927173733711
-15.355538368225 -77.510269165039 -286.793823242188 1.027739524841
-28.006563186646 -77.570114135742 -290.486175537109 2.043493270874
-146.582382202148 -74.740135192871 -275.651947021484 1.912326455116
80.296501159668 -74.901397705078 -228.847900390625 2.305251598358
-84.563552856445 -73.681358337402 -64.780242919922 2.011968135834
-131.248489379883 -77.197380065918 -289.206878662109 0.439518570900
69.153999328613 -64.233657836914 -101.858337402344 0.539815545082
115.494018554688 -72.644813537598 -158.234756469727 1.333864808083
-9.488747596741 -75.914726257324 -286.272613525391 1.414350390434
-3.731076955795 -77.920738220215 -288.173919677734 1.231701374054
25.050212860107 -62.469562530518 -270.087677001953 1.624109864235
25.985584259033 -60.730529785156 -268.283599853516 0.925498247147
-67.228172302246 -71.744972229004 -51.453044891357 1.986866235733
94.183990478516 -71.868682861328 -212.403839111328 1.182397007942
-56.503562927246 -77.264778137207 -288.476837158203 2.041210651398
-145.947784423828 -74.154891967773 -198.859115600586 0.952450454235
-109.940467834473 -65.749298095703 -226.283325195313 0.925298213959
8.907013893127 -77.191490173340 -287.810424804688 1.197828531265
-87.379531860352 -76.361389160156 -78.090156555176 2.820332527161
-110.956817626953 -71.142677307129 -292.387725830078 3.074952840805
86.302772521973 -72.843147277832 -216.650070190430 0.909272253513
-124.418098449707 -74.290580749512 -286.909332275391 0.261625438929
-145.959915161133 -73.950698852539 -274.928924560547 1.107735872269
-127.738914489746 -77.291786193848 -289.164062500000 1.651501536369
-85.574966430664 -76.277755737305 -212.243835449219 1.671321272850
-142.024185180664 -64.412979125977 -257.927185058594 1.529176950455
-77.359344482422 -74.784210205078 -60.476051330566 3.121710777283
84.768959045410 -77.094985961914 -220.556671142578 1.026405096054
-58.572978973389 -65.117294311523 -87.919090270996 2.101129055023
15.835674285889 -75.848793029785 -288.404327392578 1.223219752312
-82.703338623047 -75.555717468262 -66.793350219727 1.773957848549
-90.014549255371 -75.384124755859 -81.484771728516 1.133551716805
29.280788421631 -67.592254638672 -257.869537353516 1.632564187050
45.263328552246 -69.990371704102 -109.657974243164 2.183157682419
61.070476531982 -70.850868225098 -91.781570434570 1.130630731583
86.298988342285 -76.453727722168 -214.282882690430 2.566032409668
25.133184432983 -59.989112854004 -256.533813476563 0.494762480259
-37.538070678711 -58.500358581543 -46.765232086182 2.018374919891
-76.004402160645 -70.090187072754 -51.890022277832 2.352541208267
16.626447677612 -60.056198120117 -284.755371093750 1.846191406250
74.210891723633 -75.944374084473 -89.676612854004 0.354621231556
18.470932006836 -77.844161987305 -271.732208251953 1.109493136406
-91.625839233398 -75.745552062988 -90.768753051758 1.666057109833
37.732952117920 -71.811019897461 -111.687995910645 1.754454374313
49.691959381104 -70.102363586426 -89.786720275879 1.101907610893
54.341159820557 -72.644378662109 -92.700859069824 0.996339023113
24.013650894165 -72.552459716797 -149.339797973633 1.780542492867
-140.415344238281 -71.589378356934 -255.893234252930 0.816904127598
-151.208999633789 -74.364463806152 -273.588409423828 1.324813604355
-150.210937500000 -76.919639587402 -267.697235107422 2.633652448654
76.571937561035 -76.088592529297 -91.469703674316 1.201061010361
-155.770446777344 -70.223800659180 -272.961944580078 2.954159736633
-143.056289672852 -66.702117919922 -255.752136230469 1.960184097290
-109.494415283203 -69.880187988281 -287.214599609375 2.551349163055
26.883094787598 -67.560081481934 -153.576202392578 1.384072303772
-110.596939086914 -68.251075744629 -290.934753417969 1.982769131660
-51.944522857666 -61.763969421387 -81.022102355957 1.517823338509
-148.745971679688 -62.577911376953 -255.065124511719 1.128660202026
76.084289550781 -71.729248046875 -233.784790039063 1.463520407677
-74.414703369141 -71.576881408691 -53.241634368896 1.081794857979
-78.244895935059 -68.896369934082 -99.447479248047 0.906476378441
-85.736373901367 -69.946029663086 -107.902465820313 1.274277567863
110.686836242676 -76.002960205078 -131.275192260742 1.320529699326
112.925529479980 -76.396133422852 -134.338211059570 1.089916586876
9.790618896484 -74.558311462402 -196.375350952148 1.246397018433
-51.670108795166 -75.651039123535 -138.712173461914 1.230929255486
-77.962844848633 -73.723808288574 -209.325912475586 0.691995263100
112.098960876465 -76.134124755859 -130.082138061523 1.711447477341
111.434928894043 -76.383979797363 -136.971496582031 1.339211940765
-51.191406250000 -75.256355285645 -142.790222167969 0.905825495720
116.396018981934 -73.668800354004 -144.367721557617 1.565197944641
113.118263244629 -76.759689331055 -143.223327636719 2.596945524216
-55.499557495117 -75.308807373047 -141.461151123047 0.997984707355
-62.451850891113 -75.021781921387 -250.018692016602 0.860427796841
-42.639972686768 -75.553405761719 -146.920120239258 1.746687173843
110.286422729492 -75.829887390137 -142.902923583984 0.929104030132
109.259803771973 -75.384094238281 -152.049850463867 1.742972254753
68.572883605957 -62.084014892578 -63.770549774170 2.101854801178
26.684543609619 -61.824829101563 -260.751647949219 1.185901045799
108.602630615234 -76.230918884277 -160.946853637695 2.873833894730
1.077869057655 -75.910209655762 -166.790145874023 1.852928042412
-43.962062835693 -68.295684814453 -79.410270690918 1.653584122658
-98.962738037109 -71.729866027832 -223.653030395508 0.817485272884
113.333801269531 -76.202026367188 -165.303344726563 1.620899438858
46.855224609375 -67.095176696777 -93.316658020020 2.528477907181
51.661254882813 -65.854393005371 -97.626426696777 2.170634508133
-84.776527404785 -61.972480773926 -112.646652221680 0.815204203129
-52.391708374023 -60.861167907715 -79.284408569336 1.248159408569
104.255760192871 -76.422424316406 -178.718490600586 2.474786043167
104.607048034668 -77.398178100586 -181.442687988281 0.742367565632
103.255149841309 -77.024787902832 -184.013778686523 1.361214160919
107.447891235352 -76.983108520508 -185.601165771484 2.917814970016
102.414466857910 -77.325828552246 -186.873672485352 2.567927360535
-153.508285522461 -72.393684387207 -237.248596191406 3.041239976883
15.209617614746 -75.998420715332 -189.841461181641 1.512721180916
-146.492034912109 -63.248764038086 -237.847290039063 1.974695086479
-142.526672363281 -75.520614624023 -204.151565551758 1.385614752769
-60.635635375977 -75.758148193359 -286.144744873047 1.651695132256
-33.990699768066 -63.493461608887 -77.825347900391 2.904967069626
104.716835021973 -76.345413208008 -193.813629150391 1.606738567352
-156.809173583984 -71.075141906738 -204.028839111328 3.477769136429
-30.182559967041 -71.104141235352 -77.561912536621 0.930090725422
-152.121917724609 -74.841964721680 -203.910415649414 1.864504218102
-33.457164764404 -66.466339111328 -77.820816040039 0.745218694210
-80.399345397949 -69.122314453125 -129.104827880859 1.144053578377
-80.200332641602 -60.646175384521 -126.657051086426 1.787923812866
-59.412708282471 -76.882568359375 -289.033020019531 0.329696774483
-144.901565551758 -76.241378784180 -205.877685546875 0.784022748470
111.344444274902 -73.037040710449 -135.549575805664 1.180431008339
115.489974975586 -71.098648071289 -131.709762573242 1.420646667480
-75.207336425781 -75.894386291504 -209.288482666016 0.890731275082
97.783859252930 -75.651451110840 -207.320526123047 2.595881700516
17.476638793945 -63.479152679443 -148.379119873047 1.047365784645
-52.576148986816 -72.393539428711 -88.220413208008 2.279052972794
-74.899429321289 -75.428314208984 -212.762832641602 0.994254529476
-128.483963012695 -74.098114013672 -231.822647094727 1.471099972725
-68.494476318359 -75.794197082520 -290.300567626953 1.391534090042
-146.027191162109 -75.104866027832 -215.514343261719 2.062731981277
-153.917495727539 -65.420951843262 -196.415100097656 1.631751418114
-141.124832153320 -62.403167724609 -197.784957885742 2.037084817886
-145.519714355469 -59.040664672852 -195.007827758789 0.864422678947
-9.849095344543 -58.786579132080 -59.795730590820 1.928128361702
16.107629776001 -76.139923095703 -217.638015747070 0.735416769981
-74.682922363281 -73.972877502441 -57.249969482422 2.034616708755
89.545936584473 -77.269752502441 -215.337875366211 0.320107638836
-18.377599716187 -76.229492187500 -218.077758789063 1.669565677643
-13.514782905579 -76.502960205078 -227.882888793945 1.259197235107
48.198623657227 -68.523422241211 -30.643548965454 2.083062648773
16.570951461792 -77.429298400879 -229.082473754883 1.319066166878
-137.424423217773 -75.651641845703 -229.310531616211 1.941989541054
-8.118057250977 -71.007720947266 -230.344467163086 2.037172317505
-151.068115234375 -71.601852416992 -217.186904907227 0.903372883797
-4.988115787506 -68.674392700195 -231.567504882813 2.201905250549
-154.661407470703 -67.832130432129 -217.756744384766 4.448850154877
-89.160278320313 -75.454818725586 -288.028900146484 1.789209604263
-144.871002197266 -76.172889709473 -234.977706909180 1.772187352180
-94.557029724121 -75.349906921387 -288.704772949219 1.116979598999
-146.154037475586 -75.203666687012 -238.387283325195 2.888202905655
-60.328845977783 -76.143455505371 -244.213256835938 0.784245669842
-42.354331970215 -77.131423950195 -245.571273803711 0.689811229706
-50.638050079346 -70.527053833008 -85.491432189941 1.680349707603
-79.928215026855 -74.133605957031 -214.866394042969 0.583299994469
-46.963748931885 -76.504096984863 -246.446289062500 0.950836002827
-5.106606960297 -67.096145629883 -262.279846191406 2.581623077393
-11.587050437927 -76.462120056152 -253.046020507813 1.442191958427
-12.435342788696 -77.250427246094 -256.572265625000 0.740633964539
112.666282653809 -69.165359497070 -117.404220581055 2.290653944016
25.499870300293 -65.618492126465 -30.497203826904 2.728670597076
-145.249740600586 -72.776649475098 -266.434509277344 0.861557960510
-140.560806274414 -68.870231628418 -262.888366699219 1.653980970383
-83.543762207031 -65.514732360840 -51.606758117676 1.271611332893
-11.152556419373 -75.207969665527 -272.568908691406 2.434112548828
24.464416503906 -63.628479003906 -27.184062957764 2.250535249710
-135.974746704102 -75.601974487305 -288.513732910156 0.591516494751
-145.974777221680 -75.822769165039 -283.104003906250 1.463287711143
28.575660705566 -66.626953125000 -12.148048400879 2.356588840485
22.459501266479 -65.211250305176 -16.341791152954 1.636467576027
5.192311763763 -78.718200683594 -283.506591796875 0.950751304626
-111.885467529297 -71.470069885254 -227.926788330078 1.863974809647
-79.418556213379 -72.211502075195 -254.387161254883 0.528462767601
-141.292449951172 -75.647674560547 -202.267440795898 1.373795032501
-53.904720306396 -76.453865051270 -286.182189941406 0.717959284782
-125.296333312988 -74.282203674316 -228.903427124023 1.175774693489
-154.138381958008 -70.949005126953 -196.931427001953 1.274658560753
-68.847778320313 -76.046577453613 -287.101379394531 0.316685706377
-10.992636680603 -62.471839904785 -59.812446594238 2.250699996948
-122.265892028809 -72.363998413086 -255.425949096680 1.576321125031
-143.508621215820 -71.996116638184 -301.694702148438 1.165569424629
-146.159530639648 -75.276885986328 -297.222381591797 2.386989116669
-149.759490966797 -76.808914184570 -287.513732910156 2.254078865051
-126.852676391602 -65.668266296387 -255.874191284180 0.519533813000
-155.071823120117 -65.925537109375 -285.868255615234 0.963763594627
94.570579528809 -67.504165649414 -66.659179687500 1.407389998436
-0.308993011713 -75.349662780762 -291.905944824219 1.869737744331
72.424499511719 -69.109466552734 -101.661193847656 1.448476314545
77.566505432129 -67.398757934570 -105.232254028320 1.564891457558
-144.830596923828 -76.402740478516 -310.713195800781 1.861064791679
66.440444946289 -63.632186889648 -68.391288757324 0.551484525204
-5.246400833130 -74.079490661621 -168.472595214844 1.952294111252
-152.932052612305 -75.570968627930 -312.596496582031 1.905341267586
-155.005172729492 -71.417297363281 -311.839782714844 0.538583040237
88.274559020996 -75.952697753906 -210.564758300781 1.527450203896
-70.656776428223 -74.906539916992 -57.364334106445 1.703080058098
-1.031098961830 -71.283729553223 -237.227798461914 0.639872312546
-36.951988220215 -73.355285644531 -56.074779510498 1.720256209373
-90.087265014648 -73.492134094238 -73.637474060059 1.329505801201
70.676094055176 -72.551765441895 -92.523460388184 2.054302930832
-132.711608886719 -73.941436767578 -255.735427856445 0.939946472645
-37.953903198242 -74.499908447266 -79.283737182617 1.688309431076
24.295194625854 -71.401939392090 -17.074371337891 0.658302843571
27.417671203613 -71.263046264648 -15.013779640198 1.284864902496
72.977516174316 -75.259925842285 -83.832130432129 2.029538393021
64.991615295410 -64.646308898926 -71.961349487305 0.778668522835
-1.354439020157 -65.730720520020 -276.904296875000 2.559687852859
89.041374206543 -63.439342498779 -60.346786499023 1.637279391289
-77.168281555176 -76.357322692871 -101.046730041504 1.283486723900
17.523256301880 -66.483215332031 -142.409042358398 1.980601429939
-93.785186767578 -74.067565917969 -106.514884948730 2.558013916016
-82.799407958984 -74.747787475586 -105.864189147949 2.730740308762
105.739685058594 -72.998115539551 -170.490188598633 1.846008419991
-93.513984680176 -74.178016662598 -111.994834899902 0.564669907093
-94.549339294434 -72.191230773926 -116.238166809082 1.093661546707
12.361067771912 -71.364486694336 -187.022369384766 1.807659029961
108.542175292969 -74.737915039063 -111.334297180176 1.940771341324
110.115768432617 -75.370895385742 -117.944442749023 0.879303634167
-15.012400627136 -70.396064758301 -251.643386840820 0.925817430019
-99.785797119141 -58.653598785400 -72.501892089844 2.485568761826
113.708267211914 -75.132698059082 -127.051803588867 1.552059769630
10.677653312683 -72.548957824707 -201.211456298828 1.599028348923
-54.791408538818 -71.363914489746 -133.818511962891 1.164739131927
-48.918666839600 -74.064758300781 -137.401947021484 1.157078146935
110.461853027344 -75.895362854004 -139.617950439453 1.505452156067
-55.381195068359 -75.132850646973 -145.601928710938 1.197646975517
0.439534008503 -64.453407287598 -282.338745117188 2.605113029480
-16.494195938110 -72.404258728027 -287.658630371094 1.805299878120
22.584323883057 -71.970840454102 -251.244232177734 0.534784734249
-98.931976318359 -60.731864929199 -108.830574035645 1.885690331459
-14.299087524414 -73.485038757324 -286.657287597656 1.784673333168
115.670646667480 -74.886070251465 -153.733901977539 1.789213418961
17.744709014893 -71.044754028320 -167.105422973633 2.421363830566
94.194236755371 -72.525215148926 -200.426681518555 1.391378641129
-119.716552734375 -74.143562316895 -256.782928466797 1.582646250725
-48.496360778809 -75.198966979980 -184.394195556641 0.376008570194
104.880004882813 -73.387840270996 -187.158645629883 1.112765431404
-44.262130737305 -69.784111022949 -154.166763305664 0.998204886913
-17.011297225952 -72.025276184082 -196.067626953125 1.398224830627
-43.475162506104 -68.877349853516 -148.257980346680 1.091137051582
4.693048954010 -60.499523162842 -243.690917968750 1.733915686607
100.374572753906 -75.275276184082 -194.818328857422 1.013204932213
-81.775650024414 -59.151584625244 -122.481170654297 1.300268054008
-66.834487915039 -73.718177795410 -290.868774414063 1.390268325806
-145.287307739258 -71.762458801270 -214.425338745117 3.449207782745
-148.593048095703 -74.527114868164 -198.404678344727 2.006460428238
-156.339767456055 -65.659210205078 -196.989898681641 2.208615779877
-148.516052246094 -59.969844818115 -214.641769409180 2.469131708145
-136.476959228516 -75.455841064453 -201.482818603516 0.623365938663
103.189270019531 -75.153839111328 -197.988540649414 0.878135025501
-12.610807418823 -74.848602294922 -220.561492919922 1.582248926163
-44.579086303711 -71.405654907227 -161.547317504883 1.660910725594
-50.112190246582 -71.485557556152 -153.472229003906 2.040967226028
-18.213415145874 -71.787849426270 -188.818359375000 2.107623338699
-84.516174316406 -69.040519714355 -118.281639099121 0.179423585534
-50.376087188721 -66.679901123047 -148.681121826172 1.921537160873
-76.822097778320 -70.357131958008 -129.402999877930 1.618934869766
-87.847877502441 -74.458137512207 -254.418151855469 1.282714962959
16.972017288208 -71.999618530273 -220.520019531250 1.743707299232
-9.801125526428 -73.547019958496 -221.462478637695 2.335600852966
-75.093193054199 -68.634506225586 -147.601303100586 1.112385749817
-4.044826984406 -66.821075439453 -222.615524291992 1.201094269753
-53.181018829346 -69.484771728516 -129.429336547852 1.331622362137
-59.865615844727 -70.444503784180 -129.199493408203 0.447963595390
16.880054473877 -70.422271728516 -204.304061889648 1.235841274261
-159.610198974609 -72.420867919922 -227.153244018555 0.797020435333
-153.584869384766 -75.042068481445 -225.828750610352 2.572296619415
-161.419097900391 -73.785797119141 -248.986648559570 1.031380057335
-84.200035095215 -75.795661926270 -289.129821777344 2.301948547363
-146.538162231445 -76.357704162598 -229.558273315430 0.396470755339
-123.777076721191 -64.338989257813 -196.379653930664 1.628128647804
-10.238952636719 -73.072189331055 -233.848114013672 1.721259474754
-4.566814899445 -69.690086364746 -234.867141723633 1.832878589630
4.709204196930 -72.734245300293 -229.665908813477 0.604403257370
-35.483005523682 -63.096088409424 -46.973731994629 1.671445250511
-61.097412109375 -67.898643493652 -124.023643493652 0.645190000534
-16.945657730103 -72.331039428711 -236.808135986328 0.649923682213
-38.395854949951 -76.165550231934 -239.668350219727 1.872196197510
-18.938327789307 -75.254661560059 -241.920364379883 1.621591925621
-12.949140548706 -75.176582336426 -267.215515136719 1.862348198891
-77.994598388672 -74.340576171875 -286.460540771484 1.455494642258
-118.528434753418 -70.297317504883 -202.215789794922 3.413942813873
-154.933959960938 -72.345001220703 -235.588851928711 2.665362834930
-150.607574462891 -66.040252685547 -236.514526367188 0.894354343414
-144.479156494141 -63.723091125488 -235.178268432617 1.549992680550
-71.721809387207 -75.646614074707 -286.830749511719 1.739930391312
-3.184659004211 -73.744819641113 -230.803115844727 1.608658075333
-154.537689208984 -71.644935607910 -217.819702148438 1.690404057503
-150.951599121094 -66.450408935547 -218.378692626953 3.857570648193
-146.042297363281 -62.985240936279 -216.934112548828 2.394363641739
-88.601020812988 -74.880859375000 -287.323089599609 1.251031517982
-61.725421905518 -60.452293395996 -130.544265747070 1.619629263878
-146.748382568359 -73.774749755859 -228.112792968750 0.943082809448
-80.975769042969 -75.854492187500 -288.650329589844 2.080159187317
-109.221992492676 -66.878601074219 -198.974929809570 0.915864825249
93.172882080078 -72.597595214844 -202.145050048828 1.367079019547
-61.475692749023 -71.388702392578 -50.496597290039 1.558204531670
23.005872726440 -62.444229125977 -251.334533691406 1.113863468170
22.908985137939 -74.446998596191 -258.406799316406 2.174224138260
-42.587635040283 -69.933425903320 -49.999530792236 2.799700021744
-45.051773071289 -73.936752319336 -54.677810668945 1.357359170914
83.805198669434 -73.365776062012 -71.211265563965 1.102210998535
55.201339721680 -68.369720458984 -100.517692565918 1.278923511505
-78.191261291504 -63.857265472412 -102.240280151367 2.178651571274
72.329460144043 -73.766891479492 -77.162696838379 2.250607252121
97.430023193359 -72.724037170410 -85.777023315430 0.753657102585
-81.743118286133 -59.162864685059 -46.116237640381 0.616964459419
97.666061401367 -72.792991638184 -87.780967712402 1.123878717422
70.250907897949 -70.899879455566 -96.879341125488 1.048432230949
74.774330139160 -74.239349365234 -95.738731384277 1.640181422234
65.228881835938 -67.749168395996 -80.968627929688 1.216655611992
9.335339546204 -67.069465637207 -291.208038330078 0.565528690815
64.599891662598 -65.801429748535 -76.987098693848 0.704721868038
10.541975975037 -62.364543914795 -290.770660400391 1.677387356758
68.552658081055 -70.461219787598 -93.685813903809 1.902174711227
26.972620010376 -71.731872558594 -168.760620117188 0.707556605339
-164.365600585938 -74.328758239746 -272.944122314453 2.774657726288
8.259654998779 -72.898483276367 -153.239486694336 1.603519678116
-68.373123168945 -73.724540710449 -99.256599426270 2.640670537949
24.225475311279 -67.134056091309 -167.063842773438 0.432589530945
-160.736511230469 -74.370407104492 -277.197204589844 3.152694940567
70.054786682129 -75.386947631836 -234.982269287109 0.504135251045
69.256317138672 -71.900512695313 -79.513465881348 1.352292776108
88.517333984375 -73.724761962891 -99.750724792480 1.499315023422
39.696125030518 -70.512763977051 -39.196178436279 1.428028345108
106.161109924316 -73.566658020020 -100.959785461426 1.142637968063
109.933860778809 -74.905403137207 -114.096359252930 1.213898539543
26.134769439697 -68.375015258789 -20.963462829590 1.697469949722
-57.589195251465 -69.726943969727 -141.358016967773 1.248430132866
113.405380249023 -72.792381286621 -140.550125122070 0.741456151009
-13.675889968872 -71.500236511230 -241.688507080078 2.110162973404
-99.545097351074 -66.655494689941 -163.906555175781 2.068654537201
-48.197528839111 -73.169120788574 -140.573669433594 1.187397360802
-96.724754333496 -73.028434753418 -286.814697265625 1.773483276367
-96.860008239746 -68.548583984375 -289.485931396484 1.670898199081
-147.871124267578 -61.383865356445 -243.665252685547 1.530829668045
-42.799457550049 -70.968399047852 -146.373733520508 0.906398773193
109.216491699219 -71.918495178223 -147.419967651367 2.921019315720
-56.038436889648 -71.826828002930 -143.905166625977 1.651885986328
106.507957458496 -66.897987365723 -98.474517822266 1.432032227516
43.854499816895 -66.208259582520 -36.896438598633 2.661283016205
108.936965942383 -73.208106994629 -144.663833618164 0.964493572712
32.385528564453 -73.751296997070 -156.661407470703 1.573276042938
4.028429031372 -71.685012817383 -241.336914062500 1.711445689201
-31.972183227539 -73.048141479492 -209.094955444336 1.394604325294
-49.190261840820 -71.503105163574 -158.650054931641 0.668904900551
107.673316955566 -75.135597229004 -161.949737548828 1.875551819801
-39.573677062988 -71.495307922363 -157.074127197266 2.566030025482
-59.164787292480 -73.216804504395 -176.254074096680 1.421453595161
-66.540405273438 -71.915023803711 -164.483535766602 1.624007344246
112.625183105469 -75.606750488281 -171.926055908203 0.631656289101
-29.535970687866 -71.253234863281 -169.491790771484 1.382521629333
-34.994380950928 -70.751663208008 -166.730453491211 2.420554399490
-25.929157257080 -72.705947875977 -174.340332031250 2.408049583435
-26.240169525146 -69.163063049316 -178.466445922852 2.078359365463
-36.519287109375 -68.125190734863 -171.896850585938 2.293807029724
103.776908874512 -74.503890991211 -178.100311279297 2.434464931488
-85.474693298340 -61.050254821777 -115.331924438477 1.205757498741
49.819133758545 -65.520401000977 -249.985733032227 1.835362792015
-37.093364715576 -72.239234924316 -289.331695556641 1.255365133286
-145.841461181641 -73.224296569824 -183.317321777344 1.779235005379
-141.471969604492 -66.506492614746 -185.764251708984 1.830667734146
-152.436920166016 -64.408630371094 -184.799362182617 2.253866672516
28.786401748657 -64.598716735840 -256.340301513672 2.618267536163
23.960235595703 -72.078437805176 -257.827484130859 1.025998711586
-52.528850555420 -73.651359558105 -183.042495727539 1.754739761353
-146.091384887695 -73.763862609863 -249.692504882813 2.237392902374
-115.691619873047 -70.270957946777 -198.066482543945 1.725962877274
25.310125350952 -71.180862426758 -184.409103393555 2.088495492935
-30.608886718750 -70.639884948730 -188.339141845703 0.871847987175
-12.446320533752 -71.927879333496 -223.867523193359 0.754011154175
21.538700103760 -72.062294006348 -192.206527709961 1.272339105606
62.772342681885 -59.968200683594 -85.527381896973 2.089478015900
-47.538848876953 -68.682685852051 -48.089626312256 1.564048171043
24.282831192017 -71.980148315430 -263.718078613281 1.628548264503
98.522865295410 -74.363632202148 -191.355285644531 0.803837299347
-54.514739990234 -72.438179016113 -285.992126464844 0.809419989586
-140.496093750000 -73.030090332031 -199.332809448242 1.063051342964
-149.054626464844 -63.650760650635 -200.938919067383 1.642854928970
-152.541275024414 -59.799003601074 -200.318878173828 1.959798455238
-95.213424682617 -71.476249694824 -215.835601806641 1.383510351181
-36.872428894043 -73.823822021484 -202.643508911133 1.120500802994
-64.547462463379 -71.179466247559 -50.385311126709 1.941449403763
93.764686584473 -73.218475341797 -207.826049804688 1.143627285957
-29.259836196899 -72.568397521973 -212.535308837891 1.782728791237
-60.431003570557 -72.507575988770 -167.362442016602 0.825712263584
-20.223163604736 -73.055923461914 -204.385437011719 1.463826298714
12.138794898987 -73.849403381348 -239.405548095703 1.878299117088
65.522567749023 -72.843009948730 -241.611709594727 1.249645233154
97.965637207031 -72.773658752441 -207.347427368164 2.557572603226
8.896877288818 -73.485427856445 -209.454986572266 1.871623754501
-58.834041595459 -72.671745300293 -172.694381713867 1.521713495255
-33.537372589111 -73.920173645020 -211.704360961914 0.782509803772
-21.411357879639 -69.604469299316 -205.581085205078 2.168696641922
11.168511390686 -68.392181396484 -239.208267211914 0.863635182381
54.919292449951 -73.126266479492 -243.349609375000 1.075901031494
-41.767913818359 -61.613677978516 -79.112258911133 0.983291864395
17.505809783936 -74.238830566406 -279.507110595703 1.545481801033
20.353799819946 -71.816650390625 -277.700317382813 0.866844117641
88.593666076660 -72.509597778320 -209.102233886719 1.483677744865
57.278915405273 -72.480575561523 -246.461547851563 1.653135657310
90.640983581543 -72.975334167480 -211.497283935547 1.429309368134
20.917749404907 -68.786506652832 -183.783065795898 1.330182552338
-15.687104225159 -73.445747375488 -216.592926025391 1.222707986832
-28.388696670532 -73.110397338867 -216.978286743164 1.448000073433
-151.194274902344 -72.673789978027 -223.503402709961 0.718575239182
-151.965103149414 -67.552352905273 -224.069442749023 1.038592696190
81.561042785645 -73.746131896973 -221.964752197266 1.474754571915
97.166366577148 -59.311168670654 -105.170341491699 3.108923673630
72.907295227051 -71.417800903320 -230.623229980469 2.030779123306
-73.430267333984 -68.181968688965 -149.479965209961 0.711735904217
-147.076721191406 -73.056678771973 -230.203247070313 0.801210701466
-10.625370025635 -69.820205688477 -217.929199218750 0.764839947224
-155.157028198242 -65.350723266602 -229.850753784180 2.289736270905
-4.438047885895 -67.884742736816 -218.395660400391 2.240814447403
-141.311950683594 -64.038284301758 -229.124526977539 1.374883532524
-13.320281982422 -72.550582885742 -228.889694213867 0.565275311470
48.936660766602 -67.472236633301 -27.402210235596 3.346993684769
-111.508850097656 -70.309951782227 -196.252929687500 2.179485321045
-140.702621459961 -65.952308654785 -232.209960937500 0.623756885529
-153.697692871094 -61.442497253418 -231.607727050781 0.754971504211
-9.506454467773 -74.631240844727 -232.736022949219 1.215132355690
-12.851905822754 -71.271583557129 -204.251220703125 1.715743184090
-16.739725112915 -66.527587890625 -204.769317626953 1.535832285881
19.303461074829 -74.225181579590 -236.459701538086 1.322257399559
-51.833396911621 -62.863887786865 -133.235565185547 1.037113547325
-32.048282623291 -75.087364196777 -239.025573730469 1.173160195351
65.996932983398 -74.877365112305 -238.358963012695 1.060924649239
3.431786060333 -67.225372314453 -292.253387451172 1.730117082596
3.881298065186 -61.808032989502 -289.495147705078 1.544160366058
-105.750770568848 -64.221443176270 -180.173324584961 1.032002806664
-57.737522125244 -73.512184143066 -244.192977905273 1.419351696968
-56.745021820068 -67.891952514648 -46.903099060059 2.579470157623
-80.002822875977 -73.798889160156 -249.134033203125 1.876312494278
-104.273246765137 -70.419090270996 -227.210998535156 1.284594655037
-11.909515380859 -74.058906555176 -252.034225463867 1.168431520462
-94.657165527344 -73.550460815430 -257.036834716797 0.734268128872
-14.032296180725 -74.734580993652 -257.784698486328 2.126618146896
-124.226005554199 -72.998359680176 -262.656372070313 0.601231694221
-127.060981750488 -67.313705444336 -264.699645996094 1.045774102211
-132.508438110352 -71.122718811035 -264.784912109375 1.751669764519
23.455610275269 -73.371032714844 -264.472564697266 1.390365719795
-13.782088279724 -73.460449218750 -268.544708251953 0.717482864857
-11.248349189758 -69.572776794434 -272.391326904297 2.138865947723
25.023164749146 -59.228321075439 -29.691587448120 2.727761983871
-165.164459228516 -74.704856872559 -282.396148681641 1.422850608826
66.370292663574 -71.609413146973 -241.566589355469 1.833022475243
-167.309127807617 -70.408126831055 -282.512939453125 1.626895070076
-153.382171630859 -70.497406005859 -280.534301757813 0.325505405664
-159.238098144531 -74.486267089844 -282.033966064453 3.473201036453
-146.767837524414 -67.880210876465 -281.543151855469 1.156506776810
-0.411087989807 -72.961196899414 -161.271331787109 2.121779680252
-157.864028930664 -71.428649902344 -212.982528686523 0.990422785282
-139.790603637695 -70.262237548828 -196.741516113281 1.313754796982
-50.845985412598 -74.130142211914 -285.532531738281 1.684479117393
32.271247863770 -68.265319824219 -134.710845947266 1.978986382484
-52.442737579346 -69.850975036621 -289.263519287109 0.740872740746
-111.464820861816 -66.468696594238 -230.825073242188 1.478903651237
-147.955261230469 -63.014209747314 -198.230087280273 1.579656481743
-152.356231689453 -59.339862823486 -196.815917968750 2.113421440125
-86.628364562988 -71.808876037598 -111.205757141113 2.261476516724
-23.941102981567 -72.472206115723 -287.487243652344 2.344226837158
-21.216403961182 -73.990119934082 -286.299102783203 3.897610425949
-100.540832519531 -74.229499816895 -287.550567626953 1.998553156853
-114.646102905273 -68.059822082520 -196.502792358398 0.533897042274
84.096557617188 -72.340698242188 -221.109725952148 0.757910668850
16.767320632935 -74.679023742676 -289.529144287109 0.379741966724
17.506048202515 -68.760948181152 -283.126037597656 0.933780729771
-144.360076904297 -72.634368896484 -205.374877929688 1.024686455727
-57.866760253906 -72.077247619629 -290.488403320313 0.671986043453
-141.267959594727 -68.326187133789 -204.682678222656 0.664106249809
-152.434631347656 -64.701477050781 -204.595947265625 2.783523082733
-149.864028930664 -60.387123107910 -205.876495361328 1.031446099281
-144.892486572266 -71.546569824219 -242.170257568359 1.187904715538
-98.112106323242 -74.204895019531 -291.108245849609 1.081999063492
-97.509315490723 -69.386528015137 -287.448547363281 1.916968464851
-44.794193267822 -68.876846313477 -144.372161865234 2.076478958130
107.650703430176 -73.229164123535 -177.370895385742 1.246675968170
-19.538448333740 -74.752410888672 -291.313781738281 0.966465651989
4.897227764130 -74.692886352539 -292.094940185547 1.454495429993
67.610237121582 -67.510894775391 -235.915939331055 0.845177233219
27.508991241455 -60.017326354980 -12.683190345764 2.980478525162
22.792190551758 -58.908142089844 -15.811708450317 1.969295740128
-30.790191650391 -71.106597900391 -55.380241394043 1.761796355247
-132.422714233398 -72.980331420898 -226.254241943359 0.658194005489
-18.701875686646 -71.940597534180 -64.584945678711 1.801735281944
79.450340270996 -72.332237243652 -68.332450866699 1.273709654808
76.020950317383 -69.507652282715 -65.122955322266 1.677498340607
71.966018676758 -72.997528076172 -233.763946533203 0.975195288658
-91.571449279785 -71.744583129883 -71.551841735840 0.851079285145
63.453922271729 -69.605705261230 -88.302932739258 1.308861613274
79.075622558594 -73.405769348145 -70.991302490234 0.171043410897
74.902908325195 -73.294326782227 -73.103858947754 0.307416856289
71.015968322754 -70.162330627441 -70.312332153320 2.219181299210
39.092422485352 -73.402442932129 -104.392555236816 1.652148723602
97.520057678223 -71.219642639160 -75.984565734863 0.748047053814
26.250774383545 -61.774002075195 -131.455780029297 1.142181515694
28.801956176758 -61.969093322754 -136.984497070313 1.464472651482
-133.055297851563 -73.583976745605 -255.526855468750 0.734491109848
-41.137737274170 -71.387275695801 -77.965766906738 0.637233734131
-63.788021087646 -66.877738952637 -90.837181091309 1.759390711784
-65.454315185547 -69.233085632324 -92.977676391602 1.901387214661
54.098056793213 -71.586395263672 -99.533523559570 1.389113664627
86.761245727539 -70.286972045898 -65.595146179199 1.448544502258
96.325057983398 -70.284400939941 -71.715637207031 1.657818555832
25.332025527954 -72.747962951660 -144.084045410156 1.201895117760
69.672233581543 -70.171806335449 -230.359268188477 2.116737842560
10.336700439453 -66.679847717285 -290.638885498047 1.624405145645
63.297966003418 -62.332584381104 -77.562324523926 1.560963749886
8.885845184326 -62.249862670898 -291.249969482422 2.099607467651
91.335594177246 -73.444831848145 -97.899215698242 1.458990097046
-94.879653930664 -72.611419677734 -103.490249633789 1.461844563484
9.034110069275 -60.047241210938 -263.251220703125 3.085522890091
57.257751464844 -71.049880981445 -98.403274536133 1.373547196388
-62.661903381348 -58.907112121582 -84.938018798828 1.984853386879
87.128074645996 -71.592010498047 -102.402389526367 0.693649649620
41.876426696777 -71.090126037598 -35.998104095459 1.673557639122
108.487159729004 -72.498497009277 -102.591766357422 1.110129594803
48.695262908936 -68.345108032227 -22.421815872192 1.020496964455
-15.990871429443 -73.416435241699 -229.899459838867 2.472919702530
24.360258102417 -71.529212951660 -188.802505493164 2.596560478210
-96.121864318848 -70.502098083496 -107.022880554199 3.041317701340
38.659404754639 -71.177558898926 -35.981971740723 0.920891582966
