-40.971431732178 -73.845573425293 -285.969329833984 1.616437196732
-22.746261596680 -73.005760192871 -62.934204101563 1.926871657372
-142.599105834961 -67.762382507324 -184.846313476563 3.331447124481
-148.799560546875 -59.808940887451 -183.073928833008 2.372516632080
-20.562421798706 -80.004112243652 -202.500396728516 2.337882041931
-150.246582031250 -70.126647949219 -190.103530883789 1.924697995186
-152.415237426758 -80.058242797852 -200.530746459961 1.395271420479
-155.206390380859 -65.962631225586 -192.231918334961 1.485211491585
-162.871551513672 -64.128875732422 -199.362243652344 2.852314949036
-147.876953125000 -57.673072814941 -193.522903442383 3.193707704544
-116.753791809082 -70.867408752441 -226.959426879883 1.839804649353
35.097194671631 -73.367691040039 -141.211990356445 1.409452438354
-51.452152252197 -79.939025878906 -191.244827270508 2.262836456299
-48.489982604980 -80.426162719727 -194.883621215820 1.926397562027
-147.309234619141 -80.907043457031 -201.615554809570 0.947303712368
-148.554840087891 -81.322624206543 -204.523895263672 1.095947623253
-147.875122070313 -81.213249206543 -208.628402709961 1.977449178696
-14.401608467102 -63.449581146240 -56.035591125488 1.693438410759
-49.682933807373 -73.280723571777 -285.731201171875 1.753867506981
-83.601165771484 -70.217811584473 -249.265335083008 2.478218078613
-107.490150451660 -71.275344848633 -225.681137084961 1.389920830727
-142.792709350586 -79.294944763184 -200.225341796875 2.060157775879
-145.358901977539 -63.835704803467 -190.316116333008 2.192427396774
-31.277635574341 -63.499610900879 -72.870918273926 3.796729326248
-150.914428710938 -62.511634826660 -191.186355590820 2.380261421204
-34.810466766357 -58.561412811279 -71.514648437500 1.710777044296
-39.190757751465 -76.881996154785 -197.069183349609 1.467820882797
-52.896553039551 -76.615608215332 -183.155639648438 1.074194192886
78.774925231934 -77.176979064941 -74.979774475098 1.501409888268
96.515312194824 -69.146835327148 -69.130447387695 1.919747829437
47.721683502197 -74.415679931641 -246.332443237305 3.433805465698
-68.216331481934 -79.119697570801 -69.042320251465 1.472736239433
5.131402015686 -82.690635681152 -278.877746582031 1.753857970238
10.850527763367 -79.760162353516 -279.741577148438 0.824666976929
-69.721923828125 -82.824417114258 -206.695999145508 1.708377122879
-86.497879028320 -78.420394897461 -85.567955017090 0.778180956841
-82.244377136230 -79.422576904297 -81.765617370605 2.451069116592
-102.650917053223 -68.777435302734 -224.425186157227 1.359176754951
-55.998401641846 -68.697128295898 -47.638446807861 1.928065299988
97.753051757813 -73.152793884277 -199.148193359375 1.290755510330
-115.939826965332 -62.900215148926 -200.946273803711 1.328238010406
-142.401580810547 -78.877044677734 -225.475448608398 0.938192486763
-150.221115112305 -77.687873840332 -214.993499755859 1.972963929176
18.528226852417 -78.343513488770 -187.485382080078 1.543089866638
-163.474487304688 -65.028663635254 -215.211685180664 2.583025932312
-9.819599151611 -65.346717834473 -246.992736816406 0.922675132751
-69.831298828125 -58.245048522949 -114.412246704102 2.322785854340
-146.759750366211 -79.523429870605 -219.991027832031 3.436580896378
20.224742889404 -73.571861267090 -198.781356811523 2.060435533524
-31.039201736450 -81.134834289551 -240.572952270508 2.781983137131
101.700798034668 -68.808380126953 -82.345748901367 2.244868755341
-6.066672801971 -75.255798339844 -245.236129760742 2.709121465683
-146.684738159180 -76.901161193848 -217.749603271484 1.402955293655
-114.564384460449 -64.467948913574 -201.635330200195 0.989575564861
-164.807418823242 -70.767639160156 -225.754272460938 1.771009087563
-154.551879882813 -78.815544128418 -225.689361572266 1.355061531067
-103.748619079590 -71.873794555664 -291.241760253906 1.633083105087
-152.127899169922 -72.577690124512 -247.149719238281 1.458263754845
-141.920120239258 -80.513427734375 -230.011032104492 1.609016656876
-153.436981201172 -67.445343017578 -245.859954833984 2.988487005234
1.605437040329 -81.587348937988 -246.586746215820 2.129577159882
11.784458160400 -82.568771362305 -237.231475830078 1.168108224869
5.602623939514 -78.574829101563 -238.034652709961 0.939275622368
-31.723043441772 -65.766761779785 -49.078548431396 0.960255086422
-31.540126800537 -80.913070678711 -211.377243041992 1.199669122696
-61.388538360596 -78.825141906738 -165.904266357422 1.188633322716
10.485251426697 -84.663276672363 -238.396011352539 2.701035261154
-11.236868858337 -73.592842102051 -204.106277465820 1.777045607567
36.868183135986 -81.671195983887 -118.279724121094 2.672515869141
36.528804779053 -77.836242675781 -114.069473266602 1.365382075310
13.580738067627 -85.260215759277 -244.718704223633 2.838647842407
13.256224632263 -84.726539611816 -238.416183471680 2.018805265427
-96.424354553223 -67.339393615723 -146.164001464844 2.360569953918
-0.233756005764 -68.063362121582 -237.940109252930 1.827144265175
-150.615997314453 -74.009460449219 -206.648178100586 1.983335137367
-160.890823364258 -65.506721496582 -209.574829101563 1.478488564491
46.409275054932 -77.661506652832 -114.835929870605 1.177838444710
-134.371459960938 -65.245773315430 -233.237319946289 1.476841926575
37.354137420654 -81.631759643555 -126.379135131836 1.167011141777
-136.830123901367 -79.086875915527 -226.307632446289 1.756741523743
15.237719535828 -84.796295166016 -242.437194824219 3.512735605240
-90.953437805176 -66.904289245605 -140.363601684570 2.501273155212
2.717989921570 -69.411849975586 -232.798614501953 1.410062074661
-3.024770975113 -81.371849060059 -226.117660522461 2.134450912476
-69.018592834473 -73.889518737793 -157.642166137695 1.986429452896
-16.333566665649 -76.749938964844 -212.394821166992 0.995006322861
99.769523620605 -80.418190002441 -191.135437011719 3.705632686615
20.248538970947 -79.327659606934 -247.191986083984 0.458878010511
35.019496917725 -70.822219848633 -134.694335937500 1.242328643799
-77.820953369141 -60.590095520020 -118.396202087402 1.413843035698
16.440158843994 -83.144454956055 -246.499908447266 0.710636973381
-86.102180480957 -63.029514312744 -126.651847839355 2.674597501755
8.832047462463 -74.547935485840 -288.978149414063 1.107535958290
-5.074955940247 -84.577575683594 -253.259262084961 2.925824403763
-167.034637451172 -73.183799743652 -275.540771484375 1.980693221092
95.069618225098 -76.328323364258 -82.372009277344 1.889094591141
-148.939590454102 -73.930183410645 -258.566009521484 1.116356492043
79.650428771973 -76.794586181641 -97.192237854004 1.358479976654
81.797767639160 -69.951873779297 -103.811965942383 0.772213578224
-159.168899536133 -68.183959960938 -258.842864990234 1.046090364456
23.509235382080 -80.385307312012 -149.606521606445 2.928383350372
-141.173339843750 -81.534492492676 -255.488128662109 2.202948093414
30.075845718384 -78.276733398438 -150.933074951172 1.671374917030
88.084060668945 -79.108123779297 -91.265350341797 2.255933523178
-65.174644470215 -74.522560119629 -244.173599243164 1.846215844154
19.812040328979 -77.881340026855 -157.211654663086 2.210713386536
-152.883728027344 -81.132637023926 -262.601745605469 1.407088279724
-162.914459228516 -67.409828186035 -263.634857177734 1.921423316002
-147.509155273438 -79.534378051758 -263.260375976563 2.274645566940
-116.949386596680 -74.332756042480 -289.047821044922 1.788786649704
-157.319793701172 -63.575508117676 -257.286254882813 1.766625881195
-159.170547485352 -71.994552612305 -250.697219848633 2.088509559631
86.469696044922 -79.242691040039 -219.811386108398 3.424499511719
-155.201599121094 -79.761054992676 -254.915588378906 1.998568415642
-46.971920013428 -77.040435791016 -84.424240112305 1.410097360611
-9.796768188477 -83.313293457031 -257.707794189453 2.421470642090
21.219736099243 -64.533905029297 -34.208091735840 3.643845081329
-10.624618530273 -70.013275146484 -271.378112792969 1.663337826729
-7.190288066864 -68.972183227539 -267.257690429688 1.635542154312
-10.501736640930 -74.232994079590 -279.968048095703 2.793929100037
-5.443442821503 -67.991813659668 -279.719390869141 2.454645872116
-66.346351623535 -77.456741333008 -245.838623046875 1.207746505737
-8.112719535828 -84.886062622070 -261.844421386719 2.635918617249
-10.188044548035 -83.169357299805 -262.716217041016 2.934798479080
46.193172454834 -73.861839294434 -94.251419067383 2.010327100754
9.971508026123 -84.504844665527 -271.118988037109 2.985963821411
-72.131599426270 -58.947883605957 -99.372138977051 1.078643321991
46.297901153564 -80.065330505371 -104.274780273438 1.264215588570
-91.462066650391 -76.458389282227 -96.761444091797 3.171049833298
105.393409729004 -79.994621276855 -174.636642456055 4.404242515564
-65.737586975098 -65.945281982422 -45.549400329590 1.507404565811
-70.498504638672 -80.684303283691 -206.112792968750 1.605151772499
-54.679512023926 -81.017684936523 -184.032257080078 3.114835977554
7.271848201752 -83.954849243164 -276.142181396484 2.340564966202
13.020343780518 -80.289634704590 -277.453338623047 2.031884670258
63.678432464600 -71.383842468262 -234.979217529297 1.247593879700
22.090307235718 -70.070014953613 -271.588867187500 1.898987770081
-138.133712768555 -81.295021057129 -289.283813476563 2.337836980820
-147.861953735352 -79.380996704102 -278.509826660156 2.080731391907
17.860631942749 -77.799285888672 -178.278198242188 2.780548810959
4.420618057251 -77.230163574219 -160.747070312500 0.517103374004
22.158067703247 -81.022499084473 -170.219635009766 2.310593605042
27.946071624756 -77.241706848145 -169.204421997070 2.316891908646
-160.873443603516 -69.541084289551 -277.606445312500 1.832037687302
-154.352096557617 -73.115936279297 -275.147430419922 2.830482244492
-65.819824218750 -74.691139221191 -93.728096008301 1.034268617630
-153.215621948242 -80.624580383301 -279.940093994141 2.753286600113
-161.429031372070 -69.653778076172 -279.723480224609 1.534395217896
-61.183074951172 -77.909049987793 -63.878047943115 2.207298278809
27.210638046265 -69.824989318848 -140.092514038086 1.940255045891
47.493206024170 -70.457748413086 -91.717178344727 1.985463738441
-68.049118041992 -79.824043273926 -71.527572631836 1.726437449455
53.693576812744 -68.686759948730 -98.026924133301 2.605575084686
-86.062210083008 -62.799304962158 -108.522178649902 3.507699489594
24.604972839355 -69.901008605957 -145.836273193359 0.943174481392
89.102729797363 -69.284629821777 -63.499137878418 2.111845254898
-35.746528625488 -76.795433044434 -207.334091186523 0.373235762119
-49.084175109863 -75.380943298340 -160.077728271484 1.728998184204
-20.379404067993 -77.150314331055 -192.087020874023 1.874202728271
-51.761577606201 -61.191856384277 -43.152122497559 2.737201213837
31.743793487549 -80.581001281738 -145.349472045898 1.491723656654
-79.497383117676 -75.754402160645 -250.031005859375 1.585307598114
32.716114044189 -77.848381042480 -142.140182495117 1.304255366325
-34.848247528076 -80.089347839355 -75.697738647461 1.096359968185
-145.767044067383 -77.962455749512 -187.834030151367 2.039933681488
-79.441917419434 -79.182258605957 -77.004776000977 2.025651693344
88.947883605957 -78.012611389160 -94.457275390625 2.286854028702
-44.518711090088 -80.685325622559 -83.804267883301 2.320072174072
-52.331619262695 -80.625022888184 -88.891334533691 2.875837564468
108.452621459961 -73.094207763672 -161.659500122070 0.994736194611
-87.828735351563 -79.172401428223 -92.470214843750 0.557171165943
-50.607177734375 -77.137298583984 -62.030792236328 2.286642551422
49.781997680664 -67.426887512207 -247.812850952148 0.662981629372
-44.848979949951 -77.068069458008 -201.245178222656 2.166319847107
55.252063751221 -62.181388854980 -93.824996948242 2.293424844742
-77.669471740723 -77.846832275391 -100.750808715820 1.284514784813
-31.509365081787 -79.356620788574 -188.215927124023 0.863332629204
-22.680236816406 -80.580764770508 -197.603225708008 2.592968225479
-37.007366180420 -80.911163330078 -188.489349365234 1.535832166672
-25.814636230469 -79.945709228516 -194.592239379883 2.031629800797
6.898725032806 -82.093070983887 -229.936630249023 2.654903650284
-2.540088891983 -80.580772399902 -222.186691284180 1.248776435852
6.705248832703 -81.195220947266 -219.629364013672 2.672946691513
12.788129806519 -80.132026672363 -220.945373535156 1.546051859856
-0.994704008102 -80.915359497070 -230.127990722656 2.618064641953
0.612093985081 -78.154800415039 -229.831054687500 1.834424495697
-51.988357543945 -79.027671813965 -179.230911254883 1.294895887375
-27.374118804932 -81.645439147949 -187.729629516602 1.980337858200
-42.500087738037 -78.451835632324 -168.263534545898 2.324661016464
-93.990699768066 -71.378486633301 -219.568740844727 2.179469347000
-41.864933013916 -74.305534362793 -199.551681518555 2.064658880234
-48.723377227783 -72.874076843262 -52.512710571289 2.978548765182
-50.185226440430 -80.555335998535 -183.246063232422 0.977957129478
-40.649364471436 -80.441940307617 -191.567825317383 1.904716491699
-147.672134399414 -70.529991149902 -199.408874511719 1.600758790970
-58.700847625732 -72.480087280273 -289.611572265625 1.904736280441
-147.343292236328 -80.686645507813 -190.797698974609 2.761306762695
-142.374404907227 -63.759719848633 -201.580520629883 1.857704281807
-127.193687438965 -62.493103027344 -226.694274902344 2.262061119080
-155.644515991211 -60.011672973633 -199.557266235352 1.899800896645
-151.233901977539 -58.678455352783 -200.952621459961 2.163013696671
-86.921020507813 -74.567558288574 -251.882614135742 0.242085069418
32.293403625488 -82.099464416504 -134.925888061523 1.247280597687
-147.713043212891 -77.909797668457 -196.531173706055 2.050584554672
30.310201644897 -79.019134521484 -129.969131469727 1.318324327469
40.799842834473 -72.977569580078 -118.387550354004 3.535827875137
-23.389802932739 -79.721557617188 -218.718963623047 0.964351475239
-137.377975463867 -77.564254760742 -196.117965698242 1.611336708069
35.764175415039 -67.236602783203 -35.638439178467 2.590283870697
108.998977661133 -70.609214782715 -106.541748046875 1.585772275925
-55.019241333008 -79.335861206055 -186.618484497070 2.007876634598
-42.627269744873 -82.114089965820 -197.777633666992 2.106138944626
3.551650047302 -63.515979766846 -278.834411621094 2.125022888184
-136.168151855469 -79.244628906250 -199.502807617188 2.736221313477
15.179800033569 -83.319473266602 -234.865081787109 2.377787351608
40.120273590088 -75.657318115234 -128.893905639648 1.780311107635
-108.108055114746 -70.316360473633 -221.966064453125 2.693874597549
-17.527341842651 -72.094818115234 -192.471191406250 1.536426663399
-47.179756164551 -70.692008972168 -162.127670288086 1.324120759964
-19.747060775757 -80.508590698242 -201.383804321289 2.308935880661
-81.917266845703 -67.979972839355 -122.346099853516 2.140217304230
-68.934181213379 -64.329078674316 -44.871154785156 0.667171061039
-35.009300231934 -74.097038269043 -210.409942626953 2.556929826736
-47.442687988281 -69.269348144531 -159.271026611328 1.414014697075
41.327014923096 -79.827369689941 -123.437370300293 1.884645342827
-150.194564819336 -80.622688293457 -203.980758666992 1.025263428688
-163.178131103516 -64.459754943848 -206.143005371094 3.108561515808
30.788066864014 -71.871948242188 -140.224151611328 1.796307802200
36.648956298828 -79.120872497559 -129.028793334961 1.784628987312
-27.591232299805 -73.875961303711 -212.634231567383 1.389562010765
43.403697967529 -80.467468261719 -116.194206237793 1.812126636505
44.014240264893 -78.117095947266 -118.994094848633 1.056845664978
-96.429809570313 -66.221557617188 -141.782623291016 1.752844095230
3.863359928131 -69.183944702148 -238.589385986328 1.511280417442
-137.265701293945 -76.011138916016 -226.362243652344 1.444434165955
34.801406860352 -82.005516052246 -122.952568054199 2.159406423569
-139.024353027344 -67.762123107910 -232.405090332031 2.577350616455
-151.052536010742 -79.795005798340 -206.319473266602 2.490482568741
-163.381027221680 -64.543357849121 -208.064575195313 2.520797967911
30.592058181763 -71.984550476074 -132.446487426758 1.013144254684
-87.374412536621 -73.016235351563 -249.971725463867 1.738086462021
107.895057678223 -77.610443115234 -185.699844360352 2.996195077896
-149.449630737305 -78.572586059570 -210.903900146484 0.802174091339
-108.514434814453 -70.780715942383 -227.389480590820 1.876121640205
-162.345306396484 -64.972816467285 -212.239730834961 3.064520120621
40.006996154785 -81.542709350586 -114.874786376953 1.927166223526
41.421642303467 -78.477165222168 -119.708473205566 1.854416012764
-118.125000000000 -63.835044860840 -228.888565063477 2.497245550156
-24.481948852539 -72.702056884766 -198.128768920898 1.556271672249
-22.955003738403 -80.925514221191 -192.313690185547 1.299687027931
10.027375221252 -83.114067077637 -224.920959472656 2.344913721085
6.675355911255 -78.304946899414 -226.751907348633 1.337334871292
-25.212646484375 -69.351669311523 -198.004501342773 0.804455518723
-146.497329711914 -78.458244323730 -209.468017578125 2.210952758789
10.084369659424 -83.515350341797 -228.163772583008 2.907765626907
6.602840900421 -77.745056152344 -229.995773315430 2.044450998306
-27.826013565063 -77.290046691895 -195.154891967773 1.993496417999
2.062407016754 -64.527221679688 -238.223434448242 1.153514742851
-95.817878723145 -62.626182556152 -140.420455932617 2.487452268600
-3.746184110641 -78.067375183105 -221.082199096680 1.181948900223
13.301613807678 -81.185165405273 -205.189804077148 1.379333019257
-6.228988170624 -78.894973754883 -246.675720214844 2.119539022446
-152.132293701172 -77.340148925781 -233.933853149414 1.771347761154
-112.628959655762 -67.128456115723 -182.450256347656 1.297404050827
11.105915069580 -84.416793823242 -234.305252075195 2.869956493378
7.344099998474 -77.552734375000 -233.753143310547 1.633188486099
33.625705718994 -73.248970031738 -120.252738952637 1.424313068390
-23.022623062134 -74.908325195313 -67.305564880371 1.015903592110
-64.675971984863 -78.928016662598 -164.282379150391 1.747505784035
10.962881088257 -82.672821044922 -240.616439819336 2.686116933823
6.181860923767 -78.350845336914 -242.204574584961 1.725246787071
-56.719478607178 -71.314476013184 -147.785552978516 2.390526056290
-49.044269561768 -78.812583923340 -148.450759887695 2.064948081970
-62.742336273193 -78.302528381348 -174.242187500000 1.445742845535
11.476511955261 -82.815612792969 -244.998458862305 2.036116838455
7.139690876007 -80.252838134766 -244.834442138672 2.397679328918
-87.603431701660 -62.878356933594 -132.088012695313 1.364688515663
32.903980255127 -72.371536254883 -258.948608398438 2.420116424561
-39.836494445801 -80.396644592285 -74.183235168457 2.341263294220
3.937367916107 -84.284980773926 -250.228073120117 2.364304065704
2.828398942947 -64.968650817871 -269.558441162109 2.526650428772
-85.807266235352 -73.555946350098 -109.667869567871 2.002839088440
-24.295755386353 -77.155761718750 -285.854309082031 1.987301230431
8.466319084167 -83.041969299316 -249.538513183594 2.042711496353
-28.042686462402 -79.698951721191 -288.055084228516 3.240637063980
-39.218055725098 -76.336013793945 -62.078742980957 1.696821331978
-67.132232666016 -72.379074096680 -52.558139801025 1.496514320374
90.878570556641 -80.414901733398 -208.460571289063 3.575446605682
-138.613113403320 -79.827850341797 -255.656539916992 1.834484100342
-100.240264892578 -57.929031372070 -101.478210449219 2.538803339005
113.639190673828 -75.800048828125 -124.248085021973 1.404992103577
20.752395629883 -72.299499511719 -29.053577423096 1.405144214630
-9.635422706604 -82.210754394531 -253.495315551758 2.422839641571
-68.049125671387 -69.086112976074 -48.649631500244 1.946694254875
94.655372619629 -76.238159179688 -211.325561523438 1.455728530884
49.542934417725 -69.858604431152 -102.972740173340 2.478014707565
-72.646896362305 -59.767196655273 -102.291351318359 1.664706707001
-163.708847045898 -71.438766479492 -291.407562255859 1.088268399239
-29.953357696533 -80.538085937500 -177.990814208984 2.028036832809
-36.618438720703 -80.259147644043 -172.997604370117 2.133769750595
-154.101882934570 -80.164207458496 -292.958068847656 1.150507450104
-141.296401977539 -79.038444519043 -290.198760986328 1.211429834366
-145.365280151367 -78.699325561523 -283.894927978516 1.691897749901
-150.647842407227 -77.932624816895 -295.774658203125 1.158988118172
-155.067810058594 -66.528434753418 -306.316314697266 2.298551321030
-96.464431762695 -68.976509094238 -87.673202514648 2.015980958939
-83.751152038574 -70.697998046875 -103.217216491699 2.428684473038
-55.856990814209 -79.106071472168 -67.804115295410 1.577824234962
-81.849975585938 -79.259346008301 -105.683113098145 1.609907388687
-50.119644165039 -80.289360046387 -71.896308898926 2.696727991104
-94.945419311523 -72.224372863770 -111.949363708496 2.210259914398
-74.004837036133 -78.941055297852 -71.289176940918 2.010021448135
-45.074428558350 -76.591995239258 -240.106277465820 1.696375012398
75.339981079102 -61.815601348877 -106.830055236816 1.357953071594
-0.996912002563 -78.868347167969 -284.238525390625 2.748179197311
69.919387817383 -60.980827331543 -103.314353942871 1.766390204430
-144.740615844727 -71.351242065430 -292.916931152344 1.496783375740
-130.170364379883 -74.441314697266 -255.849792480469 3.458602905273
-157.217895507813 -75.729156494141 -284.983703613281 2.037741184235
-156.052124023438 -69.651565551758 -283.535644531250 2.336785316467
-143.809448242188 -68.408836364746 -291.071594238281 0.907170414925
-147.973236083984 -63.036659240723 -285.387023925781 1.066396474838
-155.203857421875 -62.494628906250 -292.033508300781 1.353898406029
61.891613006592 -60.981594085693 -82.669555664063 1.401270151138
-38.794605255127 -78.898765563965 -69.626892089844 2.389784574509
-74.984634399414 -77.297027587891 -100.862190246582 1.353221297264
-91.984092712402 -76.517944335938 -215.184539794922 1.118330478668
-107.750389099121 -66.244209289551 -258.043914794922 1.447622656822
-42.372528076172 -75.966629028320 -203.594818115234 1.241981148720
-47.629402160645 -79.415542602539 -153.703933715820 1.129175662994
-55.972324371338 -67.958763122559 -146.985321044922 1.193200111389
-63.498802185059 -79.248344421387 -169.465286254883 2.147094011307
-151.049591064453 -71.807472229004 -212.485580444336 0.404010415077
32.915412902832 -82.121444702148 -131.015518188477 2.857635259628
33.910797119141 -78.466140747070 -137.814758300781 1.999614715576
-53.209293365479 -76.223945617676 -290.022186279297 1.592126369476
-154.974487304688 -66.342582702637 -213.698654174805 4.104916095734
-125.738380432129 -63.739784240723 -231.242279052734 0.792103648186
40.548641204834 -72.443771362305 -117.268661499023 3.421622753143
-103.506462097168 -71.071426391602 -258.955871582031 1.645885467529
-92.588439941406 -70.852394104004 -117.195243835449 2.333834648132
31.369258880615 -77.831573486328 -146.597244262695 2.036054372787
15.303567886353 -73.297485351563 -232.550796508789 2.014199018478
-36.713722229004 -79.418571472168 -209.749374389648 0.867865085602
-15.233906745911 -68.844833374023 -201.448089599609 1.389208555222
-19.392284393311 -79.619842529297 -193.432067871094 0.605309486389
-146.600402832031 -75.192848205566 -185.916000366211 1.137058138847
-43.591777801514 -78.823272705078 -287.600463867188 2.291035652161
-18.206434249878 -66.036048889160 -68.773185729980 2.219480276108
39.802349090576 -74.199836730957 -122.759101867676 2.277727365494
-34.413425445557 -74.240921020508 -78.092483520508 1.750059247017
-155.318710327148 -65.962150573730 -204.635421752930 3.181939601898
-144.419906616211 -59.058994293213 -203.074569702148 1.892742276192
33.013004302979 -80.791740417480 -140.719146728516 1.576495289803
25.630868911743 -81.245796203613 -145.444686889648 2.492585420609
26.070056915283 -78.819137573242 -142.680786132813 2.023778915405
25.799455642700 -76.301750183105 -138.976226806641 1.772013068199
28.666101455688 -82.004173278809 -141.521850585938 1.749015569687
-15.002365112305 -79.347801208496 -171.712905883789 2.080154657364
-12.136295318604 -82.686706542969 -174.395996093750 0.440290272236
-96.970214843750 -68.892547607422 -98.661682128906 1.576342821121
-37.674152374268 -78.180305480957 -68.108711242676 2.389502763748
-65.940223693848 -70.836738586426 -157.098922729492 1.721621394157
-30.674453735352 -72.737976074219 -191.203048706055 2.502117395401
-58.619682312012 -80.516952514648 -176.039749145508 0.669529855251
36.474601745605 -67.742919921875 -251.415496826172 1.113831996918
2.897674083710 -74.728401184082 -225.392929077148 1.356664419174
-18.614568710327 -71.812057495117 -209.160720825195 2.059788703918
-64.996452331543 -71.064094543457 -162.239807128906 1.153624892235
36.708000183105 -71.333457946777 -258.255096435547 0.909034252167
-0.718156993389 -80.723983764648 -233.731826782227 2.685408353806
-35.547817230225 -80.254806518555 -201.846069335938 0.783678710461
-57.568859100342 -80.554321289063 -179.524078369141 2.823769569397
-14.481410026550 -67.632705688477 -207.699798583984 1.930106043816
-39.132595062256 -79.890472412109 -170.222610473633 1.242563605309
-27.413915634155 -80.674568176270 -180.920623779297 1.630948305130
-90.868606567383 -61.867187500000 -137.575164794922 1.361838817596
-21.562372207642 -63.007041931152 -66.995613098145 1.582804799080
-38.259880065918 -79.261772155762 -173.521972656250 1.204312324524
-31.141130447388 -80.249053955078 -184.258605957031 2.084058046341
-31.396068572998 -59.535167694092 -68.531021118164 2.690872430801
-45.342658996582 -79.024627685547 -194.908142089844 0.348065227270
-52.790031433105 -80.162117004395 -188.837310791016 1.495316147804
-61.885898590088 -66.311363220215 -45.550109863281 2.071523427963
60.791751861572 -70.201004028320 -237.694747924805 0.917146980762
-27.671010971069 -80.082588195801 -178.895187377930 0.487875729799
-35.928241729736 -80.388992309570 -172.062408447266 2.493902444839
44.812755584717 -80.612571716309 -107.368858337402 2.038213253021
53.442329406738 -71.282974243164 -245.990631103516 1.194902896881
28.512271881104 -78.473007202148 -126.852325439453 2.593407630920
30.428121566772 -77.555885314941 -126.971115112305 2.039036989212
-58.403930664063 -73.159568786621 -177.387405395508 0.656525194645
-37.603664398193 -80.115570068359 -191.000793457031 0.910649538040
-17.211362838745 -80.051856994629 -209.235488891602 2.873927831650
-63.954063415527 -78.110549926758 -161.028991699219 1.115893244743
-165.467910766602 -69.689956665039 -205.673370361328 2.580156564713
-35.896659851074 -75.639305114746 -61.794303894043 1.450704097748
33.647464752197 -81.898643493652 -124.085487365723 2.182342767715
-145.709274291992 -69.544075012207 -191.951492309570 2.837773799896
-48.598400115967 -73.391426086426 -289.793060302734 3.229068040848
-147.936584472656 -79.181282043457 -199.547286987305 1.493920207024
-143.568527221680 -66.548683166504 -192.637054443359 1.388707518578
-83.319931030273 -69.172309875488 -250.791198730469 0.679576754570
-106.910125732422 -65.583084106445 -225.048706054688 1.211383104324
-152.812133789063 -62.109554290771 -193.303421020508 1.650665044785
-51.402950286865 -80.796852111816 -202.349014282227 1.881747126579
-145.937484741211 -76.932472229004 -204.167343139648 2.020777702332
-79.511322021484 -63.678913116455 -47.559585571289 0.999272823334
78.818008422852 -67.045074462891 -107.449981689453 1.449517726898
-77.751808166504 -80.423614501953 -212.554092407227 1.084394812584
-86.001655578613 -66.071647644043 -54.517429351807 1.339253902435
10.821514129639 -82.541809082031 -218.125885009766 1.997747540474
7.341104984283 -78.548233032227 -217.258575439453 2.492249965668
-26.498376846313 -62.397941589355 -67.864356994629 1.907816290855
-22.876207351685 -81.050018310547 -184.365844726563 1.879776954651
-41.367305755615 -80.115867614746 -164.902923583984 2.779571056366
11.065788269043 -82.751785278320 -221.566070556641 2.757408618927
6.829547882080 -77.981620788574 -219.237106323242 1.172492742538
-2.658824920654 -79.218032836914 -229.039291381836 1.928974032402
-45.385746002197 -79.024208068848 -161.586715698242 2.530475378036
-88.731742858887 -73.277435302734 -113.464385986328 2.229004144669
39.776451110840 -73.717453002930 -254.479782104492 3.265211820602
-89.503608703613 -71.132019042969 -250.129470825195 1.739890336990
15.482568740845 -80.486557006836 -221.250274658203 1.578758358955
-138.923583984375 -78.653961181641 -230.176483154297 2.579454660416
22.622962951660 -76.407875061035 -189.516204833984 2.550250530243
39.231929779053 -59.659870147705 -18.608810424805 2.155314683914
10.880265235901 -81.776351928711 -209.584884643555 2.558683633804
6.742387771606 -78.810317993164 -207.351837158203 2.574803113937
-154.930068969727 -71.751289367676 -246.749313354492 2.788905143738
-147.784606933594 -78.374053955078 -228.453750610352 1.573312282562
-146.205566406250 -79.418357849121 -232.060272216797 1.713367938995
-111.743186950684 -62.718196868896 -181.242141723633 1.949885606766
21.687923431396 -73.042068481445 -186.806350708008 2.401738405228
-21.013925552368 -77.615203857422 -206.908035278320 2.462562322617
-65.172500610352 -75.930351257324 -164.204574584961 1.691663146019
6.982162952423 -81.759796142578 -240.317657470703 2.700608491898
9.231094360352 -78.699302673340 -242.885208129883 1.580302834511
-50.002632141113 -76.882408142090 -149.339950561523 0.627813398838
-142.415069580078 -72.105690002441 -227.389038085938 1.723068833351
-151.830932617188 -78.807861328125 -245.123275756836 1.971740365028
-114.054969787598 -68.336463928223 -193.495773315430 2.028886079788
-88.615669250488 -69.621925354004 -289.629211425781 1.582092761993
-161.906768798828 -66.567237854004 -245.553039550781 2.608402013779
-149.971984863281 -62.354053497314 -230.466064453125 1.143537044525
-147.979064941406 -64.692031860352 -228.529754638672 2.127185344696
-4.922484874725 -76.734497070313 -233.620101928711 1.574192643166
-6.022233009338 -73.809532165527 -217.183059692383 2.376439571381
-72.925781250000 -71.844238281250 -147.876983642578 0.890447914600
-156.468261718750 -71.166572570801 -227.411407470703 2.586674928665
-147.540817260742 -81.335601806641 -246.453933715820 1.320884585381
-9.406152725220 -70.174400329590 -217.760589599609 1.756961703300
-148.348999023438 -64.426033020020 -227.879089355469 2.279681921005
-113.523315429688 -63.212047576904 -195.320846557617 2.242064952850
-146.145141601563 -59.934940338135 -227.742660522461 1.294052481651
2.421494007111 -77.297119140625 -239.442459106445 1.218376874924
-24.932168960571 -76.373184204102 -212.664688110352 0.696177363396
6.353466987610 -82.077369689941 -247.492034912109 2.179057121277
-60.271450042725 -75.871826171875 -173.467269897461 1.655445218086
10.742976188660 -80.302375793457 -247.191604614258 0.996372342110
-31.391479492188 -78.743545532227 -205.924743652344 1.274383902550
32.042030334473 -66.231758117676 -254.697219848633 1.007056593895
36.637390136719 -70.695274353027 -129.402648925781 1.783855915070
-127.097396850586 -71.488983154297 -283.432067871094 1.287951946259
-146.822631835938 -70.616691589355 -272.426025390625 2.591937780380
-87.589767456055 -71.492034912109 -213.371765136719 1.761365413666
-152.593902587891 -80.758010864258 -251.931716918945 2.511753797531
-150.871093750000 -75.273277282715 -256.298583984375 2.334312677383
84.943824768066 -80.083488464355 -218.482940673828 4.003255844116
-74.981781005859 -74.530265808105 -59.102363586426 1.135843396187
-160.311187744141 -67.264846801758 -253.674346923828 2.842650175095
-163.778610229492 -65.873947143555 -249.113830566406 2.222937583923
-147.590408325195 -67.871665954590 -269.724731445313 3.946001291275
-129.659362792969 -68.527610778809 -283.411560058594 2.498324155807
-125.644760131836 -67.235130310059 -286.879699707031 1.073454380035
-152.728973388672 -63.714214324951 -270.195831298828 4.772918224335
-150.982421875000 -61.223663330078 -267.489593505859 2.522605895996
-141.009735107422 -81.009010314941 -260.000823974609 2.174302101135
-142.506332397461 -76.087226867676 -257.733062744141 1.673954486847
-149.174774169922 -79.775856018066 -256.170593261719 3.287038564682
-152.283599853516 -74.859252929688 -251.495773315430 1.890272378922
-159.748718261719 -67.271179199219 -249.217376708984 1.396715164185
92.664352416992 -71.115188598633 -104.261772155762 0.952472448349
-165.357131958008 -66.945465087891 -256.760986328125 3.608963489532
-43.437400817871 -76.982414245605 -191.592514038086 1.515027284622
-47.534664154053 -76.156707763672 -186.507598876953 1.918056726456
59.154628753662 -74.066947937012 -237.403457641602 4.375212192535
-94.668266296387 -70.808464050293 -84.309776306152 1.625539064407
15.903967857361 -82.199813842773 -255.437805175781 1.917949199677
16.539716720581 -78.490615844727 -250.464828491211 1.864993572235
-129.990722656250 -71.070365905762 -293.851898193359 3.291534662247
20.618268966675 -79.739295959473 -161.090759277344 3.339676380157
27.899356842041 -81.433769226074 -153.181289672852 2.747232675552
24.350408554077 -79.073463439941 -154.215347290039 0.616147875786
85.147697448730 -78.426490783691 -94.125160217285 2.735023260117
-154.928314208984 -68.891632080078 -266.228210449219 2.749645709991
-148.420776367188 -65.668548583984 -266.332824707031 1.993275403976
-55.543781280518 -63.177356719971 -84.484466552734 0.614160299301
-164.466613769531 -72.370719909668 -258.322784423828 2.105635404587
-155.231719970703 -80.254402160645 -260.187774658203 0.771681010723
-159.430175781250 -72.297805786133 -260.803283691406 2.327775001526
-106.839210510254 -74.358970642090 -289.684936523438 2.388397216797
-164.996810913086 -72.925651550293 -267.631744384766 1.989276289940
-148.172515869141 -75.225685119629 -250.241699218750 2.837067604065
-145.426391601563 -78.862762451172 -253.807830810547 1.139952063560
25.676441192627 -81.554237365723 -151.553207397461 1.898051261902
27.236537933350 -79.542861938477 -152.619171142578 1.975143432617
18.925071716309 -78.214797973633 -162.298980712891 3.000879526138
-153.666854858398 -78.247169494629 -263.040405273438 1.656234979630
15.358010292053 -82.389022827148 -267.368133544922 0.749826908112
69.487014770508 -73.999008178711 -77.134368896484 2.475163936615
-56.326316833496 -78.286926269531 -64.922149658203 3.687996387482
-80.658302307129 -69.997032165527 -99.434318542480 2.502732753754
-49.064498901367 -68.893218994141 -84.078262329102 1.295347809792
-154.622406005859 -71.914794921875 -249.326416015625 2.401945114136
-74.325912475586 -77.723266601563 -67.504051208496 1.664043903351
-52.348205566406 -77.175628662109 -246.763183593750 1.605640172958
87.409179687500 -74.180023193359 -220.071533203125 1.693176627159
72.541717529297 -61.278606414795 -105.666015625000 1.177728295326
-115.182083129883 -73.060455322266 -290.698608398438 1.705556511879
-142.640701293945 -65.218612670898 -258.392700195313 1.446393966675
-153.523437500000 -61.467571258545 -257.828613281250 2.064002752304
-43.623607635498 -78.493049621582 -239.612045288086 1.685312509537
-130.484756469727 -70.158973693848 -223.785354614258 2.119715213776
-155.665481567383 -70.036201477051 -199.052307128906 2.296511411667
-35.233463287354 -79.167175292969 -72.172508239746 2.046511650085
-149.563537597656 -64.526168823242 -199.126251220703 2.040000915527
-125.161651611328 -65.320518493652 -226.199752807617 1.466464877129
-147.577133178711 -63.255489349365 -199.539321899414 1.793786883354
-142.571838378906 -59.197204589844 -200.267761230469 1.642333507538
-30.571205139160 -78.616676330566 -75.971611022949 2.169954299927
15.298967361450 -81.132606506348 -225.277267456055 2.567404747009
-167.061126708984 -72.497055053711 -260.264343261719 1.785099864006
-152.606948852539 -75.637245178223 -276.203521728516 1.518100976944
-133.949340820313 -75.038757324219 -291.900482177734 1.201649546623
78.312522888184 -78.871704101563 -81.752372741699 2.042964220047
71.122550964355 -76.340522766113 -89.109268188477 2.931803703308
28.948343276978 -76.540847778320 -166.357330322266 2.467710971832
-81.627006530762 -75.477188110352 -209.844665527344 1.961620211601
2.369723081589 -75.207550048828 -157.028915405273 1.638190388680
17.842691421509 -76.735916137695 -173.834381103516 1.810973763466
-48.529979705811 -76.664710998535 -240.667175292969 1.434345126152
-81.705238342285 -78.541511535645 -77.539031982422 1.214691162109
-61.937816619873 -69.843238830566 -132.186553955078 0.844143927097
-36.893333435059 -79.396469116211 -81.159561157227 1.869041085243
10.351647377014 -71.912338256836 -202.268051147461 0.644671320915
-21.797456741333 -72.776153564453 -240.143798828125 1.235153794289
-88.068550109863 -79.920272827148 -97.548171997070 3.747619390488
45.277332305908 -67.918891906738 -247.317596435547 2.468542337418
-73.880477905273 -75.124519348145 -100.679458618164 2.034423351288
-54.111721038818 -67.834655761719 -46.768085479736 1.254698395729
-110.994209289551 -66.094650268555 -258.490142822266 1.450746059418
-162.798721313477 -73.486732482910 -284.766845703125 2.121597528458
38.236831665039 -81.250709533691 -114.259796142578 1.684533238411
31.616361618042 -71.878044128418 -137.176895141602 2.579967737198
-86.659599304199 -70.679862976074 -254.879531860352 1.706442475319
-27.117992401123 -69.362129211426 -75.351394653320 1.534442305565
-142.301834106445 -65.791358947754 -194.527832031250 0.569073379040
-160.718505859375 -65.656616210938 -210.494537353516 2.054910421371
-150.451889038086 -58.667213439941 -196.902374267578 2.363784790039
41.323631286621 -80.753860473633 -120.374900817871 1.679978013039
41.816871643066 -79.497680664063 -114.466186523438 1.198108315468
53.178951263428 -77.463096618652 -97.332336425781 1.782780766487
26.904760360718 -81.519851684570 -142.858444213867 2.260318756104
23.970952987671 -76.320831298828 -145.608184814453 1.639578342438
-90.000076293945 -69.131759643555 -251.101470947266 1.307681322098
42.511486053467 -71.039772033691 -255.476684570313 1.633401751518
-51.206233978271 -78.090782165527 -147.198989868164 0.945000588894
-43.882545471191 -80.109161376953 -157.465789794922 2.344081640244
-13.749874114990 -73.209617614746 -199.594604492188 1.274985194206
-31.628435134888 -80.660972595215 -207.859420776367 2.254195451736
-47.308734893799 -79.261657714844 -155.900115966797 2.323832988739
-63.730026245117 -78.143493652344 -172.425964355469 1.315536141396
-150.596679687500 -75.130119323730 -185.932922363281 2.251573324203
-16.237136840820 -63.701927185059 -66.605613708496 2.245231866837
-39.698394775391 -80.057487487793 -159.112777709961 1.240528345108
23.588872909546 -81.167526245117 -157.914703369141 2.161795854568
28.673656463623 -78.347793579102 -156.705490112305 0.624110579491
21.545499801636 -78.242309570313 -149.626617431641 2.071359157562
-61.098884582520 -76.876220703125 -248.148483276367 0.869758129120
-95.849555969238 -73.663772583008 -214.566696166992 2.061908721924
24.098093032837 -81.317253112793 -162.228881835938 1.967184305191
28.234642028809 -77.441246032715 -160.509765625000 0.492771387100
20.741741180420 -77.816238403320 -152.442993164063 3.175775289536
-3.526762008667 -79.219131469727 -169.277755737305 1.583356142044
27.269214630127 -80.804168701172 -160.752685546875 3.310655355453
24.373043060303 -79.203689575195 -162.288330078125 1.543972134590
-24.875810623169 -80.797004699707 -187.630645751953 0.724133551121
-42.847293853760 -79.759193420410 -164.073760986328 1.269516110420
-32.284427642822 -80.031097412109 -171.110412597656 0.968414187431
-36.912792205811 -80.170860290527 -164.060821533203 2.233710527420
-24.256647109985 -79.247909545898 -179.837554931641 1.203535199165
61.320461273193 -76.053665161133 -237.151580810547 4.104872703552
95.029655456543 -76.067665100098 -202.723495483398 1.825857877731
-95.476280212402 -68.961776733398 -79.338500976563 2.111036777496
-35.400150299072 -66.682983398438 -48.682933807373 1.834223747253
-59.266624450684 -79.978157043457 -171.275177001953 1.866894483566
6.290894031525 -81.555366516113 -232.635879516602 2.741536378860
-133.519531250000 -62.336406707764 -229.798828125000 1.497984886169
32.784194946289 -74.159080505371 -115.250274658203 2.399481058121
-27.282241821289 -72.399497985840 -192.618728637695 1.514122128487
-58.116081237793 -79.771644592285 -171.800064086914 1.015952467918
-21.593557357788 -68.546302795410 -191.191665649414 1.397782683372
9.542259216309 -70.727676391602 -224.946380615234 1.772081851959
-82.147682189941 -66.165893554688 -130.746520996094 1.493712067604
-25.212270736694 -72.414161682129 -201.684906005859 1.859201073647
-58.745300292969 -73.609878540039 -169.958877563477 2.099197149277
-26.047292709351 -80.744384765625 -191.292663574219 2.303115367889
-22.000572204590 -67.654670715332 -199.930465698242 2.102584838867
-10.162611007690 -79.766357421875 -209.849975585938 1.034448862076
-135.522399902344 -79.089370727539 -197.515808105469 2.043039083481
13.007003784180 -77.329147338867 -184.339355468750 2.502164363861
-21.851829528809 -77.576950073242 -215.830612182617 0.401740133762
-137.270950317383 -74.180870056152 -196.489669799805 2.581272602081
16.352243423462 -80.977615356445 -229.960937500000 1.585987687111
-18.654201507568 -80.116760253906 -196.244415283203 0.585037469864
-42.411502838135 -78.583351135254 -151.832977294922 1.429690003395
-38.981838226318 -74.609436035156 -153.465362548828 1.621158003807
-89.846366882324 -62.140239715576 -115.457145690918 1.947240352631
-104.780052185059 -72.238105773926 -255.146484375000 1.284634470940
-153.935028076172 -77.836563110352 -196.836349487305 1.069438934326
-163.780441284180 -68.308143615723 -196.850982666016 0.880036115646
92.288276672363 -63.914890289307 -61.496238708496 1.718849062920
57.391994476318 -72.455551147461 -86.418769836426 1.862590312958
79.409858703613 -71.576446533203 -65.572830200195 1.753013610840
-31.606655120850 -70.983428955078 -174.989822387695 3.233950614929
76.251487731934 -72.878639221191 -67.710296630859 2.697548866272
-116.574928283691 -72.502166748047 -260.449829101563 1.915107965469
-28.379539489746 -72.919364929199 -171.838409423828 1.275551676750
45.099002838135 -73.104537963867 -98.277992248535 0.654142737389
-157.454757690430 -71.992889404297 -302.482543945313 2.680684328079
36.929321289063 -74.852424621582 -107.538566589355 2.463315248489
50.885128021240 -75.032112121582 -94.926559448242 1.268536567688
69.771575927734 -72.659545898438 -73.740158081055 2.742447853088
-142.088851928711 -72.516914367676 -284.715148925781 0.891824245453
-35.647033691406 -73.118469238281 -179.362670898438 1.184032320976
41.956077575684 -74.293708801270 -103.062828063965 1.919572234154
53.264415740967 -74.975959777832 -90.563179016113 2.112628936768
-49.853786468506 -79.842346191406 -199.932174682617 1.672926425934
-155.474731445313 -75.455284118652 -300.194244384766 1.700726389885
-155.391845703125 -70.315048217773 -298.080902099609 1.940491199493
68.258598327637 -72.184951782227 -76.246482849121 2.234145641327
-152.092422485352 -67.131576538086 -296.712463378906 1.902290701866
-33.622928619385 -68.621902465820 -172.927062988281 0.793917596340
-30.275920867920 -68.624519348145 -179.806289672852 1.950321555138
-141.960662841797 -66.584945678711 -287.897277832031 1.313440561295
-145.977005004883 -67.050460815430 -283.703979492188 2.205155134201
-153.100631713867 -65.849937438965 -294.540130615234 1.948382496834
-150.322540283203 -62.449722290039 -285.575500488281 1.272663831711
27.651533126831 -66.578918457031 -262.831726074219 0.700440347195
-51.351055145264 -79.808242797852 -200.831481933594 1.026614546776
-157.693420410156 -71.418159484863 -239.755722045898 2.081227064133
15.056233406067 -80.810371398926 -200.872726440430 3.173557281494
18.048997879028 -81.974632263184 -239.591705322266 1.725515127182
-16.232295989990 -80.834457397461 -205.101562500000 2.408895254135
34.090427398682 -69.587203979492 -260.148162841797 2.157621622086
45.534881591797 -73.694122314453 -115.798515319824 1.031629562378
-37.842166900635 -80.928573608398 -205.853225708008 1.025751829147
101.067909240723 -77.322341918945 -200.663375854492 0.264297306538
19.614828109741 -82.113052368164 -244.695068359375 1.504127860069
-86.634933471680 -63.513313293457 -123.342399597168 2.183122873306
-15.276011466980 -80.237373352051 -212.772964477539 1.710832357407
13.429374694824 -81.469635009766 -211.138839721680 2.645299196243
-9.202046394348 -76.499893188477 -229.485473632813 1.691329956055
18.143575668335 -80.423431396484 -187.147918701172 2.221864461899
-150.289443969727 -74.071525573730 -215.622024536133 1.275666356087
-158.557800292969 -66.504249572754 -216.959854125977 2.439243793488
-69.508552551270 -58.204776763916 -121.128395080566 2.648381710052
-91.731758117676 -71.211608886719 -290.461639404297 1.110664129257
-144.828903198242 -69.761268615723 -233.717239379883 2.352871894836
-143.937789916992 -67.785980224609 -233.466384887695 0.968943655491
-120.564811706543 -63.001724243164 -200.164932250977 2.420968532562
17.395879745483 -78.314254760742 -184.024597167969 0.649570941925
20.719453811646 -80.185203552246 -182.854949951172 1.364891290665
-12.640718460083 -80.665275573730 -216.523452758789 2.203696727753
-151.940612792969 -79.266136169434 -221.955566406250 2.380444765091
-163.997863769531 -65.250862121582 -221.482940673828 2.710153102875
-5.925824165344 -81.582252502441 -221.071578979492 2.268488407135
-164.231216430664 -70.510154724121 -217.746582031250 2.081155300140
-4.236583232880 -80.680923461914 -229.928421020508 2.536370754242
-5.967567920685 -64.155715942383 -248.488952636719 1.657703757286
-144.626983642578 -79.342620849609 -224.756774902344 1.827663421631
-150.530090332031 -77.630302429199 -226.317382812500 2.441910266876
-163.971389770508 -65.258903503418 -223.839111328125 2.587357997894
-117.391555786133 -70.190254211426 -200.044082641602 3.959925889969
24.374736785889 -77.962135314941 -181.514480590820 1.831994056702
-162.202209472656 -70.899574279785 -229.911651611328 2.429959774017
-102.672836303711 -73.539489746094 -290.579193115234 2.311932563782
-147.211517333984 -71.840812683105 -247.293075561523 2.653901100159
-155.255828857422 -77.747802734375 -229.312164306641 1.411644458771
-152.054901123047 -80.746208190918 -238.399017333984 2.721853017807
-162.964920043945 -65.739356994629 -238.436660766602 2.100248336792
-129.413787841797 -66.302673339844 -204.212783813477 0.744337677956
-158.686508178711 -69.451225280762 -198.321075439453 3.178218603134
-154.453689575195 -74.083892822266 -201.397140502930 1.997867941856
14.701573371887 -81.820793151855 -237.722717285156 1.410897493362
6.717356204987 -81.627555847168 -238.397872924805 3.240954637527
-59.833332061768 -76.555984497070 -165.817657470703 1.367362499237
-32.329250335693 -77.296600341797 -211.715682983398 0.796422183514
-22.117187500000 -77.689857482910 -204.736770629883 1.942859292030
-45.052677154541 -80.888984680176 -242.077438354492 1.607934594154
99.227333068848 -72.913597106934 -81.314613342285 0.794737815857
-35.604019165039 -81.005210876465 -242.646087646484 1.847311139107
18.267805099487 -69.877548217773 -198.088912963867 1.836639046669
-55.843605041504 -65.523750305176 -124.108146667480 1.294005155563
-160.673706054688 -69.837615966797 -283.300598144531 2.205466270447
-130.527542114258 -72.452239990234 -253.945739746094 3.018899917603
-150.590164184570 -73.603919982910 -288.365417480469 1.415847063065
-155.400756835938 -75.989509582520 -282.877258300781 2.482652425766
-146.251647949219 -74.324470520020 -292.507965087891 2.339899063110
-157.815536499023 -64.465568542480 -287.344512939453 2.196320056915
-146.882965087891 -67.714134216309 -300.526458740234 1.535571813583
-124.172943115234 -67.213623046875 -256.006774902344 1.131632328033
76.600143432617 -65.668930053711 -60.170242309570 1.662837743759
92.361633300781 -73.091697692871 -69.661476135254 2.315361738205
-119.222114562988 -73.069435119629 -259.081146240234 3.077730894089
-58.390644073486 -77.325096130371 -61.843673706055 1.843023300171
-116.500312805176 -71.089149475098 -261.838043212891 1.758373975754
