-73.036865234375 -65.249008178711 -100.811843872070 1.144704580307
46.469295501709 -79.477622985840 -104.182647705078 0.912432849407
-91.374336242676 -83.891128540039 -98.992721557617 5.537511825562
106.583595275879 -74.173324584961 -173.473464965820 1.826680898666
-67.116302490234 -73.309989929199 -47.083797454834 3.409579992294
-68.454719543457 -83.994331359863 -208.032775878906 0.951575100422
-52.998222351074 -84.020698547363 -185.694503784180 3.191619396210
10.487136840820 -80.974555969238 -276.750366210938 0.725034832954
16.037031173706 -76.955474853516 -277.865661621094 0.445490986109
65.416542053223 -66.330741882324 -234.295181274414 2.338332653046
24.413019180298 -66.398506164551 -271.581542968750 1.564636707306
-134.603652954102 -86.214286804199 -292.363739013672 2.892390966415
-144.596694946289 -85.143959045410 -281.715972900391 2.637347221375
19.137964248657 -76.848838806152 -178.589706420898 2.546075105667
5.408317089081 -77.512046813965 -161.287796020508 1.219883561134
23.482961654663 -80.037605285645 -170.542938232422 1.526191949844
29.028425216675 -75.963172912598 -169.329315185547 2.230275392532
-158.162078857422 -76.085456848145 -280.787048339844 5.354190349579
-151.487304687500 -79.349243164063 -278.307250976563 1.035870194435
-65.926879882813 -80.754341125488 -95.466140747070 3.386458873749
-149.846939086914 -86.650436401367 -283.271392822266 0.549589633942
-158.676330566406 -76.172798156738 -282.915710449219 4.333576202393
-61.592506408691 -84.501564025879 -65.632408142090 4.552290916443
27.404129028320 -69.381607055664 -140.053100585938 2.098490238190
46.912277221680 -70.157127380371 -91.362358093262 2.534654378891
-68.214477539063 -86.597511291504 -73.447875976563 4.668095588684
53.101566314697 -67.869194030762 -97.514747619629 3.004420518875
-86.576248168945 -69.638053894043 -110.300781250000 1.504296541214
24.899400711060 -69.451583862305 -145.841659545898 1.475610971451
87.929443359375 -67.381591796875 -62.398998260498 1.683804392815
-33.966686248779 -78.109657287598 -208.544464111328 2.168138027191
-48.118572235107 -78.718612670898 -161.508193969727 2.477055788040
-18.850580215454 -78.000297546387 -193.044830322266 1.987034678459
-53.474983215332 -67.837478637695 -44.320270538330 2.415129661560
32.628208160400 -79.718734741211 -145.505584716797 1.091020822525
-77.016044616699 -78.409477233887 -251.960052490234 3.240341901779
33.391242980957 -77.022216796875 -142.210327148438 2.327116489410
-34.990169525146 -84.867919921875 -77.041358947754 3.257622003555
-144.038909912109 -86.035324096680 -191.010955810547 3.533726692200
-79.536148071289 -86.456542968750 -79.105400085449 5.867846965790
88.769538879395 -75.272933959961 -93.569961547852 2.360054016113
-44.479686737061 -85.794250488281 -85.328697204590 3.304252862930
-52.200794219971 -86.041030883789 -90.548576354980 1.661912918091
109.035194396973 -67.460182189941 -160.271011352539 3.218626976013
-87.661033630371 -86.508560180664 -94.709953308105 5.198314666748
-51.108943939209 -83.180999755859 -63.580909729004 4.128928661346
51.524017333984 -62.826290130615 -247.263870239258 2.165845394135
-43.135036468506 -79.060859680176 -202.624984741211 2.252672910690
54.218219757080 -61.400661468506 -93.119743347168 1.574667215347
-77.462806701660 -84.387924194336 -102.774391174316 1.501611113548
-29.896835327148 -80.937004089355 -189.427459716797 1.732779979706
-20.862953186035 -81.406890869141 -198.687149047852 1.594527721405
-35.291923522949 -82.792961120605 -189.837158203125 1.426385045052
-24.076349258423 -81.031394958496 -195.716140747070 1.486823081970
9.268190383911 -80.373771667480 -230.525787353516 1.407145738602
-0.364547014236 -79.607055664063 -222.905914306641 1.688103079796
8.858650207520 -79.764411926270 -220.203750610352 1.058929443359
14.891125679016 -78.323150634766 -221.385162353516 1.191668391228
1.324432969093 -79.640892028809 -230.824920654297 0.545797467232
2.765875101089 -76.802589416504 -230.428756713867 1.172858595848
-50.502445220947 -82.010444641113 -180.797012329102 1.767926216125
-25.645858764648 -82.999816894531 -188.928024291992 2.630508422852
-41.239471435547 -81.191085815430 -169.653930664063 2.584635019302
-92.221817016602 -75.679061889648 -221.653549194336 2.444310665131
-40.341259002686 -76.179840087891 -200.808776855469 0.904636263847
-49.624561309814 -79.073982238770 -53.924476623535 3.794801950455
-48.550872802734 -83.325424194336 -184.818054199219 2.283344030380
-38.905010223389 -82.448837280273 -192.965820312500 2.737596988678
-146.180023193359 -78.415847778320 -202.421798706055 2.836407899857
-55.809326171875 -72.903312683105 -291.072662353516 0.494449943304
-145.409225463867 -88.764244079590 -194.071075439453 6.016013622284
-141.243774414063 -71.300369262695 -204.324951171875 1.064956784248
-125.759956359863 -68.503463745117 -229.127944946289 3.470393419266
-154.737106323242 -68.366371154785 -202.438400268555 1.409830927849
-150.388107299805 -66.748321533203 -203.721435546875 2.136419057846
-84.464767456055 -77.596420288086 -253.910171508789 3.121014833450
33.096675872803 -81.481910705566 -135.116607666016 1.218228578568
-145.845199584961 -85.860450744629 -199.736602783203 3.600493907928
30.861534118652 -78.652725219727 -130.117538452148 1.414619088173
40.801902770996 -72.338035583496 -118.202003479004 3.311933517456
-21.282157897949 -80.024696350098 -219.782882690430 1.815027832985
-135.554702758789 -84.940536499023 -199.133682250977 2.142990827560
34.121608734131 -69.107780456543 -35.433208465576 2.393238782883
108.555740356445 -66.423706054688 -105.106384277344 1.313669800758
-53.392047882080 -82.292259216309 -188.242034912109 2.294951200485
-40.684402465820 -84.063720703125 -199.250396728516 1.757431626320
5.648520946503 -60.714847564697 -278.979156494141 0.300344914198
-134.196762084961 -86.458442687988 -202.539031982422 5.174414157867
17.683698654175 -80.996284484863 -235.338439941406 2.302058935165
40.444961547852 -74.769966125488 -128.784286499023 1.485563516617
-106.336585998535 -75.355484008789 -224.269577026367 3.284741401672
-16.286317825317 -72.782722473145 -193.248443603516 1.133007287979
-46.452651977539 -73.876060485840 -163.402832031250 2.133469581604
-17.878517150879 -81.067382812500 -202.412643432617 1.660153150558
-81.921119689941 -74.203628540039 -124.179031372070 3.667387008667
-70.410484313965 -71.896385192871 -46.420173645020 3.709957122803
-33.335704803467 -75.292480468750 -211.536300659180 1.461304664612
-46.842182159424 -72.547538757324 -160.515472412109 1.381836891174
41.800502777100 -79.009361267090 -123.416847229004 1.309521079063
-148.047973632813 -88.509422302246 -207.296020507813 5.358128547668
-161.897735595703 -73.056732177734 -209.267639160156 2.210905075073
31.094347000122 -71.218147277832 -140.174819946289 1.181842923164
37.179870605469 -78.419952392578 -129.069259643555 2.047178506851
-25.907722473145 -74.591644287109 -213.623886108398 1.524798274040
43.794090270996 -79.724205017090 -116.157348632813 1.884212970734
44.314079284668 -77.268928527832 -118.884544372559 1.384050250053
-96.197257995605 -72.751670837402 -143.814926147461 4.421385288239
5.639001846313 -67.430686950684 -238.894470214844 1.359451651573
-135.046966552734 -82.574958801270 -229.321212768555 0.985498011112
35.403110504150 -81.566253662109 -123.102767944336 1.707158327103
-137.177169799805 -74.280242919922 -235.179107666016 4.259103298187
-148.914291381836 -87.669448852539 -209.627273559570 4.553067684174
-162.064743041992 -73.100273132324 -211.194000244141 2.300679445267
30.780544281006 -71.549728393555 -132.407272338867 1.477953433990
-85.036621093750 -76.124992370605 -251.968124389648 2.635292291641
109.121780395508 -71.355987548828 -184.425949096680 1.198352813721
-147.310623168945 -86.235885620117 -214.149856567383 3.756477355957
-106.628845214844 -75.696876525879 -229.709457397461 4.531489849091
-160.939407348633 -73.358451843262 -215.360046386719 3.012493610382
40.443695068359 -81.025268554688 -114.925796508789 1.894507765770
41.758071899414 -77.756202697754 -119.653274536133 1.371849179268
-116.595413208008 -69.269775390625 -231.196945190430 2.069162368774
-23.103343963623 -73.631805419922 -199.040740966797 0.849363148212
-21.202255249023 -81.908065795898 -193.413894653320 2.337006330490
12.369339942932 -81.349517822266 -225.484085083008 1.671652674675
8.777710914612 -76.690971374512 -227.248794555664 0.994757592678
-24.026220321655 -70.332771301270 -198.842880249023 1.349393129349
-144.393066406250 -85.992759704590 -212.660003662109 3.809628009796
12.501108169556 -81.660026550293 -228.734680175781 1.732898831367
8.725283622742 -76.049507141113 -230.477905273438 1.068178653717
-26.226940155029 -78.479965209961 -196.245223999023 1.609124183655
3.569226026535 -62.895053863525 -238.440093994141 1.043778061867
-95.813705444336 -69.165115356445 -142.349945068359 1.880210399628
-1.729850053787 -77.196556091309 -221.758255004883 1.290934205055
15.211533546448 -79.766616821289 -205.655426025391 1.355106592178
-3.751044988632 -77.478607177734 -247.404159545898 1.077100396156
-149.690139770508 -84.541870117188 -237.183807373047 1.756821274757
-111.664649963379 -73.487426757813 -184.769912719727 4.142673492432
13.670739173889 -82.337448120117 -234.878540039063 1.848482847214
9.514427185059 -75.715003967285 -234.215515136719 1.754656076431
33.685798645020 -72.965843200684 -120.198944091797 1.430901408195
-23.615909576416 -79.250984191895 -68.312484741211 2.768630504608
-63.412822723389 -83.030426025391 -166.075393676758 3.537843465805
13.529376029968 -80.436180114746 -241.144165039063 1.586675047874
8.535216331482 -76.351348876953 -242.703781127930 0.878556549549
-56.169704437256 -75.422004699707 -149.250808715820 2.739430189133
-48.068847656250 -82.452301025391 -149.974716186523 3.453966617584
-61.358818054199 -82.030052185059 -175.980361938477 2.823320150375
14.120449066162 -80.432319641113 -245.518753051758 1.539589405060
9.642181396484 -78.124916076660 -245.364654541016 1.245965838432
-87.732780456543 -69.173873901367 -133.884185791016 0.857162058353
35.136703491211 -68.420433044434 -258.817413330078 1.342174410820
-39.976322174072 -85.498008728027 -75.622879028320 3.745529413223
6.762332916260 -82.186431884766 -250.915771484375 1.475405812263
4.860991954803 -62.453845977783 -269.757843017578 0.777091741562
-85.688652038574 -80.328422546387 -111.718948364258 1.701286673546
-21.257837295532 -75.719200134277 -286.835235595703 2.400890350342
11.201216697693 -80.707481384277 -250.115158081055 0.608671784401
-24.817569732666 -78.410995483398 -289.166198730469 2.144137144089
-39.784919738770 -81.734138488770 -63.408687591553 3.777689456940
-68.028533935547 -79.622695922852 -54.279537200928 5.056427955627
92.660118103027 -74.510986328125 -207.546005249023 1.573863506317
-135.704666137695 -85.676841735840 -258.723327636719 1.452504992485
-101.120475769043 -65.769844055176 -103.382911682129 3.452799081802
113.768035888672 -70.867469787598 -122.856750488281 2.181578636169
19.320167541504 -75.188201904297 -29.245086669922 3.637076854706
-6.852746009827 -80.798583984375 -254.365646362305 1.717503786087
-69.194602966309 -76.492782592773 -50.304035186768 3.978247404099
96.237449645996 -70.051635742188 -210.235702514648 2.941429615021
49.104431152344 -69.141792297363 -102.561088562012 1.629054546356
-73.457672119141 -66.017829895020 -103.759796142578 2.149214982986
-160.662979125977 -77.770973205566 -294.680084228516 4.052045822144
-28.439825057983 -82.301460266113 -179.210556030273 2.426717519760
-35.189075469971 -82.534637451172 -174.329315185547 2.442018270493
-150.549453735352 -85.892951965332 -296.286682128906 0.647347033024
-137.875076293945 -84.117027282715 -293.275390625000 2.490601062775
-142.057128906250 -84.177970886230 -287.037139892578 2.061612844467
-147.183914184570 -83.394523620605 -298.983825683594 2.010480642319
-152.079010009766 -71.981407165527 -309.303588867188 3.456943273544
-96.941040039063 -76.950798034668 -89.803489685059 6.019463062286
-83.902816772461 -77.532073974609 -105.161689758301 3.196335792542
-56.144512176514 -85.289154052734 -69.494163513184 4.859645366669
-81.476211547852 -85.902778625488 -107.813957214355 2.874638319016
-50.284111022949 -86.035270690918 -73.514411926270 4.433698654175
-94.850257873535 -79.456649780273 -114.125038146973 4.938089370728
-74.213981628418 -86.060394287109 -73.291122436523 5.079215526581
-42.764858245850 -77.558822631836 -241.458862304688 1.018261194229
74.458129882813 -59.548477172852 -105.757209777832 1.878621816635
2.071933984756 -76.150375366211 -284.856384277344 2.952445745468
68.943069458008 -59.116806030273 -102.316627502441 1.853457808495
-141.708999633789 -76.567550659180 -295.854248046875 4.525386810303
-127.581542968750 -79.816947937012 -258.629638671875 4.119669914246
-154.041168212891 -81.856674194336 -288.256347656250 2.572527170181
-153.247970581055 -75.763671875000 -286.631774902344 2.785450220108
-140.977203369141 -73.627494812012 -293.917602539063 2.097113370895
-145.531723022461 -68.654106140137 -288.170104980469 2.838796138763
-152.674118041992 -68.345367431641 -294.926025390625 1.151168465614
60.598819732666 -60.125148773193 -81.822486877441 0.914864122868
-39.094852447510 -84.065887451172 -71.011863708496 3.610017299652
-74.812339782715 -83.683975219727 -102.824508666992 1.870871782303
-89.995246887207 -80.811912536621 -217.368927001953 3.490333557129
-105.634422302246 -70.305847167969 -260.218566894531 1.833098769188
-40.688266754150 -77.758293151855 -204.901687622070 1.375389456749
-46.537872314453 -82.833290100098 -155.216110229492 3.107380628586
-55.628467559814 -72.051933288574 -148.351318359375 1.391949176788
-62.136409759521 -83.144706726074 -171.243438720703 3.295338153839
-149.269073486328 -79.532508850098 -215.584259033203 0.626505732536
33.656211853027 -81.573196411133 -131.197814941406 2.438329696655
34.549842834473 -77.686729431152 -137.882019042969 2.270291090012
-50.106910705566 -76.317390441895 -291.483489990234 2.887002229691
-153.479949951172 -74.268486022949 -216.724502563477 2.753904104233
-124.163116455078 -69.543487548828 -233.680404663086 1.385113358498
40.502716064453 -71.849472045898 -117.074287414551 2.965323925018
-101.107482910156 -74.858489990234 -261.180267333984 3.001854658127
-92.491821289063 -77.813354492188 -119.291687011719 4.435978412628
32.117187500000 -76.962577819824 -146.688369750977 1.194327712059
17.197416305542 -71.048912048340 -232.764556884766 1.459503769875
-34.743576049805 -80.717864990234 -211.043197631836 2.640108108521
-14.038880348206 -69.168914794922 -202.096954345703 1.712011337280
-17.702520370483 -80.373001098633 -194.435638427734 2.283833503723
-145.059799194336 -83.369735717773 -189.037002563477 1.963120341301
-40.396579742432 -78.430984497070 -288.961578369141 2.023353576660
-19.291759490967 -70.083778381348 -69.466148376465 3.408982038498
39.946041107178 -73.497512817383 -122.620429992676 1.825752019882
-34.852001190186 -78.942268371582 -79.276451110840 2.583991289139
-153.990463256836 -74.150802612305 -207.661895751953 2.854102611542
-143.530395507813 -66.684921264648 -205.732833862305 1.095966219902
33.833061218262 -79.980964660645 -140.860717773438 2.480981111526
26.565578460693 -80.726341247559 -145.724975585938 2.320206403732
26.821037292480 -78.353492736816 -142.892120361328 1.145493030548
26.347705841064 -75.955520629883 -139.129150390625 1.135228991508
29.575969696045 -81.416046142578 -141.770446777344 0.810860991478
-13.683766365051 -80.433609008789 -172.643127441406 0.297972738743
-10.588952064514 -83.531631469727 -175.360855102539 1.492279529572
-97.274726867676 -76.601699829102 -100.793319702148 5.361565589905
-38.041755676270 -83.325920104980 -69.456268310547 3.676451444626
-65.252326965332 -75.218948364258 -158.708831787109 1.413700580597
-29.393810272217 -74.204116821289 -192.227767944336 1.837794065475
-57.088081359863 -83.958229064941 -177.761962890625 3.570297002792
38.315841674805 -63.799976348877 -251.105987548828 1.496912598610
4.780519008636 -73.372055053711 -225.864364624023 1.691393613815
-17.120470046997 -72.115669250488 -209.941589355469 1.512836456299
-64.214881896973 -75.254798889160 -163.836563110352 1.192394733429
38.863582611084 -67.187225341797 -258.030822753906 1.176353335381
1.647277951241 -79.337791442871 -234.417221069336 1.176945567131
-33.658519744873 -81.697784423828 -203.144882202148 2.004734039307
-55.981166839600 -83.842712402344 -181.227157592773 2.824395179749
-13.256849288940 -67.749237060547 -208.301177978516 1.647614359856
-37.764320373535 -82.383506774902 -171.590194702148 3.445597410202
-25.850131988525 -82.215278625488 -182.097991943359 1.949308633804
-90.962104797363 -68.203063964844 -139.399780273438 1.329704999924
-22.843364715576 -67.298599243164 -67.670074462891 3.169804811478
-36.876228332520 -81.618278503418 -174.856430053711 2.628186225891
-29.541631698608 -81.912666320801 -185.488647460938 1.921800851822
-32.833557128906 -64.350151062012 -69.287399291992 4.324366569519
-43.617530822754 -81.211105346680 -196.350143432617 2.676298856735
-51.084003448486 -82.931106567383 -190.442062377930 4.231078147888
-63.250465393066 -73.456901550293 -47.026489257813 3.258231639862
62.510845184326 -65.241287231445 -237.029418945313 2.629100084305
-26.173048019409 -81.693237304688 -180.062759399414 2.466433525085
-34.507656097412 -82.650100708008 -173.385818481445 2.689745187759
45.067604064941 -80.025238037109 -107.315353393555 1.952670097351
55.369091033936 -66.515968322754 -245.477905273438 1.642841458321
28.985639572144 -78.293022155762 -127.019645690918 2.174973726273
30.847600936890 -77.265876770020 -127.081161499023 2.134867906570
-57.271606445313 -76.567031860352 -178.915374755859 1.115588665009
-35.892414093018 -81.965560913086 -192.337295532227 2.395676374435
-15.247628211975 -80.257682800293 -210.204330444336 1.886971592903
-62.791019439697 -82.260665893555 -162.789855957031 3.735675573349
-163.892105102539 -78.419067382813 -208.973266601563 6.071313858032
-36.513751983643 -80.858055114746 -63.048240661621 4.176447868347
34.263240814209 -81.494720458984 -124.252593994141 1.432258725166
-144.396423339844 -77.520072937012 -194.908233642578 2.118374347687
-45.669692993164 -73.235099792480 -291.100646972656 1.521887540817
-145.947372436523 -87.061408996582 -202.787963867188 4.369581699371
-142.419647216797 -74.390830993652 -195.478698730469 1.857612490654
-81.195846557617 -72.036773681641 -252.617019653320 2.484726905823
-105.361907958984 -70.481109619141 -227.207626342773 0.809579670429
-151.889984130859 -70.466812133789 -196.192108154297 1.925270557404
-49.446674346924 -83.124443054199 -203.939270019531 2.588634967804
-144.006301879883 -84.580055236816 -207.312744140625 3.137365341187
-80.963088989258 -71.775405883789 -49.275779724121 4.200528621674
78.238822937012 -64.553833007813 -106.450836181641 2.407527208328
-75.606964111328 -83.973159790039 -214.591247558594 3.588118314743
-87.193786621094 -74.345352172852 -56.405643463135 5.015317440033
13.020537376404 -80.915145874023 -218.663650512695 1.102726459503
9.304134368896 -77.150009155273 -217.754699707031 1.194967746735
-27.791563034058 -66.947380065918 -68.609138488770 3.360991001129
-21.243783950806 -82.240486145020 -185.471740722656 1.331168532372
-40.067417144775 -82.877502441406 -166.318038940430 4.258138656616
13.331482887268 -81.018821716309 -222.103317260742 0.824136078358
8.792787551880 -76.560585021973 -219.726608276367 1.196947813034
-0.451196998358 -78.070404052734 -229.722106933594 1.021504521370
-44.194278717041 -82.104598999023 -163.045669555664 2.869111061096
-88.563087463379 -80.114730834961 -115.557655334473 3.515055894852
42.002403259277 -69.493522644043 -254.265090942383 1.079250812531
-87.267219543457 -74.361000061035 -252.114471435547 0.442787259817
17.605960845947 -78.516021728516 -221.651855468750 0.807640850544
-136.489791870117 -85.204559326172 -233.230804443359 3.906775951385
23.992380142212 -74.889442443848 -189.702926635742 1.273044705391
36.877468109131 -61.804916381836 -18.155656814575 1.880601167679
12.898635864258 -80.376365661621 -210.106018066406 1.367436408997
8.562774658203 -77.710571289063 -207.870025634766 1.495042085648
-152.597106933594 -78.779808044434 -249.897857666016 2.806108713150
-145.378784179688 -85.473793029785 -231.656890869141 1.782088875771
-143.685089111328 -86.330009460449 -235.260955810547 4.109609603882
-111.051834106445 -69.067932128906 -183.433105468750 1.296035647392
22.823226928711 -71.655784606934 -186.923950195313 2.295741558075
-19.220026016235 -78.103736877441 -207.881729125977 2.871666431427
-64.081039428711 -80.068893432617 -165.928985595703 1.896687030792
9.498708724976 -79.758682250977 -240.891708374023 1.070072889328
11.609890937805 -76.507987976074 -243.339660644531 1.965627789497
-49.121589660645 -80.556480407715 -150.830459594727 1.502173900604
-140.394012451172 -78.941749572754 -230.336944580078 1.562592148781
-149.126190185547 -85.690238952637 -248.400375366211 1.699973583221
-112.842185974121 -74.478416442871 -195.866195678711 3.986756324768
-85.834480285645 -71.746765136719 -291.540496826172 0.893568396568
-159.876953125000 -74.033607482910 -248.690612792969 1.676596522331
-148.445632934570 -69.555534362793 -233.293258666992 2.979521751404
-146.353637695313 -71.827690124512 -231.383285522461 1.550844907761
-2.779431104660 -75.597572326660 -234.276275634766 1.489441514015
-4.307678222656 -73.180480957031 -217.791030883789 1.843127608299
-72.315704345703 -76.867332458496 -149.639709472656 1.223944902420
-154.475738525391 -78.800834655762 -230.581207275391 1.035680174828
-144.677871704102 -87.934120178223 -249.720443725586 3.636766195297
-7.884132862091 -69.728958129883 -218.333755493164 1.600704073906
-146.748535156250 -71.600601196289 -230.732574462891 1.345826983452
-112.575096130371 -69.285102844238 -197.548858642578 1.240009307861
-144.807403564453 -66.997016906738 -230.441741943359 2.007097482681
4.677014827728 -75.586845397949 -239.981689453125 0.255619794130
-23.110139846802 -76.932350158691 -213.672180175781 2.017031431198
9.004183769226 -79.919349670410 -248.081802368164 1.607069492340
-59.043613433838 -79.484741210938 -175.099838256836 1.133332490921
13.279701232910 -77.906959533691 -247.658843994141 1.636524319649
-29.530551910400 -79.844673156738 -207.109802246094 1.440185189247
33.857284545898 -62.455360412598 -254.424774169922 2.351242303848
36.692779541016 -70.001586914063 -129.225769042969 1.622546672821
-124.240936279297 -75.958236694336 -286.068542480469 1.930819272995
-144.157531738281 -76.500724792480 -275.390808105469 3.533599615097
-85.924926757813 -75.595191955566 -215.350402832031 2.428842782974
-149.667312622070 -87.497673034668 -255.269180297852 2.665816307068
-148.191055297852 -81.809204101563 -259.462249755859 1.604181289673
86.877426147461 -74.248649597168 -217.658905029297 0.894135951996
-75.636482238770 -82.039726257324 -61.013557434082 5.170995712280
-158.114227294922 -74.422088623047 -256.798034667969 3.124093055725
-161.728088378906 -73.352569580078 -252.264572143555 0.916788816452
-145.124114990234 -73.876907348633 -272.633453369141 1.523170113564
-126.967971801758 -73.148521423340 -286.016510009766 2.335725069046
-122.978744506836 -71.538139343262 -289.379302978516 3.140688896179
-150.483673095703 -70.006439208984 -273.087066650391 3.415682077408
-148.925888061523 -67.494148254395 -270.287322998047 4.349353790283
-137.959976196289 -86.875366210938 -263.137939453125 4.287148475647
-139.771545410156 -82.108810424805 -260.770538330078 2.420346736908
-146.242446899414 -86.210144042969 -259.420776367188 1.745608329773
-149.701660156250 -81.604591369629 -254.675842285156 2.065172672272
-157.623779296875 -74.515754699707 -252.333526611328 2.961861371994
92.242301940918 -67.916015625000 -103.126663208008 2.908508062363
-163.120086669922 -74.306907653809 -259.963317871094 1.697319507599
-41.885452270508 -79.153564453125 -192.950073242188 0.989308774471
-46.104129791260 -78.697875976563 -187.918090820313 1.409247875214
61.092884063721 -69.200256347656 -236.866683959961 1.328260898590
-95.097221374512 -78.767272949219 -86.457504272461 5.278183937073
18.672115325928 -79.287368774414 -255.859603881836 0.818053603172
19.015110015869 -75.682464599609 -250.782196044922 1.986181378365
-126.986190795898 -75.425750732422 -296.523162841797 2.637756347656
21.726320266724 -79.088478088379 -161.412368774414 2.426085948944
28.964729309082 -80.578315734863 -153.422927856445 1.844400405884
25.303705215454 -78.396247863770 -154.457748413086 1.555068373680
84.994384765625 -75.910392761230 -93.315246582031 1.568333745003
-152.446792602539 -75.404541015625 -269.293487548828 1.733259558678
-146.133255004883 -71.815963745117 -269.200897216797 3.750613927841
-56.475025177002 -68.927764892578 -85.749992370605 3.146153211594
-161.896072387695 -79.629196166992 -261.648712158203 4.802233219147
-152.197021484375 -86.923767089844 -263.554443359375 3.042614221573
-156.832946777344 -79.204452514648 -264.037933349609 3.621867656708
-103.754287719727 -77.506446838379 -292.037597656250 4.577685832977
-162.244522094727 -79.964057922363 -270.976745605469 6.354701042175
-145.596969604492 -81.770713806152 -253.359817504883 1.524737000465
-142.590698242188 -85.149497985840 -256.969940185547 1.192797780037
26.726539611816 -80.868164062500 -151.837677001953 1.583604693413
28.186008453369 -78.743759155273 -152.823913574219 1.495316505432
19.968334197998 -77.630676269531 -162.610321044922 2.449299573898
-150.703948974609 -84.755416870117 -266.326477050781 2.855871200562
18.329023361206 -79.187980651855 -267.798553466797 1.255977988243
68.836128234863 -72.834304809570 -76.492782592773 2.048922777176
-56.705986022949 -84.575347900391 -66.600685119629 4.365910053253
-80.916069030762 -76.758293151855 -101.308380126953 1.702662348747
-49.687000274658 -74.275810241699 -85.377960205078 1.861208915710
-152.239379882813 -78.856597900391 -252.472534179688 1.103222370148
-74.664710998535 -84.964469909668 -69.482048034668 5.066089153290
-49.885833740234 -78.375709533691 -248.254974365234 1.886843681335
89.026489257813 -68.174491882324 -219.051223754883 2.751204967499
71.615455627441 -59.202369689941 -104.628890991211 1.454134464264
-112.140426635742 -76.656494140625 -293.163391113281 4.061521053314
-140.516250610352 -71.251556396484 -261.151794433594 2.210285186768
-151.603225708008 -68.140144348145 -260.681854248047 1.894568204880
-41.215862274170 -79.387092590332 -240.988494873047 0.948342025280
-128.653701782227 -76.418716430664 -226.475830078125 3.104625701904
-154.193206787109 -78.385871887207 -202.192672729492 1.561336040497
-35.483879089355 -84.063713073730 -73.500801086426 3.766331434250
-148.415740966797 -72.538665771484 -202.017547607422 1.296112895012
-123.577835083008 -71.223304748535 -228.671005249023 1.462139487267
-146.498840332031 -71.146789550781 -202.362854003906 1.476507306099
-141.722640991211 -66.793151855469 -202.898574829102 0.896890640259
-30.800447463989 -83.148262023926 -77.202194213867 2.809107780457
17.524106979370 -79.063476562500 -225.696777343750 1.075711011887
-164.447692871094 -79.850479125977 -263.638031005859 5.554529666901
-149.584228515625 -81.738365173340 -279.397308349609 3.306465387344
-130.742294311523 -79.663032531738 -294.744415283203 5.583580493927
77.998527526855 -77.073364257813 -81.079673767090 1.617585659027
70.794403076172 -74.758079528809 -88.493621826172 1.956019401550
29.943273544312 -75.283027648926 -166.447952270508 1.915449261665
-79.801422119141 -79.328712463379 -211.823394775391 0.861332535744
3.185888051987 -75.709190368652 -157.555206298828 1.353610515594
18.988105773926 -75.907470703125 -174.120925903320 1.084389090538
-46.201175689697 -77.812355041504 -242.081878662109 2.283117532730
-81.823539733887 -85.931106567383 -79.662506103516 5.601230144501
-61.712776184082 -74.666931152344 -133.712844848633 3.763322591782
-36.983768463135 -84.146247863770 -82.518470764160 2.659675598145
11.690019607544 -70.757492065430 -202.547531127930 1.168436169624
-19.746391296387 -72.429458618164 -240.990234375000 1.672828078270
-87.776351928711 -87.132698059082 -99.808944702148 5.555471897125
47.047477722168 -63.586032867432 -246.860443115234 2.430985689163
-73.837211608887 -81.458007812500 -102.566482543945 1.858871340752
-55.383426666260 -74.503738403320 -48.147010803223 3.026386022568
-108.873924255371 -70.328598022461 -260.717529296875 1.554777264595
-159.743789672852 -79.940956115723 -288.079498291016 4.048708438873
38.650112152100 -80.850677490234 -114.334579467773 1.243581414223
31.872720718384 -71.258781433105 -137.114685058594 2.388784408569
-84.377990722656 -73.621376037598 -256.800750732422 1.749401330948
-27.892158508301 -73.732688903809 -76.283050537109 1.945362091064
-141.168197631836 -73.512588500977 -197.326828002930 1.385173082352
-159.304351806641 -73.995338439941 -213.604858398438 3.078767299652
-149.673004150391 -66.801116943359 -199.659179687500 1.213561892509
41.801021575928 -80.016151428223 -120.379829406738 2.107059955597
42.126956939697 -78.892547607422 -114.432937622070 0.608338892460
53.078300476074 -76.676025390625 -97.055923461914 1.314815998077
27.811462402344 -80.996810913086 -143.124740600586 1.976324558258
24.629741668701 -75.900825500488 -145.790405273438 1.850238204002
-87.861564636230 -72.366828918457 -253.043106079102 2.351637363434
44.595554351807 -66.639335632324 -255.144531250000 1.703946232796
-50.288303375244 -81.888015747070 -148.742797851563 4.007320404053
-42.697727203369 -83.212425231934 -158.928390502930 3.765724182129
-12.337700843811 -73.490539550781 -200.330978393555 1.922297477722
-29.626518249512 -81.720001220703 -209.097152709961 1.789957523346
-46.191387176514 -82.602767944336 -157.401641845703 3.759800195694
-62.382946014404 -81.975929260254 -174.178222656250 3.853467464447
-149.052352905273 -83.533309936523 -189.122299194336 1.913759469986
-17.494049072266 -67.700561523438 -67.204925537109 2.761558771133
-38.497524261475 -82.879501342773 -160.499969482422 3.014930725098
24.722442626953 -80.430404663086 -158.222671508789 1.561758875847
29.617744445801 -77.360221862793 -156.852249145508 1.544134497643
22.382741928101 -77.848564147949 -149.898941040039 1.234944224358
-58.616012573242 -78.536079406738 -249.785156250000 1.651343941689
-94.026908874512 -78.199089050293 -216.745452880859 2.722509622574
25.308422088623 -80.435539245605 -162.529693603516 1.149029135704
29.188627243042 -76.378570556641 -160.638977050781 1.637033581734
21.601160049438 -77.393562316895 -152.717025756836 2.733509063721
-2.274746894836 -79.719558715820 -170.004852294922 1.775043725967
28.420988082886 -79.783126831055 -160.985427856445 2.179560184479
25.463048934937 -78.308959960938 -162.529769897461 0.930727839470
-23.202028274536 -82.014022827148 -188.763442993164 1.936634778976
-41.578460693359 -82.627647399902 -165.505996704102 4.136379718781
-30.905963897705 -82.111740112305 -172.361251831055 2.623683214188
-35.631099700928 -82.702308654785 -165.399749755859 2.551161289215
-22.797311782837 -80.641357421875 -180.923324584961 1.269117116928
63.364406585693 -71.066978454590 -236.628250122070 2.016713857651
96.463546752930 -70.090393066406 -201.626861572266 1.175733923912
-96.088973999023 -77.103042602539 -81.455154418945 5.522750377655
-36.739982604980 -72.241981506348 -49.703491210938 3.363556146622
-57.840988159180 -83.584648132324 -172.997146606445 2.905925273895
8.673934936523 -79.799377441406 -233.220489501953 1.638838052750
-132.033874511719 -68.622756958008 -232.337738037109 2.695971488953
32.817657470703 -74.055717468262 -115.237121582031 2.335005760193
-26.004249572754 -73.636062622070 -193.574615478516 0.857243478298
-56.695869445801 -83.299255371094 -173.496292114258 2.802700519562
-20.568660736084 -69.506019592285 -191.949203491211 1.517629861832
11.177595138550 -69.014328002930 -225.198455810547 2.036994934082
-82.120246887207 -72.181434631348 -132.532608032227 3.264611959457
-23.791872024536 -73.290756225586 -202.600494384766 0.467927187681
-57.705619812012 -77.234558105469 -171.508056640625 0.764498174191
-24.315797805786 -81.929962158203 -192.442840576172 2.299837112427
-20.885944366455 -68.405433654785 -200.667877197266 2.362091302872
-8.217776298523 -79.556571960449 -210.687698364258 2.121363162994
-133.592849731445 -86.320022583008 -200.537673950195 4.415845870972
14.363104820251 -76.492721557617 -184.720779418945 1.313194513321
-19.915725708008 -77.874359130859 -216.813674926758 1.420293688774
-135.635284423828 -81.547798156738 -199.416030883789 1.385357975960
18.641687393188 -78.723754882813 -230.355728149414 1.576944708824
-16.892295837402 -80.751846313477 -197.246505737305 2.003522396088
-41.406700134277 -81.756896972656 -153.233200073242 2.765093326569
-38.184047698975 -77.552627563477 -154.702209472656 0.602134108543
-90.280326843262 -69.009346008301 -117.281654357910 1.368617534637
-102.373168945313 -76.197013854980 -257.425140380859 3.222061157227
-152.055511474609 -86.132041931152 -200.148712158203 3.630722761154
-162.427886962891 -77.180305480957 -200.089965820313 5.571694374084
90.770408630371 -61.895351409912 -60.202751159668 1.391769886017
56.822925567627 -71.731391906738 -85.944694519043 2.050108194351
78.417854309082 -70.163101196289 -64.700576782227 2.301028013229
-30.684331893921 -72.939651489258 -175.993484497070 2.855241775513
75.373703002930 -71.584648132324 -66.925910949707 2.073911190033
-114.047225952148 -76.987556457520 -262.939331054688 4.048746109009
-27.402740478516 -74.773086547852 -172.837020874023 1.604701995850
44.778644561768 -72.758956909180 -98.030197143555 0.637613296509
-154.210845947266 -77.673034667969 -305.654449462891 0.864841938019
36.871585845947 -74.718948364258 -107.474456787109 2.594420433044
50.611053466797 -74.444274902344 -94.628784179688 1.787011742592
68.989273071289 -71.572143554688 -73.060684204102 2.837520837784
-139.126663208008 -77.799972534180 -287.640075683594 1.991597533226
-34.525527954102 -75.182632446289 -180.490051269531 0.726957798004
41.785861968994 -73.996009826660 -102.898437500000 2.007018566132
52.913051605225 -74.370033264160 -90.224403381348 2.172903060913
-47.993503570557 -82.148620605469 -201.471847534180 1.365214347839
-152.073104858398 -81.077552795410 -303.421905517578 2.804152488708
-152.317962646484 -75.999267578125 -301.175537109375 1.596811652184
67.491981506348 -71.117225646973 -75.580047607422 1.980192661285
-149.228225708008 -72.671562194824 -299.667846679688 3.740842580795
-32.865055084229 -70.752296447754 -173.906112670898 1.738245964050
-29.413610458374 -70.381057739258 -180.723449707031 0.516604661942
-139.286758422852 -71.787277221680 -290.665374755859 3.228736400604
-143.336578369141 -72.591827392578 -286.556488037109 1.682729482651
-150.342697143555 -71.507736206055 -297.481140136719 3.394025802612
-147.907409667969 -68.196510314941 -288.384521484375 1.660387277603
29.624656677246 -62.833194732666 -262.641174316406 0.943523466587
-49.475677490234 -82.175437927246 -202.396072387695 1.873510122299
-155.486648559570 -78.791145324707 -242.947479248047 5.675200462341
16.872493743896 -79.408554077148 -201.300033569336 2.850928306580
20.546686172485 -79.364929199219 -239.977813720703 2.014419794083
-14.291775703430 -81.093818664551 -206.075454711914 3.164118766785
36.181148529053 -65.542205810547 -259.923736572266 0.592307567596
45.528076171875 -72.853919982910 -115.549781799316 1.589654803276
-35.846141815186 -82.393135070801 -207.207656860352 2.545008659363
102.529861450195 -71.055282592773 -199.494354248047 1.881204605103
22.199409484863 -79.277748107910 -245.054840087891 1.509590148926
-86.869781494141 -69.986633300781 -125.142250061035 1.604741096497
-13.248424530029 -80.238433837891 -213.710983276367 2.084243059158
15.450613021851 -79.884124755859 -211.606674194336 2.346049070358
-7.131082057953 -75.716735839844 -230.212554931641 0.853925943375
19.712448120117 -79.214477539063 -187.517852783203 0.442440301180
-148.330627441406 -81.665077209473 -218.764266967773 2.035999298096
-156.995468139648 -74.545799255371 -220.051055908203 4.198671817780
-70.112434387207 -63.776546478271 -122.492408752441 3.533636093140
-88.840888977051 -73.487762451172 -292.468139648438 1.702983021736
-142.836212158203 -76.569519042969 -236.643859863281 2.932655334473
-142.063583374023 -74.554298400879 -236.326553344727 2.618984937668
-119.538619995117 -69.344917297363 -202.508499145508 2.737300157547
18.795503616333 -77.235412597656 -184.354721069336 1.937191605568
22.201410293579 -78.945495605469 -183.175704956055 0.889807045460
-10.533252716064 -80.415718078613 -217.424530029297 2.107686996460
-149.580581665039 -86.773658752441 -225.257675170898 3.022435665131
-162.425125122070 -73.482376098633 -224.634887695313 1.062600970268
-3.704940080643 -80.828407287598 -221.876480102539 0.965153157711
-162.417343139648 -78.844512939453 -221.040100097656 6.914317607880
-1.928326964378 -79.596099853516 -230.676177978516 1.123224020004
-4.303402900696 -62.705017089844 -248.831695556641 1.375203013420
-142.230590820313 -86.360298156738 -227.931396484375 3.233764648438
-148.196166992188 -84.944366455078 -229.550460815430 2.510203599930
-162.360488891602 -73.425865173340 -226.989654541016 1.585144162178
-115.962059020996 -76.342582702637 -202.517578125000 5.745507717133
25.701728820801 -76.555374145508 -181.714523315430 0.393754720688
-160.174789428711 -78.792640686035 -233.173767089844 6.238193035126
-99.627761840820 -76.428382873535 -292.837280273438 3.690676450729
-144.878341674805 -78.416893005371 -250.308471679688 2.163131237030
-152.858886718750 -85.249504089355 -232.629592895508 2.615674018860
-149.346694946289 -87.817375183105 -241.733322143555 4.283668041229
-161.094528198242 -73.457756042480 -241.574874877930 2.198109865189
-128.118515014648 -73.032897949219 -206.794540405273 4.112622261047
-157.254058837891 -77.992927551270 -201.499618530273 4.281849384308
-152.714675903320 -82.294151306152 -204.619552612305 3.458307743073
17.166435241699 -79.451225280762 -238.164398193359 1.525882720947
9.196061134338 -79.693084716797 -238.974090576172 2.258585214615
-58.689693450928 -80.347366333008 -167.463912963867 1.660981535912
-30.456609725952 -78.298820495605 -212.877029418945 1.231933116913
-20.351854324341 -78.298896789551 -205.732772827148 1.229767084122
-42.465991973877 -81.793395996094 -243.539520263672 2.648247003555
98.528945922852 -69.952621459961 -80.122100830078 2.872590303421
-33.018241882324 -81.358345031738 -243.945419311523 1.512978553772
19.408996582031 -68.389595031738 -198.179290771484 1.291626930237
-56.005565643311 -70.226463317871 -125.420196533203 2.249474763870
-157.854553222656 -76.217735290527 -286.482604980469 2.100134611130
-128.082260131836 -77.902984619141 -256.681457519531 3.178147077560
-147.492401123047 -79.269287109375 -291.465515136719 2.473040580750
-152.246078491211 -82.069824218750 -286.125823974609 2.308265686035
-143.054000854492 -79.631561279297 -295.548675537109 3.154352664948
-155.243652343750 -70.585983276367 -290.335906982422 1.259092092514
-143.933563232422 -72.855506896973 -303.403747558594 0.952263355255
-122.005249023438 -72.259170532227 -258.495056152344 2.552932024002
75.188934326172 -64.571083068848 -59.197418212891 1.818710088730
91.498878479004 -70.831489562988 -68.599479675293 1.256279706955
-116.679244995117 -77.740447998047 -261.632263183594 4.398016452789
-58.870952606201 -83.814834594727 -63.535049438477 4.586670398712
-114.031257629395 -75.535949707031 -264.289062500000 4.059590816498
-47.445339202881 -83.321907043457 -64.847724914551 4.249472141266
-80.372863769531 -85.004669189453 -73.549934387207 5.444136619568
-69.342407226563 -67.454116821289 -101.124053955078 1.865488529205
-84.784233093262 -84.447135925293 -77.546447753906 5.534945011139
13.050260543823 -75.112503051758 -288.273162841797 1.816139459610
-29.370830535889 -82.630577087402 -74.864997863770 3.377377033234
-39.750934600830 -81.204002380371 -83.090492248535 1.262326002121
45.433002471924 -79.898139953613 -109.274185180664 0.630330324173
51.759357452393 -66.114418029785 -246.075393676758 1.454167723656
13.314812660217 -72.009826660156 -234.516952514648 1.017313122749
-89.421615600586 -74.791000366211 -133.944915771484 5.237077236176
33.522827148438 -80.460578918457 -120.709411621094 1.696103334427
33.285251617432 -76.922355651855 -114.992095947266 2.208324193954
-15.172768592834 -78.084220886230 -200.695693969727 1.393045663834
-77.569900512695 -73.974365234375 -254.653152465820 0.928015887737
40.083766937256 -79.190734863281 -126.930274963379 1.469002842903
17.270473480225 -74.135810852051 -234.724594116211 1.104350209236
33.928359985352 -72.024116516113 -145.779266357422 1.961833477020
-29.803733825684 -78.476371765137 -172.484924316406 1.763896703720
-35.491001129150 -80.560363769531 -166.621200561523 0.981992900372
-27.023942947388 -79.281417846680 -173.699264526367 2.575470924377
-20.011171340942 -79.464477539063 -181.073043823242 2.358165979385
-2.864166021347 -78.273307800293 -163.414535522461 1.708651065826
21.646089553833 -77.008720397949 -165.801773071289 2.268482208252
28.046642303467 -75.554985046387 -172.872650146484 1.162829279900
23.563026428223 -79.702453613281 -174.955963134766 1.800157189369
-157.602157592773 -78.527244567871 -225.986801147461 3.574886083603
-151.146850585938 -82.730140686035 -226.052947998047 1.236854553223
18.125923156738 -79.014442443848 -182.059494018555 1.616768836975
18.526565551758 -71.071037292480 -200.749237060547 2.422402381897
-55.054859161377 -74.563690185547 -129.637298583984 3.269559860229
16.863054275513 -79.327789306641 -192.030654907227 3.308659076691
17.650026321411 -79.365028381348 -196.233215332031 2.114096164703
-8.060309410095 -80.157859802246 -221.699386596680 1.027857661247
43.845584869385 -72.688545227051 -118.486221313477 1.838151454926
-32.424743652344 -77.564559936523 -204.402572631836 0.831011354923
-25.002393722534 -77.945686340332 -215.031768798828 1.603930473328
-60.119735717773 -81.137428283691 -179.173385620117 2.780545473099
36.317382812500 -72.037071228027 -127.167991638184 3.495309352875
10.881400108337 -72.593086242676 -192.224044799805 1.879923701286
-20.564350128174 -73.188545227051 -225.641433715820 1.090678095818
-54.162151336670 -79.474624633789 -139.016967773438 3.769377946854
12.605419158936 -79.333236694336 -201.249267578125 2.353684186935
10.140200614929 -76.970504760742 -199.864868164063 1.515701889992
37.835968017578 -62.772003173828 -18.961317062378 1.672785758972
12.651044845581 -79.754508972168 -204.794784545898 1.042922735214
8.431939125061 -75.237052917480 -203.164337158203 2.280261993408
-28.721174240112 -77.182640075684 -238.701095581055 2.462512254715
10.446180343628 -80.214691162109 -213.144287109375 0.526186466217
14.730218887329 -77.995910644531 -215.057662963867 0.961521446705
17.414943695068 -73.894485473633 -25.065856933594 4.396562099457
-75.321891784668 -75.004142761230 -49.907466888428 4.138609886169
18.146234512329 -70.425041198730 -20.788721084595 3.303174257278
-71.580360412598 -81.808776855469 -214.357803344727 2.379231452942
-102.860038757324 -75.049514770508 -288.271911621094 1.216339349747
-66.748313903809 -73.875640869141 -251.194580078125 1.363437414169
-148.609527587891 -84.644584655762 -231.828872680664 1.594038724899
-6.255633831024 -80.218681335449 -215.508300781250 1.605239629745
-100.297668457031 -71.265274047852 -290.883270263672 1.910169124603
-159.453674316406 -73.642555236816 -233.528518676758 1.886298060417
-146.054107666016 -70.839057922363 -247.194091796875 1.713563323021
-149.955139160156 -67.796463012695 -248.231506347656 2.238715648651
-21.116539001465 -78.423171997070 -183.247009277344 0.626034259796
8.151596069336 -79.034683227539 -219.089691162109 1.410216331482
11.273994445801 -78.424583435059 -217.333831787109 0.852424561977
-120.508049011230 -69.332695007324 -205.790222167969 2.955124139786
-149.975051879883 -83.711875915527 -223.575393676758 1.700859904289
-158.653900146484 -73.510368347168 -224.894973754883 2.009824991226
9.194475173950 -80.253547668457 -226.226119995117 2.076430797577
-7.553824901581 -75.221359252930 -249.102691650391 2.303528785706
-160.306030273438 -78.940849304199 -237.061691284180 4.959245681763
-150.395950317383 -84.347236633301 -236.470581054688 2.738601207733
-15.049087524414 -76.749794006348 -238.829727172852 1.686490654945
105.215911865234 -72.466896057129 -110.559661865234 0.874616622925
-26.705848693848 -80.958473205566 -241.103836059570 1.956344485283
37.183151245117 -65.084434509277 -18.157394409180 3.014133453369
-23.278121948242 -79.837211608887 -241.551483154297 1.646244645119
110.232437133789 -67.161582946777 -142.219421386719 2.600620985031
-50.618549346924 -80.707550048828 -244.351470947266 1.399970412254
-39.281280517578 -79.748985290527 -245.826812744141 1.334318518639
-89.044288635254 -70.376113891602 -53.617488861084 4.763801574707
-88.551361083984 -76.959548950195 -61.949424743652 5.013062000275
109.828109741211 -73.655227661133 -122.829925537109 1.487686634064
-72.330718994141 -79.917198181152 -214.001693725586 1.908143520355
-45.883659362793 -75.709236145020 -245.777236938477 1.972462177277
-80.120750427246 -77.166572570801 -213.538436889648 2.416518688202
-54.498760223389 -80.723693847656 -247.121704101563 2.236947774887
-48.340774536133 -80.416191101074 -247.045974731445 2.274732589722
-145.449325561523 -83.075569152832 -269.831146240234 1.236680388451
-125.742332458496 -80.084899902344 -287.808746337891 2.932389020920
85.766166687012 -66.805541992188 -216.150177001953 3.012819766998
-108.170700073242 -72.322975158691 -293.308349609375 1.661066770554
-148.889526367188 -71.909942626953 -259.480957031250 1.867831468582
-144.072113037109 -67.641319274902 -257.143646240234 2.274010658264
-26.991567611694 -74.093994140625 -56.148937225342 3.015622377396
34.909515380859 -70.320556640625 -115.346946716309 1.214847683907
-78.343101501465 -67.909118652344 -131.685623168945 1.329741239548
-0.273862987757 -76.788398742676 -246.252746582031 1.108491897583
19.798837661743 -73.324272155762 -34.284347534180 3.120485544205
111.005538940430 -69.825645446777 -122.323402404785 1.477460026741
-5.710072040558 -80.307304382324 -252.617156982422 0.468459248543
-9.571359634399 -78.323196411133 -254.189880371094 2.014982461929
77.914260864258 -65.854148864746 -227.352294921875 3.070566654205
63.028236389160 -61.581596374512 -69.340888977051 2.987452268600
-71.361503601074 -64.639625549316 -96.697944641113 3.265533208847
18.429603576660 -74.792167663574 -163.116790771484 1.191947937012
-155.591659545898 -75.565963745117 -268.187530517578 1.790906548500
-151.598129272461 -82.196678161621 -266.156372070313 3.227659225464
90.232444763184 -75.925865173340 -86.542480468750 2.077147483826
77.104217529297 -69.977897644043 -222.818649291992 2.179413557053
-10.167899131775 -79.086647033691 -263.857940673828 2.377649784088
-7.925311088562 -76.452438354492 -274.206542968750 1.172171831131
-2.637883901596 -64.909675598145 -256.219177246094 0.823032379150
-88.876510620117 -75.528541564941 -215.789367675781 2.196003437042
-87.040962219238 -72.591026306152 -54.146789550781 4.833894252777
86.835884094238 -75.300270080566 -74.846641540527 0.841823756695
81.203651428223 -74.817283630371 -72.596488952637 2.288281679153
18.578294754028 -73.983215332031 -277.725494384766 2.637853622437
70.526702880859 -69.678314208984 -67.192649841309 2.793795108795
-45.747741699219 -82.832191467285 -63.563011169434 4.264957904816
-76.053855895996 -83.754409790039 -66.071197509766 5.206025600433
-36.648681640625 -81.440116882324 -64.510955810547 3.950154304504
-85.235092163086 -83.521789550781 -74.449501037598 5.629059314728
80.796798706055 -72.613067626953 -220.627655029297 2.194716691971
-77.871780395508 -82.788917541504 -64.055343627930 5.617656230927
-34.916034698486 -82.237007141113 -68.359390258789 3.185955762863
1.719514012337 -73.097503662109 -225.160614013672 0.564613044262
