-154.489868164063 -77.072708129883 -224.577743530273 2.303067207336
-162.437454223633 -76.623054504395 -247.726699829102 2.724251508713
-85.370864868164 -78.918243408203 -288.146667480469 3.955037593842
-147.443344116211 -78.415786743164 -228.297821044922 1.217102050781
-124.691734313965 -65.107833862305 -195.608367919922 1.493361234665
-11.214660644531 -73.596427917480 -233.317260742188 1.200821042061
-5.589170932770 -70.178024291992 -234.465591430664 1.311238408089
3.745826959610 -72.947578430176 -229.216613769531 1.452930092812
-35.785118103027 -58.204257965088 -46.720932006836 2.733306169510
-61.665649414063 -65.680152893066 -123.468307495117 1.760201811790
-17.942548751831 -73.028472900391 -236.267501831055 1.559947252274
-39.355651855469 -77.210975646973 -238.909652709961 2.520978212357
-19.920633316040 -76.131645202637 -241.278564453125 1.820791363716
-14.040509223938 -76.755989074707 -266.591705322266 1.847269058228
-79.172599792480 -77.306190490723 -285.551910400391 3.101269960403
-119.394668579102 -71.177673339844 -201.283630371094 2.485292196274
-155.913696289063 -74.692886352539 -234.409454345703 3.441838026047
-151.669601440430 -68.367042541504 -235.547698974609 0.385191828012
-145.564666748047 -65.935203552246 -234.311386108398 1.739648461342
-72.885772705078 -78.546142578125 -285.911041259766 4.783010005951
-4.139698982239 -74.089027404785 -230.285797119141 0.892453789711
-155.450531005859 -73.443489074707 -216.672103881836 1.252168893814
-151.931381225586 -68.225074768066 -217.406417846680 2.750820875168
-147.059204101563 -64.657447814941 -216.091323852539 3.000200986862
-89.775108337402 -78.002365112305 -286.348388671875 3.899507999420
-62.413433074951 -58.445487976074 -130.210815429688 1.560443997383
-147.679336547852 -75.792488098145 -226.931137084961 2.763286352158
-82.144111633301 -78.922889709473 -287.680541992188 3.965121984482
-110.117523193359 -67.547607421875 -198.192062377930 1.769821166992
92.317306518555 -70.885040283203 -202.122726440430 1.980590343475
-61.688003540039 -66.918312072754 -49.867931365967 3.536803722382
21.821504592896 -63.103809356689 -251.274551391602 0.524089753628
21.842992782593 -75.318084716797 -257.975555419922 0.790111541748
-42.817443847656 -65.217552185059 -49.503101348877 3.122380495071
-45.251754760742 -69.392295837402 -54.045192718506 4.203079700470
83.516822814941 -67.752449035645 -71.184829711914 5.036119461060
54.728969573975 -64.007644653320 -100.497688293457 1.687627911568
-78.715370178223 -61.182102203369 -101.739944458008 3.871125459671
72.021713256836 -68.476211547852 -77.067985534668 3.849605321884
97.070587158203 -67.391052246094 -85.826332092285 5.372947216034
-82.086273193359 -54.812725067139 -45.770050048828 1.282409429550
97.298942565918 -67.518524169922 -87.828292846680 4.955508232117
69.824012756348 -66.240776062012 -96.853317260742 2.442162275314
74.393203735352 -69.488121032715 -95.631980895996 3.852922201157
64.831123352051 -62.665321350098 -81.023414611816 1.225761294365
8.039752006531 -69.116416931152 -290.924072265625 2.022438526154
64.195030212402 -60.604255676270 -77.100502014160 0.885120809078
9.189954757690 -64.385887145996 -290.636505126953 1.918370127678
68.134071350098 -65.725204467773 -93.666885375977 2.347087383270
26.253990173340 -69.805839538574 -168.474288940430 2.140379905701
-165.478881835938 -77.936386108398 -271.642425537109 4.155371189117
7.623065948486 -70.724777221680 -152.838241577148 0.429911732674
-68.763343811035 -70.832420349121 -98.501129150391 2.206547737122
23.457429885864 -65.192100524902 -166.906341552734 2.191006660461
-161.867675781250 -78.064041137695 -275.908996582031 4.608548164368
69.096015930176 -74.962562561035 -234.751800537109 1.378844857216
68.915748596191 -66.720520019531 -79.460533142090 2.977242946625
88.111610412598 -68.928733825684 -99.721427917480 4.432490825653
39.512401580811 -64.458831787109 -39.068180084229 3.085466146469
105.746780395508 -68.591972351074 -101.016448974609 1.552928566933
109.479888916016 -70.286659240723 -114.123214721680 1.411649823189
26.003311157227 -61.929035186768 -20.846847534180 2.538241863251
-58.208847045898 -67.996078491211 -140.754669189453 1.930302500725
112.812469482422 -68.943504333496 -140.645050048828 1.770581007004
-14.704092979431 -72.307785034180 -241.186096191406 1.809534072876
-100.295059204102 -66.130928039551 -163.192138671875 2.241991519928
-48.772075653076 -71.297454833984 -139.908813476563 1.305885672569
-97.918891906738 -76.234725952148 -285.859344482422 2.675444602966
-98.120903015137 -71.840881347656 -288.665802001953 1.991721868515
-149.021392822266 -63.898990631104 -242.850204467773 2.724387407303
-43.426353454590 -69.209754943848 -145.798446655273 1.050514698029
108.583908081055 -68.331985473633 -147.518951416016 4.885216236115
-56.643085479736 -70.153953552246 -143.243499755859 1.924945354462
106.021690368652 -61.846492767334 -98.738098144531 2.587941169739
43.626964569092 -60.035285949707 -36.920551300049 1.605373024940
108.332077026367 -69.539802551270 -144.723373413086 3.599647998810
31.742874145508 -71.386947631836 -156.344131469727 1.120325922966
3.002494096756 -72.265121459961 -240.910995483398 1.879242658615
-32.841049194336 -73.079193115234 -208.476089477539 2.284192323685
-49.862213134766 -70.198776245117 -158.022933959961 1.523325681686
107.018852233887 -72.011749267578 -161.936141967773 1.649808526039
-40.239841461182 -70.025032043457 -156.492523193359 2.226545572281
-59.889564514160 -72.573356628418 -175.519866943359 2.321969985962
-67.230590820313 -71.001571655273 -163.760681152344 1.872409224510
111.933692932129 -72.727981567383 -171.916183471680 2.003348588943
-30.258802413940 -70.041084289551 -168.958114624023 0.887614369392
-35.711204528809 -69.521881103516 -166.188186645508 2.192286729813
-26.654953002930 -71.597564697266 -173.776565551758 2.407693624496
-27.027305603027 -68.186935424805 -178.007705688477 1.205224514008
-37.290439605713 -67.073913574219 -171.425430297852 2.412697792053
103.046272277832 -71.923286437988 -178.080261230469 1.550540685654
-86.088577270508 -58.867153167725 -114.877510070801 2.084956645966
48.676254272461 -65.808975219727 -249.956375122070 1.567821621895
-38.313064575195 -74.793739318848 -288.675415039063 2.623421430588
-146.588775634766 -73.857643127441 -182.178161621094 1.345794081688
-142.313156127930 -67.165092468262 -184.849792480469 3.024506092072
-153.299011230469 -65.172904968262 -183.898803710938 2.958218574524
27.606893539429 -65.339920043945 -256.238708496094 2.164335727692
22.867324829102 -72.920196533203 -257.473907470703 1.048128724098
-53.277690887451 -73.134666442871 -182.322463989258 1.368221640587
-147.114318847656 -76.435287475586 -248.503860473633 2.104243516922
-116.540771484375 -70.989395141602 -197.150268554688 1.416300415993
24.518264770508 -69.755310058594 -184.124435424805 2.785557031631
-31.419376373291 -70.019126892090 -187.810241699219 1.619293689728
-13.393543243408 -72.173698425293 -223.366256713867 0.845141887665
20.724899291992 -70.921485900879 -191.873672485352 2.190620183945
62.259174346924 -55.058433532715 -85.806777954102 1.587730526924
-47.775581359863 -63.969493865967 -47.609470367432 3.044333934784
23.163621902466 -72.998641967773 -263.366180419922 1.780817151070
97.734573364258 -72.253814697266 -191.308853149414 1.667207241058
-55.716289520264 -75.103263854980 -285.250701904297 2.950257301331
-141.314392089844 -74.089256286621 -198.216674804688 1.426642894745
-149.995025634766 -64.868972778320 -200.069488525391 2.119992971420
-153.526367187500 -61.042949676514 -199.551498413086 1.044640183449
-96.124992370605 -72.488410949707 -214.968795776367 2.000975847244
-37.703845977783 -73.716567993164 -201.981292724609 0.892831802368
-64.761627197266 -66.743347167969 -49.748878479004 3.823816776276
92.892578125000 -71.672538757324 -207.784744262695 1.368038177490
-30.149499893188 -72.672035217285 -211.942031860352 2.032356023788
-61.126625061035 -71.607353210449 -166.648345947266 1.263213157654
-21.072908401489 -72.798858642578 -203.822982788086 1.877648234367
11.147150039673 -74.269905090332 -238.951858520508 2.351700782776
64.504531860352 -72.678726196289 -241.434936523438 2.089390516281
97.089706420898 -71.161911010742 -207.339416503906 1.823850989342
8.028395652771 -73.027381896973 -209.011779785156 1.736480712891
-59.550449371338 -71.915397644043 -171.980102539063 1.029112935066
-34.406417846680 -74.049919128418 -211.050292968750 1.840716362000
-22.308771133423 -69.400474548340 -205.118194580078 2.224140405655
10.110294342041 -68.821472167969 -238.917205810547 1.444633007050
53.898273468018 -73.144821166992 -243.114242553711 2.070418119431
-42.224514007568 -57.785018920898 -78.860328674316 1.626449942589
16.347959518433 -75.823143005371 -279.047119140625 0.587606966496
19.173435211182 -73.312042236328 -277.328521728516 1.996053338051
87.707809448242 -71.066436767578 -209.058074951172 1.988953828812
56.236473083496 -72.566047668457 -246.255371093750 2.317493677139
89.750518798828 -71.580322265625 -211.447204589844 1.579989433289
20.099313735962 -67.396789550781 -183.551651000977 1.421078801155
-16.584335327148 -73.507308959961 -216.033676147461 1.136099338531
-29.290628433228 -73.339317321777 -216.370315551758 0.404799789190
-152.118865966797 -74.605171203613 -222.337051391602 2.465732097626
-152.955383300781 -69.513305664063 -223.056030273438 1.462637543678
80.636367797852 -72.782730102539 -221.844024658203 1.833331704140
96.558586120605 -54.583389282227 -105.619682312012 1.905179738998
71.917739868164 -70.827026367188 -230.529541015625 1.763050317764
-74.102218627930 -66.894760131836 -148.846649169922 2.198140621185
-148.025436401367 -75.142929077148 -229.041030883789 1.626904845238
-11.573557853699 -69.862800598145 -217.503723144531 0.867189168930
-156.198852539063 -67.529197692871 -228.887176513672 1.887184381485
-5.412685871124 -67.867019653320 -218.057861328125 2.164330959320
-142.368103027344 -66.025856018066 -228.265563964844 1.447023868561
-14.281088829041 -72.960746765137 -228.362915039063 1.055769562721
48.764701843262 -60.945274353027 -27.415718078613 1.477078914642
-112.350166320801 -70.921592712402 -195.355743408203 2.407598495483
-141.748275756836 -68.025993347168 -231.293762207031 1.628439188004
-154.795440673828 -63.659130096436 -230.769699096680 0.803250432014
-10.458211898804 -75.111564636230 -232.161376953125 0.875017762184
-13.723777770996 -70.921203613281 -203.777572631836 1.498131752014
-17.672140121460 -66.243240356445 -204.422637939453 1.048334240913
18.328380584717 -74.467506408691 -236.029083251953 1.258933424950
-52.503875732422 -60.817295074463 -132.872817993164 1.420883774757
-33.019222259521 -76.036026000977 -238.329574584961 0.875705659389
65.017852783203 -74.606437683105 -238.123687744141 1.269648671150
2.134185075760 -69.376502990723 -291.936828613281 1.169192194939
2.528388977051 -63.872039794922 -289.347808837891 2.536570072174
-106.599487304688 -64.272911071777 -179.496887207031 1.770927906036
-58.747726440430 -74.934379577637 -243.423782348633 2.022022962570
-56.985698699951 -63.255416870117 -46.405086517334 3.160141468048
-81.028594970703 -75.644790649414 -248.250595092773 2.429200410843
-105.245506286621 -71.891456604004 -226.329147338867 0.806283056736
-12.950226783752 -75.160690307617 -251.456726074219 1.880880951881
-95.718368530273 -75.818077087402 -256.089355468750 2.325680494308
-15.088927268982 -76.038299560547 -257.173950195313 2.474833488464
-125.315414428711 -75.800270080566 -261.586212158203 0.481295973063
-128.229141235352 -70.216049194336 -263.789367675781 2.175828218460
-133.629394531250 -74.092231750488 -263.732788085938 0.765335202217
22.350465774536 -74.422027587891 -264.073913574219 2.633164167404
-14.900264739990 -75.091735839844 -267.968933105469 2.140650987625
-12.431185722351 -71.293144226074 -271.944427490234 1.616393923759
24.741552352905 -53.068561553955 -29.845613479614 1.292066693306
-166.313232421875 -78.611892700195 -281.074707031250 4.589792728424
65.337112426758 -71.434051513672 -241.431518554688 2.053013324738
-168.511337280273 -74.347312927246 -281.313049316406 2.738101959229
-154.576065063477 -74.205520629883 -279.397125244141 3.942668676376
-160.388534545898 -78.309822082520 -280.746856689453 6.700528144836
-147.998947143555 -71.539787292480 -280.516235351563 3.003219127655
-1.080320954323 -71.139801025391 -160.824172973633 3.223387002945
-158.758712768555 -73.119682312012 -211.828460693359 2.151790142059
-140.632171630859 -71.234825134277 -195.714614868164 0.738233327866
-52.024963378906 -76.735336303711 -284.756500244141 2.342823028564
31.654113769531 -65.232269287109 -134.571472167969 1.883609771729
-53.690376281738 -72.592437744141 -288.609283447266 1.728795409203
-112.500686645508 -68.142005920410 -230.029098510742 1.814231872559
-148.892105102539 -64.136260986328 -197.386535644531 2.431099414825
-153.332138061523 -60.474380493164 -196.065124511719 1.730378508568
-87.091537475586 -69.507499694824 -110.418670654297 1.955543875694
-25.151201248169 -74.809150695801 -286.885589599609 0.771963477135
-22.402908325195 -76.256477355957 -285.664184570313 2.066164493561
-101.722923278809 -77.504379272461 -286.540435791016 3.769233942032
-115.516036987305 -68.718727111816 -195.659835815430 1.376775383949
83.157920837402 -71.320831298828 -221.044158935547 0.687900125980
15.572352409363 -76.579437255859 -289.047454833984 0.588333070278
16.265056610107 -70.459205627441 -282.831970214844 0.879054129124
-145.208633422852 -73.926292419434 -204.250076293945 2.457974672318
-59.091609954834 -74.921401977539 -289.740325927734 1.240576148033
-142.167129516602 -69.561401367188 -203.704391479492 1.473551034927
-153.377304077148 -66.072601318359 -203.676940917969 1.556514620781
-150.865722656250 -61.768421173096 -205.100845336914 0.908801972866
-145.910949707031 -73.973884582520 -241.058654785156 1.281483888626
-99.309837341309 -77.559173583984 -290.108398437500 3.360090970993
-98.751121520996 -72.623832702637 -286.600738525391 0.909547686577
-45.438270568848 -67.082366943359 -143.852630615234 1.228136062622
106.907073974609 -70.579505920410 -177.408157348633 2.700546503067
-20.736995697021 -77.151596069336 -290.660888671875 1.968510270119
3.692533016205 -76.817169189453 -291.556640625000 2.134191513062
66.550300598145 -67.149330139160 -235.914779663086 1.080933451653
27.309265136719 -53.305187225342 -12.832728385925 1.678124785423
22.565843582153 -52.350234985352 -15.971858024597 2.571696043015
-31.029384613037 -66.410774230957 -54.899944305420 4.254999637604
-133.356811523438 -74.766281127930 -225.164108276367 1.924294471741
-18.970937728882 -67.378707885742 -64.130683898926 5.441057682037
79.161796569824 -66.684471130371 -68.318862915039 3.943912982941
75.711418151855 -63.804958343506 -65.181488037109 3.080774068832
70.982719421387 -72.513710021973 -233.616043090820 0.560431063175
-91.866340637207 -68.287757873535 -70.762840270996 2.717363595963
63.048084259033 -64.767456054688 -88.289169311523 2.446089029312
78.789085388184 -67.843536376953 -70.941848754883 4.904465198517
74.606361389160 -67.847969055176 -73.037483215332 4.451696395874
70.692886352539 -64.679626464844 -70.325164794922 2.232552289963
38.667190551758 -69.353477478027 -104.142059326172 2.857648134232
97.183662414551 -65.586105346680 -76.085029602051 4.505927562714
25.567712783813 -58.718318939209 -131.488800048828 1.933703780174
28.097576141357 -59.051628112793 -137.020706176758 0.335465371609
-134.106384277344 -76.274948120117 -254.401290893555 2.469768762589
-41.468635559082 -67.510429382324 -77.418144226074 0.931211948395
-64.227508544922 -63.675086975098 -90.316543579102 0.971872568130
-65.873626708984 -66.115165710449 -92.376205444336 2.292882680893
53.669750213623 -67.205886840820 -99.410423278809 1.391428709030
86.458427429199 -64.466957092285 -65.679321289063 4.055680274963
95.995353698730 -64.535079956055 -71.841239929199 4.489660739899
24.731056213379 -70.084770202637 -143.770843505859 2.113010644913
68.668663024902 -69.613182067871 -230.288864135742 2.534111499786
9.038629531860 -68.697311401367 -290.371765136719 2.223838567734
62.847869873047 -57.170860290527 -77.775604248047 1.109014034271
7.530508995056 -64.306221008301 -291.111419677734 1.899097084999
90.934043884277 -68.557708740234 -97.892433166504 5.397552967072
-95.299377441406 -70.173942565918 -102.644088745117 2.048262119293
7.770606040955 -61.244438171387 -263.194213867188 1.674198508263
56.827346801758 -66.596359252930 -98.311767578125 0.767162263393
-63.174972534180 -55.514137268066 -84.669403076172 3.335366725922
86.684806823730 -66.895454406738 -102.430679321289 3.615757942200
41.713256835938 -64.911132812500 -35.864063262939 2.738163948059
108.052482604980 -67.545989990234 -102.691108703613 1.516934633255
48.555305480957 -61.667903900146 -22.409875869751 1.948729276657
-16.945035934448 -73.889755249023 -229.333328247070 1.375576496124
23.554100036621 -70.249809265137 -188.500671386719 1.506641745567
-96.582595825195 -68.189292907715 -106.233840942383 2.296369075775
38.497657775879 -65.037376403809 -35.830364227295 1.482553720474
109.609306335449 -67.681327819824 -106.810493469238 2.024314165115
-60.288036346436 -66.245712280273 -136.637481689453 1.763833403587
103.992256164551 -68.165184020996 -110.009300231934 0.936349868774
28.981002807617 -65.668319702148 -38.579372406006 1.987584710121
104.870765686035 -67.560081481934 -114.894210815430 2.018261194229
-57.555854797363 -63.559764862061 -87.949645996094 2.134385347366
106.130287170410 -68.384490966797 -120.508819580078 1.637665271759
106.432296752930 -66.310279846191 -122.922492980957 3.818233013153
107.236175537109 -68.600624084473 -127.611854553223 2.354170560837
114.389343261719 -66.458091735840 -127.971267700195 2.132114887238
-23.061340332031 -67.183380126953 -73.622276306152 1.812059164047
36.961349487305 -67.081588745117 -132.126586914063 2.554041147232
-27.963468551636 -62.098953247070 -72.712951660156 3.207336187363
-79.275093078613 -56.394176483154 -113.846832275391 0.653383135796
36.379131317139 -67.482772827148 -134.744277954102 2.629829406738
-166.015457153320 -73.655906677246 -217.334426879883 2.393461227417
8.926838874817 -72.440826416016 -195.514312744141 1.670571923256
-52.559375762939 -70.675582885742 -135.989608764648 2.260157823563
9.341970443726 -71.058822631836 -221.134140014648 1.599219441414
-79.562919616699 -68.807319641113 -136.255996704102 2.438644170761
-47.034557342529 -68.012283325195 -145.848846435547 1.593557357788
8.398100852966 -70.927574157715 -230.701614379883 1.820101141930
-27.407291412354 -70.518943786621 -195.834869384766 1.273184895515
32.963233947754 -71.699691772461 -256.119262695313 2.267270565033
-22.511217117310 -66.335754394531 -195.924377441406 2.040944337845
-77.146476745605 -68.689552307129 -145.391723632813 2.288853645325
0.208185002208 -70.060256958008 -222.217315673828 1.741154193878
28.686372756958 -68.995239257813 -155.523468017578 2.071666002274
21.706882476807 -68.295379638672 -148.426773071289 1.778334856033
27.928318023682 -66.646934509277 -159.928054809570 2.801228046417
-10.145424842834 -73.044303894043 -208.557678222656 1.226153612137
-66.120300292969 -71.430038452148 -152.222274780273 1.572418689728
-36.277858734131 -70.360229492188 -157.857727050781 2.786157608032
110.296920776367 -69.813385009766 -157.042922973633 1.219971656799
-49.024879455566 -69.274635314941 -154.422988891602 0.704780340195
-47.930198669434 -65.494331359863 -148.514816284180 2.069073200226
-83.784202575684 -65.108970642090 -113.539649963379 1.757396936417
18.509241104126 -72.735649108887 -247.990844726563 0.710392117500
101.620315551758 -71.100326538086 -191.389831542969 1.656417727470
-19.116935729980 -69.541938781738 -210.645965576172 1.479656934738
108.885871887207 -70.865715026855 -183.329956054688 0.428386718035
-69.625686645508 -69.850967407227 -158.716201782227 2.678134679794
-15.536802291870 -70.012779235840 -212.451843261719 1.433236002922
31.868844985962 -69.544700622559 -152.621246337891 1.476654767990
19.339246749878 -69.930999755859 -166.493148803711 1.714852094650
12.280480384827 -68.641380310059 -156.636199951172 0.932852268219
-61.874656677246 -72.050857543945 -162.772872924805 1.058966279030
-69.105598449707 -70.432510375977 -160.413711547852 1.685304284096
-16.854173660278 -71.697906494141 -211.426849365234 1.742042422295
18.446643829346 -67.859565734863 -246.450332641602 1.338338613510
-38.336227416992 -69.455741882324 -161.836639404297 2.044078588486
20.389497756958 -64.953933715820 -175.185195922852 3.418915748596
2.040082931519 -70.124755859375 -162.901275634766 1.973658084869
-26.423452377319 -72.156608581543 -178.178176879883 1.208807110786
-31.989074707031 -69.654899597168 -166.253952026367 2.905449390411
-34.436290740967 -69.278076171875 -169.461669921875 3.229158401489
-35.763622283936 -66.925193786621 -167.086929321289 3.693836688995
15.922956466675 -67.789909362793 -148.013122558594 2.434977054596
-1.397590994835 -71.065551757813 -164.764266967773 2.070149421692
15.372580528259 -64.848899841309 -151.839172363281 0.843677520752
112.576057434082 -70.072860717773 -170.575073242188 1.627978444099
110.654304504395 -67.399787902832 -169.556518554688 2.567889213562
110.655876159668 -66.885665893555 -166.417221069336 2.673775672913
45.981151580811 -68.744224548340 -250.948471069336 1.343296408653
13.495354652405 -68.424667358398 -215.494766235352 0.961644530296
-26.495038986206 -70.002258300781 -181.374710083008 0.826456785202
-39.349647521973 -71.827445983887 -172.006576538086 1.450732469559
-24.556894302368 -68.520256042480 -181.176452636719 2.606637477875
-38.628440856934 -66.683341979980 -166.320571899414 3.693953514099
18.952014923096 -68.490173339844 -170.798904418945 1.407298326492
19.549657821655 -66.157623291016 -165.831024169922 2.891568422318
109.027915954590 -71.109573364258 -173.361434936523 1.935938835144
-35.559864044189 -71.784866333008 -182.489059448242 1.870543003082
-38.925472259521 -71.691314697266 -176.708236694336 3.377908468246
-38.867515563965 -68.140975952148 -172.855239868164 2.989842414856
-72.393218994141 -65.585746765137 -140.450408935547 1.789245843887
-31.706527709961 -67.728691101074 -182.394287109375 1.343511581421
-34.604053497314 -74.873626708984 -286.923736572266 1.215338945389
-29.947893142700 -76.402145385742 -284.554412841797 1.487269282341
-145.642349243164 -72.937858581543 -178.029861450195 1.554989814758
-142.309310913086 -66.729675292969 -178.811676025391 2.204140663147
-147.402206420898 -65.737686157227 -174.874282836914 0.972266435623
-152.976608276367 -63.824935913086 -180.673065185547 2.125078678131
-83.680297851563 -60.782459259033 -105.701133728027 3.518302917480
-151.426101684570 -64.485206604004 -175.120590209961 2.043677806854
2.111983060837 -64.257431030273 -258.756561279297 1.335725784302
-21.172121047974 -71.174240112305 -183.613601684570 1.245684266090
-39.393764495850 -69.023437500000 -165.152175903320 2.574645519257
-25.545768737793 -67.739265441895 -181.911102294922 1.714809179306
44.311767578125 -72.594841003418 -251.071273803711 1.632785677910
12.924212455750 -70.815979003906 -217.238616943359 2.747805118561
-74.289726257324 -68.945579528809 -133.424987792969 2.062762498856
-75.399681091309 -69.149978637695 -140.143554687500 0.768840074539
-31.370580673218 -71.403350830078 -184.761611938477 1.569737076759
-38.216911315918 -69.504402160645 -176.164367675781 2.168675661087
-151.377883911133 -72.796981811523 -181.691619873047 0.951276004314
-153.957321166992 -68.495925903320 -184.086578369141 2.812859535217
-143.260360717773 -64.603584289551 -182.463012695313 1.303286433220
-21.102218627930 -56.210895538330 -65.084068298340 3.094382524490
51.956642150879 -69.685592651367 -249.873062133789 1.400096178055
-33.249702453613 -71.978118896484 -186.324874877930 1.401062488556
-30.361492156982 -68.788604736328 -187.563629150391 1.659233927727
99.958427429199 -70.276893615723 -186.954650878906 3.182514429092
-53.488231658936 -68.936729431152 -133.286651611328 2.428100824356
11.600501060486 -71.753021240234 -193.832870483398 1.723616361618
23.382656097412 -72.174308776855 -189.438369750977 1.958702445030
101.238082885742 -68.552505493164 -195.292129516602 3.301516294479
-131.715789794922 -73.918724060059 -198.100326538086 1.044810175896
-125.294456481934 -74.105934143066 -199.003997802734 1.838149189949
-154.683425903320 -67.668174743652 -224.883117675781 1.252600908279
-109.679840087891 -64.711807250977 -190.961135864258 1.707422733307
-21.431074142456 -72.192733764648 -207.393341064453 2.127335786819
-64.793685913086 -71.160377502441 -166.900360107422 1.507538199425
11.238089561462 -72.496803283691 -242.152175903320 0.802743792534
100.470909118652 -70.956115722656 -201.631790161133 1.271212816238
-65.613677978516 -73.989608764648 -289.502502441406 1.791227221489
-146.412612915039 -73.984672546387 -209.292053222656 1.765589237213
-148.430496215820 -61.260932922363 -208.626022338867 2.926605701447
16.328483581543 -73.210601806641 -208.040557861328 1.374862194061
89.958366394043 -72.041000366211 -217.727447509766 1.530883193016
15.172400474548 -72.158294677734 -212.876022338867 1.886708974838
103.773513793945 -54.183879852295 -84.536048889160 1.898484230042
-71.845344543457 -70.357650756836 -156.462097167969 2.076571702957
-13.915660858154 -72.421020507813 -216.251464843750 2.242995977402
-99.470069885254 -72.173149108887 -216.394912719727 1.735003352165
-138.279144287109 -72.588241577148 -254.790817260742 2.863561630249
-78.450912475586 -69.445137023926 -140.346435546875 1.675771713257
1.614506006241 -73.966667175293 -222.301467895508 2.192255258560
-24.877710342407 -72.591407775879 -220.925888061523 2.707836389542
-118.130432128906 -76.682083129883 -291.409454345703 1.502927184105
-153.858093261719 -70.342979431152 -263.761749267578 1.175927877426
83.898353576660 -71.055015563965 -224.662033081055 2.180930852890
-18.877578735352 -71.239593505859 -221.208480834961 2.419414520264
14.082140922546 -70.476875305176 -185.467926025391 0.880666255951
-121.602386474609 -65.228942871094 -197.301269531250 1.238055229187
-6.894814968109 -72.769454956055 -226.104064941406 1.196390151978
-8.412649154663 -67.760528564453 -223.457519531250 2.628005027771
79.772216796875 -72.154769897461 -225.885498046875 1.112554311752
-136.480270385742 -74.596328735352 -230.504516601563 1.828855395317
6.454308986664 -73.667297363281 -237.174179077148 1.833016395569
15.110003471375 -71.338973999023 -229.542663574219 1.577095627785
-74.396667480469 -74.415664672852 -285.696411132813 3.046373844147
-145.975830078125 -68.047912597656 -216.268157958984 2.163659095764
-151.138259887695 -63.652782440186 -216.897064208984 3.831480503082
-158.449279785156 -74.709732055664 -233.560073852539 2.758015394211
46.394973754883 -59.224937438965 -18.094636917114 2.260539770126
-146.110885620117 -74.355873107910 -237.434249877930 2.138098478317
-14.269959449768 -71.533210754395 -236.059402465820 2.783842325211
-166.099166870117 -74.780387878418 -232.052352905273 2.461061716080
7.710712909698 -73.219764709473 -211.450057983398 1.265545010567
-95.112113952637 -75.793601989746 -291.019836425781 1.978486180305
-151.594268798828 -75.524444580078 -238.397567749023 2.616543054581
-156.206253051758 -71.371192932129 -239.508895874023 2.588914394379
45.889205932617 -56.757427215576 -17.816162109375 0.472309827805
20.697082519531 -57.868923187256 -138.938522338867 3.226803302765
58.354969024658 -73.668067932129 -243.107360839844 1.642384052277
10.192990303040 -67.436614990234 -203.033218383789 3.456415891647
-61.310314178467 -65.073081970215 -133.278106689453 1.403531551361
-25.331281661987 -74.284683227539 -238.310714721680 0.605928897858
23.051927566528 -56.735065460205 -15.658782005310 1.485033154488
26.167366027832 -55.830509185791 -13.315237998962 1.268314123154
-94.702713012695 -67.044235229492 -76.231399536133 1.667315959930
68.274909973145 -73.214225769043 -238.518600463867 1.406547307968
-157.348220825195 -75.530860900879 -243.415740966797 2.713881492615
-7.209058761597 -72.351608276367 -237.301864624023 1.390939950943
-11.282409667969 -67.056121826172 -238.934448242188 1.059226989746
-22.927433013916 -74.786781311035 -241.256866455078 1.533967375755
-133.164611816406 -71.097000122070 -203.409622192383 0.964775979519
-167.544311523438 -74.082534790039 -237.769683837891 2.729590892792
-163.153518676758 -75.821846008301 -242.894378662109 3.907339572906
8.108924865723 -73.969657897949 -241.423599243164 0.570144414902
-168.286300659180 -72.461624145508 -242.447723388672 2.534668445587
-43.566501617432 -74.827323913574 -286.221740722656 0.944135367870
-144.223342895508 -68.716461181641 -188.761077880859 2.007555007935
-150.121643066406 -62.382808685303 -186.605819702148 1.314580798149
-0.979489028454 -74.415779113770 -241.718399047852 1.809156179428
16.671522140503 -72.736251831055 -242.385742187500 2.174500226974
-4.985534191132 -74.407447814941 -242.539413452148 1.545567870140
-98.252868652344 -67.109718322754 -151.737243652344 1.088146686554
-10.944992065430 -69.392807006836 -241.420028686523 1.377654552460
-138.193817138672 -65.398742675781 -196.694641113281 2.721822023392
-154.332763671875 -75.438323974609 -244.149597167969 3.552485466003
-151.616485595703 -67.667304992676 -243.572586059570 1.807341456413
-147.685333251953 -66.051490783691 -240.451004028320 1.974514603615
-158.139068603516 -75.664924621582 -244.553146362305 2.448241472244
-77.050926208496 -76.109466552734 -247.161773681641 2.687963485718
-59.519733428955 -73.654319763184 -245.467910766602 1.673023223877
-95.564125061035 -73.185279846191 -214.528549194336 1.699397206306
-99.473014831543 -75.747970581055 -255.012130737305 2.534922838211
-15.540749549866 -74.762741088867 -257.423767089844 2.814889907837
-61.332298278809 -73.697593688965 -286.416168212891 2.338171720505
-142.516265869141 -70.716331481934 -203.251342773438 0.760332286358
-144.095275878906 -70.018753051758 -205.394561767578 1.079616665840
-150.795272827148 -65.187438964844 -206.019454956055 1.254990100861
-93.821197509766 -73.099067687988 -251.318435668945 1.731746554375
-81.451431274414 -76.698776245117 -285.495910644531 2.514091491699
-149.842163085938 -64.349594116211 -226.979812622070 2.307416915894
-126.157989501953 -62.701984405518 -200.816268920898 1.330631494522
-94.416801452637 -75.685646057129 -285.705718994141 3.112328767776
-93.322792053223 -72.789413452148 -289.807586669922 1.840902686119
-145.894561767578 -70.678009033203 -239.402069091797 1.657177686691
-116.171035766602 -64.759460449219 -202.400024414063 1.437237858772
-151.545700073242 -66.258728027344 -237.790313720703 2.375942707062
44.859977722168 -63.352455139160 -16.619741439819 1.106998085976
11.617940902710 -73.488426208496 -285.865936279297 1.478523254395
-106.576385498047 -68.166526794434 -171.172027587891 1.307583928108
13.632027626038 -69.710365295410 -286.700958251953 0.703193485737
-82.208198547363 -76.732574462891 -290.299407958984 1.495745062828
-109.147521972656 -69.105171203613 -192.963073730469 1.849848628044
-142.211410522461 -69.317489624023 -225.298599243164 1.452240109444
-153.714202880859 -63.520736694336 -224.561508178711 1.565800428391
-127.215873718262 -62.573284149170 -200.307113647461 2.120119571686
-149.656967163086 -62.167194366455 -223.619400024414 0.938860177994
-146.117584228516 -73.906326293945 -221.634414672852 0.517837584019
-78.470489501953 -74.571617126465 -290.131866455078 1.327124834061
-149.872451782227 -62.188735961914 -222.958251953125 0.618614077568
-138.610107421875 -76.685897827148 -291.747985839844 2.182738304138
-152.366394042969 -71.011268615723 -280.964080810547 1.084305405617
0.239611998200 -75.330184936523 -290.996246337891 2.086869716644
-1.157166957855 -66.046142578125 -285.795745849609 2.307681560516
93.670326232910 -56.930511474609 -107.058982849121 2.070067167282
67.716812133789 -66.675842285156 -89.337471008301 2.219252586365
-9.635947227478 -70.167884826660 -274.964691162109 2.787527561188
13.651819229126 -75.582015991211 -292.308319091797 1.784127473831
-105.896621704102 -61.780311584473 -167.434143066406 1.376988649368
26.350461959839 -64.870079040527 -17.281858444214 2.391506195068
-61.607387542725 -56.274971008301 -110.035919189453 1.536848068237
24.819665908813 -64.907356262207 -21.143638610840 3.629607439041
-10.555001258850 -67.866905212402 -251.970764160156 2.051516532898
21.565483093262 -65.301956176758 -23.104351043701 2.002743721008
-72.018547058105 -64.311637878418 -48.333003997803 2.946385860443
109.032577514648 -66.516120910645 -113.837371826172 2.059885263443
29.951539993286 -64.883636474609 -35.006248474121 3.222819566727
113.091003417969 -67.426460266113 -119.216728210449 2.029364824295
22.639598846436 -65.456230163574 -29.132654190063 4.445055007935
110.189224243164 -66.906173706055 -119.006645202637 2.669836759567
24.982225418091 -65.612396240234 -33.769508361816 3.397999048233
111.826583862305 -68.396621704102 -115.044120788574 1.673395037651
-33.677364349365 -65.482185363770 -52.674621582031 4.339553356171
-1.837810039520 -66.314064025879 -259.234222412109 1.412746310234
2.565793037415 -64.997940063477 -262.989959716797 2.126010656357
71.297286987305 -56.825481414795 -62.022407531738 1.587424993515
92.933410644531 -66.462013244629 -71.775596618652 4.633340835571
-43.725460052490 -67.503608703613 -79.948562622070 1.622642755508
100.130386352539 -64.756889343262 -88.610961914063 3.810855627060
-63.291847229004 -67.347442626953 -91.323181152344 1.362177968025
-12.595586776733 -73.478126525879 -275.569458007813 1.557727694511
101.031364440918 -67.041702270508 -96.518081665039 1.453502893448
8.892734527588 -75.515556335449 -291.341217041016 2.163160800934
82.125465393066 -67.984748840332 -98.849426269531 4.805460929871
101.515441894531 -66.854629516602 -102.406555175781 2.162784814835
32.590808868408 -63.909664154053 -36.252326965332 3.037455081940
107.625030517578 -67.028419494629 -109.636604309082 0.477138370275
29.493412017822 -68.743240356445 -123.806335449219 3.217843055725
31.602634429932 -69.473556518555 -124.137336730957 1.947330355644
27.907325744629 -68.685997009277 -128.847930908203 3.671868801117
12.042904853821 -71.114776611328 -221.715423583984 1.771303057671
-79.503242492676 -68.873512268066 -132.174697875977 1.836454987526
11.744234085083 -69.825904846191 -212.008377075195 0.234619259834
-103.745223999023 -67.047782897949 -170.358337402344 1.931071639061
-60.618171691895 -68.756660461426 -139.579910278320 0.693953275681
-2.058352947235 -72.173011779785 -218.434677124023 1.875711441040
-74.113098144531 -69.983604431152 -143.952117919922 1.084356307983
36.943706512451 -71.659019470215 -256.486267089844 1.648241281509
-69.555786132813 -69.170700073242 -143.854980468750 1.347797155380
-45.063510894775 -71.057098388672 -141.892990112305 1.081167340279
26.248954772949 -69.560218811035 -139.430923461914 2.175012826920
41.035766601563 -64.880630493164 -251.928054809570 1.470092535019
-6.477707862854 -71.896530151367 -211.008605957031 2.106088638306
-70.835243225098 -69.994285583496 -147.634201049805 1.748217344284
-9.249973297119 -68.023567199707 -210.961700439453 0.881367266178
9.326156616211 -68.873207092285 -150.439559936523 1.724883198738
24.852344512939 -67.812492370605 -166.575302124023 1.286041736603
7.325566768646 -66.506637573242 -152.718231201172 2.923331499100
23.354181289673 -65.274459838867 -170.174606323242 1.960250496864
66.080886840820 -63.533241271973 -92.621337890625 0.765150189400
106.767127990723 -69.928939819336 -161.801971435547 3.600856304169
109.688362121582 -70.015213012695 -166.947006225586 1.037979364395
108.101226806641 -67.098609924316 -171.181518554688 3.097540616989
-43.770668029785 -70.814285278320 -163.988433837891 1.789407968521
-23.198705673218 -69.981193542480 -187.310516357422 1.332301616669
-25.772834777832 -66.758491516113 -188.053833007813 2.283321142197
-41.874645233154 -71.372932434082 -171.664535522461 2.080786705017
-22.158653259277 -68.248283386230 -186.657974243164 0.762336850166
-42.314826965332 -67.110771179199 -165.040649414063 3.398044586182
26.871173858643 -70.058784484863 -174.861724853516 2.488209962845
109.619087219238 -69.575019836426 -180.016967773438 2.469393730164
24.887382507324 -69.439201354980 -173.352981567383 1.665607452393
24.079900741577 -67.145957946777 -179.263504028320 0.692130029202
25.646074295044 -70.392311096191 -180.365570068359 1.339963912964
23.564775466919 -65.849777221680 -175.114746093750 1.128796577454
14.877145767212 -71.575691223145 -182.595596313477 1.632352948189
-152.734024047852 -70.468879699707 -186.820526123047 0.231926754117
-151.555038452148 -65.781311035156 -188.880004882813 1.165999770164
-145.362136840820 -63.529808044434 -187.150680541992 1.450073719025
-161.626007080078 -72.407981872559 -199.341827392578 0.991039156914
-152.717300415039 -71.810020446777 -193.528228759766 2.237296104431
-29.592756271362 -61.794754028320 -73.814811706543 4.094403266907
-151.783630371094 -66.150726318359 -190.431228637695 2.314309120178
-146.346694946289 -65.032226562500 -192.401596069336 0.981986939907
-115.531417846680 -70.235313415527 -225.659057617188 1.466303110123
41.777156829834 -63.053596496582 -30.453687667847 2.604246854782
19.147443771362 -70.426452636719 -195.853973388672 1.485494136810
-136.336532592773 -73.023391723633 -199.019256591797 2.566380500793
-151.491256713867 -72.655731201172 -207.246047973633 2.207150936127
-153.755462646484 -69.030654907227 -207.702072143555 1.463106989861
-138.181274414063 -72.423225402832 -232.304031372070 3.013362884521
-164.411437988281 -73.271102905273 -208.107879638672 2.110449790955
-165.091125488281 -73.063896179199 -207.462173461914 2.852574825287
-167.499984741211 -73.258155822754 -228.982345581055 1.893813014030
-26.170982360840 -72.125480651855 -217.552871704102 0.680965781212
16.761625289917 -71.295478820801 -214.780563354492 1.573201775551
-73.245506286621 -69.182441711426 -135.984512329102 1.480352878571
7.562533855438 -72.493904113770 -216.720458984375 1.022759437561
34.474399566650 -55.660636901855 -120.956085205078 2.768310308456
-26.452373504639 -62.508605957031 -52.759681701660 3.687274694443
-166.271377563477 -73.744049072266 -220.560943603516 2.168864965439
-100.154922485352 -62.312763214111 -161.478485107422 1.081830263138
-13.330891609192 -71.695907592773 -220.745101928711 0.933701813221
-154.883270263672 -73.933578491211 -223.070953369141 1.822141885757
-151.774398803711 -68.041183471680 -221.102691650391 1.002187728882
-147.138366699219 -64.543487548828 -219.692535400391 1.883146405220
-16.008403778076 -72.951690673828 -224.708419799805 2.216212749481
20.266012191772 -66.667648315430 -190.924148559570 2.382210254669
-81.575408935547 -56.532989501953 -120.180770874023 2.780889272690
-119.417121887207 -73.978431701660 -228.738067626953 4.042688369751
-133.167999267578 -74.456741333008 -232.646163940430 1.082071661949
-157.463623046875 -71.093452453613 -193.558944702148 1.793366312981
16.225008010864 -72.118347167969 -236.463088989258 1.707637548447
-7.539649963379 -74.152854919434 -240.933334350586 1.768453717232
-99.344062805176 -65.539482116699 -148.649810791016 1.548244595528
-64.900695800781 -73.197494506836 -247.594284057617 1.754627943039
-11.116494178772 -73.505325317383 -247.337768554688 2.132005929947
83.538375854492 -68.344192504883 -220.481719970703 2.507763385773
14.755130767822 -73.781951904297 -282.837860107422 1.402602314949
-136.291381835938 -74.094421386719 -284.070495605469 1.497464776039
-135.996841430664 -70.439498901367 -288.845001220703 3.076655149460
-150.219268798828 -66.473320007324 -280.293151855469 2.964822292328
-77.438865661621 -75.464729309082 -285.375305175781 1.669241189957
-78.790420532227 -72.629699707031 -288.168395996094 2.349609851837
-145.401382446289 -69.242103576660 -221.780685424805 1.493380546570
-151.306427001953 -64.023002624512 -220.742813110352 2.847837686539
-63.805980682373 -74.500144958496 -285.476867675781 1.948446273804
-145.093917846680 -68.611633300781 -206.941513061523 1.606904745102
-150.754943847656 -62.632427215576 -209.222183227539 2.216796875000
-30.004610061646 -74.538452148438 -288.030029296875 2.634763717651
-35.365840911865 -74.991386413574 -286.457611083984 1.819533586502
-142.433258056641 -68.969665527344 -175.733810424805 1.295271515846
-147.935363769531 -67.244552612305 -179.021728515625 1.700491905212
-151.480819702148 -62.422557830811 -180.192413330078 2.129728078842
34.867816925049 -62.900279998779 -11.077325820923 1.642658948898
34.159248352051 -63.999176025391 -12.254225730896 1.831881761551
-60.192817687988 -56.255199432373 -117.732223510742 0.407698869705
102.943885803223 -56.152187347412 -91.987838745117 1.765998125076
38.519519805908 -63.963672637939 -13.894743919373 1.396831512451
103.280685424805 -56.025901794434 -89.169692993164 2.619309425354
41.142200469971 -63.778797149658 -14.072050094604 0.675432324409
35.461002349854 -63.699054718018 -15.736746788025 1.729010343552
-58.401416778564 -57.122394561768 -116.064384460449 1.504147052765
41.027980804443 -63.715850830078 -18.452079772949 2.036272525787
45.521373748779 -64.052467346191 -20.281997680664 2.482258081436
41.603279113770 -63.181632995605 -19.965543746948 1.208704471588
101.194297790527 -62.484817504883 -83.748374938965 3.386048316956
-67.770843505859 -59.159519195557 -124.128791809082 1.073361754417
44.961730957031 -64.512710571289 -29.327348709106 2.083499670029
45.845584869385 -64.313522338867 -25.827058792114 2.633464336395
45.362442016602 -64.416015625000 -33.983612060547 3.338414192200
-16.314590454102 -65.804244995117 -64.232040405273 4.013135910034
66.710884094238 -65.520553588867 -83.484443664551 1.779371380806
-57.208980560303 -68.401168823242 -89.588226318359 1.453212499619
24.817766189575 -60.746307373047 -37.930641174316 1.620946407318
106.405471801758 -65.951179504395 -96.683296203613 1.362121701241
-58.025089263916 -65.607643127441 -143.784744262695 1.773886919022
9.022204399109 -68.768295288086 -199.966690063477 1.741315841675
105.893302917480 -66.897682189941 -105.960197448730 1.890239357948
27.878301620483 -69.886184692383 -160.861343383789 1.214466810226
20.250574111938 -71.101448059082 -151.675445556641 1.894787311554
19.007324218750 -64.482154846191 -147.953536987305 1.049169659615
5.890151023865 -69.076057434082 -160.158523559570 1.093423008919
106.620094299316 -68.485679626465 -166.365371704102 3.443656682968
113.107330322266 -68.158340454102 -165.438842773438 2.171860694885
16.218038558960 -69.731712341309 -169.988830566406 2.448456287384
101.506233215332 -69.722335815430 -183.593460083008 2.810542583466
-152.110580444336 -72.405914306641 -185.968307495117 2.125494003296
-154.015930175781 -68.062133789063 -186.344253540039 1.421491026878
-97.343276977539 -61.210758209229 -145.349884033203 2.848469257355
-133.017074584961 -70.900207519531 -194.719039916992 1.611106514931
-120.822921752930 -71.765830993652 -195.411911010742 1.343799710274
-136.507431030273 -71.035720825195 -202.186614990234 0.621656417847
-158.966857910156 -72.867988586426 -208.180862426758 4.948973655701
-155.258544921875 -72.831420898438 -209.413208007813 3.861165523529
-151.343612670898 -66.679725646973 -206.957138061523 0.677989900112
-147.016906738281 -63.547077178955 -208.854614257813 1.845007419586
15.226579666138 -65.734695434570 -196.201950073242 1.095057010651
-76.211174011230 -68.609405517578 -147.283691406250 1.351931571960
-4.330441951752 -72.169013977051 -219.179397583008 1.379080057144
-11.019853591919 -68.634246826172 -221.436981201172 1.510784506798
-53.025905609131 -66.275588989258 -144.876220703125 0.639849185944
-22.771989822388 -71.600425720215 -221.236831665039 1.357964277267
-136.557052612305 -72.420585632324 -225.151641845703 2.781678915024
32.125610351563 -64.457473754883 -258.829315185547 1.984581351280
-28.587463378906 -57.596393585205 -48.633579254150 2.549740314484
10.451684951782 -71.824356079102 -227.363677978516 0.783300876617
44.449264526367 -55.965812683105 -115.167907714844 1.900069355965
42.212520599365 -52.778369903564 -24.658885955811 1.828266739845
-13.750480651855 -71.562133789063 -244.984405517578 1.831362605095
-146.478744506836 -74.262168884277 -281.168426513672 1.302134037018
-137.536697387695 -71.712135314941 -286.239288330078 1.725743889809
-0.876423001289 -74.031272888184 -290.163421630859 2.407679319382
93.576370239258 -61.768150329590 -105.198356628418 3.809377908707
-99.127273559570 -74.877136230469 -291.136047363281 2.076168060303
-153.952865600586 -71.432525634766 -241.794662475586 3.381675004959
-42.293521881104 -64.459968566895 -49.042644500732 2.938215494156
-32.325698852539 -65.083938598633 -52.793376922607 4.001626491547
37.510063171387 -66.686592102051 -114.187599182129 2.139042377472
-24.065450668335 -65.129829406738 -57.029750823975 4.199777603149
-93.268440246582 -66.232940673828 -68.579360961914 2.252552747726
99.195159912109 -64.360176086426 -78.245056152344 4.471138954163
20.861038208008 -65.406150817871 -277.072357177734 1.386185169220
17.785753250122 -67.190765380859 -282.132873535156 2.320608139038
-42.420299530029 -65.161231994629 -77.282829284668 1.690202116966
-97.708053588867 -70.140449523926 -221.104019165039 1.824120998383
-100.220626831055 -59.199874877930 -91.221343994141 2.254917860031
102.007545471191 -61.255744934082 -98.831703186035 1.549767494202
107.738273620605 -64.169731140137 -99.617813110352 2.549269199371
46.755207061768 -60.477039337158 -33.226516723633 1.485093474388
70.158981323242 -64.796173095703 -99.119789123535 2.359049797058
-97.229263305664 -66.927398681641 -101.205642700195 1.662396550179
109.344436645508 -62.782199859619 -110.061607360840 4.247819900513
31.345169067383 -62.135818481445 -35.422187805176 0.894460558891
-145.753860473633 -62.364120483398 -182.481140136719 0.951996982098
-25.588382720947 -56.184875488281 -66.066162109375 3.226199388504
-21.070037841797 -53.918533325195 -63.376960754395 2.867315530777
-88.269599914551 -70.233009338379 -113.041793823242 2.146847963333
48.167694091797 -71.062385559082 -251.558090209961 1.322951555252
36.237266540527 -66.906402587891 -117.163848876953 2.797529220581
-84.075988769531 -67.649284362793 -117.454360961914 0.272188991308
-47.304161071777 -67.695335388184 -148.773269653320 1.555388212204
-80.665229797363 -67.724540710449 -116.342239379883 3.294878244400
-49.177486419678 -66.753402709961 -154.832305908203 2.075295686722
-84.790344238281 -68.061294555664 -124.050224304199 2.270310401917
-55.993072509766 -56.410202026367 -42.679317474365 2.278244495392
30.536350250244 -67.770210266113 -143.132705688477 1.482060551643
13.649445533752 -67.655235290527 -153.670959472656 1.794640898705
17.525550842285 -64.369903564453 -150.606140136719 0.918148636818
23.347011566162 -67.645904541016 -155.954147338867 1.997148394585
-42.646026611328 -68.642616271973 -158.276916503906 1.537585973740
22.429441452026 -67.696846008301 -159.532974243164 1.531716108322
106.180198669434 -67.937553405762 -183.789718627930 3.002744913101
-109.871231079102 -69.844261169434 -193.291931152344 1.502345442772
-166.561279296875 -70.576446533203 -200.439422607422 1.451784610748
10.241278648376 -69.921981811523 -208.269348144531 1.266892433167
-101.881393432617 -71.234336853027 -218.009963989258 1.117599129677
-71.922210693359 -72.345726013184 -247.787765502930 2.156436443329
110.482009887695 -66.451736450195 -162.339233398438 3.554847955704
97.553535461426 -58.179557800293 -66.674880981445 2.998813867569
-9.867559432983 -70.653694152832 -226.985366821289 1.231193900108
-4.919464111328 -69.346488952637 -225.187011718750 1.546336650848
2.409352064133 -64.306236267090 -282.818664550781 2.629928112030
2.864089012146 -63.584972381592 -287.045623779297 1.974415421486
72.349731445313 -69.864570617676 -226.914321899414 2.051738500595
-108.548507690430 -62.331722259521 -175.415954589844 2.625705957413
11.671682357788 -68.828666687012 -221.350631713867 1.964169383049
