-150.159927368164 -85.076515197754 -247.592178344727 1.779836773872
-150.990936279297 -84.786331176758 -252.052017211914 2.351172685623
-167.903488159180 -69.891433715820 -252.051239013672 1.829976797104
78.158599853516 -72.303977966309 -229.471374511719 0.524972498417
-146.648513793945 -73.795806884766 -279.026031494141 1.938721418381
-89.932609558105 -72.172889709473 -66.633384704590 1.065964341164
-142.602340698242 -85.554222106934 -259.677185058594 1.623157024384
-133.658416748047 -68.149818420410 -285.835632324219 1.679286122322
-152.450286865234 -65.277801513672 -278.300079345703 3.589961051941
-161.357070922852 -75.774261474609 -292.362335205078 2.480498075485
-150.052124023438 -81.357025146484 -301.259460449219 1.209652543068
-106.821502685547 -69.638397216797 -255.330871582031 0.967144489288
94.731582641602 -73.697471618652 -209.433731079102 1.585895776749
-127.976554870605 -76.906723022461 -259.062225341797 1.771487712860
-61.255985260010 -74.169227600098 -54.930042266846 2.681236267090
-116.874877929688 -67.939575195313 -262.327728271484 1.485832810402
-121.836402893066 -67.124267578125 -259.942535400391 3.023370265961
-95.025817871094 -73.444732666016 -89.963096618652 2.289823055267
-138.596939086914 -85.411575317383 -259.092926025391 1.905118227005
15.432907104492 -80.067848205566 -270.580261230469 2.501393795013
51.304656982422 -73.782882690430 -102.408073425293 2.783112525940
66.101303100586 -67.181175231934 -72.246536254883 2.721423864365
-0.864268004894 -85.444885253906 -260.376403808594 2.433224916458
-166.953079223633 -74.420448303223 -253.141967773438 2.332346916199
11.763040542603 -64.373771667480 -149.007034301758 2.254721164703
86.325317382813 -61.692760467529 -107.126327514648 2.298186779022
-131.211135864258 -72.643913269043 -283.760650634766 1.591710925102
-145.012832641602 -85.135658264160 -260.706939697266 0.807103931904
79.459274291992 -69.346778869629 -227.002517700195 1.509422063828
-147.128906250000 -70.577049255371 -275.176208496094 2.019977569580
-134.901077270508 -66.958320617676 -288.823638916016 1.040385723114
-160.381118774414 -75.587875366211 -277.178039550781 3.169116020203
-151.154434204102 -85.816085815430 -261.265411376953 2.298152446747
-153.615188598633 -70.929054260254 -277.195129394531 2.403248071671
-165.460693359375 -69.311820983887 -261.358886718750 1.143684506416
-132.687332153320 -70.069778442383 -294.032073974609 2.167726755142
27.071380615234 -72.616256713867 -170.873962402344 0.933793365955
10.740054130554 -71.953971862793 -151.929809570313 0.949238479137
-69.464393615723 -79.634407043457 -99.211654663086 3.274950981140
11.287894248962 -68.022705078125 -146.682907104492 2.783481836319
26.810464859009 -68.641319274902 -164.401153564453 2.380516529083
88.104324340820 -65.667861938477 -105.396202087402 2.500586509705
85.729492187500 -69.603302001953 -66.359115600586 0.436277002096
37.455425262451 -77.297142028809 -109.314140319824 1.288744807243
-57.383644104004 -80.323577880859 -205.856719970703 1.601776599884
50.897438049316 -69.224380493164 -100.880714416504 2.708415985107
4.189095973969 -85.623046875000 -265.637359619141 1.075294971466
-97.666893005371 -70.366729736328 -93.428092956543 3.518562078476
1.550577998161 -83.994239807129 -271.567626953125 1.920627713203
-62.893611907959 -78.992477416992 -67.851181030273 3.085536479950
2.794368982315 -82.244941711426 -276.468231201172 1.600680947304
-80.569435119629 -81.299461364746 -84.254211425781 1.402859807014
0.563874006271 -80.579467773438 -278.581756591797 0.936132073402
21.200717926025 -73.878189086914 -267.654418945313 1.605522394180
-64.713630676270 -84.084648132324 -205.463851928711 2.035750627518
-60.667293548584 -83.373992919922 -207.106079101563 1.277565002441
53.553329467773 -73.116851806641 -92.058151245117 1.041559219360
36.517181396484 -74.643974304199 -110.731689453125 0.928244233131
-0.112681999803 -85.330200195313 -266.993499755859 1.331281661987
-76.782669067383 -71.781715393066 -101.063789367676 1.811698079109
-129.229370117188 -65.174118041992 -258.517608642578 2.243665933609
-86.389198303223 -78.252143859863 -80.725097656250 1.824852943420
-151.044754028320 -82.223838806152 -289.974609375000 0.865659892559
-155.351013183594 -81.768371582031 -285.138916015625 1.849267125130
-85.083633422852 -79.631851196289 -84.013198852539 0.410089462996
-145.527679443359 -81.650802612305 -293.026794433594 0.808974504471
-161.650100708008 -71.825180053711 -284.376525878906 2.366950511932
-146.859603881836 -69.750434875488 -308.216827392578 1.801559686661
-66.604248046875 -82.126045227051 -77.321861267090 1.190491676331
-127.929924011230 -72.712059020996 -264.579864501953 1.711591362953
-125.735107421875 -68.375602722168 -263.545471191406 0.989978253841
-58.449039459229 -82.414237976074 -77.369514465332 2.775759696960
114.736091613770 -70.850982666016 -139.345138549805 2.492374420166
113.066566467285 -74.148284912109 -137.144073486328 1.028722524643
-43.141029357910 -81.685913085938 -80.600547790527 2.776638746262
12.462491989136 -73.376861572266 -288.568206787109 2.041737318039
12.968586921692 -69.335212707520 -285.767578125000 1.484942793846
-107.618743896484 -68.005798339844 -167.894134521484 1.330581545830
-61.858661651611 -80.495429992676 -208.218994140625 1.690299510956
-64.363006591797 -80.370208740234 -203.530883789063 2.213938713074
48.005527496338 -70.784515380859 -105.894828796387 1.814000248909
-74.647155761719 -58.508304595947 -109.039009094238 1.548144817352
40.954753875732 -78.070144653320 -107.559333801270 2.204045295715
104.914154052734 -73.122108459473 -166.397064208984 2.826540946960
-82.545494079590 -82.018127441406 -89.282371520996 0.899796843529
-77.439697265625 -82.885932922363 -87.258422851563 0.907385468483
-154.158966064453 -70.058647155762 -177.061065673828 1.435142993927
-149.841583251953 -67.727684020996 -175.227584838867 0.892578184605
-82.126678466797 -66.275833129883 -108.992439270020 2.347799301147
-154.929977416992 -68.338592529297 -179.025329589844 2.268149375916
-2.375062942505 -65.866539001465 -264.607574462891 1.856958627701
-147.930587768555 -62.526901245117 -176.118041992188 1.179241418839
-64.619201660156 -81.305381774902 -74.732276916504 1.187489748001
-119.308967590332 -74.043167114258 -255.337203979492 1.658472537994
-58.209201812744 -72.660552978516 -52.552913665771 3.729187726974
91.992240905762 -73.593353271484 -200.431137084961 3.017175674438
-40.595523834229 -81.087799072266 -199.976242065430 1.037877678871
-56.414924621582 -80.263664245605 -182.518524169922 1.261527299881
-92.134834289551 -75.911094665527 -87.108337402344 2.120061159134
56.813083648682 -71.326133728027 -93.263847351074 1.336232304573
-141.342987060547 -71.986061096191 -292.649078369141 0.522975027561
-125.600189208984 -75.241043090820 -255.617797851563 0.474933028221
-86.448295593262 -82.612464904785 -99.478607177734 2.284432649612
-158.305053710938 -75.973297119141 -288.872741699219 2.295937538147
-145.844085693359 -77.227386474609 -303.713623046875 0.535606861115
-149.397720336914 -69.158363342285 -288.039428710938 0.999583899975
-144.906997680664 -68.737419128418 -292.636413574219 1.558960199356
-154.478225708008 -69.622161865234 -283.633972167969 1.495096564293
56.531429290771 -60.917984008789 -83.793724060059 1.414806127548
52.914016723633 -60.716075897217 -90.344703674316 2.565774679184
50.293231964111 -62.888820648193 -91.205505371094 1.563532710075
-145.465621948242 -64.647956848145 -289.198822021484 2.009289979935
-149.698532104492 -65.517471313477 -295.308441162109 0.857409060001
61.337318420410 -59.869873046875 -81.203971862793 1.168816447258
45.236175537109 -63.565292358398 -95.546607971191 3.374223470688
83.024780273438 -58.922679901123 -58.628700256348 1.650152444839
-108.034896850586 -72.065399169922 -260.529785156250 0.660617411137
-86.781623840332 -82.556877136230 -101.156753540039 0.768946468830
-88.742362976074 -81.193954467773 -101.652915954590 1.992694854736
29.573623657227 -62.902862548828 -257.884765625000 2.597327947617
-9.343915939331 -72.046287536621 -288.243438720703 2.836716890335
-7.277473926544 -72.212738037109 -285.400817871094 2.201140880585
-5.376338005066 -67.324272155762 -288.832092285156 1.852107524872
22.334615707397 -71.550285339355 -255.520462036133 1.912076234818
-8.271491050720 -68.399444580078 -284.760650634766 2.006748199463
112.322608947754 -74.351501464844 -160.641403198242 1.226669192314
-22.807748794556 -83.153991699219 -179.339645385742 0.949116885662
26.587068557739 -69.930603027344 -139.040008544922 1.751272916794
29.892299652100 -61.562385559082 -130.359054565430 1.506199479103
-40.933795928955 -72.026481628418 -151.421173095703 2.123056411743
-24.004898071289 -83.714965820313 -180.804382324219 2.318171501160
-114.447387695313 -71.356979370117 -231.287246704102 1.081441760063
-25.506092071533 -83.109230041504 -180.555862426758 3.294095754623
-42.340557098389 -68.665832519531 -153.658401489258 1.850678682327
-115.462318420410 -66.538925170898 -231.933914184570 1.342041969299
-42.946475982666 -83.952056884766 -191.860977172852 1.422382116318
-49.765888214111 -84.053031921387 -196.295471191406 2.122865438461
-52.985671997070 -83.222015380859 -203.746551513672 1.605147600174
-43.813415527344 -77.349929809570 -64.981292724609 1.774909734726
-53.937969207764 -80.138694763184 -72.021507263184 2.233874320984
-154.063568115234 -83.286758422852 -227.420715332031 1.320111751556
-135.439147949219 -78.853256225586 -199.102340698242 2.441787004471
-147.602432250977 -83.390800476074 -217.241180419922 0.658917605877
-54.843738555908 -61.694061279297 -135.835815429688 0.960473716259
-49.787513732910 -65.970558166504 -138.955581665039 2.039104461670
-18.718162536621 -71.258682250977 -240.738052368164 0.837441802025
-147.478668212891 -83.787063598633 -222.962524414063 1.306733489037
5.031814098358 -76.083137512207 -212.443466186523 2.727906703949
12.533079147339 -79.862831115723 -210.535186767578 1.784139156342
-32.982753753662 -79.203712463379 -238.094345092773 0.983287215233
-149.527206420898 -84.113174438477 -225.464797973633 0.556893348694
-147.095443725586 -83.777435302734 -224.926712036133 1.153645515442
-142.968933105469 -83.656898498535 -227.653717041016 1.381099343300
-23.224884033203 -73.266632080078 -215.135116577148 2.535862684250
-151.644332885742 -84.398834228516 -231.324142456055 0.755182147026
-166.526443481445 -68.189636230469 -229.731872558594 1.885366082191
12.117976188660 -70.261749267578 -181.812835693359 3.014060258865
32.307346343994 -72.149299621582 -148.664855957031 0.764157235622
-146.056167602539 -83.593780517578 -229.119979858398 1.141543984413
-148.234527587891 -84.631187438965 -234.449127197266 1.624874353409
-147.635513305664 -84.554718017578 -237.875747680664 0.809253871441
-151.496047973633 -83.729385375977 -232.545852661133 1.387693881989
-167.760513305664 -69.214530944824 -236.857818603516 1.230551242828
7.986052989960 -68.353752136230 -212.500549316406 1.649892091751
-27.198417663574 -79.167442321777 -216.401580810547 1.688356995583
-147.130996704102 -84.075378417969 -247.759155273438 1.632639169693
-81.223892211914 -72.630035400391 -210.338760375977 1.504542946815
3.538290977478 -69.308227539063 -157.959472656250 1.726002812386
-48.540107727051 -74.307838439941 -242.063385009766 0.564875662327
-54.690795898438 -79.130043029785 -243.347152709961 0.987571477890
18.884151458740 -68.167526245117 -177.333770751953 1.509825229645
-168.137161254883 -74.177200317383 -261.842285156250 1.731526255608
95.193946838379 -69.277870178223 -97.243293762207 3.630977630615
-134.278594970703 -73.837913513184 -294.305328369141 1.545790433884
-152.583190917969 -68.130561828613 -275.429351806641 1.601536154747
10.093604087830 -69.454742431641 -148.653564453125 1.760870218277
27.921085357666 -71.248489379883 -166.538696289063 1.878160715103
67.756187438965 -71.037658691406 -89.246711730957 2.644821882248
-147.634765625000 -85.087890625000 -252.370666503906 2.029197216034
25.906389236450 -68.915679931641 -169.806121826172 1.539133667946
10.904715538025 -65.911285400391 -152.860260009766 1.362947225571
63.605472564697 -66.962127685547 -83.666938781738 1.589886903763
-146.599868774414 -84.798126220703 -262.798156738281 0.295856714249
-168.533050537109 -73.181762695313 -255.786102294922 2.269780874252
-153.571243286133 -85.255859375000 -256.605499267578 1.988107919693
5.843028068542 -60.567150115967 -277.083984375000 2.140640020370
65.311561584473 -57.257137298584 -63.053401947021 3.045351982117
-52.330184936523 -78.447982788086 -67.160171508789 1.757681369781
9.844644546509 -83.913856506348 -253.746994018555 0.813712537289
-74.007286071777 -76.617080688477 -247.834655761719 1.502346634865
29.805889129639 -68.684379577637 -254.184829711914 1.852877616882
107.762260437012 -74.966018676758 -157.218826293945 1.259483695030
14.789545059204 -71.560363769531 -172.367874145508 2.530590772629
-167.415557861328 -74.847908020020 -264.411682128906 2.315249681473
-152.703399658203 -84.314071655273 -262.562744140625 1.658894777298
15.276142120361 -66.894676208496 -178.930007934570 2.672645807266
-3.484438896179 -83.423271179199 -269.633270263672 1.932500720024
7.337343215942 -77.180229187012 -291.524475097656 1.076940536499
84.244903564453 -73.309539794922 -96.767631530762 2.022974729538
77.848609924316 -67.838409423828 -102.769157409668 2.784356117249
-5.901955127716 -80.408157348633 -274.811920166016 1.017007470131
9.320267677307 -83.764205932617 -268.890594482422 1.347604870796
45.022666931152 -73.465652465820 -110.978576660156 3.469088315964
-85.899688720703 -77.445190429688 -216.155227661133 0.554358065128
22.932521820068 -69.212097167969 -268.762634277344 1.260634541512
63.877147674561 -72.211456298828 -233.388504028320 1.914594292641
37.797710418701 -73.029930114746 -103.374565124512 2.966426849365
-91.195449829102 -78.785278320313 -105.509414672852 0.960942506790
-2.993763923645 -83.208068847656 -270.857208251953 2.355257272720
39.206897735596 -74.571708679199 -106.682502746582 1.238958358765
-0.517217993736 -59.659008026123 -248.453491210938 2.539502382278
-58.206386566162 -78.952110290527 -92.602714538574 2.752470970154
-162.597686767578 -75.112838745117 -264.054870605469 1.349276661873
-156.709335327148 -75.440330505371 -257.979278564453 2.190547943115
-149.232131958008 -85.378028869629 -275.783813476563 1.280583977699
-167.931060791016 -70.626541137695 -278.531555175781 1.443214654922
73.392158508301 -67.120811462402 -103.146331787109 2.212709903717
-151.689666748047 -67.461669921875 -259.305664062500 2.205069780350
-87.540794372559 -61.162395477295 -49.595443725586 2.413348913193
-146.460479736328 -63.605072021484 -259.142364501953 1.005522131920
26.756765365601 -69.500747680664 -153.461441040039 1.180251836777
-152.502685546875 -80.530326843262 -266.818695068359 2.796048641205
-148.846984863281 -80.198554992676 -271.425415039063 1.087741494179
-146.254547119141 -71.911087036133 -250.310195922852 2.422874927521
17.714965820313 -70.700485229492 -159.351486206055 2.452567338943
28.694196701050 -67.514350891113 -147.818450927734 0.560509681702
-163.525543212891 -70.188766479492 -271.172546386719 2.611383676529
-162.023040771484 -70.698226928711 -269.290191650391 2.743552923203
-124.450683593750 -74.481681823730 -258.000854492188 1.076906442642
49.476528167725 -68.808502197266 -102.782707214355 1.541382193565
-156.382003784180 -75.528556823730 -305.816925048828 2.440707206726
28.935094833374 -73.878692626953 -120.684471130371 2.887276649475
-34.999633789063 -79.252159118652 -177.308135986328 0.848994851112
-93.336753845215 -76.645881652832 -102.733184814453 2.947864294052
-149.358764648438 -79.954643249512 -295.041748046875 1.572070240974
-32.782615661621 -79.713531494141 -174.767593383789 1.983541011810
-141.232437133789 -83.112442016602 -286.358062744141 3.069322347641
-69.118370056152 -80.886734008789 -211.098480224609 1.467868924141
-144.835571289063 -82.620666503906 -291.579833984375 1.405853152275
-59.850326538086 -78.670249938965 -204.301147460938 1.575204372406
-56.446212768555 -80.435279846191 -200.064300537109 2.223529338837
-47.972183227539 -78.753814697266 -190.860168457031 1.533199429512
-153.188247680664 -81.716476440430 -299.345581054688 1.408371090889
-64.331901550293 -82.090782165527 -209.180541992188 1.411085605621
-151.844421386719 -67.854652404785 -308.018554687500 1.730420351028
-83.746086120605 -66.595298767090 -102.290603637695 2.834937095642
-64.435119628906 -81.233268737793 -74.474998474121 1.367596268654
-48.060146331787 -75.874786376953 -59.723865509033 3.336497783661
-89.652610778809 -78.830871582031 -109.038330078125 2.295058012009
12.190139770508 -80.589401245117 -249.951858520508 0.940774798393
-52.661930084229 -81.142486572266 -75.128921508789 1.391707301140
-49.877067565918 -81.107009887695 -75.501060485840 2.822844266891
-136.394439697266 -83.397613525391 -259.008239746094 1.455267906189
-37.131336212158 -74.233047485352 -161.377838134766 1.669315338135
-18.515298843384 -76.608009338379 -177.533798217773 2.187570095062
-13.817212104797 -75.760932922363 -175.085403442383 1.585365056992
86.459793090820 -72.403831481934 -71.048988342285 1.722327947617
-133.269790649414 -76.267936706543 -261.421295166016 0.974823474884
26.383668899536 -78.661857604980 -136.589721679688 1.235816955566
-151.581787109375 -85.803817749023 -300.865570068359 1.244882345200
-11.461957931519 -74.771072387695 -170.698867797852 2.944296121597
-150.754135131836 -78.699813842773 -312.151031494141 1.692273736000
27.144773483276 -75.087272644043 -132.447097778320 3.406457901001
23.600082397461 -73.589828491211 -135.698822021484 2.822041988373
81.716308593750 -73.602714538574 -75.684730529785 2.304829597473
-7.066500186920 -74.868286132813 -164.988204956055 3.346657037735
65.501983642578 -64.866439819336 -69.497375488281 2.198042631149
90.476974487305 -72.702880859375 -76.532371520996 3.298838853836
-52.671344757080 -77.625656127930 -64.604690551758 2.209010601044
-39.988342285156 -80.325096130371 -76.253791809082 2.094224929810
-165.923385620117 -76.151138305664 -285.450988769531 1.395649552345
-138.286132812500 -75.187217712402 -257.511199951172 2.736275196075
-100.227836608887 -74.521057128906 -218.772277832031 2.064546585083
-46.497303009033 -80.130340576172 -73.242073059082 1.781114220619
-39.793399810791 -75.277130126953 -206.801513671875 1.105341076851
75.168769836426 -71.191284179688 -226.524780273438 2.304023504257
-6.798102855682 -80.234313964844 -249.995056152344 2.142719745636
107.278938293457 -66.616348266602 -122.048522949219 2.843839645386
-70.430465698242 -60.766990661621 -93.928977966309 2.198805332184
62.189960479736 -57.637657165527 -69.699790954590 3.792200326920
91.977325439453 -72.252807617188 -78.218757629395 3.049623250961
-41.027233123779 -78.681800842285 -82.846160888672 1.909313082695
-40.483749389648 -76.220619201660 -243.986083984375 1.464995384216
-137.244918823242 -81.316215515137 -287.342315673828 1.710830569267
-74.622756958008 -77.562286376953 -207.868545532227 1.393997669220
-133.158584594727 -76.841072082520 -285.537475585938 0.946560919285
-75.652542114258 -80.666656494141 -77.133605957031 2.456323146820
21.157939910889 -61.258480072021 -142.765502929688 2.015117883682
-78.751075744629 -81.321357727051 -82.388755798340 0.935139954090
-86.717727661133 -66.333129882813 -105.873527526855 2.775480747223
54.014999389648 -62.511291503906 -96.093498229980 0.593252062798
-22.323444366455 -73.099304199219 -289.954223632813 1.685595750809
-76.255928039551 -81.816238403320 -82.304771423340 1.470194339752
-76.613861083984 -65.934631347656 -99.219741821289 2.358456611633
-88.841423034668 -66.013359069824 -109.580368041992 2.804792642593
48.547649383545 -62.810928344727 -98.830337524414 2.594684123993
-146.421142578125 -71.197563171387 -268.342132568359 2.866782426834
-128.667373657227 -72.436790466309 -283.723846435547 3.014545440674
-158.441909790039 -74.404113769531 -255.049636840820 3.555051803589
-162.130722045898 -74.508628845215 -252.042724609375 1.445357203484
-50.474094390869 -77.849479675293 -85.820549011230 2.837099552155
-155.155654907227 -75.577102661133 -254.721298217773 2.415671348572
-125.329299926758 -69.267898559570 -286.947692871094 1.585129380226
-128.191802978516 -66.515327453613 -289.361297607422 2.094352245331
-149.447357177734 -64.128799438477 -273.280212402344 2.783558368683
-152.405105590820 -65.006164550781 -268.076232910156 2.692793130875
-147.970138549805 -82.287452697754 -258.474853515625 1.473428249359
89.800834655762 -74.050559997559 -92.823760986328 3.433316469193
-68.080596923828 -80.227111816406 -98.861694335938 3.147382974625
-50.324375152588 -78.551689147949 -68.003265380859 3.088880062103
-81.392845153809 -78.321296691895 -103.812736511230 2.744960308075
44.167816162109 -67.351646423340 -97.888160705566 1.582577228546
50.924591064453 -65.667617797852 -88.354110717773 1.737352252007
-34.578941345215 -69.831588745117 -174.508972167969 1.785229921341
-156.740051269531 -75.512161254883 -295.020538330078 1.199700474739
-149.563201904297 -79.835556030273 -306.144378662109 1.350510478020
-150.421554565430 -79.393196105957 -300.460113525391 1.514874100685
71.660751342773 -67.563713073730 -65.869430541992 1.423017501831
64.570724487305 -66.581985473633 -75.873489379883 1.401158213615
56.195251464844 -67.591461181641 -86.247940063477 1.596722245216
37.704639434814 -67.376075744629 -106.604598999023 3.647511005402
-35.819431304932 -68.765510559082 -178.636260986328 1.992453813553
-121.188262939453 -70.116401672363 -263.072113037109 2.899245738983
-153.763931274414 -70.773246765137 -297.491241455078 0.325585901737
77.385169982910 -66.686119079590 -63.372848510742 0.831330537796
-32.569732666016 -67.854377746582 -175.283355712891 1.956286549568
-113.058418273926 -69.978988647461 -256.447906494141 0.716539442539
-115.907150268555 -67.273811340332 -259.945343017578 1.110597491264
48.022129058838 -65.364356994629 -92.832969665527 1.178844094276
59.769535064697 -64.654083251953 -80.724227905273 2.696299076080
80.838096618652 -63.616207122803 -60.801258087158 1.218109250069
-153.551895141602 -65.137954711914 -286.191711425781 0.953710377216
-151.216262817383 -66.012962341309 -291.413452148438 1.159642815590
-147.239852905273 -64.898124694824 -293.841796875000 1.456849098206
-16.739858627319 -82.193572998047 -175.326446533203 0.707331001759
-39.630172729492 -79.864997863770 -163.384353637695 2.449979066849
-18.954025268555 -81.286415100098 -181.087890625000 2.366956949234
13.960292816162 -79.571891784668 -216.144973754883 1.561492443085
-150.905838012695 -81.111770629883 -188.094528198242 1.749061346054
-39.892845153809 -74.947364807129 -157.064331054688 2.795584201813
-58.247665405273 -73.448608398438 -172.886199951172 2.185874938965
-13.647488594055 -79.734855651855 -209.351455688477 1.446948289871
18.850076675415 -80.981025695801 -242.933319091797 2.292975187302
-31.447053909302 -82.150939941406 -190.290695190430 2.447170019150
-2.944597005844 -67.558219909668 -234.211059570313 0.932347953320
-93.203857421875 -66.905761718750 -144.417083740234 2.472417354584
-42.800083160400 -73.737190246582 -199.538742065430 1.491976737976
-49.511505126953 -80.930603027344 -186.329055786133 1.465054392815
-43.296985626221 -79.901306152344 -192.435379028320 1.991862773895
-92.908210754395 -74.057579040527 -219.352539062500 1.612077593803
-43.190570831299 -73.974731445313 -56.689754486084 2.868213653564
13.963631629944 -79.524673461914 -250.306762695313 1.058825492859
-125.520019531250 -73.073791503906 -226.320510864258 1.064358353615
-149.190490722656 -72.825942993164 -201.041442871094 1.461934208870
-33.152828216553 -77.381401062012 -71.105163574219 3.281782388687
-151.272674560547 -79.690086364746 -193.144973754883 2.093101978302
-156.172637939453 -67.802917480469 -200.028762817383 2.045456886292
-130.561828613281 -67.785438537598 -224.378692626953 0.886724293232
-141.875610351563 -64.252624511719 -199.292922973633 1.790035128593
-146.945465087891 -60.262737274170 -198.863815307617 1.831005692482
-71.145545959473 -71.514190673828 -151.359100341797 1.903325200081
12.587490081787 -83.244934082031 -244.023498535156 2.436903238297
-70.998733520508 -68.573463439941 -150.560836791992 1.360587120056
-7.314970970154 -69.116912841797 -213.011978149414 2.051425933838
-73.000022888184 -73.267662048340 -251.689880371094 1.971670389175
-10.783728599548 -79.923027038574 -213.056228637695 2.237552165985
-88.254768371582 -58.700881958008 -116.398979187012 3.306262254715
-40.405071258545 -73.291389465332 -285.913757324219 1.331353068352
-24.272884368896 -71.923927307129 -62.720062255859 2.945971250534
-143.083953857422 -69.671218872070 -185.738891601563 2.616394281387
-149.494110107422 -61.871921539307 -184.028610229492 2.356780529022
-20.624982833862 -78.916572570801 -202.255981445313 1.925048112869
-150.621994018555 -72.224594116211 -191.065231323242 2.631605148315
-152.449295043945 -82.210220336914 -201.506256103516 1.022167086601
-155.662704467773 -68.184486389160 -193.241867065430 1.360143899918
-163.304229736328 -66.542213439941 -200.443878173828 0.481068670750
-148.527496337891 -59.717773437500 -194.469848632813 1.434029817581
-116.781135559082 -72.155273437500 -227.609252929688 1.846082687378
34.284660339355 -70.892349243164 -140.459121704102 1.580416083336
-51.609935760498 -79.606567382813 -191.286712646484 1.981112360954
-48.603111267090 -80.022071838379 -194.897659301758 1.754932403564
-147.314147949219 -82.933677673340 -202.543273925781 1.499065160751
-148.522171020508 -83.380790710449 -205.462768554688 1.707716226578
-147.807357788086 -83.256210327148 -209.560882568359 0.873686432838
-16.229806900024 -62.163093566895 -55.750144958496 3.168863296509
-49.129657745361 -72.940704345703 -285.756591796875 2.097918987274
-83.449264526367 -70.699165344238 -249.607879638672 2.458073616028
-107.522499084473 -72.334976196289 -226.245086669922 0.585650384426
-142.851669311523 -81.210571289063 -201.112274169922 0.856451332569
-145.888595581055 -65.815513610840 -191.236282348633 2.346629858017
-32.942840576172 -62.633872985840 -72.740852355957 2.974547147751
-151.466690063477 -64.628677368164 -192.158660888672 2.091371536255
-36.608348846436 -57.783500671387 -71.420227050781 2.409557104111
-39.373924255371 -76.251235961914 -196.999160766602 1.181389212608
-53.210430145264 -76.316757202148 -183.213165283203 1.291871786118
77.427398681641 -73.603363037109 -73.823410034180 1.000862360001
94.910194396973 -65.137580871582 -67.814918518066 2.187044858932
47.904327392578 -71.667495727539 -245.457672119141 3.201682806015
-69.520484924316 -79.155624389648 -69.245010375977 1.685252666473
5.833515167236 -80.998275756836 -278.390747070313 1.902374267578
11.486669540405 -77.928443908691 -279.203369140625 1.779084682465
-69.659385681152 -82.945610046387 -206.904556274414 1.490449070930
-87.659835815430 -78.911720275879 -85.939491271973 0.685886979103
-83.418395996094 -79.807716369629 -82.097373962402 2.183417320251
-102.757949829102 -69.718452453613 -224.945877075195 1.703853249550
-57.761127471924 -68.428276062012 -47.735126495361 1.815164566040
97.450347900391 -69.158561706543 -197.813293457031 1.688523888588
-116.404182434082 -64.161155700684 -201.594360351563 1.338538765907
-142.237030029297 -80.792243957520 -226.357925415039 1.175851106644
-150.180191040039 -79.791839599609 -215.949478149414 1.235292553902
18.272308349609 -76.290451049805 -186.880905151367 1.821169137955
-163.738021850586 -67.462234497070 -216.297698974609 0.873396754265
-9.833846092224 -64.015571594238 -246.655609130859 0.682779133320
-71.227516174316 -58.343246459961 -114.640182495117 1.675218462944
-146.628631591797 -81.543571472168 -220.913696289063 3.040216207504
19.955638885498 -71.482597351074 -198.163513183594 1.552716374397
-30.717689514160 -80.318077087402 -240.423156738281 2.353903055191
100.207992553711 -64.676536560059 -80.981880187988 4.029980659485
-5.855016231537 -73.828796386719 -244.858535766602 1.596493601799
-146.638839721680 -78.919448852539 -218.673202514648 2.260230541229
-114.984306335449 -65.694862365723 -202.269744873047 1.328626275063
-164.831832885742 -73.236015319824 -226.848785400391 0.700044453144
-154.382690429688 -81.029434204102 -226.684295654297 1.363309502602
-103.160240173340 -72.864822387695 -291.767944335938 1.575339674950
-151.914001464844 -74.741592407227 -248.124954223633 1.835093617439
-141.673522949219 -82.417938232422 -230.887908935547 0.638656795025
-153.360687255859 -69.642501831055 -246.850357055664 2.020249366760
1.982530951500 -79.970375061035 -246.134414672852 1.025593400002
12.095497131348 -80.698005676270 -236.684799194336 1.603677272797
5.825100898743 -76.857475280762 -237.547470092773 1.409820318222
-33.552787780762 -64.902748107910 -48.952297210693 1.961558341980
-31.494342803955 -80.098220825195 -211.233474731445 0.905868172646
-61.805011749268 -78.728118896484 -166.039810180664 1.075688600540
10.858988761902 -82.824218750000 -237.860076904297 0.993246674538
-11.445292472839 -72.278648376465 -203.779266357422 0.997209370136
36.046627044678 -79.141593933105 -117.506591796875 0.739459693432
35.574138641357 -75.314636230469 -113.301910400391 2.078048229218
14.026646614075 -83.347175598145 -244.153503417969 2.565015316010
13.630748748779 -82.819381713867 -237.854553222656 1.164121031761
-97.293830871582 -68.099746704102 -146.631271362305 2.155136585236
-0.268413990736 -66.492576599121 -237.513092041016 2.324515104294
-150.742630004883 -76.121246337891 -207.610321044922 2.193759918213
-161.195709228516 -67.874626159668 -210.636886596680 2.178851127625
45.454010009766 -74.897422790527 -113.977020263672 1.979156613350
-134.472702026367 -66.970542907715 -234.053176879883 0.732841610909
36.606475830078 -79.093139648438 -125.601181030273 1.745815157890
-136.654632568359 -80.865402221680 -227.138397216797 1.915004014969
15.650523185730 -82.841857910156 -241.857025146484 2.058893680573
-91.889213562012 -67.528251647949 -140.780761718750 2.487549781799
2.667819976807 -67.766273498535 -232.343719482422 1.640145540237
-2.840991020203 -79.861389160156 -225.709167480469 1.690814256668
-69.630241394043 -73.978530883789 -157.851547241211 2.459508419037
-16.385883331299 -75.563011169434 -212.112762451172 1.107975840569
99.570404052734 -76.369331359863 -189.777969360352 1.411031007767
20.569297790527 -77.253448486328 -246.568466186523 0.174665063620
34.084072113037 -68.347221374512 -133.943954467773 1.725025177002
-79.119895935059 -60.885356903076 -118.696502685547 1.733053207397
16.849597930908 -81.162422180176 -245.909408569336 1.709339022636
-87.261856079102 -63.530509948730 -127.026985168457 2.225106239319
9.426380157471 -72.770713806152 -288.461273193359 1.073820710182
-4.560279846191 -83.126266479492 -252.866699218750 2.120273590088
-166.537719726563 -75.724029541016 -276.652343750000 1.780920505524
93.764114379883 -72.357177734375 -81.065078735352 2.730811595917
-148.587799072266 -76.019416809082 -259.510467529297 1.510808229446
78.498970031738 -73.207534790039 -96.027053833008 2.553268671036
80.538764953613 -66.316497802734 -102.630645751953 3.894051551819
-158.952209472656 -70.526420593262 -259.885314941406 1.774755835533
22.950880050659 -78.195632934570 -148.956390380859 1.168284773827
-140.665908813477 -83.429481506348 -256.356414794922 1.719783186913
29.475709915161 -75.926795959473 -150.223373413086 2.879694700241
86.931640625000 -75.310989379883 -90.021034240723 2.626009464264
-64.970481872559 -74.547958374023 -244.343338012695 1.853330373764
19.263885498047 -75.786003112793 -156.596878051758 2.025503635406
-152.316238403320 -83.318069458008 -263.578308105469 1.396879553795
-162.671112060547 -69.846282958984 -264.712219238281 1.465573549271
-146.976684570313 -81.588455200195 -264.188110351563 1.160543918610
-116.316368103027 -75.646659851074 -289.694763183594 1.441594958305
-157.231384277344 -65.873359680176 -258.314361572266 1.965595483780
-158.935699462891 -74.332969665527 -251.737792968750 2.106777429581
86.511917114258 -75.531311035156 -218.576431274414 1.722818493843
-154.738204956055 -82.001113891602 -255.914718627930 1.700684547424
-48.191989898682 -76.560440063477 -84.430946350098 1.999090313911
-9.270319938660 -81.980003356934 -257.359466552734 1.457635164261
19.203710556030 -62.363872528076 -33.593383789063 2.551954984665
-10.298037528992 -68.709251403809 -271.044647216797 0.924304068089
-6.928638935089 -67.582595825195 -266.893249511719 1.614251136780
-9.991945266724 -72.927757263184 -279.630615234375 1.971876859665
-5.091045856476 -66.564064025879 -279.338836669922 2.163601875305
-66.054275512695 -77.510650634766 -246.017410278320 0.987365484238
-7.509890079498 -83.512390136719 -261.479400634766 1.217983603477
-9.618603706360 -81.847518920898 -262.371368408203 2.199887514114
44.953945159912 -71.096824645996 -93.397621154785 2.849847316742
10.644657135010 -82.690208435059 -270.586486816406 2.613579273224
-73.649070739746 -59.097003936768 -99.621589660645 2.037189245224
45.303905487061 -77.299461364746 -103.415946960449 1.692131400108
-92.566833496094 -77.076324462891 -97.179573059082 3.141607046127
105.029113769531 -75.801765441895 -173.228103637695 2.004407167435
-67.583923339844 -65.915847778320 -45.737888336182 2.060259819031
-70.493690490723 -80.825019836426 -206.329818725586 1.613927960396
-54.876495361328 -80.761634826660 -184.103668212891 3.139478206635
7.978944778442 -82.208526611328 -275.634765625000 2.305411577225
13.647550582886 -78.403617858887 -276.894836425781 2.129561662674
63.675914764404 -68.240371704102 -233.959075927734 2.253954410553
22.408966064453 -67.962089538574 -270.952697753906 1.508033037186
-137.320144653320 -83.127502441406 -290.122680664063 2.068837642670
-147.191864013672 -81.449264526367 -279.440246582031 2.560342788696
17.506280899048 -75.759483337402 -177.680618286133 1.703766465187
3.894515037537 -75.514533996582 -160.274917602539 1.593964695930
21.806783676147 -78.873229980469 -169.580764770508 1.810592770576
27.490491867065 -74.950973510742 -168.514251708984 2.737332344055
-160.449005126953 -71.931755065918 -278.663055419922 1.744563817978
-153.864852905273 -75.344383239746 -276.141723632813 2.521121263504
-67.004943847656 -74.678367614746 -93.910156250000 2.202788114548
-152.499877929688 -82.824546813965 -280.919281005859 3.248291015625
-160.982025146484 -72.058830261230 -280.785095214844 1.703338027000
-62.567237854004 -77.770645141602 -64.016601562500 3.471029043198
26.303405761719 -67.544128417969 -139.414749145508 2.507615327835
46.146411895752 -67.660903930664 -90.853454589844 3.092834234238
-69.313003540039 -79.856536865234 -71.728195190430 1.520068526268
52.359580993652 -65.740341186523 -97.106605529785 1.341873168945
-87.395492553711 -63.292881011963 -108.897857666016 3.241922616959
23.753713607788 -67.686218261719 -145.182312011719 1.930534362793
87.451385498047 -65.455474853516 -62.252346038818 0.465730369091
-35.837921142578 -76.083740234375 -207.231811523438 0.658418178558
-49.643482208252 -74.980499267578 -160.101699829102 1.719827532768
-20.608610153198 -76.055404663086 -191.843032836914 1.918004274368
-53.751728057861 -60.819538116455 -43.214199066162 1.227919816971
31.147974014282 -78.187370300293 -144.623229980469 1.515674233437
-79.203765869141 -76.133506774902 -250.332290649414 1.314200162888
32.023090362549 -75.430534362793 -141.406677246094 3.191271543503
-36.078418731689 -79.307365417480 -75.590858459473 2.438563346863
-145.972503662109 -79.947135925293 -188.749801635742 2.528658390045
-80.666908264160 -79.496887207031 -77.310943603516 1.410320758820
87.797821044922 -74.195732116699 -93.205474853516 2.930638551712
-45.655815124512 -80.143714904785 -83.786163330078 1.390707015991
-53.420391082764 -80.277252197266 -88.945327758789 3.070937633514
107.797508239746 -68.823600769043 -160.227249145508 3.539233446121
-88.907821655273 -79.698684692383 -92.853317260742 0.747833669186
-52.031059265137 -76.738571166992 -62.072029113770 1.911571264267
49.805927276611 -64.630714416504 -246.923034667969 2.067314147949
-44.986942291260 -76.577804565430 -201.227233886719 1.897027969360
53.718772888184 -59.197128295898 -92.894256591797 2.555637359619
-78.707916259766 -78.126823425293 -101.040344238281 2.175495147705
-31.716386795044 -78.533172607422 -188.073776245117 1.343832612038
-22.773265838623 -79.543342590332 -197.378265380859 2.364846706390
-37.171764373779 -80.222457885742 -188.397140502930 1.998817443848
-25.950080871582 -78.984420776367 -194.396789550781 1.973045587540
7.132184028625 -80.339897155762 -229.435729980469 2.031605958939
-2.412327051163 -79.057228088379 -221.774353027344 1.138979315758
6.821234226227 -79.443374633789 -219.131225585938 1.412267446518
12.888087272644 -78.231491088867 -220.391540527344 0.754391014576
-0.785688996315 -79.356590270996 -229.700805664063 1.629803419113
0.749976992607 -76.557273864746 -229.390640258789 1.670119166374
-52.279640197754 -78.704360961914 -179.278808593750 1.417666673660
-27.530832290649 -80.719497680664 -187.547897338867 1.581195473671
-42.910381317139 -77.891593933105 -168.224456787109 2.086861371994
-94.081787109375 -72.104156494141 -220.007980346680 1.714235663414
-42.087486267090 -73.742156982422 -199.507797241211 1.905927658081
-50.340827941895 -72.426925659180 -52.539424896240 1.853435158730
-50.402400970459 -80.188697814941 -183.276199340820 1.209380626678
-40.795520782471 -79.843978881836 -191.509445190430 1.775545597076
-147.952331542969 -72.567886352539 -200.346130371094 0.931474089622
-58.128189086914 -72.363319396973 -289.720672607422 1.403313159943
-147.453826904297 -82.710296630859 -191.726318359375 1.891279816628
-142.802658081055 -65.670249938965 -202.472640991211 1.700000405312
-127.425651550293 -64.039962768555 -227.445617675781 1.619827032089
-156.179016113281 -62.248718261719 -200.574447631836 1.960968017578
-151.789764404297 -60.808013916016 -201.929718017578 1.084468841553
-86.636856079102 -75.130119323730 -252.253204345703 0.940758109093
31.638147354126 -79.688133239746 -134.194107055664 1.457749843597
-147.838562011719 -79.945442199707 -197.464599609375 1.199440121651
29.534027099609 -76.655693054199 -129.257736206055 0.625369787216
39.764324188232 -70.354019165039 -117.583129882813 2.271015405655
-23.308092117310 -78.709411621094 -218.500167846680 1.093667864799
-137.519363403320 -79.345870971680 -196.956008911133 2.632503271103
33.822795867920 -64.708847045898 -34.887519836426 3.018291234970
107.772041320801 -66.306159973145 -105.108261108398 1.336799263954
-55.233474731445 -79.089591979980 -186.693923950195 2.225904464722
-42.674137115479 -81.566452026367 -197.736312866211 2.074056148529
3.782778024673 -61.868213653564 -278.373291015625 2.211613893509
-136.237319946289 -80.997222900391 -200.328521728516 1.002675652504
15.486193656921 -81.364189147949 -234.286651611328 1.762826800346
39.248157501221 -73.053428649902 -128.093765258789 0.739750802517
-108.198165893555 -71.390136718750 -222.536437988281 1.949977874756
-17.878187179565 -70.931480407715 -192.203750610352 1.065872550011
-47.835937500000 -70.246910095215 -162.136703491211 2.058045625687
-19.807851791382 -79.400466918945 -201.131591796875 1.703308105469
-82.996635437012 -68.375091552734 -122.679794311523 2.711574077606
-70.825401306152 -64.378440856934 -45.090194702148 1.303899407387
-35.138751983643 -73.369155883789 -210.302291870117 2.618253946304
-48.160198211670 -68.830116271973 -159.283447265625 1.640481710434
40.506397247314 -77.190605163574 -122.623847961426 2.483833789825
-150.183563232422 -82.721160888672 -204.935241699219 1.860421061516
-163.539749145508 -66.882949829102 -207.226989746094 1.228227734566
29.931116104126 -69.502601623535 -139.512084960938 1.583178043365
35.864387512207 -76.601295471191 -128.258712768555 3.501902341843
-27.708068847656 -72.966636657715 -212.457992553711 0.783865392208
42.530994415283 -77.776878356934 -115.361404418945 0.915818750858
43.109516143799 -75.413215637207 -118.156898498535 1.976839542389
-97.367332458496 -66.980812072754 -142.250793457031 1.867091655731
3.860837936401 -67.512367248535 -238.123779296875 0.887222230434
-137.165130615234 -77.801315307617 -227.198852539063 0.778194248676
34.032062530518 -79.528282165527 -122.198158264160 0.961150646210
-139.069885253906 -69.600173950195 -233.262542724609 1.859100818634
-151.039916992188 -81.915657043457 -207.282272338867 2.735668659210
-163.722732543945 -66.972206115723 -209.150314331055 1.721082329750
29.665895462036 -69.617202758789 -131.736480712891 0.967694044113
-87.145904541016 -73.589721679688 -250.347488403320 1.290622591972
107.573806762695 -73.360801696777 -184.269073486328 1.500623583794
-149.425125122070 -80.655860900879 -211.852386474609 1.812226057053
-108.542762756348 -71.866287231445 -227.963119506836 1.166869401932
-162.638122558594 -67.377578735352 -213.315444946289 2.665868043900
39.149662017822 -78.934799194336 -114.072830200195 1.649661540985
40.533275604248 -75.837142944336 -118.895019531250 3.258146286011
-118.306785583496 -65.159431457520 -229.555130004883 2.633732080460
-24.763069152832 -71.711479187012 -197.925079345703 1.531759858131
-23.088464736938 -79.892845153809 -192.091293334961 1.146948814392
10.238380432129 -81.281898498535 -224.390731811523 0.817111730576
6.786314964294 -76.557266235352 -226.255447387695 1.694576382637
-25.576986312866 -68.380012512207 -197.809539794922 1.836931705475
-146.489944458008 -80.468482971191 -210.389312744141 2.140159130096
10.335254669189 -81.682823181152 -227.632644653320 1.718634247780
6.730117797852 -76.000488281250 -229.500167846680 1.311450123787
-28.020803451538 -76.379196166992 -194.979568481445 1.735214948654
1.942698001862 -62.901180267334 -237.777236938477 1.307625651360
-96.856575012207 -63.370998382568 -140.885116577148 3.046772956848
-3.689992904663 -76.573837280273 -220.682540893555 1.963005423546
13.281319618225 -79.266036987305 -204.631271362305 0.792478263378
-5.914524078369 -77.471382141113 -246.297439575195 1.877103805542
-151.923812866211 -79.497978210449 -234.906906127930 2.038698434830
-113.161903381348 -68.300117492676 -183.066024780273 2.342526912689
11.435487747192 -82.561088562012 -233.763885498047 1.262981772423
7.501203060150 -75.791358947754 -233.250640869141 1.221435785294
32.616607666016 -70.802307128906 -119.514457702637 1.193751335144
-24.461908340454 -73.834281921387 -67.092674255371 2.732012510300
-65.103805541992 -78.911170959473 -164.448348999023 1.370399117470
11.308115959167 -80.823432922363 -240.077148437500 1.482785820961
6.437263011932 -76.620819091797 -241.711975097656 1.775132775307
-57.489940643311 -71.098480224609 -147.883071899414 2.984311819077
-49.626979827881 -78.405944824219 -148.472854614258 1.691848635674
-63.093944549561 -78.241928100586 -174.390197753906 1.512189030647
11.865671157837 -80.955123901367 -244.454147338867 1.885300159454
7.465857982635 -78.499641418457 -244.331771850586 1.520970106125
-88.715942382813 -63.418239593506 -132.476882934570 0.695182144642
33.158370971680 -69.992637634277 -258.211578369141 1.821758985519
-41.071426391602 -79.736610412598 -74.122390747070 2.107043981552
4.413671970367 -82.611198425293 -249.752426147461 1.522850394249
3.009541988373 -63.334892272949 -269.103546142578 1.430613875389
-86.865730285645 -74.040428161621 -110.034828186035 2.356438159943
-23.654872894287 -76.190734863281 -285.642517089844 2.138109445572
8.904132843018 -81.257019042969 -249.021713256836 2.062296867371
-27.317640304565 -78.826026916504 -287.876373291016 2.250185012817
-40.665103912354 -75.657661437988 -62.015075683594 2.094063997269
-68.755081176758 -72.384475708008 -52.755458831787 1.339530706406
90.842926025391 -76.590751647949 -207.184631347656 1.655493259430
-138.146942138672 -81.660499572754 -256.502136230469 0.724602043629
-101.753578186035 -58.769973754883 -101.988220214844 2.958094596863
112.702217102051 -71.387748718262 -122.767868041992 2.258864879608
18.879585266113 -70.136756896973 -28.438858032227 2.071838617325
-9.175142288208 -80.872314453125 -253.146316528320 1.290252923965
-69.788772583008 -69.113647460938 -48.857532501221 1.984375238419
94.542343139648 -72.323486328125 -210.016998291016 0.957309961319
48.284980773926 -67.015602111816 -102.089920043945 0.875824630260
-74.117019653320 -59.929779052734 -102.544960021973 1.577629923820
-163.108963012695 -73.903495788574 -292.488708496094 1.344048738480
-30.226606369019 -79.672370910645 -177.834014892578 1.452144384384
-36.942497253418 -79.555519104004 -172.902847290039 1.489614129066
-153.276565551758 -82.390762329102 -293.945159912109 1.611867070198
-140.528701782227 -80.949661254883 -291.068145751953 2.069829702377
-144.662918090820 -80.708374023438 -284.802429199219 1.204905748367
-149.852447509766 -80.075981140137 -296.730957031250 2.142960786819
-154.453445434570 -68.787643432617 -307.319763183594 1.652168512344
-97.835487365723 -69.716377258301 -88.142387390137 2.912003755569
-84.940299987793 -71.130493164063 -103.567108154297 2.815628528595
-57.177207946777 -78.837829589844 -67.892524719238 1.859135389328
-82.806587219238 -79.643417358398 -106.010292053223 2.355599880219
-51.374858856201 -79.881233215332 -71.930770874023 2.179503679276
-96.012321472168 -72.934638977051 -112.401557922363 2.988642692566
-75.290573120117 -79.120094299316 -71.545425415039 1.829969763756
-44.864025115967 -76.121353149414 -240.089019775391 1.473746538162
73.911254882813 -58.342460632324 -105.713119506836 1.144089460373
-0.336944013834 -77.329666137695 -283.810241699219 1.758517384529
68.439445495605 -57.639888763428 -102.248214721680 1.446287989616
-144.135437011719 -73.350402832031 -293.822570800781 1.219891905785
-129.837646484375 -76.068176269531 -256.620422363281 2.290266752243
-156.574340820313 -78.030769348145 -286.002563476563 1.569157242775
-155.571716308594 -71.925842285156 -284.547332763672 1.661542892456
-143.293991088867 -70.385330200195 -291.970428466797 0.802573263645
-147.640991210938 -65.115066528320 -286.327758789063 1.604526996613
-154.820877075195 -64.753273010254 -293.041198730469 0.948732554913
60.223213195801 -57.830528259277 -81.678565979004 1.954777717590
-40.108909606934 -78.211936950684 -69.557479858398 2.790843486786
-76.036483764648 -77.511253356934 -101.127204895020 0.914452910423
-91.990211486816 -77.191177368164 -215.602401733398 0.829156816006
-107.606475830078 -67.323371887207 -258.611816406250 1.121627688408
-42.516639709473 -75.416687011719 -203.554489135742 1.803747415543
-48.149124145508 -78.975837707520 -153.712356567383 0.505373775959
-56.832904815674 -67.725135803223 -147.077941894531 1.511270403862
-63.871162414551 -79.204330444336 -169.619964599609 2.182080745697
-151.176101684570 -73.932678222656 -213.452774047852 2.270474672318
32.224258422852 -79.693420410156 -130.278137207031 1.204115748405
33.192474365234 -76.017196655273 -137.070022583008 3.615794420242
-52.542739868164 -75.971237182617 -290.078277587891 1.517585635185
-155.222686767578 -68.566322326660 -214.705322265625 3.455245256424
-125.898086547852 -65.252136230469 -231.979232788086 1.535502672195
39.489734649658 -69.826156616211 -116.466926574707 1.987102270126
-103.236953735352 -72.045166015625 -259.481658935547 1.322528481483
-93.641265869141 -71.507034301758 -117.626205444336 1.325004816055
30.717573165894 -75.448425292969 -145.876022338867 2.720061540604
15.342237472534 -71.341354370117 -231.977188110352 1.043478012085
-36.717956542969 -78.730720520020 -209.654418945313 0.493674784899
-15.582238197327 -67.629348754883 -201.160964965820 1.343813419342
-19.548692703247 -78.500411987305 -193.177429199219 1.618799686432
-146.891387939453 -77.198158264160 -186.841186523438 1.138185858727
-42.887100219727 -78.332565307617 -287.566162109375 1.627009749413
-19.851778030396 -64.846855163574 -68.520881652832 3.187312602997
38.837703704834 -71.601997375488 -121.963012695313 1.592146873474
-35.765262603760 -73.450874328613 -77.984916687012 0.828511416912
-155.660095214844 -68.191207885742 -205.645874023438 2.552449464798
