-7.201794147491 -72.255592346191 -285.974121093750 1.920550704002
-5.288657188416 -67.362884521484 -289.392669677734 2.151936531067
22.555418014526 -71.898216247559 -256.233062744141 1.164497375488
-8.170607566833 -68.439514160156 -285.312255859375 2.292925834656
112.975868225098 -75.644660949707 -161.798782348633 1.579012632370
-22.290731430054 -83.581787109375 -179.889663696289 0.632070660591
27.371109008789 -70.824867248535 -139.768203735352 1.535494327545
30.766099929810 -62.514862060547 -131.065994262695 1.310359120369
-40.218914031982 -72.474800109863 -151.835571289063 2.133205890656
-23.498067855835 -84.129264831543 -181.351150512695 2.390811204910
-114.106399536133 -71.022514343262 -231.345458984375 0.989525198936
-24.994522094727 -83.515975952148 -181.092742919922 3.269594430923
-41.616775512695 -69.096084594727 -154.051086425781 1.284014463425
-115.096412658691 -66.195823669434 -231.965805053711 1.076305866241
-42.493076324463 -84.207298278809 -192.317977905273 1.052011966705
-49.333972930908 -84.248977661133 -196.720230102539 1.675153970718
-52.584281921387 -83.365989685059 -204.152053833008 1.092936754227
-42.718261718750 -78.168601989746 -65.407463073730 1.706061363220
-52.892196655273 -80.867225646973 -72.411529541016 1.101021528244
-153.772308349609 -82.740219116211 -227.342681884766 0.858857035637
-134.988021850586 -78.541366577148 -199.094238281250 2.098920822144
-147.263549804688 -82.927215576172 -217.194717407227 0.852113664150
-53.994380950928 -62.132026672363 -136.138046264648 0.809717774391
-48.977954864502 -66.423675537109 -139.300964355469 1.331832408905
-18.424219131470 -71.435447692871 -241.253372192383 0.570452034473
-147.169311523438 -83.298553466797 -222.918289184570 1.608985304832
5.431657791138 -76.523826599121 -213.094421386719 2.144196271896
12.919852256775 -80.355346679688 -211.238876342773 2.482368230820
-32.721950531006 -79.309616088867 -238.576873779297 0.649980783463
-149.231567382813 -83.601600646973 -225.412170410156 0.501136898994
-146.795379638672 -83.282348632813 -224.884231567383 0.910150527954
-142.681243896484 -83.173461914063 -227.630371093750 1.108654856682
-22.820707321167 -73.531951904297 -215.638366699219 1.987107515335
-151.378173828125 -83.848770141602 -231.262542724609 0.393554031849
-166.158218383789 -67.561080932617 -229.526992797852 2.595678806305
12.697081565857 -70.880767822266 -182.472412109375 2.513523101807
33.032577514648 -73.033470153809 -149.430084228516 2.071356296539
-145.775009155273 -83.085929870605 -229.081573486328 0.811961829662
-147.984664916992 -84.086837768555 -234.404800415039 1.529624819756
-147.401519775391 -83.998489379883 -237.833877563477 1.008100986481
-151.231811523438 -83.174728393555 -232.481948852539 1.457233309746
-167.432083129883 -68.546897888184 -236.651443481445 1.609593153000
8.430402755737 -68.811477661133 -213.131225585938 0.929420769215
-26.834400177002 -79.403961181641 -216.912063598633 1.719001531601
-146.941238403320 -83.477813720703 -247.717346191406 1.378263592720
-80.791587829590 -72.581481933594 -210.561935424805 1.026578903198
4.236610889435 -69.984489440918 -158.574279785156 1.002937078476
-48.269329071045 -74.306137084961 -242.449645996094 0.457744032145
-54.453937530518 -79.086898803711 -243.725448608398 0.590838551521
19.496522903442 -68.845779418945 -178.016464233398 1.290614008904
-167.956359863281 -73.395355224609 -261.655670166016 1.447969913483
96.178634643555 -70.756065368652 -98.297538757324 1.685888051987
-134.251159667969 -73.106468200684 -294.278411865234 0.832088887691
-152.432342529297 -67.377960205078 -275.289916992188 1.084726452827
10.835147857666 -70.210586547852 -149.300582885742 1.060640692711
28.566663742065 -72.027275085449 -167.278564453125 1.582051157951
68.769462585449 -72.392974853516 -90.177757263184 1.040694355965
-147.472808837891 -84.466728210449 -252.330856323242 2.220911741257
26.550022125244 -69.668243408203 -170.525894165039 0.933174908161
11.646797180176 -66.653076171875 -153.495285034180 0.685102462769
64.669052124023 -68.318534851074 -84.560111999512 0.652563452721
-146.485855102539 -84.136260986328 -262.761779785156 0.904250741005
-168.317642211914 -72.424774169922 -255.593307495117 2.248110055923
-153.430236816406 -84.581398010254 -256.537963867188 1.314637184143
6.025483131409 -60.723430633545 -277.668395996094 1.580431938171
66.529457092285 -58.715995788574 -63.911972045898 2.177490234375
-51.251525878906 -79.207626342773 -67.550460815430 1.896985769272
10.002475738525 -84.197181701660 -254.454940795898 0.406424820423
-73.776649475098 -76.442207336426 -248.109313964844 1.195582628250
30.049467086792 -69.081573486328 -254.920440673828 1.214853644371
108.428359985352 -76.248115539551 -158.357208251953 1.747324228287
15.405956268311 -72.237098693848 -173.046203613281 2.406576871872
-167.250885009766 -74.058708190918 -264.231475830078 1.648399710655
-152.585266113281 -83.617973327637 -262.495056152344 1.091627001762
15.888410568237 -67.544960021973 -179.589767456055 2.384476661682
-3.398941040039 -83.558380126953 -270.274963378906 2.234996080399
7.354661941528 -77.280029296875 -292.189666748047 1.016537904739
85.208763122559 -74.726448059082 -97.787475585938 0.960674464703
78.815856933594 -69.191596984863 -103.733932495117 1.571931958199
-5.823519229889 -80.506172180176 -275.428527832031 0.783929228783
9.406962394714 -83.976669311523 -269.595031738281 1.736873626709
45.919132232666 -74.592109680176 -111.811264038086 2.230907678604
-85.522857666016 -77.343421936035 -216.377365112305 0.380040884018
23.103900909424 -69.504234313965 -269.467407226563 1.066571831703
64.198211669922 -72.898712158203 -234.303161621094 1.467842578888
38.733070373535 -74.148681640625 -104.170921325684 1.967054009438
-90.300041198730 -79.148414611816 -105.714546203613 1.372509479523
-2.912851095200 -83.340545654297 -271.500274658203 2.019143819809
40.117534637451 -75.683746337891 -107.492393493652 1.317200541496
-0.193154007196 -59.906768798828 -249.004043579102 3.145686864853
-57.251491546631 -79.563812255859 -92.966606140137 1.932351708412
-162.432983398438 -74.353088378906 -263.898864746094 1.253262758255
-156.517807006836 -74.741836547852 -257.852996826172 1.682978272438
-149.183166503906 -84.642761230469 -275.737182617188 1.440063834190
-167.809020996094 -69.771232604980 -278.329772949219 2.287634134293
74.361900329590 -68.446556091309 -104.086593627930 0.501907110214
-151.458282470703 -66.786468505859 -259.167877197266 1.497014284134
-86.277297973633 -61.797565460205 -49.740795135498 2.670627593994
-146.206069946289 -62.960945129395 -259.012390136719 0.617026269436
27.474710464478 -70.331405639648 -154.188247680664 1.104327917099
-152.382843017578 -79.816429138184 -266.735015869141 2.463451147079
-148.747238159180 -79.485168457031 -271.357666015625 1.182042002678
-146.006347656250 -71.307487487793 -250.218368530273 2.085199356079
18.398189544678 -71.452453613281 -160.040252685547 1.868802905083
29.450452804565 -68.381546020508 -148.545791625977 1.325871825218
-163.366088867188 -69.391906738281 -270.990051269531 2.521733999252
-161.857635498047 -69.918472290039 -269.117156982422 2.233148574829
-124.254592895508 -73.969642639160 -258.024597167969 0.714453339577
50.438873291016 -69.997550964355 -103.616134643555 2.793333292007
-156.418502807617 -74.617691040039 -305.691619873047 1.769654750824
29.783451080322 -74.868644714355 -121.441864013672 2.333124876022
-34.449966430664 -79.618652343750 -177.782531738281 1.658196091652
-92.415672302246 -77.009124755859 -102.918609619141 3.054287910461
-149.369888305664 -79.132530212402 -294.969940185547 1.148222088814
-32.223606109619 -80.104217529297 -175.254699707031 2.441718816757
-141.220825195313 -82.376129150391 -286.339355468750 2.839210748672
-68.737937927246 -80.904548645020 -211.416290283203 1.103525161743
-144.845840454102 -81.840141296387 -291.541595458984 1.336554765701
-59.424964904785 -78.772163391113 -204.653564453125 1.606717109680
-56.011039733887 -80.575805664063 -200.440917968750 1.961645007133
-47.483711242676 -78.984619140625 -191.270034790039 1.997962355614
-153.229980468750 -80.852905273438 -299.263214111328 1.089415550232
-63.949466705322 -82.144836425781 -209.526641845703 1.186365365982
-151.846969604492 -66.960365295410 -307.880737304688 1.459509849548
-82.764839172363 -67.016250610352 -102.477165222168 2.040745019913
-63.407077789307 -81.890075683594 -74.819648742676 1.584544897079
-46.931308746338 -76.692497253418 -60.123271942139 2.186887502670
-88.774291992188 -79.187118530273 -109.250968933105 1.976302146912
12.385248184204 -80.903373718262 -250.656311035156 1.555159568787
-51.636798858643 -81.864448547363 -75.529449462891 1.357367634773
-48.853576660156 -81.843406677246 -75.914733886719 1.597115159035
-136.254547119141 -82.811767578125 -259.014495849609 1.341509461403
-36.476722717285 -74.658699035645 -161.820037841797 1.313542604446
-17.951820373535 -77.068885803223 -178.075241088867 1.536009788513
-13.237304687500 -76.259963989258 -175.645584106445 1.529834270477
87.551155090332 -73.948760986328 -72.075935363770 0.563648998737
-133.100097656250 -75.689537048340 -261.410736083984 0.960484027863
27.128696441650 -79.565689086914 -137.355880737305 1.137920737267
-151.654510498047 -84.942611694336 -300.809051513672 0.528225600719
-10.855510711670 -75.303398132324 -171.266006469727 2.252826690674
-150.839324951172 -77.793037414551 -312.066619873047 1.795292973518
27.930225372314 -76.014152526855 -133.201065063477 2.122838735580
24.378858566284 -74.481689453125 -136.429092407227 1.661124825478
82.778800964355 -75.099426269531 -76.694229125977 0.531561672688
-6.433579921722 -75.451606750488 -165.576919555664 2.616561174393
66.645065307617 -66.297332763672 -70.390586853027 2.607129096985
91.540420532227 -74.246475219727 -77.579742431641 2.677688598633
-51.575752258301 -78.394798278809 -64.989738464355 1.743334054947
-38.964168548584 -81.115325927734 -76.711257934570 1.376178741455
-165.866363525391 -75.276298522949 -285.283264160156 0.759810507298
-138.091430664063 -74.597351074219 -257.471923828125 2.939829349518
-99.846084594727 -74.324790954590 -218.912826538086 2.137008190155
-45.457496643066 -80.896423339844 -73.667610168457 2.163176774979
-39.360794067383 -75.483917236328 -207.234664916992 1.460853576660
75.528083801270 -71.974601745605 -227.489028930664 2.051705360413
-6.600608825684 -80.438301086426 -250.607131958008 1.738864779472
108.160766601563 -68.053398132324 -123.148178100586 2.372548818588
-69.375999450684 -61.302543640137 -94.153442382813 1.002919435501
63.374118804932 -59.048686981201 -70.544990539551 2.235678195953
93.035324096680 -73.797538757324 -79.271263122559 0.964392006397
-40.024848937988 -79.436546325684 -83.291206359863 1.682413458824
-40.233444213867 -76.256843566895 -244.419342041016 1.260682106018
-137.227676391602 -80.598602294922 -287.334655761719 1.332774877548
-74.207519531250 -77.562835693359 -208.145309448242 0.934611499310
-133.106903076172 -76.155288696289 -285.529479980469 0.488465398550
-74.633537292480 -81.246711730957 -77.422042846680 1.436256885529
21.974746704102 -62.104896545410 -143.429061889648 2.409384489059
-77.760780334473 -81.859939575195 -82.665168762207 1.510556817055
-85.751907348633 -66.720863342285 -106.044639587402 1.931866288185
55.045578002930 -63.756702423096 -96.920738220215 1.335985183716
-22.274145126343 -73.034736633301 -290.459442138672 1.899830698967
-75.268180847168 -82.369613647461 -82.595329284668 1.688897609711
-75.614364624023 -66.410598754883 -99.437530517578 1.419094204903
-87.891319274902 -66.372215270996 -109.739814758301 2.151051759720
49.563625335693 -64.012458801270 -99.632713317871 2.282826185226
-146.254562377930 -70.512252807617 -268.245971679688 2.517651319504
-128.581619262695 -71.785217285156 -283.717742919922 2.546548366547
-158.230392456055 -73.708747863770 -254.910537719727 3.324062824249
-161.905410766602 -73.805397033691 -251.886520385742 1.049249172211
-49.480758666992 -78.536293029785 -86.216651916504 1.865832805634
-154.949478149414 -74.902183532715 -254.603149414063 2.019765853882
-125.240585327148 -68.621276855469 -286.943389892578 0.980327606201
-128.098510742188 -65.841415405273 -289.330993652344 1.814191699028
-149.263137817383 -63.404060363770 -273.138000488281 3.106427907944
-152.201156616211 -64.287605285645 -267.923889160156 2.429752588272
-147.820953369141 -81.637092590332 -258.420837402344 1.563206195831
90.778991699219 -75.517234802246 -93.873550415039 1.726900458336
-67.162597656250 -80.753646850586 -99.183914184570 2.142611026764
-49.250385284424 -79.319152832031 -68.403587341309 2.141476154327
-80.486953735352 -78.748725891113 -104.062713623047 2.614144563675
45.162044525146 -68.531951904297 -98.689826965332 0.667808651924
51.973747253418 -66.929740905762 -89.180786132813 0.681544423103
-33.961299896240 -70.213310241699 -174.943496704102 1.912777781487
-156.725097656250 -74.647575378418 -294.893676757813 0.720167815685
-149.626449584961 -78.962539672852 -306.070831298828 0.735115826130
-150.455169677734 -78.540687561035 -300.380615234375 1.128085732460
72.805259704590 -69.046394348145 -66.804176330566 1.797027111053
65.673545837402 -67.978897094727 -76.769752502441 1.838420987129
57.243110656738 -68.893447875977 -87.108428955078 1.046491622925
38.657451629639 -68.479972839355 -107.375282287598 2.203309774399
-35.215198516846 -69.121597290039 -179.060028076172 2.423529386520
-120.991043090820 -69.600631713867 -263.091888427734 3.170286417007
-153.733306884766 -69.914932250977 -297.357452392578 0.620383679867
78.546478271484 -68.213111877441 -64.331115722656 0.911958098412
-31.944356918335 -68.244293212891 -175.718673706055 2.536969423294
-112.829124450684 -69.539909362793 -256.506103515625 0.741967558861
-115.678710937500 -66.802658081055 -259.977783203125 0.692477107048
49.051822662354 -66.589645385742 -93.644325256348 1.275657773018
60.860610961914 -66.001556396484 -81.588844299316 2.216161489487
82.029357910156 -65.174766540527 -61.762424468994 0.286317497492
-153.434829711914 -64.331626892090 -286.034088134766 0.231870368123
-151.129180908203 -65.196731567383 -291.270782470703 0.645457327366
-147.157943725586 -64.094039916992 -293.713134765625 0.749600052834
-16.198348999023 -82.674453735352 -175.901290893555 0.765018522739
-39.017719268799 -80.267066955566 -163.839630126953 2.178874492645
-18.434591293335 -81.728713989258 -181.647979736328 1.737712860107
14.322035789490 -80.047538757324 -216.854080200195 0.882654368877
-150.415039062500 -80.759681701660 -188.022750854492 1.163009285927
-39.221782684326 -75.376350402832 -157.496597290039 1.971234202385
-57.642639160156 -73.700630187988 -173.223693847656 2.328076362610
-13.253613471985 -80.081291198730 -209.929428100586 1.322858095169
19.076105117798 -81.364936828613 -243.671508789063 2.660719156265
-30.976053237915 -82.479759216309 -190.794708251953 1.899387359619
-2.598577022552 -67.855522155762 -234.785461425781 1.585039854050
-92.424484252930 -67.083343505859 -144.558898925781 1.711555361748
-42.323917388916 -73.959159851074 -199.950820922852 2.043030977249
-49.014080047607 -81.172737121582 -186.741333007813 1.748983502388
-42.822799682617 -80.152053833008 -192.872680664063 1.330875873566
-92.526733398438 -73.901046752930 -219.526016235352 1.850910782814
-42.036411285400 -74.834236145020 -57.104053497314 1.937796950340
14.163182258606 -79.847335815430 -251.014953613281 1.153620719910
-125.165061950684 -72.697509765625 -226.333526611328 1.306153178215
-148.713211059570 -72.426010131836 -200.940704345703 0.988780736923
-32.087280273438 -78.234291076660 -71.582321166992 2.734184265137
-150.797622680664 -79.313293457031 -193.065002441406 1.855468869209
-155.661193847656 -67.367279052734 -199.872299194336 1.532323956490
-130.166793823242 -67.388839721680 -224.344100952148 0.679502189159
-141.340469360352 -63.903049468994 -199.189041137695 1.283014297485
-146.384979248047 -59.885871887207 -198.717941284180 1.639211058617
-70.426551818848 -71.788101196289 -151.626754760742 2.023069858551
12.795369148254 -83.587692260742 -244.741790771484 1.764500379562
-70.258888244629 -68.851882934570 -150.816131591797 1.551700592041
-6.877056121826 -69.483848571777 -213.572875976563 1.983609676361
-72.768310546875 -73.081436157227 -251.954360961914 1.629023075104
-10.408643722534 -80.269416809082 -213.648651123047 1.719662070274
-87.294670104980 -59.032783508301 -116.528541564941 2.405238151550
-40.337165832520 -73.140357971191 -286.333465576172 1.367398262024
-23.136030197144 -72.865875244141 -63.215564727783 1.898134827614
-142.515762329102 -69.375221252441 -185.653625488281 2.256375551224
-148.872329711914 -61.546722412109 -183.878021240234 2.094415187836
-20.192419052124 -79.254455566406 -202.797088623047 2.287047386169
-150.093750000000 -71.861076354980 -190.955184936523 2.329920053482
-152.028594970703 -81.789108276367 -201.431701660156 0.803790092468
-155.121200561523 -67.782188415527 -193.089691162109 1.024452328682
-162.787246704102 -66.063507080078 -200.247695922852 1.024030804634
-147.942916870117 -59.351455688477 -194.314086914063 1.723235607147
-116.427215576172 -71.823768615723 -227.659942626953 1.435301542282
35.056156158447 -71.824745178223 -141.228378295898 0.728034198284
-51.128341674805 -79.814399719238 -191.682952880859 2.468446731567
-48.141185760498 -80.231109619141 -195.310058593750 1.952658414841
-146.902725219727 -82.537597656250 -202.496459960938 1.699426531792
-148.127197265625 -82.964637756348 -205.412109375000 1.527182221413
-147.431167602539 -82.825843811035 -209.513000488281 0.884728193283
-15.003380775452 -63.183021545410 -56.240806579590 1.954693317413
-49.058723449707 -72.739936828613 -286.132995605469 2.039123773575
-83.192451477051 -70.461906433105 -249.810989379883 2.159389257431
-107.163398742676 -72.063117980957 -226.340866088867 1.023485541344
-142.423568725586 -80.846755981445 -201.079177856445 0.704379677773
-145.324096679688 -65.478775024414 -191.120346069336 2.270895004272
-31.799484252930 -63.481048583984 -73.153335571289 3.327922821045
-150.899536132813 -64.255584716797 -192.010742187500 1.814596176147
-35.430461883545 -58.615524291992 -71.793617248535 1.424510598183
-38.900367736816 -76.504325866699 -197.438873291016 1.580371141434
-52.671302795410 -76.551574707031 -183.587295532227 0.606878340244
78.498863220215 -75.083602905273 -74.812446594238 0.918786406517
96.058876037598 -66.746055603027 -68.849998474121 2.292503833771
48.171592712402 -72.208351135254 -246.293273925781 2.526617765427
-68.455375671387 -79.806510925293 -69.556205749512 1.111824512482
5.891179084778 -81.148101806641 -279.066009521484 1.816845417023
11.558128356934 -78.107406616211 -279.891998291016 1.362698435783
-69.270942687988 -82.979034423828 -207.229034423828 0.999618530273
-86.672195434570 -79.382949829102 -86.162506103516 1.005774974823
-82.417800903320 -80.320655822754 -82.344741821289 1.540983557701
-102.377609252930 -69.480026245117 -225.052825927734 1.349244117737
-56.531784057617 -69.243782043457 -48.055255889893 1.105951428413
97.957374572754 -70.199371337891 -198.875656127930 1.746007800102
-115.880157470703 -63.948562622070 -201.611816406250 1.524656176567
-141.926574707031 -80.318916320801 -226.325363159180 1.143529176712
-149.814208984375 -79.319229125977 -215.874694824219 0.685716271400
18.792148590088 -76.922195434570 -187.596649169922 0.798820793629
-163.301757812500 -66.909988403320 -216.103195190430 1.274735689163
-9.526255607605 -64.217391967773 -247.181045532227 0.511381864548
-70.257453918457 -58.781494140625 -114.849609375000 1.541841983795
-146.296524047852 -81.069213867188 -220.863586425781 3.609222173691
20.449680328369 -72.073669433594 -198.865661621094 1.820774078369
-30.474491119385 -80.426620483398 -240.921432495117 2.161350727081
101.296585083008 -66.256683349609 -82.039955139160 2.491163015366
-5.595943927765 -74.061416625977 -245.446716308594 1.411761403084
-146.280853271484 -78.455139160156 -218.611419677734 1.743651628494
-114.472434997559 -65.487411499023 -202.300796508789 1.159913182259
-164.479232788086 -72.630035400391 -226.674545288086 0.799644172192
-154.074829101563 -80.484405517578 -226.594696044922 0.997745215893
-103.115951538086 -72.324707031250 -291.885528564453 1.759519100189
-151.671691894531 -74.114982604980 -248.018722534180 1.635138034821
-141.394073486328 -81.927536010742 -230.865173339844 1.055533885956
-153.082672119141 -69.013366699219 -246.714538574219 1.781870841980
2.199671983719 -80.242439270020 -246.787384033203 1.035758495331
12.353074073792 -81.070846557617 -237.389556884766 1.952855467796
6.101038932800 -77.190299987793 -238.205139160156 1.132132768631
-32.309448242188 -65.852882385254 -49.372463226318 1.530985116959
-31.111028671265 -80.333015441895 -211.727676391602 1.210694909096
-61.197963714600 -78.990104675293 -166.383941650391 1.318961262703
11.098670959473 -83.184593200684 -238.568374633789 1.502588868141
-10.981703758240 -72.662971496582 -204.334686279297 1.276229023933
36.879352569580 -80.186759948730 -118.321487426758 2.204599618912
36.449089050293 -76.375999450684 -114.097595214844 1.595682859421
14.233274459839 -83.697662353516 -244.879135131836 2.142928123474
13.870407104492 -83.195808410645 -238.576080322266 1.487292408943
-96.531806945801 -68.243728637695 -146.758804321289 2.619097471237
0.068012997508 -66.790596008301 -238.095474243164 1.822338819504
-150.315673828125 -75.682830810547 -207.516693115234 2.039401531219
-160.735000610352 -67.362426757813 -210.456512451172 1.810613870621
46.327892303467 -76.012901306152 -114.818084716797 1.144527435303
-134.118850708008 -66.508010864258 -233.996047973633 0.599871397018
37.400970458984 -80.105285644531 -126.418365478516 1.494172573090
-136.348464965820 -80.420852661133 -227.132843017578 2.050395965576
15.870959281921 -83.212036132813 -242.588226318359 2.735812902451
-91.096206665039 -67.729698181152 -140.931716918945 2.208070039749
3.021357059479 -68.104385375977 -232.945938110352 1.022538781166
-2.525944948196 -80.197044372559 -226.339019775391 2.057431697845
-68.956474304199 -74.232063293457 -158.137283325195 2.052378654480
-15.980851173401 -75.881355285645 -212.658996582031 0.807928144932
100.073745727539 -77.458198547363 -190.882736206055 1.671608328819
20.799623489380 -77.631111145020 -247.298202514648 0.932176113129
34.901329040527 -69.307708740234 -134.701065063477 1.447393417358
-78.183654785156 -61.259731292725 -118.879425048828 1.333498954773
17.060474395752 -81.521430969238 -246.638778686523 1.686666131020
-86.380363464355 -63.820423126221 -127.182563781738 1.883472442627
9.483800888062 -72.896430969238 -289.116882324219 0.829786717892
-4.393290042877 -83.330253601074 -253.502288818359 2.098516941071
-166.436370849609 -74.885063171387 -276.479949951172 1.271616458893
94.807914733887 -73.899482727051 -82.126525878906 2.727951288223
-148.407135009766 -75.361015319824 -259.425567626953 1.145194053650
79.467102050781 -74.594543457031 -97.018981933594 1.511257290840
81.515434265137 -67.685905456543 -103.601509094238 2.743824243546
-158.741165161133 -69.806549072266 -259.726409912109 1.212279438972
23.639894485474 -79.024238586426 -149.703781127930 1.874036550522
-140.513473510742 -82.830810546875 -256.342468261719 2.141245603561
30.171684265137 -76.787513732910 -150.991836547852 1.915366649628
87.915901184082 -76.773605346680 -91.062774658203 1.886015534401
-64.711486816406 -74.441032409668 -244.652069091797 1.767823934555
19.930650711060 -76.559135437012 -157.315750122070 1.609419941902
-152.197174072266 -82.619689941406 -263.507995605469 1.281141757965
-162.478973388672 -69.083305358887 -264.532409667969 0.873438000679
-146.850631713867 -80.918266296387 -264.135620117188 1.301732063293
-116.277992248535 -75.039680480957 -289.761901855469 1.116483926773
-156.985916137695 -65.170593261719 -258.143005371094 1.310980319977
-158.707992553711 -73.649589538574 -251.596099853516 2.007321596146
86.883522033691 -76.415710449219 -219.614410400391 2.498628616333
-154.574996948242 -81.323081970215 -255.827133178711 1.129764199257
-47.184631347656 -77.266708374023 -84.832244873047 0.963062465191
-9.117912292480 -82.136665344238 -257.967346191406 1.075580358505
20.533355712891 -63.687927246094 -34.254837036133 3.210476636887
-10.133664131165 -68.799026489258 -271.588226318359 1.435162663460
-6.738078117371 -67.710479736328 -267.448028564453 1.618569493294
-9.892897605896 -72.980735778809 -280.194274902344 2.349727392197
-4.953814029694 -66.646865844727 -279.897583007813 1.846302986145
-65.820404052734 -77.389884948730 -246.334106445313 0.696751058102
-7.386017799377 -83.660743713379 -262.102447509766 1.588046193123
-9.489252090454 -81.979721069336 -262.976867675781 2.430297613144
45.947769165039 -72.301689147949 -94.219810485840 2.417490959167
10.729482650757 -82.902770996094 -271.292449951172 2.119029283524
-72.611892700195 -59.588493347168 -99.823104858398 1.134692907333
46.214080810547 -78.461311340332 -104.267204284668 0.801399171352
-91.621856689453 -77.468887329102 -97.370719909668 2.385392427444
105.614295959473 -76.996337890625 -174.356796264648 2.703205823898
-66.330223083496 -66.683563232422 -45.999908447266 1.297432303429
-70.090187072754 -80.856246948242 -206.640884399414 1.333237051964
-54.367355346680 -80.982711791992 -184.489593505859 3.206424713135
8.042631149292 -82.383071899414 -276.325744628906 2.314639806747
13.727169036865 -78.605400085449 -277.595947265625 1.424537301064
64.017318725586 -68.924011230469 -234.855087280273 1.301314473152
22.577199935913 -68.241424560547 -271.649353027344 1.145230412483
-137.326644897461 -82.396957397461 -290.122680664063 2.548748970032
-147.137542724609 -80.709518432617 -279.385803222656 2.143939495087
18.072980880737 -76.428016662598 -178.390533447266 2.266967535019
4.545794010162 -76.182319641113 -160.919006347656 1.153992295265
22.393812179565 -79.602828979492 -170.325256347656 1.675122141838
28.105197906494 -75.718315124512 -169.268493652344 2.520967483521
-160.335372924805 -71.119087219238 -278.502868652344 1.226397514343
-153.759216308594 -74.580993652344 -276.028259277344 2.331497669220
-66.031211853027 -75.233444213867 -94.212921142578 1.353770852089
-152.460418701172 -82.047447204590 -280.845520019531 2.594366550446
-160.879211425781 -71.233566284180 -280.622863769531 1.445350646973
-61.469413757324 -78.485191345215 -64.354988098145 2.129874229431
27.099521636963 -68.435134887695 -140.130966186523 2.296659946442
47.172245025635 -68.884155273438 -91.666099548340 1.809284448624
-68.263771057129 -80.497482299805 -72.043449401855 1.282845854759
53.366649627686 -66.971557617188 -97.940277099609 2.389495849609
-86.426399230957 -63.663227081299 -109.052131652832 2.926619529724
24.521648406982 -68.536651611328 -145.886856079102 2.230245828629
88.624885559082 -67.045722961426 -63.253292083740 0.830631256104
-35.412155151367 -76.311447143555 -207.687454223633 0.545058488846
-48.986785888672 -75.339492797852 -160.487426757813 1.998756527901
-20.109918594360 -76.440101623535 -192.371704101563 2.240580558777
-52.456836700439 -61.678680419922 -43.519725799561 1.900395035744
31.857416152954 -79.082786560059 -145.409866333008 1.522237539291
-78.982055664063 -75.917411804199 -250.579879760742 1.066176652908
32.763805389404 -76.345481872559 -142.185302734375 2.595260143280
-35.045299530029 -80.123199462891 -76.062500000000 1.274547100067
-145.478179931641 -79.620674133301 -188.696411132813 2.332152366638
-79.641822814941 -80.047187805176 -77.570190429688 1.466808438301
88.773376464844 -75.649116516113 -94.246322631836 2.322000741959
-44.666255950928 -80.867439270020 -84.215560913086 2.108186483383
-52.455928802490 -80.932968139648 -89.338088989258 2.667213678360
108.484947204590 -70.092590332031 -161.338394165039 3.248034477234
-87.957588195801 -80.131713867188 -93.073722839355 0.758561551571
-50.918289184570 -77.522773742676 -62.456245422363 1.842620611191
50.107009887695 -65.176185607910 -247.736389160156 1.423095107079
-44.535228729248 -76.779487609863 -201.641448974609 2.000823259354
54.783809661865 -60.455245971680 -93.705390930176 2.572753667831
-77.787788391113 -78.582206726074 -101.302352905273 1.287523508072
-31.213838577271 -78.870460510254 -188.560440063477 1.100498557091
-22.321081161499 -79.890632629395 -197.911987304688 2.704352378845
-36.680408477783 -80.526695251465 -188.865234375000 1.501456737518
-25.480384826660 -79.326713562012 -194.912902832031 1.346720933914
7.426452159882 -80.716514587402 -230.115325927734 1.908046126366
-2.073911905289 -79.413009643555 -222.402755737305 0.959775805473
7.169720172882 -79.864372253418 -219.805557250977 1.339972376823
13.237443923950 -78.681961059570 -221.089447021484 1.037663340569
-0.486754000187 -79.686264038086 -230.338150024414 2.151775836945
1.066591024399 -76.897293090820 -230.022872924805 1.857889056206
-51.735687255859 -78.962127685547 -179.668090820313 1.265583992004
-27.038589477539 -81.083282470703 -188.064315795898 1.338459491730
-42.309398651123 -78.253074645996 -168.655151367188 2.011846542358
-93.692062377930 -71.937950134277 -220.167144775391 1.770870566368
-41.611221313477 -73.968391418457 -199.923309326172 2.476855039597
-49.157749176025 -73.263717651367 -52.912734985352 2.319893121719
-49.886123657227 -80.439369201660 -183.680999755859 1.387792348862
-40.316669464111 -80.113342285156 -191.958465576172 1.573163390160
-147.470275878906 -72.178230285645 -200.250183105469 0.922354161739
-58.072509765625 -72.092781066895 -290.051422119141 1.055628061295
-146.989654541016 -82.361869812012 -191.678085327148 1.585833072662
-142.290832519531 -65.301033020020 -202.370574951172 1.419607758522
-127.023559570313 -63.647857666016 -227.409286499023 1.718183398247
-155.637939453125 -61.810749053955 -200.393218994141 1.276146173477
-151.246887207031 -60.389392852783 -201.763031005859 0.645032346249
-86.418243408203 -74.862464904785 -252.460754394531 1.061104655266
32.388462066650 -80.633049011230 -134.990005493164 0.729220509529
-147.385635375977 -79.569152832031 -197.402099609375 0.691112756729
30.325477600098 -77.610633850098 -130.030166625977 1.639588952065
40.647586822510 -71.420570373535 -118.376678466797 2.762655258179
-22.951503753662 -78.959030151367 -219.027175903320 0.892996907234
-137.060821533203 -79.031547546387 -196.940185546875 2.334471464157
35.132266998291 -66.111572265625 -35.629291534424 2.475579977036
108.736221313477 -67.821945190430 -106.209251403809 1.887100934982
-54.726936340332 -79.297050476074 -187.070648193359 1.590558171272
-42.234840393066 -81.797019958496 -198.183883666992 1.518856644630
3.951607942581 -62.006771087646 -278.953582763672 1.994314432144
-135.804428100586 -80.675163269043 -200.326110839844 1.169048547745
15.751214027405 -81.767364501953 -235.010635375977 1.964007377625
40.065780639648 -74.069847106934 -128.896636962891 0.810455381870
-107.815925598145 -71.131004333496 -222.624877929688 1.767895340919
-17.351549148560 -71.330490112305 -192.722671508789 1.036217689514
-47.161499023438 -70.607368469238 -162.509948730469 1.232490301132
-19.372770309448 -79.748100280762 -201.678771972656 2.400045156479
-82.122703552246 -68.709007263184 -122.877433776855 2.050084114075
-69.559616088867 -65.130355834961 -45.329883575439 1.043488144875
-34.711853027344 -73.587226867676 -210.749145507813 2.191851377487
-47.463958740234 -69.201522827148 -159.648895263672 1.777525544167
41.325988769531 -78.238693237305 -123.451271057129 1.738479256630
-149.782196044922 -82.297782897949 -204.873718261719 1.391004443169
-163.056991577148 -66.372497558594 -207.031066894531 1.764770030975
30.715303421021 -70.414100646973 -140.254364013672 1.268867850304
36.660728454590 -77.597312927246 -129.061203002930 2.270685434341
-27.289293289185 -73.218032836914 -212.938522338867 0.728005707264
43.381664276123 -78.869178771973 -116.201271057129 1.738706111908
43.960590362549 -76.496406555176 -118.988952636719 1.401454567909
-96.577980041504 -67.144012451172 -142.373092651367 1.074912309647
4.188326835632 -67.831497192383 -238.730453491211 0.757229983807
-136.841461181641 -77.353630065918 -227.177215576172 0.838072478771
34.840290069580 -80.540779113770 -123.005043029785 1.306206345558
-138.727401733398 -69.114532470703 -233.195159912109 2.267807006836
-150.645019531250 -81.476837158203 -207.213027954102 2.543609142303
-163.249633789063 -66.452079772949 -208.953857421875 1.876909732819
30.486402511597 -70.561988830566 -132.478164672852 0.970386147499
-86.909278869629 -73.327705383301 -250.545791625977 0.978363037109
108.120582580566 -74.520698547363 -185.398834228516 2.255567312241
-149.044692993164 -80.205940246582 -211.785156250000 1.516156077385
-108.189079284668 -71.580848693848 -228.051910400391 1.056261062622
-162.187225341797 -66.845062255859 -213.125900268555 2.238569498062
39.999832153320 -80.013290405273 -114.901710510254 1.197127103806
41.378452301025 -76.902122497559 -119.716629028320 1.957662105560
-117.921485900879 -64.810569763184 -229.567337036133 2.250988006592
-24.267974853516 -72.045028686523 -198.414413452148 1.250559568405
-22.613157272339 -80.261985778809 -192.625183105469 1.620154380798
10.551088333130 -81.699050903320 -225.089477539063 1.381888747215
7.117671012878 -76.946228027344 -226.916610717773 1.380057930946
-25.061985015869 -68.709457397461 -198.280151367188 1.435049176216
-146.101547241211 -80.042091369629 -210.335311889648 2.146276950836
10.630214691162 -82.086006164551 -228.333572387695 1.893312335014
7.049275875092 -76.374610900879 -230.158523559570 1.377239465714
-27.538700103760 -76.706970214844 -195.474166870117 2.064682483673
2.298650979996 -63.210895538330 -238.354202270508 1.304148912430
-96.039794921875 -63.543369293213 -140.993820190430 2.311953306198
-3.331937074661 -76.927185058594 -221.293807983398 1.316440820694
13.699613571167 -79.789344787598 -205.335998535156 0.414022862911
-5.683434009552 -77.697113037109 -246.901519775391 1.594605565071
-151.646240234375 -78.930381774902 -234.822082519531 1.459518790245
-112.573875427246 -68.189147949219 -183.117797851563 2.010241508484
11.696160316467 -82.943153381348 -234.473846435547 2.050772190094
7.803717136383 -76.153144836426 -233.911666870117 1.401934862137
33.488281250000 -71.818862915039 -120.275787353516 0.996503829956
-23.356931686401 -74.755493164063 -67.595687866211 1.447845339775
-64.490165710449 -79.161201477051 -164.777542114258 1.783680796623
11.548853874207 -81.176521301270 -240.778625488281 1.586731076241
6.694752216339 -76.938537597656 -242.371429443359 1.324921846390
-56.752384185791 -71.466941833496 -148.214263916016 2.167679071426
-48.934860229492 -78.817031860352 -148.874160766602 1.929135441780
-62.523754119873 -78.459068298340 -174.725830078125 1.955192923546
12.084812164307 -81.291831970215 -245.158782958984 1.480361700058
7.699954032898 -78.811523437500 -245.004440307617 1.519383549690
-87.859672546387 -63.675338745117 -132.624908447266 1.297067880630
33.375114440918 -70.391143798828 -258.968963623047 1.886965870857
-40.033672332764 -80.530136108398 -74.572097778320 2.136718273163
4.598211765289 -82.881042480469 -250.428695678711 1.782703161240
3.213965892792 -63.510459899902 -269.686889648438 1.279869437218
-85.964431762695 -74.408454895020 -110.239448547363 1.411435484886
-23.602972030640 -76.137695312500 -286.155212402344 1.771602630615
9.099882125854 -81.556137084961 -249.713439941406 2.156278133392
-27.291555404663 -78.741737365723 -288.383270263672 2.439531087875
-39.546108245850 -76.507873535156 -62.448829650879 2.035484313965
-67.572265625000 -73.113822937012 -53.040523529053 1.121792078018
91.262435913086 -77.551177978516 -208.248275756836 1.232756376266
-137.985000610352 -81.075782775879 -256.492340087891 1.090432167053
-100.724975585938 -59.088363647461 -102.053848266602 1.915611028671
113.552787780762 -72.852806091309 -123.914672851563 1.565945386887
20.188642501831 -71.481819152832 -29.133472442627 0.717364370823
-8.996271133423 -81.048431396484 -253.749801635742 1.076199054718
-68.568412780762 -69.854560852051 -49.123176574707 1.323597908020
94.973045349121 -73.292732238770 -211.079284667969 1.424947261810
49.261058807373 -68.200904846191 -102.909683227539 0.994326412678
-73.098564147949 -60.405448913574 -102.747886657715 1.136880517006
-163.072463989258 -73.013465881348 -292.324279785156 0.533857703209
-29.682014465332 -80.064102172852 -178.333084106445 1.538995504379
-36.373588562012 -79.930511474609 -173.369400024414 1.827176809311
-153.296508789063 -81.550849914551 -293.865478515625 1.984900951385
-140.526962280273 -80.196380615234 -291.043090820313 1.925414562225
-144.629867553711 -79.959259033203 -284.756652832031 1.281401753426
-149.872314453125 -79.243446350098 -296.657318115234 1.727272391319
-154.458023071289 -67.881378173828 -307.173645019531 1.220002889633
-96.804672241211 -70.119140625000 -88.275772094727 2.200818538666
-83.991409301758 -71.538703918457 -103.768119812012 2.156756162643
-56.104160308838 -79.566154479980 -68.261352539063 1.013114690781
-81.918777465820 -80.052795410156 -106.259346008301 2.115692853928
-50.327232360840 -80.625000000000 -72.331901550293 2.285775661469
-95.115600585938 -73.239204406738 -112.557464599609 2.301239490509
-74.236030578613 -79.727310180664 -71.828826904297 1.242353439331
-44.594486236572 -76.149703979492 -240.500991821289 1.252075433731
74.919723510742 -59.659950256348 -106.616729736328 1.016157865524
-0.283589988947 -77.419639587402 -284.439575195313 1.456059098244
69.468627929688 -58.941276550293 -103.122604370117 1.866044759750
-144.102584838867 -72.564125061035 -293.746368408203 0.802882552147
-129.644042968750 -75.531135559082 -256.625457763672 2.362045764923
-156.531127929688 -77.207466125488 -285.887908935547 1.148705720901
-155.486175537109 -71.115020751953 -284.410308837891 1.275843024254
-143.235153198242 -69.612304687500 -291.885101318359 1.081926822662
-147.524597167969 -64.342308044434 -286.198303222656 0.914924740791
-154.734115600586 -63.908943176270 -292.875640869141 1.371093988419
61.349342346191 -59.176528930664 -82.514961242676 1.914085507393
-39.040622711182 -79.031517028809 -70.005104064941 1.979257822037
-75.113265991211 -77.981704711914 -101.399246215820 1.471723318100
-91.609115600586 -77.056671142578 -215.794296264648 0.594449520111
-107.372215270996 -66.906188964844 -258.684204101563 0.715696394444
-42.069328308105 -75.622261047363 -203.975311279297 1.646198868752
-47.485271453857 -79.371986389160 -154.123153686523 1.204517006874
-56.071960449219 -68.101081848145 -147.397277832031 1.478530645370
-63.283851623535 -79.438316345215 -169.956253051758 2.136462926865
-150.764221191406 -73.465644836426 -213.347198486328 1.746238231659
32.993148803711 -80.659263610840 -131.076934814453 1.674508094788
33.950374603271 -76.958320617676 -137.856948852539 3.058343887329
-52.509853363037 -75.731292724609 -290.451782226563 1.907965779305
-154.785507202148 -68.070419311523 -214.556488037109 3.333703517914
-125.524635314941 -64.848526000977 -231.955505371094 1.190217256546
40.381374359131 -70.896133422852 -117.256843566895 2.796065330505
-103.034355163574 -71.649230957031 -259.595916748047 1.296093940735
-92.761177062988 -71.801948547363 -117.786987304688 1.703570246696
31.436964035034 -76.335807800293 -146.648391723633 1.787870287895
15.676415443420 -71.754310607910 -232.655929565430 1.240369915962
-36.319049835205 -78.942420959473 -210.117584228516 1.034534811974
-15.079098701477 -68.001602172852 -201.675964355469 1.088981986046
-19.070568084717 -78.885200500488 -193.722015380859 1.379163980484
-146.372009277344 -76.875000000000 -186.771209716797 0.785864531994
-42.856243133545 -78.159645080566 -287.996398925781 1.745057225227
-18.701560974121 -65.788574218750 -69.005897521973 2.662513732910
39.692920684814 -72.643539428711 -122.757591247559 1.118807077408
-34.709545135498 -74.257949829102 -78.431938171387 1.603295087814
-155.177627563477 -67.733367919922 -205.493469238281 2.998700857162
-144.417465209961 -60.633453369141 -203.855255126953 0.831774413586
33.109485626221 -79.288513183594 -140.774658203125 2.196871995926
25.758535385132 -79.861701965332 -145.535736083984 1.241025090218
26.139638900757 -77.438491821289 -142.760223388672 1.684010028839
25.805145263672 -74.941711425781 -139.046936035156 1.775654315948
28.789764404297 -80.578971862793 -141.602081298828 1.129195570946
-14.784426689148 -78.619201660156 -171.982055664063 1.789698362350
-11.844127655029 -81.892837524414 -174.665267944336 0.648368060589
-97.262428283691 -70.000000000000 -99.266036987305 2.370841264725
-37.940708160400 -78.298355102539 -68.478958129883 2.461200475693
-65.938423156738 -71.124328613281 -157.567810058594 1.426391482353
-30.489860534668 -72.225219726563 -191.517333984375 2.185120344162
-58.352203369141 -80.588462829590 -176.513290405273 1.087355375290
36.824249267578 -65.727050781250 -251.401184082031 1.723504781723
3.267435073853 -73.446708679199 -225.560714721680 1.664461731911
-18.368686676025 -71.000305175781 -209.415740966797 2.143694400787
-64.967391967773 -71.313034057617 -162.705184936523 0.747284352779
37.155818939209 -69.284744262695 -258.253906250000 0.875605642796
-0.197613999248 -79.475082397461 -233.939895629883 1.707304596901
-35.173271179199 -79.788780212402 -202.212417602539 1.132228612900
-57.285175323486 -80.591949462891 -179.992889404297 2.437052965164
-14.321326255798 -66.750152587891 -207.919281005859 2.023358345032
-38.906703948975 -79.620330810547 -170.604492187500 1.549884557724
-27.127281188965 -80.141021728516 -181.251754760742 1.172394871712
-91.118507385254 -62.703273773193 -138.122894287109 0.754527866840
-22.121740341187 -62.830280303955 -67.231674194336 2.004859685898
-38.031085968018 -78.961959838867 -173.897293090820 1.555606484413
-30.846752166748 -79.771911621094 -184.605056762695 1.727226376534
-32.011863708496 -59.537204742432 -68.798271179199 2.290858507156
-45.020645141602 -78.770713806152 -195.314575195313 0.691078186035
-52.472633361816 -80.072326660156 -189.282516479492 1.988324046135
-62.472373962402 -66.977348327637 -45.984432220459 2.396302223206
61.121204376221 -67.784477233887 -237.579086303711 1.924572110176
-27.404567718506 -79.562210083008 -179.225173950195 1.013662219048
-35.685298919678 -80.051185607910 -172.431564331055 2.042457103729
44.753421783447 -79.023727416992 -107.370208740234 1.889156460762
53.830833435059 -68.970336914063 -245.912780761719 0.996828079224
28.503587722778 -77.110992431641 -126.919471740723 2.330006837845
30.402400970459 -76.157630920410 -127.025833129883 1.597757935524
-58.268520355225 -73.222900390625 -177.830642700195 0.940378725529
-37.280212402344 -79.732223510742 -191.376190185547 0.569071352482
-16.810739517212 -79.211975097656 -209.516891479492 2.118118762970
-63.798393249512 -78.343574523926 -161.517669677734 1.055838465691
-165.250305175781 -71.646591186523 -206.592742919922 3.026509284973
-36.239688873291 -75.750167846680 -62.146408081055 1.558364152908
33.689659118652 -80.450958251953 -124.142799377441 1.932853579521
-145.559890747070 -71.186019897461 -192.780014038086 1.331358075142
-47.954013824463 -72.813766479492 -290.190277099609 3.585549831390
-147.571670532227 -80.832328796387 -200.424240112305 0.554652810097
-143.472671508789 -68.148239135742 -193.443847656250 0.819814920425
-82.924011230469 -69.405120849609 -251.331375122070 0.591154575348
-106.693183898926 -66.363601684570 -225.683120727539 1.500503659248
-152.794891357422 -63.880558013916 -194.134857177734 2.332821607590
-51.013019561768 -80.625999450684 -202.790145874023 1.659256100655
-145.594329833984 -78.527664184570 -205.026107788086 1.636958956718
-80.134887695313 -64.667724609375 -48.064132690430 2.081035137177
78.498054504395 -64.820716857910 -107.241539001465 1.601239562035
-77.318008422852 -80.705429077148 -213.114242553711 1.213121294975
-86.547752380371 -67.153434753418 -55.061107635498 2.343215227127
11.303723335266 -81.139633178711 -218.288619995117 0.699954569340
7.745090007782 -77.215591430664 -217.421371459961 1.526824951172
-27.064348220825 -62.310321807861 -68.120590209961 2.232452869415
-22.567848205566 -80.417304992676 -184.677612304688 1.512795925140
-41.160736083984 -79.909217834473 -165.296051025391 3.227120876312
11.567392349243 -81.331008911133 -221.728469848633 2.233268499374
7.231907844543 -76.650627136230 -219.399948120117 1.598610281944
-2.187330961227 -78.024887084961 -229.250350952148 0.879571259022
-45.213859558105 -78.906593322754 -161.993957519531 2.124555110931
-88.876495361328 -74.169395446777 -114.048187255859 1.501868963242
40.251438140869 -71.626106262207 -254.474090576172 2.097886562347
-89.072738647461 -71.483116149902 -250.705780029297 1.762234210968
15.939410209656 -78.984657287598 -221.383407592773 1.761045575142
-138.432235717773 -80.011543273926 -231.009490966797 2.428911924362
22.858942031860 -74.901863098145 -189.600967407227 2.179538726807
38.380432128906 -58.540458679199 -18.553920745850 3.283743619919
11.309613227844 -80.407951354980 -209.744445800781 1.693034648895
7.106770038605 -77.529136657715 -207.518600463867 1.378035426140
-154.490646362305 -73.342903137207 -247.627868652344 1.466212034225
-147.304626464844 -79.904853820801 -229.326263427734 1.659658670425
-145.690048217773 -80.904693603516 -232.929656982422 0.980124056339
-111.776489257813 -63.768005371094 -181.888092041016 1.774692177773
21.848690032959 -71.565231323242 -186.882049560547 2.155232429504
-20.668819427490 -76.856536865234 -207.197189331055 2.821112155914
-65.043220520020 -76.173713684082 -164.690078735352 1.416853666306
7.550391197205 -80.339523315430 -240.494461059570 1.299192309380
9.753026008606 -77.226982116699 -243.039474487305 1.150697708130
-49.925270080566 -76.901565551758 -149.760040283203 0.635922968388
-142.058563232422 -73.541282653809 -228.212020874023 1.250195384026
-151.266952514648 -80.346672058105 -246.015762329102 1.609152317047
-113.927177429199 -69.378761291504 -194.174453735352 2.198707580566
-88.035346984863 -69.796035766602 -290.194732666016 0.898744106293
-161.568756103516 -68.295501708984 -246.442932128906 1.461933374405
-149.783248901367 -63.920639038086 -231.284805297852 1.088485121727
-147.755538940430 -66.228683471680 -229.348693847656 1.531412124634
-4.476549148560 -75.565628051758 -233.831558227539 1.941457152367
-5.705050945282 -72.728652954102 -217.388214111328 2.831619739532
-72.945327758789 -72.300132751465 -148.382049560547 1.152646541595
-156.126663208008 -72.865776062012 -228.295043945313 1.199872732162
-146.924194335938 -82.788093566895 -247.336791992188 1.385200142860
-9.153973579407 -69.155303955078 -217.966751098633 1.510879993439
-148.133331298828 -65.972320556641 -228.698684692383 1.912314653397
-113.483581542969 -64.237892150879 -195.976654052734 1.433873295784
-146.014785766602 -61.441284179688 -228.534271240234 1.206177592278
2.902859926224 -75.966751098633 -239.622406005859 1.837012529373
-24.583711624146 -75.664810180664 -212.966751098633 0.993214368820
6.960096836090 -80.639656066895 -247.672851562500 0.833356380463
-60.102443695068 -75.985626220703 -173.929931640625 2.016022443771
11.314120292664 -78.783897399902 -247.345245361328 1.265447974205
-31.027696609497 -78.183273315430 -206.265945434570 1.032606363297
32.378921508789 -64.285942077637 -254.697143554688 1.625792384148
36.492694854736 -69.171958923340 -129.401565551758 0.781695067883
-126.502799987793 -72.409568786621 -284.181427001953 1.819875121117
-146.290328979492 -71.952079772949 -273.262451171875 1.826233386993
-87.318107604980 -71.956657409668 -213.941406250000 1.225435972214
-151.962509155273 -82.283088684082 -252.835342407227 1.625241398811
-150.323303222656 -76.749305725098 -257.172393798828 1.614634752274
85.367729187012 -77.290367126465 -218.296325683594 1.747709155083
-75.350494384766 -75.385208129883 -59.629150390625 1.148846626282
-159.923782348633 -68.930038452148 -254.559585571289 3.354377031326
-163.437225341797 -67.622962951660 -250.009475708008 0.952284514904
-147.121658325195 -69.232933044434 -270.553802490234 4.684496879578
