-15.516327857971 -71.176353454590 -251.560546875000 0.654027223587
-99.370513916016 -58.392822265625 -72.058074951172 2.364004850388
113.748016357422 -76.486465454102 -127.556381225586 1.565008878708
10.393090248108 -73.378715515137 -201.243103027344 1.868731617928
-54.751308441162 -71.569732666016 -133.550094604492 0.980680644512
-48.914127349854 -74.320220947266 -137.153808593750 1.172835111618
110.437866210938 -77.258583068848 -140.105300903320 2.432838201523
-55.422027587891 -75.364425659180 -145.320922851563 1.547051787376
-0.167014002800 -65.418701171875 -282.342529296875 2.463043928146
-17.179843902588 -73.265747070313 -287.563232421875 2.710847139359
22.070074081421 -73.010070800781 -251.331954956055 1.058320283890
-98.700439453125 -60.569236755371 -108.384857177734 1.564167737961
-14.987607002258 -74.359138488770 -286.569305419922 2.301774024963
115.587638854980 -76.321205139160 -154.247848510742 1.922663211823
17.629291534424 -71.836769104004 -167.174255371094 2.123945951462
93.910583496094 -73.930534362793 -200.846298217773 1.463782191277
-120.266654968262 -74.212730407715 -256.204071044922 2.116857051849
-48.718750000000 -75.576705932617 -184.144439697266 0.493440151215
104.651878356934 -74.833312988281 -187.625869750977 1.235539197922
-44.306358337402 -70.114479064941 -153.951019287109 1.008384346962
-17.267297744751 -72.650497436523 -195.972091674805 1.514551043510
-43.485610961914 -69.198181152344 -148.048324584961 1.336259365082
4.293830871582 -61.396148681641 -243.725173950195 2.261335849762
100.097869873047 -76.709007263184 -195.259658813477 2.088109016418
-81.597442626953 -59.142322540283 -122.119010925293 1.296489953995
-67.542411804199 -74.239662170410 -290.536132812500 0.686620712280
-145.622604370117 -71.547248840332 -213.734451293945 3.701195001602
-148.872634887695 -74.248260498047 -197.691543579102 1.703551769257
-156.551254272461 -65.323432922363 -196.263626098633 1.752174258232
-148.770828247070 -59.733177185059 -213.966217041016 2.252137422562
-136.777725219727 -75.268569946289 -200.823532104492 0.353294491768
102.898521423340 -76.615089416504 -198.443206787109 0.996508061886
-13.000647544861 -75.566406250000 -220.478790283203 2.052263259888
-44.668907165527 -71.752540588379 -161.325836181641 1.751762151718
-50.164722442627 -71.773666381836 -153.224945068359 2.084649324417
-18.433937072754 -72.386344909668 -188.717956542969 1.778454303741
-84.386558532715 -69.001373291016 -117.881362915039 0.600984752178
-50.373096466064 -66.954147338867 -148.445053100586 2.012523651123
-76.753692626953 -70.399406433105 -129.034927368164 1.795847177505
-88.390235900879 -74.741683959961 -253.986526489258 1.195047974586
16.601007461548 -72.921974182129 -220.582046508789 2.120947122574
-10.186279296875 -74.286582946777 -221.396148681641 2.067644119263
-75.097801208496 -68.735023498535 -147.245422363281 0.754021167755
-4.389123916626 -67.603553771973 -222.593231201172 1.286746144295
-53.107540130615 -69.690620422363 -129.173309326172 1.664387583733
-59.797454833984 -70.603523254395 -128.909942626953 0.390024244785
16.595537185669 -71.302833557129 -204.369949340820 1.872692108154
-160.008880615234 -72.138923645020 -226.393951416016 1.325793266296
-153.995681762695 -74.798362731934 -225.090728759766 2.391100883484
-161.928924560547 -73.546783447266 -248.215133666992 1.519329071045
-84.913597106934 -76.192588806152 -288.711212158203 2.616976976395
-146.975692749023 -76.172164916992 -228.849533081055 1.217180013657
-123.977745056152 -64.226882934570 -195.808013916016 1.807698845863
-10.678556442261 -73.840202331543 -233.780807495117 1.227967858315
-4.988018989563 -70.500000000000 -234.834869384766 1.609315276146
4.290908813477 -73.595016479492 -229.668960571289 1.134959697723
-34.981616973877 -63.215011596680 -46.817501068115 1.465193986893
-60.987506866455 -68.036064147949 -123.734992980957 0.509351849556
-17.393711090088 -73.060211181641 -236.711547851563 0.900065124035
-38.882965087891 -76.753547668457 -239.462234497070 2.173265218735
-19.430330276489 -75.982971191406 -241.806915283203 1.922498822212
-13.558741569519 -76.010574340820 -267.129730224609 1.795242071152
-78.685882568359 -74.773666381836 -286.074523925781 1.406248569489
-118.797630310059 -70.236175537109 -201.653121948242 3.166145086288
-155.371597290039 -72.116828918457 -234.851348876953 2.605602741241
-151.006179809570 -65.844528198242 -235.813323974609 0.649472534657
-144.855728149414 -63.566413879395 -234.511520385742 1.441516995430
-72.424057006836 -76.123992919922 -286.470520019531 2.475132465363
-3.614955902100 -74.553863525391 -230.766876220703 1.373977184296
-154.887664794922 -71.374382019043 -217.086105346680 1.152263045311
-151.268447875977 -66.206214904785 -217.675109863281 3.231491565704
-146.328659057617 -62.771419525146 -216.262252807617 1.799420952797
-89.299690246582 -75.242782592773 -286.886413574219 1.790817379951
-61.594486236572 -60.602138519287 -130.271759033203 1.640119433403
-147.161331176758 -73.584152221680 -227.409744262695 1.073364853859
-81.687606811523 -76.272491455078 -288.246551513672 1.855367302895
-109.452804565430 -66.873672485352 -198.464324951172 0.823915123940
92.880752563477 -74.000213623047 -202.559707641602 2.253392934799
-61.047069549561 -71.336601257324 -50.198261260986 1.863199353218
22.556953430176 -63.486858367920 -251.448730468750 1.079199552536
22.344236373901 -75.506599426270 -258.489562988281 1.390772700310
-42.147308349609 -70.010719299316 -49.792671203613 2.565338850021
-44.660804748535 -74.008781433105 -54.449138641357 0.993256986141
84.118530273438 -74.370925903320 -71.582305908203 1.271569609642
55.413528442383 -69.251663208008 -100.768318176270 1.304370999336
-77.951301574707 -63.821239471436 -101.882949829102 2.043310880661
72.612678527832 -74.707786560059 -77.479316711426 1.775397658348
97.679397583008 -73.860435485840 -86.212791442871 1.452507257462
-81.208961486816 -58.959808349609 -45.755283355713 1.217177033424
97.905609130859 -73.936103820801 -88.217620849609 1.640283942223
70.462059020996 -71.876579284668 -97.193405151367 1.314434885979
74.967590332031 -75.244338989258 -96.065231323242 1.845644593239
65.536140441895 -68.650794982910 -81.267700195313 1.324446558952
8.669071197510 -68.118736267090 -291.246276855469 1.365513086319
64.939178466797 -66.688652038574 -77.288314819336 1.356775879860
9.910183906555 -63.421180725098 -290.826599121094 1.234888911247
68.781791687012 -71.418075561523 -93.993164062500 1.297671198845
26.844421386719 -72.591888427734 -168.870513916016 1.356834888458
-164.990768432617 -74.130218505859 -272.157165527344 1.847522139549
8.196416854858 -73.589630126953 -153.259689331055 1.499824762344
-68.187713623047 -73.748565673828 -98.919525146484 2.451251745224
24.137022018433 -67.970893859863 -167.172836303711 0.889526367188
-161.381927490234 -74.207771301270 -276.426940917969 2.916238784790
69.591110229492 -76.713043212891 -235.281921386719 1.855437517166
69.541557312012 -72.826187133789 -79.820587158203 1.410102367401
88.694969177246 -74.834999084473 -100.142318725586 0.991608679295
40.179950714111 -71.131622314453 -39.370147705078 1.121901154518
106.333580017090 -74.801986694336 -101.433715820313 1.463530421257
110.035713195801 -76.200164794922 -114.584182739258 2.197515487671
26.718830108643 -68.853820800781 -21.080204010010 1.525926351547
-57.572849273682 -69.932617187500 -141.080718994141 0.991502046585
113.398368835449 -74.178413391113 -141.059127807617 0.849186003208
-14.141074180603 -72.264442443848 -241.609176635742 1.994602322578
-99.611206054688 -66.628395080566 -163.441970825195 1.853181242943
-48.201614379883 -73.437652587891 -140.331146240234 1.224239230156
-97.407981872559 -73.332931518555 -286.345062255859 1.587986826897
-97.524749755859 -68.859054565430 -289.027160644531 1.321483969688
-148.271011352539 -61.225357055664 -242.988647460938 2.291428804398
-42.815582275391 -71.289054870605 -146.161849975586 1.163655400276
109.183624267578 -73.293037414551 -147.911666870117 2.250214338303
-56.048515319824 -72.049636840820 -143.629638671875 1.805070996284
106.738037109375 -68.129585266113 -98.967247009277 2.092587947845
44.378620147705 -66.850151062012 -37.100826263428 2.091501951218
108.908058166504 -74.573677062988 -145.150955200195 2.129005193710
32.299610137939 -74.617950439453 -156.791427612305 1.722813010216
3.562989950180 -72.570755004883 -241.339340209961 1.965082287788
-32.295459747314 -73.602966308594 -208.927124023438 1.746146202087
-49.267089843750 -71.810737609863 -158.406951904297 0.512124419212
107.550552368164 -76.536293029785 -162.425781250000 2.555339574814
-39.643436431885 -71.865440368652 -156.875717163086 2.533927679062
-59.335170745850 -73.500144958496 -175.959976196289 1.730322122574
-66.646667480469 -72.117485046387 -164.158706665039 1.278263092041
112.452484130859 -77.067024230957 -172.423751831055 1.645093798637
-29.662303924561 -71.724342346191 -169.340454101563 1.443403363228
-35.104187011719 -71.178024291992 -166.555099487305 2.403849840164
-26.088249206543 -73.214279174805 -174.201934814453 2.268771886826
-26.394029617310 -69.679817199707 -178.335678100586 2.110969066620
-36.634994506836 -68.554206848145 -171.721099853516 2.439228773117
103.583351135254 -75.918693542480 -178.559661865234 2.992992401123
-85.276130676270 -60.997200012207 -114.947799682617 1.111479878426
49.354331970215 -66.744949340820 -250.216567993164 1.794135093689
-37.784954071045 -72.962524414063 -289.141021728516 1.429553747177
-146.041793823242 -72.926177978516 -182.620529174805 1.724124908447
-141.637496948242 -66.244995117188 -185.105010986328 2.501348972321
-152.583084106445 -64.068908691406 -184.094604492188 2.256163835526
28.299070358276 -65.693984985352 -256.475738525391 2.052880525589
23.414503097534 -73.143905639648 -257.921234130859 1.354084968567
-52.734111785889 -73.997825622559 -182.778015136719 1.702726960182
-146.604888916016 -73.632637023926 -248.992218017578 2.974950790405
-115.941383361816 -70.218887329102 -197.517120361328 1.791019916534
25.112831115723 -72.069152832031 -184.512466430664 1.690609574318
-30.818817138672 -71.151473999023 -188.184127807617 0.427007973194
-12.831416130066 -72.655303955078 -223.793045043945 1.105191588402
21.299100875854 -72.944290161133 -192.289993286133 1.523163199425
63.112152099609 -60.864635467529 -85.834999084473 2.122077703476
-47.080806732178 -68.720924377441 -47.863014221191 1.184971213341
23.710302352905 -73.062812805176 -263.813476562500 1.663533806801
98.268661499023 -75.775779724121 -191.790405273438 1.800150156021
-55.191528320313 -73.032501220703 -285.720062255859 1.346060514450
-140.769943237305 -72.809631347656 -198.661117553711 0.609484136105
-149.270919799805 -63.375453948975 -200.251586914063 1.003214478493
-152.727951049805 -59.498111724854 -199.625274658203 1.495110869408
-95.555068969727 -71.610908508301 -215.378005981445 1.712995171547
-37.170810699463 -74.328353881836 -202.451019287109 1.045472025871
-64.116767883301 -71.105842590332 -50.073246002197 1.511370778084
93.441764831543 -74.639595031738 -208.241775512695 0.674125969410
-29.595933914185 -73.150733947754 -212.381256103516 1.866596460342
-60.554992675781 -72.759582519531 -167.064407348633 0.972344756126
-20.524948120117 -73.680038452148 -204.272216796875 1.089315891266
11.667135238647 -74.786262512207 -239.440093994141 2.619473695755
65.045707702637 -74.154678344727 -241.896759033203 1.832134485245
97.647872924805 -74.222633361816 -207.783813476563 2.897068738937
8.567478179932 -74.323783874512 -209.475845336914 1.914419293404
-58.984077453613 -72.948341369629 -172.403274536133 1.219690561295
-33.878780364990 -74.470787048340 -211.526977539063 1.417973279953
-21.694845199585 -70.223495483398 -205.471221923828 2.012253284454
10.735479354858 -69.321975708008 -239.252349853516 1.655259013176
54.432746887207 -74.369018554688 -243.584655761719 2.246774196625
-41.405906677246 -61.770832061768 -78.930191040039 1.232705593109
16.844312667847 -75.314682006836 -279.565002441406 0.488028526306
19.717350006104 -72.907669067383 -277.777709960938 1.300281643867
88.269866943359 -73.898223876953 -209.495758056641 1.886036276817
56.782234191895 -73.747566223145 -246.709167480469 2.413088083267
90.302726745605 -74.384193420410 -211.899078369141 1.534510850906
20.740056991577 -69.642898559570 -183.872192382813 1.553581476212
-16.048648834229 -74.132232666016 -216.499588012695 1.737195730209
-28.749280929565 -73.710029602051 -216.826828002930 1.009773015976
-151.577972412109 -72.440765380859 -222.782592773438 0.698423027992
-152.316070556641 -67.315574645996 -223.358230590820 1.321806073189
81.168983459473 -75.118766784668 -222.322250366211 1.799420952797
97.417930603027 -60.495380401611 -105.639114379883 2.225736379623
72.491249084473 -72.752662658691 -230.946395874023 1.782513856888
-73.440567016602 -68.298767089844 -149.132949829102 0.650750041008
-147.494461059570 -72.869140625000 -229.500488281250 1.319202661514
-10.968293190002 -70.545188903809 -217.868698120117 0.701073765755
-155.519638061523 -65.106620788574 -229.130294799805 2.082473754883
-4.770000934601 -68.653755187988 -218.368865966797 1.836077809334
-141.662597656250 -63.888118743896 -228.471755981445 1.558468103409
-13.733059883118 -73.284706115723 -228.809478759766 0.625629842281
49.496139526367 -68.125114440918 -27.627086639404 2.712399244308
-111.750572204590 -70.282196044922 -195.722915649414 2.358647823334
-141.080886840820 -65.814140319824 -231.555053710938 0.501758456230
-154.041549682617 -61.213058471680 -230.904083251953 0.908544719219
-9.951661109924 -75.401451110840 -232.668121337891 1.152786374092
-13.141002655029 -71.946380615234 -204.176834106445 1.412756323814
-16.998350143433 -67.176940917969 -204.689071655273 1.531497240067
18.842691421509 -75.204093933105 -236.526596069336 1.572837352753
-51.732006072998 -63.088912963867 -133.002777099609 1.126286983490
-32.525173187256 -75.717658996582 -238.851715087891 0.569295048714
65.521179199219 -76.183998107910 -238.641021728516 2.214458703995
2.759773015976 -68.236473083496 -292.263793945313 1.978331923485
3.259526968002 -62.815380096436 -289.521606445313 2.108183145523
-105.875694274902 -64.192825317383 -179.685943603516 1.492138504982
-58.226734161377 -73.977996826172 -243.903793334961 2.098490238190
-56.275669097900 -67.863533020020 -46.635780334473 2.857653379440
-80.516273498535 -74.123275756836 -248.740631103516 1.934019327164
-104.660308837891 -70.520027160645 -226.713867187500 1.199459671974
-12.440660476685 -74.861549377441 -251.956375122070 1.547154188156
-95.205230712891 -73.793586730957 -256.575897216797 0.524516224861
-14.594840049744 -75.537132263184 -257.695159912109 2.264058828354
-124.795425415039 -73.051300048828 -262.059448242188 0.809791922569
-127.600593566895 -67.352386474609 -264.104125976563 1.657275557518
-133.074554443359 -71.123840332031 -264.154296875000 1.229703545570
22.869991302490 -74.449859619141 -264.560546875000 2.441886186600
-14.386010169983 -74.292098999023 -268.459442138672 1.165871381760
-11.843455314636 -70.431831359863 -272.327789306641 2.014356613159
25.629714965820 -59.721866607666 -29.826576232910 2.885742425919
-165.836273193359 -74.524803161621 -281.604400634766 2.264961719513
65.902122497559 -72.926856994629 -241.858749389648 1.037558078766
-167.951736450195 -70.213645935059 -281.722259521484 2.469367980957
-154.016662597656 -70.394210815430 -279.808135986328 1.198811292648
-159.906921386719 -74.346275329590 -281.270324707031 3.275925874710
-147.389190673828 -67.825393676758 -280.854431152344 1.781334996223
-0.511901974678 -73.612785339355 -161.250991821289 1.931889414787
-158.189865112305 -71.122810363770 -212.234100341797 1.468071460724
-140.033294677734 -70.040153503418 -196.080261230469 1.124356269836
-51.532436370850 -74.748626708984 -285.273162841797 2.174119472504
32.325542449951 -69.075561523438 -134.854751586914 1.951606631279
-53.116989135742 -70.468009948730 -289.007690429688 0.540529727936
-111.841209411621 -66.529190063477 -230.304656982422 1.750336170197
-148.154571533203 -62.739639282227 -197.549545288086 1.549360513687
-152.523422241211 -59.031364440918 -196.124404907227 2.119174718857
-86.484802246094 -71.737068176270 -110.788658142090 1.859979987144
-24.626163482666 -73.281761169434 -287.357086181641 1.840007662773
-21.906497955322 -74.815460205078 -286.177703857422 2.950962305069
-101.235649108887 -74.509445190430 -287.060119628906 1.707775592804
-114.873344421387 -68.011077880859 -195.963989257813 1.041932940483
83.718101501465 -73.728736877441 -221.482635498047 1.006267070770
16.056085586548 -75.775222778320 -289.582336425781 1.262986660004
16.865495681763 -69.846145629883 -283.197967529297 0.615375995636
-144.659225463867 -72.402549743652 -204.686172485352 1.373645424843
-58.561901092529 -72.659828186035 -290.201660156250 1.611074209213
-141.534255981445 -68.114105224609 -204.019424438477 1.168041706085
-152.675109863281 -64.412063598633 -203.890167236328 2.538760900497
-150.080780029297 -60.118850708008 -205.193725585938 1.189526677132
-145.355651855469 -71.404586791992 -241.481369018555 1.387928843498
-98.823417663574 -74.510681152344 -290.629058837891 1.763835549355
-98.170318603516 -69.687309265137 -286.984619140625 1.132267236710
-44.786476135254 -69.178680419922 -144.156433105469 2.062130212784
107.469207763672 -74.668937683105 -177.851516723633 1.803936004639
-20.257242202759 -75.602073669434 -291.198150634766 1.379064798355
4.174351215363 -75.713516235352 -292.092956542969 1.113901615143
67.196670532227 -68.822669982910 -236.224487304688 1.673877120018
28.189304351807 -60.484828948975 -12.827935218811 3.131451845169
23.465740203857 -59.351001739502 -15.937355041504 2.119179725647
-30.383459091187 -71.279113769531 -55.225078582764 1.898269653320
-132.822006225586 -72.884101867676 -225.619796752930 0.807151556015
-18.344238281250 -72.220077514648 -64.483650207520 1.439732551575
79.784385681152 -73.299987792969 -68.685966491699 1.102047801018
76.389572143555 -70.443611145020 -65.467849731445 1.048824310303
71.524452209473 -74.333816528320 -234.078628540039 1.523583769798
-91.242393493652 -71.537841796875 -71.112510681152 0.932799637318
63.714237213135 -70.513641357422 -88.588882446289 1.195054769516
79.389869689941 -74.377655029297 -71.340278625488 1.055274128914
75.208221435547 -74.242721557617 -73.433708190918 0.774978458881
71.356056213379 -71.076843261719 -70.632225036621 2.627625465393
39.252361297607 -74.182685852051 -104.555358886719 1.456938505173
97.825469970703 -72.331825256348 -76.424758911133 0.702894032001
26.365264892578 -62.534519195557 -131.588470458984 1.028846502304
28.889236450195 -62.761295318604 -137.128463745117 0.885097146034
-133.595214843750 -73.557731628418 -254.887512207031 0.740376949310
-40.837879180908 -71.545608520508 -77.761505126953 0.569263756275
-63.516250610352 -66.912261962891 -90.539131164551 1.957769870758
-65.208724975586 -69.261459350586 -92.665802001953 1.719347953796
54.292663574219 -72.458122253418 -99.770767211914 0.903537929058
87.121910095215 -71.298385620117 -65.987915039063 1.511339783669
96.656875610352 -71.377494812012 -72.152748107910 1.463302373886
25.311914443970 -73.533912658691 -144.184066772461 0.839305222034
69.266128540039 -71.483657836914 -230.670608520508 2.169610500336
9.675740242004 -67.734611511230 -290.682800292969 1.410719990730
63.658569335938 -63.212352752686 -77.866409301758 1.449278354645
8.252668380737 -63.296264648438 -291.298522949219 1.648367881775
91.523696899414 -74.569862365723 -98.304649353027 0.891607940197
-94.705368041992 -72.462921142578 -103.032867431641 1.708922863007
8.546669006348 -61.023593902588 -263.306518554688 2.282535314560
57.461223602295 -71.940597534180 -98.656585693359 1.405262112617
-62.307643890381 -58.934650421143 -84.665794372559 2.043528318405
87.308113098145 -72.699440002441 -102.792984008789 0.952732205391
42.371097564697 -71.715919494629 -36.180759429932 1.951200723648
108.659317016602 -73.754089355469 -103.079223632813 2.206716537476
49.271942138672 -68.983634948730 -22.643396377563 1.136006355286
-16.414241790771 -74.134628295898 -229.804611206055 1.915879368782
24.140110015869 -72.422088623047 -188.900497436523 1.824905157089
-95.949447631836 -70.354049682617 -106.565109252930 2.644643783569
39.153659820557 -71.781059265137 -36.149459838867 1.337839126587
110.213996887207 -73.803855895996 -107.201339721680 0.995560646057
-59.618659973145 -68.258621215820 -136.915328979492 1.228606104851
104.589241027832 -74.089492797852 -110.410438537598 1.287048935890
29.627113342285 -72.151168823242 -38.911659240723 0.927600741386
105.480140686035 -73.364715576172 -115.276779174805 1.021015524864
-56.844047546387 -66.991935729980 -88.172325134277 0.997994720936
106.724548339844 -74.055503845215 -120.912742614746 1.383356213570
107.066925048828 -71.920646667480 -123.267425537109 1.758872628212
107.827354431152 -74.093673706055 -128.019439697266 1.551758050919
115.020561218262 -72.080169677734 -128.321212768555 1.312889099121
-22.428392410278 -71.679916381836 -73.964569091797 2.150774002075
37.595703125000 -71.094642639160 -132.464569091797 1.485873937607
-27.231775283813 -66.529449462891 -72.911293029785 1.060395002365
-78.416435241699 -58.685859680176 -113.850639343262 1.127026557922
37.006336212158 -71.410980224609 -135.092269897461 1.311600208282
-165.454589843750 -71.364501953125 -217.750335693359 0.698854029179
9.474611282349 -74.133308410645 -195.967544555664 1.686529040337
-51.976932525635 -72.853034973145 -136.394683837891 0.621186912060
9.920949935913 -72.041809082031 -221.538711547852 1.463554978371
-78.939399719238 -70.457984924316 -136.598907470703 2.302111387253
-46.400028228760 -70.021331787109 -146.177368164063 1.863470792770
8.981520652771 -71.624198913574 -231.098419189453 1.574282884598
-26.815658569336 -71.503341674805 -196.221054077148 0.616513311863
33.531810760498 -72.156654357910 -256.536529541016 2.964647769928
-21.839851379395 -67.414413452148 -196.195007324219 1.833721280098
-76.519477844238 -70.130714416504 -145.728607177734 0.933598160744
0.808306992054 -70.837425231934 -222.590179443359 1.751540184021
29.289627075195 -72.191734313965 -155.902938842773 1.329516410828
22.323635101318 -71.556739807129 -148.786895751953 0.547517955303
28.577772140503 -69.706687927246 -160.239685058594 1.692767858505
-9.603369712830 -74.003189086914 -209.015869140625 0.478382945061
-65.546936035156 -72.890602111816 -152.637252807617 2.537209510803
-35.688400268555 -72.238525390625 -158.251205444336 2.412582159042
110.869491577148 -74.539566040039 -157.474029541016 1.686124205589
-48.412754058838 -71.004203796387 -154.782821655273 0.660098433495
-47.246486663818 -67.412834167480 -148.771377563477 1.536942005157
-83.092735290527 -67.317321777344 -113.786285400391 1.520063996315
19.059068679810 -73.141357421875 -248.435165405273 1.260220527649
102.175933837891 -74.695571899414 -191.840408325195 1.969380378723
-18.505327224731 -70.271408081055 -211.001922607422 1.830764412880
109.443191528320 -74.827095031738 -183.779739379883 1.015474915504
-69.020057678223 -71.062820434570 -159.083099365234 1.721000313759
-14.934608459473 -70.760337829590 -212.821578979492 1.168776750565
32.460388183594 -72.883575439453 -153.018402099609 1.596480250359
19.928194046021 -72.639259338379 -166.891174316406 1.077142357826
12.893808364868 -71.490715026855 -156.999420166016 1.068974494934
-61.312133789063 -73.297073364258 -163.202621459961 1.266598701477
-68.510963439941 -71.606452941895 -160.796432495117 1.382600903511
-16.284399032593 -72.447845458984 -211.843750000000 1.029468059540
19.090183258057 -68.310081481934 -246.758529663086 1.453536868095
-37.728237152100 -71.183334350586 -162.202468872070 2.381202220917
21.075752258301 -67.441619873047 -175.440658569336 2.217025518417
2.627861976624 -72.600227355957 -163.299942016602 0.896245658398
-25.866769790649 -73.654052734375 -178.617568969727 0.957012355328
-31.385299682617 -71.380851745605 -166.625900268555 2.211503028870
-33.824218750000 -70.867141723633 -169.820922851563 2.108454704285
-35.106380462646 -68.556632995605 -167.380661010742 3.099643707275
16.550453186035 -70.951698303223 -148.357162475586 1.050678014755
-0.826967000961 -73.421997070313 -165.187347412109 0.858413815498
16.057559967041 -67.894515991211 -152.099060058594 1.322587370872
113.145660400391 -74.463417053223 -171.008956909180 1.498394966125
111.275604248047 -71.783409118652 -169.915176391602 2.042192459106
111.286514282227 -71.357635498047 -166.762710571289 1.951119661331
46.603332519531 -69.598739624023 -251.289596557617 0.750372290611
14.123309135437 -69.647331237793 -215.829208374023 1.224646687508
-25.896238327026 -71.409950256348 -181.752426147461 1.181366801262
-38.785335540771 -73.249000549316 -172.434524536133 1.447219729424
-23.929925918579 -69.971710205078 -181.513397216797 1.793141961098
-37.966144561768 -68.281188964844 -166.606811523438 2.460767984390
19.569585800171 -71.071090698242 -171.154708862305 2.449940919876
20.211174011230 -68.890693664551 -166.123611450195 2.381593227386
109.578704833984 -75.353027343750 -173.822021484375 0.746634721756
-34.993534088135 -72.985588073730 -182.913070678711 2.513368606567
-38.357761383057 -72.989303588867 -177.130676269531 2.197565555573
-38.232082366943 -69.550170898438 -173.179687500000 2.629987239838
-71.708175659180 -67.258850097656 -140.703918457031 0.741817891598
-31.062751770020 -69.008682250977 -182.705993652344 1.168109178543
-34.078491210938 -73.162956237793 -287.393585205078 1.868321299553
-29.453088760376 -74.846755981445 -285.069763183594 0.421057820320
-145.078567504883 -72.141471862793 -178.448394775391 2.188514471054
-141.626358032227 -65.979194641113 -179.057067871094 1.860819578171
-146.699890136719 -65.000022888184 -175.091567993164 1.317386865616
-152.235336303711 -62.818370819092 -180.832458496094 1.712130665779
-82.906883239746 -63.215087890625 -105.829597473145 1.525412797928
-150.698852539063 -63.663814544678 -175.301239013672 2.080242633820
2.830221891403 -64.050201416016 -258.953063964844 2.007276296616
-20.596494674683 -72.621063232422 -184.025207519531 0.984038233757
-38.776641845703 -70.637947082520 -165.504196166992 1.684233784676
-24.903430938721 -69.151519775391 -182.225494384766 1.886717319489
44.860065460205 -73.411514282227 -251.519699096680 2.213293552399
13.506500244141 -71.977355957031 -217.639205932617 1.868119478226
-73.670364379883 -70.777160644531 -133.774780273438 1.268706440926
-74.782829284668 -70.771682739258 -140.496032714844 1.013055801392
-30.797266006470 -72.621315002441 -185.175521850586 1.985180497169
-37.607280731201 -70.832565307617 -176.525970458984 1.844935655594
-150.809661865234 -71.787475585938 -182.102722167969 1.205464959145
-153.305282592773 -67.372047424316 -184.375228881836 2.606948852539
-142.535583496094 -63.733634948730 -182.647018432617 0.750704765320
-20.259698867798 -60.990921020508 -65.122810363770 1.600462913513
52.559371948242 -70.684875488281 -250.243148803711 1.281139254570
-32.686832427979 -73.115699768066 -186.753601074219 1.869986414909
-29.737459182739 -69.948966979980 -187.903503417969 1.898915767670
100.529418945313 -73.964942932129 -187.383300781250 2.684984683990
-52.872596740723 -71.173072814941 -133.643722534180 0.369771033525
12.160728454590 -73.544570922852 -194.268463134766 1.920007467270
23.931774139404 -74.315887451172 -189.891723632813 1.163746833801
101.843582153320 -72.032455444336 -195.669601440430 2.254890203476
-131.169860839844 -72.827438354492 -198.543472290039 1.361071825027
-124.753173828125 -73.112953186035 -199.454360961914 1.460812449455
-154.007904052734 -65.386985778809 -225.132263183594 2.803634405136
-108.961860656738 -64.250686645508 -191.156890869141 2.199736595154
-20.870718002319 -72.967262268066 -207.824050903320 1.252400159836
-64.212707519531 -72.235137939453 -167.302490234375 1.665331244469
11.792812347412 -72.926216125488 -242.589477539063 1.616348266602
101.031379699707 -74.242149353027 -202.073883056641 1.942687153816
-65.064834594727 -71.609550476074 -289.935455322266 2.190277814865
-145.863204956055 -72.296340942383 -209.727371215820 1.053211927414
-147.635589599609 -59.559753417969 -208.704177856445 3.064029455185
16.862314224243 -74.694084167480 -208.513122558594 0.959189593792
90.502799987793 -74.672538757324 -218.189849853516 1.658694863319
15.727606773376 -73.484535217285 -213.316772460938 1.911711931229
104.635398864746 -60.826263427734 -84.555152893066 1.299103021622
-71.249473571777 -71.589637756348 -156.843276977539 2.419803619385
-13.359495162964 -73.091896057129 -216.687789916992 2.372128486633
-98.893180847168 -71.191383361816 -216.793518066406 0.686176776886
-137.696075439453 -69.781814575195 -255.172027587891 2.549588441849
-77.839149475098 -71.002182006836 -140.706008911133 1.704379558563
2.139089107513 -74.766326904297 -222.784332275391 1.764644503593
-24.321939468384 -72.919876098633 -221.361221313477 2.209649324417
-117.623367309570 -73.234916687012 -291.898284912109 1.547751069069
-153.227218627930 -66.986106872559 -264.070892333984 2.352809667587
84.464172363281 -73.375907897949 -225.091888427734 1.614439010620
-18.296819686890 -71.676559448242 -221.607955932617 1.810012936592
14.664985656738 -72.551521301270 -185.871902465820 1.568711280823
-120.891006469727 -64.359992980957 -197.504745483398 2.008625745773
-6.344883918762 -73.299194335938 -226.548812866211 1.643805861473
-7.766374111176 -68.338127136230 -223.762344360352 1.810948967934
80.317832946777 -74.361213684082 -226.344223022461 1.105982780457
-135.940643310547 -72.504318237305 -230.952209472656 1.439450383186
6.986458778381 -74.143409729004 -237.644546508789 1.505287766457
15.684035301208 -72.197204589844 -229.953857421875 1.115205407143
-73.855094909668 -71.972808837891 -286.139617919922 1.886314272881
-145.310791015625 -66.175849914551 -216.534454345703 2.333213567734
-150.387451171875 -61.666141510010 -217.038040161133 2.884745597839
-157.907196044922 -72.108612060547 -234.001861572266 2.338789939880
47.158317565918 -66.621437072754 -18.260589599609 3.047234773636
-145.563583374023 -71.884117126465 -237.869018554688 2.508396625519
-13.693022727966 -71.642425537109 -236.462936401367 2.259227037430
-165.557296752930 -72.074073791504 -232.493957519531 1.827568292618
8.246589660645 -74.441574096680 -211.918426513672 1.059891939163
-94.592277526855 -72.801467895508 -291.492156982422 0.997200965881
-151.068283081055 -72.919334411621 -238.862762451172 3.430188655853
-155.599166870117 -68.648452758789 -239.855545043945 1.724929690361
46.700153350830 -64.153411865234 -17.912866592407 0.922090470791
21.513263702393 -61.382881164551 -139.009704589844 1.032040953636
58.878524780273 -74.978034973145 -243.594039916992 2.349750280380
10.838342666626 -68.945594787598 -203.343673706055 2.444607973099
-60.618755340576 -67.161163330078 -133.524047851563 1.348732233047
-24.804910659790 -74.116012573242 -238.786514282227 1.164236903191
23.867164611816 -63.751438140869 -15.747505187988 1.735894083977
26.999031066895 -62.973155975342 -13.380642890930 2.112566471100
-94.053283691406 -70.087051391602 -76.543037414551 2.212091445923
68.804534912109 -74.844291687012 -238.997924804688 0.856647670269
-156.820388793945 -72.674163818359 -243.877075195313 1.534490704536
-6.648984909058 -72.561592102051 -237.730377197266 1.737903594971
-10.619215965271 -67.144889831543 -239.212402343750 1.668622374535
-22.410654067993 -74.581542968750 -241.746459960938 1.603006243706
-132.563079833984 -69.830574035645 -203.771057128906 1.111167311668
-166.987670898438 -71.188476562500 -238.188964843750 1.217568755150
-162.630310058594 -72.867721557617 -243.361984252930 3.587896108627
8.635710716248 -74.358337402344 -241.901367187500 1.109224438667
-167.697448730469 -69.423049926758 -242.819458007813 0.780561506748
-43.038509368896 -72.963645935059 -286.687377929688 0.792462944984
-143.576522827148 -67.648986816406 -189.057571411133 1.263092994690
-149.352035522461 -61.265766143799 -186.723464965820 1.188165903091
-0.459556996822 -74.620788574219 -242.205276489258 1.384823560715
17.220661163330 -73.263687133789 -242.831619262695 1.849269390106
-4.464548110962 -74.512245178223 -243.024307250977 2.176530122757
-97.590339660645 -67.967132568359 -152.019760131836 1.004802107811
-10.326446533203 -69.417045593262 -241.762634277344 0.745760619640
-137.482727050781 -64.226959228516 -196.897171020508 3.418124914169
-153.803573608398 -72.619224548340 -244.609115600586 2.268183469772
-150.938110351563 -64.921218872070 -243.815460205078 2.360892057419
-146.977127075195 -63.469623565674 -240.651214599609 1.241776823997
-157.613464355469 -72.761024475098 -245.017501831055 0.701139688492
-76.548500061035 -74.694862365723 -247.666687011719 1.578122496605
-58.973556518555 -72.626487731934 -245.910964965820 1.384048938751
-95.007812500000 -72.330520629883 -214.957672119141 0.935749232769
-98.958023071289 -73.681373596191 -255.495773315430 1.493563413620
-15.021947860718 -74.246604919434 -257.908996582031 2.887134790421
-60.779186248779 -71.486740112305 -286.843688964844 0.400192737579
-141.905670166016 -69.274337768555 -203.598815917969 1.343235850334
-143.470550537109 -68.486648559570 -205.721069335938 1.399771213531
-150.076080322266 -63.511489868164 -206.207870483398 1.207183122635
-93.256874084473 -71.246482849121 -251.731292724609 1.025215625763
-80.952590942383 -74.124259948730 -286.000671386719 1.310018897057
-149.103195190430 -62.104839324951 -227.136825561523 0.688843905926
-125.396415710449 -61.648155212402 -200.945892333984 0.699975788593
-93.895980834961 -72.855972290039 -286.177368164063 2.697485685349
-92.745613098145 -69.867500305176 -290.196807861328 2.418816804886
-145.276046752930 -68.157386779785 -239.733032226563 1.384415864944
-115.450691223145 -63.852500915527 -202.590286254883 0.897694408894
-150.841247558594 -63.676944732666 -237.995986938477 2.215386867523
45.543788909912 -70.758331298828 -16.901439666748 1.053795337677
12.161409378052 -72.698989868164 -286.313964843750 1.542407870293
-105.929161071777 -68.318038940430 -171.473526000977 1.597687125206
14.248092651367 -68.938522338867 -287.043487548828 1.641310811043
-81.708992004395 -74.008781433105 -290.802978515625 1.411504626274
-108.513954162598 -68.595634460449 -193.281402587891 1.544950842857
-141.569915771484 -67.264045715332 -225.598297119141 0.896850466728
-152.958969116211 -61.269641876221 -224.694854736328 1.485103487968
-126.451713562012 -61.513420104980 -200.432937622070 1.583771228790
-148.876571655273 -60.021484375000 -223.716629028320 0.813329577446
-145.564483642578 -71.877685546875 -222.062805175781 1.710601568222
-77.930358886719 -71.925796508789 -290.576263427734 2.125555992126
-149.092559814453 -60.057399749756 -223.056259155273 1.257925748825
-138.099243164063 -72.834564208984 -292.229400634766 2.366375923157
-151.745559692383 -67.200462341309 -281.285736083984 1.491178870201
0.750630021095 -74.176567077637 -291.489837646484 3.151409626007
-0.467891007662 -65.016784667969 -286.030578613281 1.588895678520
94.485237121582 -62.745128631592 -107.142601013184 2.547692060471
68.345504760742 -72.481506347656 -89.691955566406 1.680860638618
-9.026500701904 -69.276405334473 -275.316284179688 2.428347587585
14.155726432800 -74.649940490723 -292.813262939453 1.529053211212
-105.127105712891 -62.053417205811 -167.558334350586 0.839811444283
27.008583068848 -71.899803161621 -17.599195480347 1.860622644424
-60.750411987305 -59.014053344727 -110.044227600098 1.892033576965
25.478054046631 -71.799285888672 -21.459951400757 1.808233857155
-9.905204772949 -67.603729248047 -252.266586303711 2.706991195679
22.217226028442 -72.075973510742 -23.429786682129 1.009672403336
-71.325729370117 -68.575386047363 -48.587150573730 0.848306179047
109.661102294922 -72.431198120117 -114.192581176758 0.839428544044
30.611944198608 -71.485816955566 -35.318290710449 0.413574993610
113.702201843262 -73.268402099609 -119.596801757813 0.815262198448
23.289262771606 -72.081848144531 -29.460432052612 1.889037251472
110.810951232910 -72.698387145996 -119.371170043945 1.508740544319
25.629285812378 -72.153060913086 -34.100685119629 1.983836054802
112.418563842773 -74.330619812012 -115.452583312988 3.205835580826
-33.013454437256 -70.362419128418 -52.973644256592 2.064395189285
-1.158388972282 -66.016136169434 -259.486785888672 1.956945180893
3.270442962646 -64.680335998535 -263.205718994141 2.107421159744
72.110214233398 -63.471679687500 -62.112762451172 1.792072534561
93.558341979980 -73.246147155762 -72.140045166016 1.288915157318
-43.093692779541 -71.424354553223 -80.289924621582 2.209415912628
100.789901733398 -71.208694458008 -88.923576354980 1.411056995392
-62.651367187500 -70.572303771973 -91.648666381836 2.622305393219
-12.049282073975 -72.510749816895 -276.012573242188 1.726353645325
101.648109436035 -73.287849426270 -96.891960144043 1.546340107918
9.398632049561 -74.518913269043 -291.842987060547 2.343924760818
82.727966308594 -73.800651550293 -99.242042541504 1.858385920525
102.136772155762 -72.945129394531 -102.773056030273 2.044677495956
33.269721984863 -70.528335571289 -36.537521362305 0.982393085957
108.243186950684 -73.033851623535 -110.007324218750 1.519213914871
30.095619201660 -72.844680786133 -124.191497802734 1.836872696877
32.190433502197 -73.605941772461 -124.543601989746 0.731143116951
28.511846542358 -72.615554809570 -129.228927612305 1.343264579773
12.620409011841 -72.133483886719 -222.122314453125 1.697065114975
-78.881752014160 -70.639717102051 -132.521087646484 1.297340750694
12.344874382019 -71.111755371094 -212.382843017578 1.400405645370
-103.077110290527 -67.277313232422 -170.629821777344 1.341050744057
-59.996597290039 -70.679260253906 -139.926879882813 2.027439355850
-1.499217033386 -73.011337280273 -218.867462158203 1.499797940254
-73.511863708496 -71.522834777832 -144.326919555664 0.915150463581
37.512393951416 -72.182418823242 -256.903686523438 2.001893281937
-68.939750671387 -70.800956726074 -144.208663940430 2.003867626190
-44.488746643066 -73.213279724121 -142.309127807617 1.449200391769
26.838853836060 -73.160598754883 -139.831695556641 1.318645358086
41.733516693115 -65.614616394043 -252.158706665039 1.731240272522
-5.913767814636 -72.858047485352 -211.434967041016 1.429774641991
-70.234161376953 -71.493446350098 -148.009033203125 0.231965884566
-8.610877990723 -68.935218811035 -211.278503417969 0.849808931351
9.934443473816 -71.839202880859 -150.810653686523 0.930430471897
25.481111526489 -70.625930786133 -166.915893554688 1.142202854156
7.980251789093 -69.371566772461 -153.021362304688 1.440169453621
24.032798767090 -67.959579467773 -170.442092895508 1.991321444511
66.771041870117 -69.217124938965 -92.885841369629 0.804200887680
107.338996887207 -74.453598022461 -162.233184814453 1.256040096283
110.258956909180 -74.451866149902 -167.379669189453 0.723522245884
108.729103088379 -71.387649536133 -171.530166625977 2.239737033844
-43.187458038330 -72.376029968262 -164.389541625977 1.709263205528
-22.599037170410 -71.286003112793 -187.686492919922 1.076238989830
-25.110435485840 -67.994712829590 -188.338241577148 2.238882064819
-41.301162719727 -72.755683898926 -172.078979492188 0.739586770535
-21.525896072388 -69.592430114746 -186.986007690430 1.205797910690
-41.660316467285 -68.673225402832 -165.338043212891 3.348248004913
27.457775115967 -72.677497863770 -175.262756347656 1.696092963219
110.200546264648 -73.644157409668 -180.432128906250 1.638128519058
25.486021041870 -72.062339782715 -173.736526489258 1.415187835693
24.723960876465 -69.589157104492 -179.580139160156 1.289846301079
26.227472305298 -72.832916259766 -180.773345947266 1.536432147026
24.233161926270 -68.400115966797 -175.396484375000 1.851228117943
15.438142776489 -73.745544433594 -183.031799316406 1.857982635498
-152.119750976563 -69.290786743164 -187.163848876953 1.198643803596
-150.850265502930 -64.570915222168 -189.091537475586 1.451700925827
-144.615432739258 -62.488548278809 -187.301986694336 1.437860131264
-161.045181274414 -70.706344604492 -199.731399536133 1.827128887177
-152.127655029297 -70.443412780762 -193.906524658203 1.485169768333
-28.854698181152 -66.163139343262 -74.003616333008 1.089049220085
-151.085647583008 -64.892219543457 -190.652404785156 2.749299049377
-145.627792358398 -63.823902130127 -192.592605590820 1.133299827576
-114.912506103516 -68.685401916504 -225.993927001953 0.684517383575
42.469810485840 -70.012374877930 -30.720458984375 1.295865893364
19.732200622559 -72.307548522949 -196.254287719727 1.155848264694
-135.772323608398 -71.817817687988 -199.435287475586 2.449788808823
-150.915649414063 -70.927658081055 -207.643096923828 2.612651586533
-153.109481811523 -67.248252868652 -207.996490478516 1.285704016685
-137.599121093750 -70.249244689941 -232.689483642578 3.259490489960
-163.845123291016 -71.269515991211 -208.517211914063 1.863948464394
-164.520812988281 -71.067436218262 -207.865692138672 2.413347244263
-166.929061889648 -70.611801147461 -229.381973266602 0.735452651978
-25.606603622437 -72.523864746094 -217.975997924805 0.984636783600
17.333511352539 -72.599449157715 -215.196945190430 2.007386684418
-72.630439758301 -70.962242126465 -136.340301513672 1.913913011551
8.113384246826 -73.565513610840 -217.166351318359 0.463532567024
35.327320098877 -59.945556640625 -120.977386474609 1.083481431007
-25.732477188110 -67.527420043945 -52.977901458740 2.775373458862
-165.711578369141 -71.357200622559 -220.977951049805 1.947943210602
-99.397819519043 -62.863189697266 -161.621994018555 0.168695077300
-12.760043144226 -72.252487182617 -221.159561157227 1.642265915871
-154.328796386719 -71.695716857910 -223.496383666992 1.380491733551
-151.107284545898 -65.921829223633 -221.364822387695 1.452733755112
-146.404953002930 -62.555042266846 -219.858825683594 0.649218857288
-15.460541725159 -73.344825744629 -225.155563354492 1.825055956841
20.922115325928 -68.710693359375 -191.221420288086 1.206601619720
-80.717849731445 -58.602680206299 -120.185157775879 0.741674959660
-118.869079589844 -72.265136718750 -229.175262451172 3.425488710403
-132.625915527344 -72.368598937988 -233.090301513672 1.159975290298
-156.859268188477 -69.634925842285 -193.915435791016 0.952957928181
16.785064697266 -72.803596496582 -236.893814086914 1.691353797913
-7.013574123383 -74.253608703613 -241.410797119141 1.185489773750
-98.651626586914 -66.463340759277 -148.889114379883 1.590945720673
-64.344322204590 -72.006607055664 -248.021743774414 1.639866828918
-10.576109886169 -73.357955932617 -247.793289184570 1.801173686981
84.155754089355 -70.776924133301 -220.837097167969 1.341448783875
15.291809082031 -73.137695312500 -283.296447753906 1.865700364113
-135.732391357422 -70.504524230957 -284.483123779297 0.880730509758
-135.366592407227 -66.723533630371 -289.153411865234 0.906969845295
-149.511489868164 -62.725326538086 -280.488616943359 1.277675986290
-76.917007446289 -72.971633911133 -285.846984863281 1.800895333290
-78.213165283203 -70.033897399902 -288.559020996094 2.215147495270
-144.758483886719 -67.225860595703 -222.078506469727 1.112830162048
-150.562026977539 -61.925079345703 -220.892593383789 2.182219028473
-63.268047332764 -72.267486572266 -285.926361083984 1.840117096901
-144.441604614258 -67.017730712891 -207.227600097656 1.001947641373
-149.985931396484 -60.868946075439 -209.337707519531 2.626627206802
-29.473241806030 -72.885597229004 -288.491729736328 2.061438322067
-34.842491149902 -73.279037475586 -286.930694580078 2.319610834122
-141.794006347656 -68.301788330078 -176.043151855469 1.244991779327
-147.261230468750 -66.379463195801 -179.279434204102 1.622890233994
-150.712890625000 -61.459110260010 -180.313217163086 2.388358354568
35.561195373535 -70.269241333008 -11.344937324524 0.463725149632
34.831790924072 -71.320854187012 -12.551927566528 1.445745348930
-59.334327697754 -58.805774688721 -117.737464904785 1.934439301491
103.769332885742 -62.568519592285 -92.058898925781 2.222864866257
39.192234039307 -71.323402404785 -14.192371368408 1.373323917389
104.107994079590 -62.527809143066 -89.238441467285 0.702425658703
41.818023681641 -71.184204101563 -14.365365982056 1.774634718895
36.139720916748 -70.948356628418 -16.025133132935 1.085857868195
-57.560279846191 -59.753753662109 -116.095237731934 1.084942102432
41.705829620361 -70.996292114258 -18.741868972778 0.743254780769
46.192230224609 -71.368003845215 -20.582118988037 2.203003644943
42.291591644287 -70.431045532227 -20.239967346191 0.881320536137
101.896522521973 -69.094772338867 -83.999580383301 1.726408720016
-66.965766906738 -61.383033752441 -124.210220336914 1.408125877380
45.625461578369 -71.563591003418 -29.636613845825 0.486011445522
46.512355804443 -71.479690551758 -26.132434844971 1.185172200203
46.028808593750 -71.344131469727 -34.288478851318 1.282343506813
-15.658020019531 -70.694869995117 -64.541778564453 1.213065624237
67.360961914063 -71.471603393555 -83.808479309082 0.897583305836
-56.590255737305 -71.791282653809 -89.946113586426 1.512295722961
25.559400558472 -67.169960021973 -38.123699188232 1.791544318199
107.042259216309 -72.296905517578 -97.028472900391 0.694650590420
-57.342540740967 -67.464141845703 -144.042709350586 1.208752274513
9.641551971436 -70.339912414551 -200.315261840820 1.800189495087
106.513633728027 -72.972892761230 -106.328079223633 1.277150154114
28.465499877930 -72.916938781738 -161.263412475586 1.963546276093
20.814104080200 -74.242034912109 -152.112442016602 0.763527572155
19.697990417480 -67.706970214844 -148.205978393555 2.254189014435
6.496929168701 -71.703231811523 -160.530242919922 1.960495710373
107.220634460449 -72.880401611328 -166.754272460938 1.860710263252
113.712799072266 -72.704254150391 -165.821258544922 2.222664117813
16.812040328979 -72.281936645508 -170.378784179688 1.901902794838
102.087013244629 -73.534774780273 -184.008438110352 0.288875490427
-151.533905029297 -71.262611389160 -186.366500854492 1.464039325714
-153.355117797852 -66.874084472656 -186.619842529297 0.650297701359
-96.568374633789 -62.268203735352 -145.469848632813 2.182199478149
-132.413330078125 -69.880393981934 -195.078430175781 1.010171175003
-120.238014221191 -70.961090087891 -195.799682617188 2.035542964935
-135.904312133789 -69.739196777344 -202.545608520508 1.952850341797
-158.393783569336 -70.969512939453 -208.580810546875 4.266329765320
-154.685241699219 -70.969879150391 -209.812973022461 3.888931512833
-150.652908325195 -64.966056823730 -207.186813354492 1.361169576645
-146.266281127930 -61.865406036377 -208.997283935547 1.517405629158
15.902559280396 -67.533187866211 -196.469177246094 1.424936532974
-75.582458496094 -70.015602111816 -147.617919921875 1.396280050278
-3.770672082901 -72.942672729492 -219.610946655273 0.506733238697
-10.390299797058 -69.217742919922 -221.766159057617 2.078935146332
-52.356960296631 -68.197448730469 -145.154281616211 0.298295974731
-22.197456359863 -71.961326599121 -221.645019531250 1.202161073685
-135.976440429688 -70.478439331055 -225.540420532227 1.775246858597
32.834423065186 -64.826499938965 -259.042205810547 1.770322918892
-27.773239135742 -62.692584991455 -48.714942932129 1.271754026413
11.016832351685 -72.653625488281 -227.787673950195 1.606361865997
45.293395996094 -60.605068206787 -115.203628540039 1.307768225670
43.102085113525 -59.913955688477 -24.640026092529 1.808469891548
-13.172579765320 -71.431114196777 -245.385421752930 1.460826516151
-145.921630859375 -70.557212829590 -281.583251953125 0.746371090412
-136.931182861328 -68.038810729980 -286.583831787109 1.434227585793
-0.340312004089 -72.880249023438 -290.620513916016 1.855166912079
94.297721862793 -67.630325317383 -105.418304443359 1.623110175133
-98.589012145996 -71.804901123047 -291.581176757813 1.888375163078
-153.346954345703 -68.689086914063 -242.142944335938 2.106389760971
-41.608963012695 -69.276580810547 -49.311344146729 2.259813308716
-31.654340744019 -69.987121582031 -53.081676483154 2.894314765930
