-51.940006256104 -78.885902404785 -242.867767333984 1.424585461617
-40.592445373535 -78.531173706055 -244.521896362305 1.547169208527
-86.964385986328 -61.759582519531 -51.968074798584 2.416239023209
-86.921485900879 -68.571182250977 -60.129325866699 3.393822431564
110.450500488281 -76.712081909180 -123.767242431641 2.364500522614
-73.132339477539 -76.236434936523 -212.257049560547 1.306003332138
-46.985660552979 -74.167785644531 -244.489166259766 1.319033384323
-80.769165039063 -73.090393066406 -211.760665893555 1.373941421509
-55.857082366943 -78.779975891113 -245.583602905273 0.882962167263
-49.690982818604 -78.777595520020 -245.599746704102 0.829824626446
-147.140747070313 -77.183219909668 -266.984466552734 1.907864332199
-127.579879760742 -75.640052795410 -285.300964355469 1.729810118675
85.369773864746 -71.071647644043 -216.899948120117 1.840619802475
-109.729988098145 -68.906379699707 -291.241851806641 2.266377925873
-149.870513916016 -65.598060607910 -256.886718750000 1.601052045822
-144.813796997070 -61.515964508057 -254.728530883789 0.933336615562
-25.215772628784 -68.626022338867 -55.243942260742 3.013411760330
35.907947540283 -69.460548400879 -115.356994628906 1.215709567070
-77.317810058594 -61.834014892578 -130.212371826172 1.374648928642
-1.497056007385 -77.528221130371 -245.556076049805 1.488742232323
21.875825881958 -69.625556945801 -34.045436859131 1.312573909760
111.823150634766 -72.934120178223 -123.377998352051 1.821986556053
-7.194660186768 -80.934387207031 -251.750930786133 1.502904891968
-10.976169586182 -78.801536560059 -253.322830200195 2.593954086304
77.408569335938 -70.018493652344 -228.015487670898 1.209890365601
65.105964660645 -60.953815460205 -69.984100341797 1.031013846397
-69.663070678711 -58.018764495850 -95.421318054199 1.275487899780
18.517841339111 -74.331382751465 -162.763748168945 0.885799467564
-156.873992919922 -69.138252258301 -265.401855468750 1.274511933327
-153.183227539063 -75.905220031738 -263.250915527344 2.134119272232
91.308990478516 -77.071693420410 -87.169464111328 0.988802433014
76.463325500488 -73.979011535645 -223.364028930664 1.335968852043
-11.753578186035 -79.782363891602 -262.958374023438 2.500228643417
-9.537875175476 -77.529693603516 -273.402404785156 0.786915838718
-3.419312000275 -65.806388854980 -255.799438476563 1.994564533234
-89.465827941895 -71.076828002930 -213.934799194336 2.173888683319
-85.081054687500 -64.084342956543 -52.465934753418 1.398647665977
88.122001647949 -75.977630615234 -75.449111938477 0.924009382725
82.554634094238 -75.157211303711 -73.136123657227 0.970701277256
17.000034332275 -76.474235534668 -277.345275878906 1.543203473091
72.226310729980 -69.355972290039 -67.725112915039 1.756241559982
-44.489128112793 -76.607078552246 -62.169174194336 2.241853713989
-74.837768554688 -76.083427429199 -64.239891052246 1.913572311401
-35.347518920898 -75.694541931152 -63.277133941650 1.501642346382
-84.120010375977 -75.609222412109 -72.495819091797 3.746858596802
80.053382873535 -76.737617492676 -221.154663085938 2.451935529709
-76.575546264648 -74.977180480957 -62.225688934326 3.091021060944
-33.713855743408 -76.675270080566 -67.126403808594 1.573855519295
0.990068018436 -73.400718688965 -224.597747802734 0.868901312351
-30.543853759766 -77.092208862305 -70.047492980957 2.246307134628
4.640263080597 -75.579589843750 -233.469741821289 1.030800223351
-79.075492858887 -73.178207397461 -211.308609008789 1.043874740601
-51.287128448486 -74.126197814941 -87.990844726563 1.701109886169
-61.380676269531 -74.115242004395 -92.852241516113 1.839270114899
51.994327545166 -77.053153991699 -98.268478393555 0.709189891815
105.062324523926 -73.888648986816 -173.576049804688 1.537844657898
-125.930442810059 -74.939758300781 -260.983886718750 1.260969758034
50.345684051514 -75.827125549316 -103.022949218750 1.270031452179
-107.043518066406 -69.771171569824 -255.177169799805 1.224368810654
-156.307800292969 -71.865150451660 -306.382293701172 1.193430066109
-39.919868469238 -70.377700805664 -51.337493896484 1.013500213623
50.621517181396 -76.403411865234 -107.458106994629 1.352284908295
-89.455871582031 -76.634002685547 -110.684539794922 2.218275785446
43.332561492920 -77.892097473145 -109.421455383301 2.056934356689
-37.905639648438 -62.745307922363 -78.190811157227 1.189169287682
-133.029907226563 -64.243675231934 -256.883880615234 1.882302761078
28.960393905640 -71.289260864258 -137.353942871094 2.234927415848
26.754962921143 -72.712341308594 -133.144241333008 2.426624059677
-165.990417480469 -69.749931335449 -213.876907348633 2.142711877823
-26.942331314087 -73.035713195801 -61.079700469971 1.678452849388
32.660327911377 -76.601837158203 -117.791397094727 1.545489668846
-24.346035003662 -64.847351074219 -70.092247009277 1.168217182159
7.048697948456 -71.899452209473 -235.831985473633 1.531856060028
32.877525329590 -75.415344238281 -122.723365783691 2.293192863464
-149.981002807617 -74.037544250488 -204.709930419922 1.986675500870
-30.215444564819 -66.076873779297 -76.665298461914 1.458217382431
-158.961486816406 -65.903717041016 -202.609130859375 2.159760951996
-81.943016052246 -66.367111206055 -127.316101074219 0.683972835541
40.263942718506 -75.039199829102 -125.256004333496 0.989211440086
-96.577613830566 -66.594116210938 -146.065704345703 2.069594144821
-15.921798706055 -61.072074890137 -52.859416961670 1.392585277557
-144.715072631836 -69.566612243652 -187.531982421875 1.864151835442
-42.422706604004 -72.569419860840 -289.097900390625 1.483254194260
-141.998092651367 -64.774406433105 -187.159515380859 1.737141013145
17.024339675903 -68.977157592773 -245.223342895508 2.182855367661
36.565856933594 -78.632209777832 -136.294296264648 1.354415178299
38.026145935059 -76.393508911133 -130.256576538086 1.377878904343
-24.042457580566 -75.644165039063 -70.945976257324 2.213416099548
-150.159835815430 -73.918502807617 -192.566818237305 1.990030527115
-155.891983032227 -64.697692871094 -193.623077392578 2.359622716904
37.053718566895 -76.087303161621 -138.586090087891 2.019245862961
-26.489656448364 -76.371315002441 -220.369323730469 0.707364916801
-50.581111907959 -75.541114807129 -144.652481079102 1.969906926155
33.531539916992 -76.866539001465 -150.393524169922 0.735388517380
-91.169013977051 -67.646224975586 -254.508132934570 2.310335159302
43.191398620605 -68.303825378418 -251.858535766602 1.210935592651
-50.507015228271 -75.786666870117 -147.942138671875 1.500892758369
-43.515426635742 -77.508277893066 -158.242416381836 1.852382302284
-44.533123016357 -76.321052551270 -149.674392700195 1.605322241783
-49.902412414551 -75.274955749512 -156.651397705078 1.945528626442
-14.691479682922 -76.945480346680 -196.821685791016 1.822692632675
32.786003112793 -77.832305908203 -151.326400756836 1.746597766876
-167.553894042969 -69.876632690430 -244.819320678711 2.397823333740
32.300178527832 -78.889312744141 -150.149536132813 1.342713952065
-41.597145080566 -75.558364868164 -152.130706787109 1.658349990845
-17.971199035645 -76.601104736328 -195.334747314453 1.931275248528
-47.303924560547 -61.167793273926 -44.136444091797 1.607618808746
20.597867965698 -64.218215942383 -245.703674316406 1.920645475388
-47.689144134521 -75.792175292969 -155.896011352539 2.287089586258
-30.329013824463 -76.405204772949 -209.175155639648 1.442193865776
-51.842052459717 -57.534603118896 -42.680053710938 2.895242214203
3.327152967453 -76.735496520996 -243.210159301758 2.221033334732
3.269635915756 -75.650398254395 -224.700836181641 1.628013372421
-64.740394592285 -76.303382873535 -156.349273681641 1.000322222710
-12.545960426331 -78.149475097656 -209.573593139648 1.883617281914
21.089717864990 -77.341232299805 -242.767593383789 1.835982322693
-29.708173751831 -76.127174377441 -190.843551635742 1.978164076805
-52.761417388916 -75.065704345703 -151.482971191406 1.794629931450
-44.630336761475 -75.161674499512 -161.918029785156 0.796859860420
-18.282730102539 -76.270812988281 -188.599288940430 1.064342856407
-88.808334350586 -70.402526855469 -255.922561645508 1.308920621872
15.550720214844 -76.231842041016 -221.399154663086 0.607957482338
88.305816650391 -77.571289062500 -81.978431701660 1.247505307198
95.872879028320 -75.239532470703 -87.940048217773 1.403902292252
-1.612822055817 -79.074462890625 -165.005264282227 1.855249524117
-2.381550073624 -78.948875427246 -168.361587524414 1.869635939598
-43.376861572266 -74.394187927246 -164.478988647461 0.393342226744
-21.983898162842 -76.176445007324 -185.936355590820 1.130266189575
29.200269699097 -74.428489685059 -125.257171630859 1.901430249214
-51.732143402100 -76.824623107910 -185.457656860352 0.934840023518
-43.490268707275 -76.687049865723 -196.209732055664 0.525876581669
-30.029809951782 -74.728401184082 -166.622283935547 1.349842309952
-33.934772491455 -77.907066345215 -170.094238281250 1.724397897720
-25.904521942139 -76.419830322266 -179.477951049805 1.625472307205
23.313419342041 -79.056800842285 -179.862594604492 0.935708761215
19.663759231567 -76.228088378906 -171.746932983398 1.484953641891
-152.538162231445 -75.468711853027 -299.223358154297 0.686389088631
-150.749603271484 -75.758621215820 -294.956573486328 0.748140633106
-30.606229782104 -77.520736694336 -173.133819580078 1.549137473106
-44.633586883545 -76.069419860840 -188.784881591797 2.733490467072
-46.376319885254 -76.853057861328 -193.090255737305 2.168064832687
-66.181121826172 -77.306472778320 -206.823867797852 1.142041802406
38.625415802002 -76.739768981934 -107.516532897949 0.794326424599
-69.488708496094 -77.222633361816 -211.005767822266 1.305346012115
46.830932617188 -75.565773010254 -96.856735229492 2.348724842072
42.611068725586 -76.689895629883 -102.312652587891 2.709621667862
-35.008647918701 -75.488441467285 -178.257675170898 1.897807836533
-155.595336914063 -69.267127990723 -302.766387939453 2.147469282150
-155.892395019531 -65.889343261719 -291.819854736328 0.350594997406
-148.519104003906 -65.932106018066 -302.201873779297 1.481210231781
-156.187789916992 -63.805385589600 -290.554840087891 1.280905246735
-56.508903503418 -76.483947753906 -174.697921752930 1.515020251274
36.255966186523 -64.977592468262 -256.548858642578 1.504597425461
35.385833740234 -68.628074645996 -128.277816772461 1.535923480988
-11.957936286926 -76.132537841797 -171.760238647461 1.880352258682
-8.633090019226 -76.135322570801 -173.363876342773 1.757802248001
85.336212158203 -73.004455566406 -69.546058654785 0.777126729488
-159.029998779297 -72.245407104492 -293.404968261719 1.295187711716
-144.653076171875 -75.114524841309 -283.543212890625 1.358414530754
-149.244216918945 -75.955574035645 -298.777679443359 1.078448534012
-35.412815093994 -77.296554565430 -174.547912597656 2.253588199615
-31.140501022339 -77.985290527344 -178.848648071289 1.339714527130
-139.394836425781 -75.107643127441 -289.381805419922 2.900779485703
-154.520233154297 -76.433517456055 -292.551330566406 1.564883828163
-154.142257690430 -67.254798889160 -300.324920654297 0.829316318035
-126.882179260254 -64.271392822266 -256.425354003906 1.276254057884
-156.057312011719 -63.886981964111 -285.968139648438 0.812306225300
-43.025966644287 -75.831619262695 -168.264953613281 0.364225834608
2.313687086105 -79.214134216309 -230.139770507813 1.011729240417
-51.671390533447 -75.184928894043 -179.216018676758 1.708844304085
24.680662155151 -78.704444885254 -178.126022338867 1.892821550369
-56.202224731445 -75.732498168945 -177.569778442383 0.849939763546
-0.802694976330 -76.531570434570 -234.355178833008 1.958806633949
-35.063941955566 -75.872627258301 -200.941406250000 0.934522032738
33.248455047607 -71.162734985352 -126.699600219727 2.896204710007
-74.994773864746 -72.850074768066 -141.312149047852 2.334774494171
-32.300937652588 -75.270309448242 -182.923614501953 0.995612382889
-38.806262969971 -76.301055908203 -174.795547485352 0.617589175701
-26.259466171265 -77.688812255859 -181.990859985352 0.348110646009
-38.684425354004 -76.648139953613 -170.052230834961 1.582390904427
-89.706054687500 -62.749439239502 -130.795242309570 1.816109895706
-46.659816741943 -70.857353210449 -50.832813262939 1.843102097511
-37.172313690186 -75.251876831055 -198.995803833008 2.701667547226
-56.647747039795 -76.581008911133 -183.713424682617 1.788976073265
4.959924221039 -66.001327514648 -233.933029174805 1.106163263321
-89.622344970703 -62.376586914063 -139.579254150391 1.605095624924
-34.672630310059 -75.826194763184 -182.453353881836 2.372275114059
-36.878437042236 -76.412574768066 -178.069961547852 1.804214477539
-22.549137115479 -78.034614562988 -195.004013061523 0.868001461029
-30.947751998901 -77.081077575684 -188.136123657227 0.841754376888
-64.330612182617 -73.822608947754 -154.994277954102 1.631350278854
-7.797760963440 -76.297416687012 -208.163619995117 1.010188221931
-26.489795684814 -77.096092224121 -190.966003417969 2.483403444290
105.665084838867 -67.707420349121 -106.841682434082 2.989943027496
38.741088867188 -67.331092834473 -40.163574218750 3.409318685532
8.697655677795 -72.250930786133 -199.839248657227 1.142813444138
13.988780021667 -78.533592224121 -190.559173583984 1.659074664116
-90.582267761230 -60.732219696045 -119.708045959473 2.219476222992
-68.104171752930 -71.604736328125 -285.904266357422 2.165805339813
-124.068847656250 -72.019966125488 -230.038436889648 1.230701327324
-153.542724609375 -72.913734436035 -195.317260742188 1.256631970406
-155.999603271484 -69.075592041016 -193.931716918945 1.141212821007
-15.294434547424 -74.633430480957 -226.530761718750 1.626601219177
22.356441497803 -75.842880249023 -193.156097412109 0.754738211632
-30.685174942017 -77.503852844238 -242.847152709961 1.101247310638
-120.584960937500 -66.149238586426 -203.272750854492 2.104131460190
-76.391403198242 -76.355262756348 -288.281280517578 0.713997900486
-146.345062255859 -72.924591064453 -220.849624633789 1.361642122269
-47.517871856689 -72.710708618164 -137.526245117188 1.085535764694
13.616525650024 -78.019844055176 -201.066970825195 1.686983585358
20.513298034668 -76.247375488281 -199.548751831055 0.955461621284
-148.348373413086 -75.426559448242 -200.112075805664 2.558963298798
-158.510116577148 -65.551467895508 -200.547332763672 1.444902539253
11.887727737427 -71.962432861328 -225.018325805664 1.236330151558
-45.506225585938 -72.270462036133 -164.816589355469 2.377761363983
-22.236301422119 -78.700729370117 -199.950820922852 1.110336780548
-20.780372619629 -70.429023742676 -191.210662841797 1.074785351753
-26.516433715820 -68.454627990723 -191.951354980469 2.063074588776
-124.870834350586 -70.921592712402 -233.545669555664 1.580965757370
-127.803855895996 -67.291000366211 -234.277862548828 1.529674410820
-119.040008544922 -66.409584045410 -225.997085571289 3.599395275116
-77.153762817383 -61.673385620117 -128.912460327148 1.045869946480
-6.042374134064 -78.078025817871 -212.827346801758 2.487058401108
-70.553932189941 -75.424278259277 -150.833526611328 2.148745059967
-14.887534141541 -78.129692077637 -204.449874877930 1.528861165047
19.729976654053 -76.982864379883 -237.070129394531 1.511654973030
-128.472534179688 -72.289657592773 -200.321640014648 3.485751628876
-148.688995361328 -66.079841613770 -227.458572387695 1.719770669937
-143.054260253906 -61.814579010010 -225.227996826172 1.434019923210
17.677320480347 -78.593879699707 -205.105926513672 1.439791798592
-113.867965698242 -65.296272277832 -191.056289672852 1.223016142845
13.111525535583 -78.495964050293 -206.568191528320 2.217132091522
-22.671436309814 -77.739082336426 -241.756713867188 1.479641079903
-4.750020980835 -78.296852111816 -225.653930664063 0.536939978600
31.580438613892 -75.027282714844 -160.424652099609 2.055594444275
16.466955184937 -79.344482421875 -206.953796386719 1.131171584129
-34.134632110596 -75.157264709473 -212.314758300781 0.685354173183
-59.521045684814 -75.673545837402 -169.337600708008 1.459288716316
14.785628318787 -78.032478332520 -212.849227905273 0.758957982063
-158.240478515625 -71.156272888184 -228.334930419922 2.272551774979
-123.807357788086 -70.502304077148 -196.185256958008 1.018863201141
-5.573769092560 -76.993804931641 -216.621520996094 0.540808379650
-72.188308715820 -74.614868164063 -148.751876831055 1.259804606438
-154.090148925781 -74.799034118652 -231.693725585938 2.162170886993
-129.648498535156 -66.401992797852 -194.083587646484 1.743650078773
-129.006729125977 -69.504760742188 -194.795776367188 0.925620615482
-7.734773159027 -78.303688049316 -216.031600952148 0.536913275719
-149.851837158203 -75.467102050781 -227.878906250000 1.189846515656
-72.065177917480 -74.700683593750 -152.060760498047 0.798471629620
-158.690948486328 -66.419837951660 -230.487426757813 2.061486721039
-123.806159973145 -64.832015991211 -194.624328613281 1.033201932907
-24.213047027588 -76.888427734375 -216.980163574219 1.018261313438
-22.100912094116 -78.724868774414 -219.869384765625 1.751968741417
-71.252586364746 -73.059539794922 -157.727630615234 1.684527039528
-13.512546539307 -76.294616699219 -215.094055175781 0.657376348972
19.747650146484 -77.400505065918 -183.025375366211 0.688113570213
-19.983356475830 -75.910484313965 -220.494735717773 1.339388966560
-80.165809631348 -75.387199401855 -286.456878662109 1.394844651222
-141.790328979492 -75.098045349121 -225.941406250000 1.914264798164
-112.528274536133 -69.712692260742 -199.906127929688 1.756172776222
17.151374816895 -77.348907470703 -188.085006713867 1.825485348701
-16.679121017456 -77.568809509277 -221.338150024414 0.796652853489
-6.617747783661 -78.602798461914 -221.714752197266 0.890082955360
18.185066223145 -76.318099975586 -241.403457641602 2.128957748413
-30.903244018555 -73.935752868652 -60.968582153320 2.196156978607
-164.392227172852 -64.638397216797 -203.361190795898 2.803045272827
-2.527139902115 -78.598136901855 -224.735870361328 2.191821813583
-25.838752746582 -75.532333374023 -242.106536865234 1.381510972977
-9.260907173157 -75.998458862305 -225.539672851563 2.012750625610
36.493267059326 -62.194030761719 -11.641462326050 0.816644132137
-57.435432434082 -65.059654235840 -121.306556701660 1.578557252884
1.015411019325 -76.198310852051 -242.166809082031 1.034840106964
-17.354490280151 -70.704284667969 -69.669799804688 1.823136329651
-44.659873962402 -77.596763610840 -286.079498291016 2.297787904739
-154.417282104492 -69.949211120605 -204.429840087891 2.631422758102
-29.202989578247 -74.309204101563 -77.652770996094 1.785344958305
-150.713684082031 -64.166061401367 -205.543182373047 1.351076245308
-146.393463134766 -59.873771667480 -206.415802001953 0.932172834873
17.798313140869 -76.467750549316 -224.790878295898 0.872415423393
-142.790222167969 -71.441841125488 -232.470474243164 1.448439836502
-89.272827148438 -69.149406433105 -287.671630859375 1.178300142288
-146.102645874023 -65.918922424316 -235.355209350586 1.113265156746
-150.695449829102 -60.984138488770 -232.773818969727 1.700561165810
-158.090591430664 -70.693244934082 -217.999435424805 3.377304315567
-6.602578163147 -76.434799194336 -229.377532958984 1.282774686813
-67.474678039551 -61.774887084961 -118.736968994141 0.897797882557
-132.662963867188 -66.185020446777 -224.020965576172 1.716605901718
-0.801483988762 -77.302940368652 -238.316146850586 1.596792697906
-146.791290283203 -74.781600952148 -242.412994384766 1.262604117393
11.769466400146 -77.821884155273 -203.966995239258 1.369598865509
-20.606107711792 -78.027854919434 -237.537582397461 1.403185725212
5.791911125183 -76.577690124512 -214.661224365234 1.052183628082
-51.034587860107 -78.113815307617 -241.788375854492 2.303587436676
-44.982742309570 -78.821228027344 -245.167999267578 1.165455341339
-150.640731811523 -74.367195129395 -244.963806152344 1.848837137222
-156.326095581055 -68.122245788574 -245.004638671875 1.407272815704
-108.291419982910 -66.969955444336 -194.724090576172 0.991718888283
-151.011825561523 -76.572853088379 -264.353302001953 1.497638463974
-159.156845092773 -68.148063659668 -262.854736328125 1.646319985390
-82.655235290527 -71.808113098145 -60.960559844971 3.493830919266
84.000457763672 -76.671318054199 -224.829956054688 1.398771405220
-60.172889709473 -65.515808105469 -88.766960144043 0.559554815292
22.915750503540 -73.608360290527 -153.059600830078 1.383765459061
-126.616081237793 -74.799644470215 -292.502777099609 1.501847863197
-154.720687866211 -73.109375000000 -269.499725341797 2.540561199188
-147.335311889648 -75.020141601563 -272.625366210938 2.037742853165
-157.351882934570 -69.212631225586 -267.160278320313 2.398059606552
-108.890159606934 -68.851081848145 -286.752502441406 1.893812537193
26.702848434448 -68.184783935547 -148.493804931641 1.571985721588
-152.898162841797 -61.853347778320 -255.932067871094 1.327628970146
76.618034362793 -71.028739929199 -231.972122192383 1.177392959595
19.665916442871 -63.557369232178 -23.198833465576 1.090211629868
-9.811154365540 -68.556594848633 -258.460144042969 3.339960336685
-9.496914863586 -79.794464111328 -270.470275878906 1.462880015373
-6.115590095520 -77.333137512207 -279.747894287109 0.917595386505
8.094412803650 -78.582389831543 -282.987945556641 1.723878264427
-68.362213134766 -60.462448120117 -110.710021972656 0.831499218941
-162.227813720703 -73.720520019531 -290.597961425781 1.139527559280
-156.094680786133 -78.508255004883 -286.909301757813 1.682328820229
-144.727523803711 -74.559410095215 -304.521423339844 0.653712868690
-114.380729675293 -71.515541076660 -256.840087890625 0.846186637878
-110.719551086426 -72.512695312500 -259.328247070313 2.207862138748
96.331512451172 -74.833885192871 -195.585525512695 2.175779819489
-27.377098083496 -77.085571289063 -285.931640625000 1.049135088921
-23.150447845459 -78.678840637207 -287.565002441406 1.408186435699
6.358253002167 -62.427070617676 -271.429077148438 2.580896139145
-36.161323547363 -78.530395507813 -288.998901367188 1.888707518578
-29.347955703735 -77.751754760742 -286.121826171875 2.171587467194
115.174827575684 -71.823722839355 -152.852767944336 2.313815116882
-11.582758903503 -77.550506591797 -286.336334228516 1.829059362411
-19.123136520386 -78.946128845215 -288.132751464844 1.732016086578
12.289990425110 -78.512298583984 -292.559448242188 1.827973961830
-102.351661682129 -72.719993591309 -220.979995727539 1.495291471481
-50.685207366943 -74.793670654297 -56.818588256836 2.134399890900
15.694429397583 -77.202369689941 -278.725494384766 0.947669148445
-63.328128814697 -74.925674438477 -57.169914245605 2.050705194473
114.323402404785 -72.124259948730 -160.306243896484 2.085617303848
-3.671550989151 -76.133766174316 -284.724700927734 1.378214120865
-52.553680419922 -75.562767028809 -58.264629364014 1.807473182678
-9.153598785400 -78.640602111816 -289.607116699219 2.401811838150
24.960918426514 -65.257255554199 -268.714019775391 1.548415660858
-40.320369720459 -75.245742797852 -59.617877960205 2.566779613495
97.566986083984 -78.073822021484 -195.978454589844 2.263720750809
-74.281402587891 -65.636291503906 -102.765167236328 1.519231677055
-163.415771484375 -70.194587707520 -290.831359863281 0.583259880543
-144.452713012695 -73.443527221680 -305.211791992188 1.581651687622
74.345542907715 -77.189582824707 -229.511978149414 1.797273159027
-84.223518371582 -74.032409667969 -67.533218383789 3.245357275009
-9.244452476501 -68.160102844238 -256.730346679688 3.023270368576
67.532493591309 -64.500488281250 -99.436134338379 0.976181268692
-21.702255249023 -62.853660583496 -51.285839080811 3.393084049225
-22.440559387207 -70.788475036621 -59.734184265137 2.574206113815
-25.639993667603 -75.590011596680 -69.014564514160 1.543113350868
-25.865697860718 -76.514450073242 -72.650184631348 2.454639673233
17.051229476929 -73.844108581543 -246.833892822266 0.979174673557
106.179763793945 -73.161956787109 -189.965927124023 1.873416304588
33.278141021729 -66.660224914551 -38.088684082031 1.781738638878
105.767829895020 -68.396003723145 -109.303604125977 0.994325637817
-60.061172485352 -70.796432495117 -137.181365966797 1.101480484009
9.672584533691 -73.098373413086 -204.223358154297 1.687803387642
-35.641433715820 -75.791702270508 -80.292877197266 1.043764352798
-91.897911071777 -75.161407470703 -214.524002075195 0.676663637161
83.554725646973 -76.955741882324 -79.168090820313 1.754933476448
96.479370117188 -69.048797607422 -101.524108886719 1.606563687325
-5.190524101257 -67.839096069336 -270.838500976563 1.336362600327
-119.239814758301 -74.880531311035 -289.985778808594 2.105763196945
-144.175155639648 -75.169059753418 -262.822265625000 2.301166534424
-93.252105712891 -60.001522064209 -57.819343566895 2.319979906082
84.428977966309 -77.327697753906 -83.276557922363 1.340844035149
75.041046142578 -76.669677734375 -81.110549926758 1.130566716194
67.742401123047 -66.387077331543 -98.464675903320 0.728148162365
-43.188194274902 -75.077156066895 -83.489593505859 1.368469476700
79.767570495605 -77.859321594238 -85.206565856934 1.934607982635
-13.009982109070 -77.603370666504 -264.829498291016 1.992246508598
15.021850585938 -77.708587646484 -292.211914062500 1.109958052635
84.587486267090 -77.600402832031 -88.335060119629 1.942210793495
-61.041275024414 -61.153530120850 -84.758872985840 1.059618353844
79.830017089844 -77.803398132324 -89.849761962891 0.975918948650
71.721626281738 -74.728424072266 -81.550903320313 1.291737318039
-94.416847229004 -61.531135559082 -61.259269714355 1.777749538422
28.440721511841 -62.534942626953 -39.510345458984 1.903452157974
88.380439758301 -77.820968627930 -86.598327636719 0.677827477455
79.634140014648 -76.486701965332 -94.703689575195 1.388639688492
-9.161776542664 -76.399108886719 -275.708038330078 1.641470551491
-90.112686157227 -67.859237670898 -62.976787567139 1.850924491882
-65.188911437988 -75.615394592285 -96.732757568359 1.489221930504
44.835449218750 -77.595169067383 -107.154411315918 1.637797951698
80.794548034668 -74.525833129883 -71.577285766602 2.203176975250
-47.803447723389 -75.555618286133 -140.393508911133 1.694521784782
15.673645973206 -77.557235717773 -208.137817382813 1.809804558754
-45.943965911865 -74.661529541016 -145.205520629883 0.996333181858
-166.331573486328 -66.824195861816 -238.465545654297 2.215499877930
-134.109954833984 -66.519866943359 -203.012588500977 0.354210376740
-101.548698425293 -66.712097167969 -255.936569213867 0.959763824940
-161.908035278320 -65.055580139160 -196.748443603516 1.818881034851
-40.276870727539 -75.510940551758 -150.278717041016 0.671741962433
43.127845764160 -59.438129425049 -119.623573303223 1.021250963211
-60.303867340088 -76.499649047852 -163.444381713867 1.153543114662
-17.466590881348 -77.526695251465 -204.566497802734 0.875641524792
-121.429023742676 -71.045898437500 -225.804367065430 2.354974031448
-123.579727172852 -67.192031860352 -233.198974609375 1.344220519066
-68.167716979980 -73.945594787598 -155.047485351563 1.549752950668
23.769718170166 -77.158287048340 -155.946044921875 1.470124363899
-68.682258605957 -75.660858154297 -161.684860229492 1.658761858940
-17.696701049805 -75.743339538574 -211.854644775391 2.234155654907
-10.453872680664 -77.749099731445 -205.527343750000 0.912052214146
108.315887451172 -78.129196166992 -165.732269287109 1.648043870926
-56.403991699219 -75.200332641602 -170.450042724609 2.424696922302
-25.015453338623 -76.330467224121 -198.783020019531 1.792981982231
8.256562232971 -70.447669982910 -224.505035400391 1.106996417046
-79.374137878418 -64.717414855957 -135.128845214844 1.885099887848
110.908111572266 -78.093215942383 -174.783218383789 1.177268743515
-64.456230163574 -75.623939514160 -170.955245971680 2.295944929123
110.167724609375 -76.233963012695 -169.747055053711 1.722603559494
-16.202493667603 -77.105514526367 -175.392272949219 1.728586435318
-35.388038635254 -75.283851623535 -158.131698608398 0.847169816494
110.607482910156 -77.163246154785 -178.902374267578 2.556630611420
23.761068344116 -76.983345031738 -186.676574707031 1.403820395470
15.755535125732 -77.659637451172 -195.441543579102 1.715205907822
-48.548019409180 -75.933845520020 -290.113616943359 1.334293007851
-144.813232421875 -74.638603210449 -190.735412597656 2.242359161377
15.168588638306 -63.477096557617 -239.378326416016 0.713151931763
-25.295698165894 -68.550231933594 -74.479400634766 2.455822944641
-23.477113723755 -66.177459716797 -71.127967834473 1.517542123795
-77.262458801270 -63.666854858398 -114.093894958496 1.010587930679
105.897567749023 -77.682624816895 -190.980438232422 1.671721100807
-153.679153442383 -70.373123168945 -213.773345947266 3.206161499023
-141.027297973633 -73.345970153809 -196.709350585938 0.743930578232
-150.943542480469 -64.936370849609 -211.972518920898 1.312160611153
-126.438125610352 -62.172237396240 -229.569580078125 1.809360623360
-146.283981323242 -61.532100677490 -214.523422241211 0.869539201260
41.944313049316 -68.279655456543 -114.484657287598 1.848272085190
-103.166313171387 -68.224044799805 -259.389648437500 1.456904530525
-90.685226440430 -63.720397949219 -117.848106384277 1.860354781151
59.065261840820 -73.342605590820 -245.530349731445 1.043449759483
-47.601970672607 -75.895416259766 -195.803665161133 0.717771172523
11.137722969055 -77.573066711426 -195.878295898438 1.700815200806
-104.429519653320 -61.461372375488 -170.779663085938 1.553092718124
20.750350952148 -77.451347351074 -195.804718017578 1.398869633675
41.866374969482 -66.338401794434 -20.011596679688 1.025119066238
-104.146919250488 -62.659461975098 -160.776916503906 1.381267309189
-12.288497924805 -74.865051269531 -200.148452758789 1.374091506004
7.887032032013 -74.233924865723 -223.963088989258 2.893956661224
-22.484060287476 -75.625228881836 -199.204833984375 1.314598321915
-128.824295043945 -71.058486938477 -202.692321777344 2.929302692413
-123.413078308105 -68.014053344727 -203.276336669922 1.690372109413
16.747465133667 -77.550003051758 -199.919830322266 1.224332332611
96.552436828613 -78.615058898926 -199.093383789063 2.102620124817
96.956817626953 -79.173004150391 -203.273635864258 2.493453502655
-70.777984619141 -76.575736999512 -207.720016479492 1.443649530411
-63.033687591553 -74.646621704102 -163.121368408203 1.319732904434
-15.795097351074 -77.743370056152 -207.361999511719 2.490903377533
-153.872100830078 -65.762145996094 -232.863235473633 1.922069668770
-73.290466308594 -76.133308410645 -288.916320800781 3.113227128983
-145.692459106445 -75.871589660645 -217.176574707031 0.752858936787
44.560527801514 -59.453151702881 -36.927528381348 1.052405118942
-30.581890106201 -77.115066528320 -215.966949462891 1.465643286705
-73.767234802246 -73.479965209961 -145.028732299805 1.564138650894
-2.475676059723 -78.056755065918 -218.045974731445 0.921281218529
1.525488972664 -65.291664123535 -238.115737915039 1.155600905418
5.535634040833 -76.667984008789 -221.381942749023 0.764346480370
-35.336536407471 -75.347389221191 -242.476425170898 1.485809206963
-18.035362243652 -77.160575866699 -225.812652587891 0.925067782402
15.705204010010 -67.863433837891 -202.484558105469 1.316951274872
-60.725753784180 -66.732398986816 -128.573837280273 1.402127742767
-149.604492187500 -74.898368835449 -227.530075073242 1.694421410561
-156.967605590820 -66.895355224609 -224.169921875000 1.750013947487
-138.963836669922 -75.578971862793 -230.376174926758 2.293430328369
-129.411331176758 -62.046379089355 -195.955139160156 1.995640397072
-5.093515872955 -72.034294128418 -234.717819213867 1.695983529091
-8.335757255554 -67.929840087891 -233.010528564453 1.257316470146
-150.261520385742 -75.532707214355 -234.706253051758 1.416176080704
-106.164245605469 -65.952857971191 -182.434112548828 1.968858003616
-158.079956054688 -66.873382568359 -233.607650756836 2.851432323456
-71.595840454102 -70.519386291504 -289.567687988281 2.453454971313
-57.093681335449 -75.942314147949 -242.678848266602 2.894211292267
-76.789283752441 -63.635318756104 -136.107513427734 1.602478027344
1.133741974831 -79.620796203613 -245.874572753906 1.402448177338
109.549263000488 -72.027626037598 -152.123718261719 1.413625121117
20.340791702271 -77.611457824707 -255.643218994141 0.678587079048
111.799217224121 -70.602966308594 -149.766159057617 2.495767354965
-54.698764801025 -74.586563110352 -56.032455444336 2.196419954300
-93.516975402832 -72.852180480957 -95.854804992676 1.068171501160
20.415365219116 -76.909095764160 -268.950286865234 2.720804214478
19.691370010376 -76.900848388672 -270.492401123047 2.607513904572
-81.365005493164 -75.101585388184 -252.516174316406 1.115205407143
-46.220912933350 -77.371414184570 -285.930236816406 3.365849256516
-72.854492187500 -75.779129028320 -250.367156982422 1.540601611137
-116.028511047363 -67.028541564941 -233.088562011719 1.632092833519
-39.199008941650 -77.272140502930 -285.928009033203 1.564907073975
-39.519077301025 -78.186477661133 -286.937042236328 2.388202428818
-27.588872909546 -74.313598632813 -63.843524932861 1.649809956551
41.442310333252 -66.276046752930 -255.374298095703 1.111528277397
113.177742004395 -74.081138610840 -150.665237426758 1.346954464912
-12.378486633301 -78.671882629395 -287.489990234375 2.332037448883
113.779037475586 -70.843338012695 -152.664337158203 2.239204883575
-16.101585388184 -78.105751037598 -286.517211914063 1.980683207512
-28.771596908569 -78.060058593750 -290.144073486328 2.898382186890
-147.235916137695 -74.012809753418 -274.713165283203 1.468295097351
79.870742797852 -76.156356811523 -229.077178955078 2.044306516647
-84.115806579590 -72.581527709961 -64.170707702637 2.540669441223
-131.997055053711 -76.681068420410 -288.335205078125 0.943920016289
69.491310119629 -64.795005798340 -102.083137512207 1.230002045631
115.454559326172 -73.914962768555 -158.657424926758 1.855396986008
-10.217020988464 -76.564743041992 -286.033660888672 1.446286201477
-4.488956928253 -78.635208129883 -287.955200195313 1.460512399673
24.533842086792 -63.380306243896 -270.089630126953 2.259542942047
25.495330810547 -61.642108917236 -268.298522949219 1.939095735550
-66.693565368652 -70.751701354980 -50.942092895508 1.895889997482
93.872077941895 -73.182464599609 -212.719146728516 1.545639395714
-57.253498077393 -77.469337463379 -287.989562988281 2.651058435440
-146.197006225586 -73.079231262207 -197.928176879883 1.631193518639
-110.252998352051 -65.149620056152 -225.576278686523 1.528701066971
8.157308578491 -78.026779174805 -287.660156250000 1.992220759392
-87.026618957520 -75.295562744141 -77.453300476074 3.076516628265
-111.664604187012 -70.838012695313 -291.648681640625 2.528284549713
85.959877014160 -74.100112915039 -216.920150756836 1.158079862595
-125.127052307129 -73.830017089844 -286.086425781250 0.938351213932
-146.602096557617 -73.226112365723 -273.997039794922 0.933852732182
-128.488388061523 -76.809280395508 -288.309997558594 1.868064999580
-85.917831420898 -75.848747253418 -211.613388061523 1.509975552559
-142.486145019531 -63.648590087891 -257.060455322266 0.892029225826
-76.900344848633 -73.734252929688 -59.898551940918 2.921909809113
84.364776611328 -78.354873657227 -220.798919677734 1.918505430222
-58.164150238037 -64.376625061035 -87.482719421387 1.888516902924
15.095446586609 -76.754035949707 -288.295959472656 1.329662680626
-82.284271240234 -74.483100891113 -66.184593200684 2.992075681686
-89.669654846191 -74.308502197266 -80.838829040527 2.351188421249
28.778079986572 -68.487289428711 -257.869628906250 1.155030369759
45.505943298340 -70.355903625488 -109.732749938965 2.292988061905
61.396629333496 -71.286994934082 -91.934127807617 0.986628174782
85.933479309082 -77.699516296387 -214.536163330078 2.879227399826
24.711151123047 -60.838230133057 -256.548065185547 0.673587560654
-36.852893829346 -57.773899078369 -46.469001770020 2.764868497849
-75.455535888672 -69.013999938965 -51.341609954834 3.011355161667
16.057762145996 -60.953174591064 -284.724853515625 2.835674047470
74.497947692871 -76.497810363770 -89.873085021973 0.609456181526
17.797813415527 -78.697860717773 -271.628509521484 0.438239097595
-91.332542419434 -74.697158813477 -90.112602233887 2.157991647720
37.947883605957 -72.112854003906 -111.715476989746 1.786793708801
50.036388397217 -70.419067382813 -89.884254455566 0.917556643486
54.645606994629 -73.019439697266 -92.810394287109 0.784892976284
24.026765823364 -72.895141601563 -149.292297363281 1.973047971725
-140.936203002930 -70.830772399902 -255.001358032227 0.742293238640
-151.847900390625 -73.582801818848 -272.627624511719 1.198891401291
-150.844009399414 -76.120300292969 -266.729797363281 2.235925436020
76.848152160645 -76.673179626465 -91.677604675293 1.224125981331
-156.365798950195 -69.395286560059 -271.997009277344 3.044133901596
-143.529022216797 -65.917556762695 -254.869476318359 2.786155939102
-110.163230895996 -69.565887451172 -286.489074707031 2.967229843140
26.922296524048 -67.950408935547 -153.566650390625 1.333508849144
-111.269256591797 -67.943359375000 -290.211059570313 1.158786535263
-51.467872619629 -61.055877685547 -80.635665893555 1.840974569321
-149.174926757813 -61.735282897949 -254.172454833984 1.071433067322
75.663818359375 -72.966361999512 -234.007064819336 2.230300426483
-73.887321472168 -70.522247314453 -52.694435119629 1.597815275192
-77.931259155273 -68.018089294434 -98.891952514648 1.522686004639
-85.476325988770 -69.034133911133 -107.303276062012 1.031344056129
110.755165100098 -77.101875305176 -131.658111572266 1.988630890846
112.974021911621 -77.530853271484 -134.730743408203 1.586173892021
9.541009902954 -74.980201721191 -196.244140625000 1.508020520210
-51.627208709717 -75.211128234863 -138.260940551758 1.233098149300
-78.266334533691 -73.355239868164 -208.746627807617 0.814269542694
112.172134399414 -77.241210937500 -130.471740722656 2.022892951965
111.469963073730 -77.516418457031 -137.356338500977 1.660460591316
-51.165893554688 -74.839935302734 -142.343200683594 1.400946140289
116.418594360352 -74.883605957031 -144.790588378906 1.587788581848
113.117095947266 -77.937278747559 -143.614929199219 3.088782072067
-55.467391967773 -74.844505310059 -140.991744995117 0.850679159164
-62.980087280273 -74.991294860840 -249.512191772461 0.988152623177
-42.639289855957 -75.238891601563 -146.515625000000 2.133037805557
110.296081542969 -76.978607177734 -143.284301757813 1.540210008621
109.226348876953 -76.565124511719 -152.427810668945 2.123557806015
69.128746032715 -62.464027404785 -64.003311157227 2.161311626434
26.222776412964 -62.708347320557 -260.765228271484 0.956778585911
108.514839172363 -77.446609497070 -161.317260742188 2.803910017014
0.969314992428 -76.111015319824 -166.608505249023 2.082996129990
-43.540660858154 -67.657127380371 -79.034477233887 1.582489252090
-99.320075988770 -71.224075317383 -222.974624633789 1.125384092331
113.223381042480 -77.483673095703 -165.698135375977 1.821372509003
47.210563659668 -67.400863647461 -93.413543701172 2.160389661789
52.005924224854 -66.226615905762 -97.753730773926 2.147189617157
-84.464103698730 -61.092243194580 -112.089500427246 0.699954271317
-51.897285461426 -60.140773773193 -78.899925231934 0.833195626736
104.074111938477 -77.678024291992 -179.065200805664 2.320822715759
104.401802062988 -78.669700622559 -181.786575317383 2.025487422943
103.040252685547 -78.295097351074 -184.352386474609 2.601511240005
107.224899291992 -78.301376342773 -185.961517333984 2.818503856659
102.181861877441 -78.601181030273 -187.206481933594 2.599604845047
-153.939331054688 -71.422096252441 -236.286041259766 2.916472434998
14.979684829712 -76.442573547363 -189.731582641602 1.743927598000
-146.838226318359 -62.348449707031 -236.963500976563 1.055547475815
-142.816772460938 -74.502456665039 -203.231735229492 2.514873981476
-61.358654022217 -75.911987304688 -285.643280029297 1.581841468811
-33.515254974365 -62.944477081299 -77.523323059082 2.268211364746
104.457534790039 -77.675170898438 -194.162704467773 2.148978948593
-157.054809570313 -69.918281555176 -203.056243896484 2.158491849899
-29.779537200928 -70.590400695801 -77.243972778320 0.863973677158
-152.403640747070 -73.729759216309 -202.944366455078 0.643336176872
-33.010459899902 -65.922325134277 -77.507667541504 1.118495941162
-80.241729736328 -68.360054016113 -128.536437988281 0.984586119652
-79.948097229004 -59.875038146973 -126.129295349121 1.807696700096
-60.161659240723 -77.061531066895 -288.532531738281 0.684588670731
-145.207458496094 -75.208137512207 -204.942230224609 1.131790757179
111.419212341309 -74.162223815918 -135.949615478516 1.940659165382
115.603164672852 -72.246391296387 -132.140274047852 1.084493160248
-75.531784057617 -75.552223205566 -208.713256835938 1.002619147301
97.461563110352 -76.976425170898 -207.636825561523 2.071038961411
17.582834243774 -63.754581451416 -148.340332031250 1.065993428230
-52.239574432373 -71.711944580078 -87.780944824219 2.039191007614
-75.237426757813 -75.105194091797 -212.191284179688 1.378077626228
-128.904815673828 -73.343849182129 -230.981063842773 2.069367408752
-69.238945007324 -75.891075134277 -289.758392333984 1.183944463730
-146.372070312500 -74.105270385742 -214.578170776367 3.042937040329
-154.069137573242 -64.257286071777 -195.483963012695 2.096548795700
-141.255187988281 -61.369956970215 -196.933700561523 0.877504587173
-145.602890014648 -57.952243804932 -194.149719238281 1.618849396706
-9.236003875732 -58.388553619385 -59.640357971191 1.236255884171
15.731966018677 -76.721092224121 -217.531417846680 1.169013619423
-74.199493408203 -72.934005737305 -56.690109252930 3.276591777802
89.166877746582 -78.551826477051 -215.604019165039 1.501139640808
-18.754335403442 -76.478538513184 -217.793243408203 1.176058888435
-13.945360183716 -76.844375610352 -227.621902465820 0.923144459724
48.865455627441 -68.552711486816 -30.742204666138 1.665960311890
16.123380661011 -78.067718505859 -228.971969604492 1.046941995621
-137.846710205078 -74.799064636230 -228.415740966797 2.402760982513
-8.508624076843 -71.413108825684 -230.136825561523 1.532046675682
-151.387496948242 -70.561332702637 -216.241088867188 1.725130558014
-5.362668037415 -69.115882873535 -231.386840820313 1.889298915863
-154.947113037109 -66.759651184082 -216.810012817383 4.220186710358
-89.888427734375 -75.340988159180 -287.381988525391 2.324833393097
-145.327316284180 -75.274291992188 -234.042007446289 1.976792454720
-95.287353515625 -75.186904907227 -288.030578613281 1.168917417526
-146.618606567383 -74.308433532715 -237.449447631836 2.239189147949
-60.837909698486 -76.106674194336 -243.712585449219 1.353114247322
-42.881080627441 -77.275016784668 -245.158477783203 1.351019263268
-50.269386291504 -69.851745605469 -85.070716857910 0.909384369850
-80.264312744141 -73.771553039551 -214.274948120117 1.128773927689
-47.488697052002 -76.607109069824 -246.012680053711 1.180130124092
-5.625345230103 -67.678367614746 -262.105163574219 2.198577404022
-12.147987365723 -76.938385009766 -252.794509887695 1.763518333435
-13.022154808044 -77.734703063965 -256.312652587891 0.965879559517
112.872596740723 -70.219810485840 -117.829566955566 1.722612619400
26.196905136108 -65.427337646484 -30.492593765259 2.351770877838
-145.836517333984 -72.019798278809 -265.511962890625 0.915583968163
-141.091690063477 -68.142669677734 -262.008239746094 1.111666440964
-82.948753356934 -64.364440917969 -51.040901184082 2.006523609161
-11.802753448486 -75.778648376465 -272.325042724609 2.622614145279
25.197950363159 -63.412105560303 -27.183490753174 1.778253555298
-136.704010009766 -75.036766052246 -287.625183105469 1.361917376518
-146.677505493164 -75.135673522949 -282.163085937500 0.586062431335
29.358028411865 -66.380828857422 -12.155009269714 1.754050612450
23.234146118164 -64.925308227539 -16.323780059814 0.952144682407
4.450417995453 -79.497543334961 -283.330200195313 0.851540625095
-112.261703491211 -70.858810424805 -227.182998657227 1.370257854462
-79.941284179688 -72.036941528320 -253.806350708008 1.063460707664
-141.574081420898 -74.632766723633 -201.353408813477 1.561545252800
-54.635063171387 -76.673065185547 -285.712127685547 1.571348905563
-125.704010009766 -73.545341491699 -228.077453613281 1.433042168617
-154.346115112305 -69.785270690918 -195.973358154297 2.293169975281
-69.578056335449 -76.125244140625 -286.556274414063 1.008996248245
-10.415183067322 -62.062599182129 -59.633991241455 1.687251091003
-122.792907714844 -71.779052734375 -254.623886108398 1.398441910744
-144.271011352539 -71.418960571289 -300.783905029297 0.515943884850
-146.930252075195 -74.653205871582 -296.282714843750 1.769312143326
-150.494415283203 -76.105445861816 -286.548645019531 1.682237029076
-127.317031860352 -65.041328430176 -255.079757690430 0.990689635277
-155.692687988281 -65.163619995117 -284.926666259766 1.378665804863
95.057495117188 -68.149108886719 -67.000381469727 2.044084787369
-1.061604022980 -76.114669799805 -291.716735839844 1.419104218483
72.715507507324 -69.701316833496 -101.880073547363 1.290358066559
77.855201721191 -68.057014465332 -105.485488891602 1.013659834862
-145.682327270508 -75.854148864746 -309.774810791016 2.477158546448
66.957481384277 -64.012779235840 -68.605735778809 0.583118736744
-5.345614910126 -74.226898193359 -168.266906738281 1.924370408058
-153.785034179688 -74.952621459961 -311.620239257813 1.450853824615
-155.813949584961 -70.775611877441 -310.872253417969 0.678674995899
87.933082580566 -77.200492858887 -210.830627441406 1.813313961029
-70.183204650879 -73.907157897949 -56.820838928223 2.840693712234
-1.460497021675 -71.789550781250 -237.055175781250 1.149873733521
-36.458763122559 -72.676628112793 -55.712020874023 2.437222957611
-89.683341979980 -72.379684448242 -73.000183105469 1.723186373711
70.981376647949 -73.084289550781 -92.717498779297 2.291511535645
-133.254852294922 -73.256614685059 -254.872222900391 1.038182735443
-37.592170715332 -73.918624877930 -78.909912109375 1.432566642761
25.006090164185 -71.136802673340 -17.036899566650 1.063401579857
28.140419006348 -71.018669128418 -14.993076324463 1.328948259354
73.301605224609 -75.774467468262 -84.025588989258 1.781157374382
65.480400085449 -65.029281616211 -72.163520812988 0.595134913921
-1.936131000519 -66.416900634766 -276.754974365234 2.011745214462
89.600677490234 -64.001800537109 -60.678649902344 1.436741948128
-76.935127258301 -75.496429443359 -100.461883544922 0.530845046043
17.631406784058 -66.731361389160 -142.356613159180 2.071218013763
-93.557289123535 -73.071037292480 -105.855072021484 2.130620479584
-82.575370788574 -73.854660034180 -105.257759094238 2.052340507507
105.633766174316 -74.230308532715 -170.860702514648 0.898572683334
-93.315620422363 -73.209403991699 -111.335769653320 1.668719768524
-94.353744506836 -71.232292175293 -115.582939147949 2.102416276932
12.190732955933 -71.768287658691 -186.919509887695 1.526205539703
108.726387023926 -75.724060058594 -111.712554931641 1.773879408836
110.259452819824 -76.402770996094 -118.327690124512 1.265546083450
-15.507217407227 -70.833015441895 -251.402603149414 0.371540457010
-99.231971740723 -57.442790985107 -71.883949279785 2.475356578827
113.806755065918 -76.241439819336 -127.454429626465 1.446576237679
10.422306060791 -73.001884460449 -201.094070434570 1.844500541687
-54.681480407715 -70.871421813965 -133.371337890625 1.207437396049
-48.853801727295 -73.645561218262 -136.972320556641 1.511041760445
110.487922668457 -77.030616760254 -140.000000000000 2.230382919312
-55.368831634521 -74.688827514648 -145.133850097656 1.588224530220
-0.158133000135 -65.182121276855 -282.204467773438 2.281090974808
-17.195310592651 -72.992996215820 -287.399963378906 2.652435779572
22.074092864990 -72.770156860352 -251.189590454102 0.903836488724
-98.586891174316 -59.696922302246 -108.206443786621 1.972188115120
-15.005584716797 -74.090370178223 -286.404907226563 2.392851114273
115.632873535156 -76.137023925781 -154.147125244141 1.916670918465
17.680541992188 -71.408790588379 -167.032257080078 2.474299430847
93.938163757324 -73.783767700195 -200.739257812500 1.343943357468
-120.267967224121 -73.589477539063 -255.985641479492 2.294588565826
-48.686450958252 -75.000732421875 -183.960296630859 0.803307533264
