22.376035690308 -79.857238769531 -175.079879760742 2.736124753952
-158.932006835938 -70.752655029297 -224.787490844727 2.437393188477
-152.696746826172 -75.276062011719 -224.800415039063 3.015926361084
16.919689178467 -79.063621520996 -182.157592773438 2.533239126205
17.558668136597 -71.593353271484 -201.034866333008 2.726963520050
-55.493286132813 -69.694168090820 -129.319198608398 0.416694819927
15.557286262512 -79.547882080078 -192.108795166016 3.625573873520
16.305355072021 -79.723815917969 -196.314941406250 2.226216077805
-9.629605293274 -79.819488525391 -221.564590454102 1.847306847572
43.468402862549 -72.545555114746 -118.945571899414 2.155838012695
-33.683921813965 -75.593994140625 -204.155807495117 2.121184110641
-26.381431579590 -76.599342346191 -214.827224731445 0.765826880932
-61.306221008301 -77.170173645020 -178.644744873047 2.337502717972
35.908313751221 -71.720199584961 -127.584739685059 3.300494909286
9.920028686523 -72.526588439941 -192.419509887695 2.334429740906
-21.801109313965 -72.323471069336 -225.580322265625 0.988452613354
-54.928783416748 -74.863624572754 -138.584747314453 1.564072012901
11.225919723511 -79.555984497070 -201.292999267578 2.151211023331
8.894446372986 -77.039985656738 -199.947509765625 1.465303540230
38.817462921143 -59.995071411133 -19.645448684692 2.130580186844
11.219946861267 -80.062492370605 -204.827636718750 1.841117858887
7.247203826904 -75.300880432129 -203.274917602539 3.044521093369
-30.259859085083 -76.207992553711 -238.479995727539 1.254651188850
8.923290252686 -80.607635498047 -213.147216796875 1.365775227547
13.296817779541 -78.653396606445 -215.144775390625 0.669154584408
17.811981201172 -70.214607238770 -25.330867767334 2.867241859436
-75.072959899902 -67.232437133789 -49.454505920410 1.486352086067
18.753242492676 -66.686576843262 -21.143655776978 3.830265760422
-73.087158203125 -78.092117309570 -213.717529296875 1.250846147537
-104.620002746582 -71.508773803711 -287.539886474609 2.495040893555
-68.178527832031 -71.283340454102 -250.768539428711 1.773713111877
-150.308380126953 -77.451637268066 -230.547332763672 2.257579088211
-7.777282238007 -79.825256347656 -215.387283325195 0.563732922077
-101.893249511719 -67.921150207520 -290.260040283203 1.304512977600
-160.600372314453 -65.959983825684 -232.430297851563 4.417978286743
-147.194488525391 -64.158599853516 -246.257568359375 1.572272539139
-150.946517944336 -60.948490142822 -247.338836669922 1.877269983292
-22.252265930176 -76.522682189941 -183.069656372070 1.722020983696
6.640017032623 -79.453926086426 -219.102142333984 1.511168241501
9.804048538208 -78.960807800293 -217.384475708008 1.305847406387
-121.251197814941 -62.966491699219 -205.091125488281 2.352918863297
-151.554565429688 -76.256950378418 -222.308761596680 2.052277088165
-159.721023559570 -65.664787292480 -223.808547973633 2.607027769089
7.559169769287 -80.891723632813 -226.214767456055 2.773150444031
-9.110619544983 -75.562217712402 -249.081359863281 1.465644121170
-161.748031616211 -71.290382385254 -235.829055786133 2.673710823059
-152.117324829102 -77.174110412598 -235.181533813477 1.793641209602
-16.584894180298 -76.468185424805 -238.719726562500 1.991397142410
104.838043212891 -75.231643676758 -111.479171752930 2.727229356766
-28.457399368286 -80.136222839355 -240.806289672852 0.698538362980
38.056228637695 -62.252048492432 -18.781522750854 1.158856511116
-24.981639862061 -79.200080871582 -241.305953979492 1.697069287300
109.843269348145 -70.933868408203 -143.293151855469 1.572503566742
-52.354255676270 -78.756591796875 -243.882659912109 1.354135274887
-40.996208190918 -78.405914306641 -245.464096069336 1.304179787636
-88.576858520508 -62.007179260254 -53.173179626465 1.671548962593
-88.486648559570 -68.801681518555 -61.348278045654 1.482781887054
109.279426574707 -76.939956665039 -123.751075744629 2.372156143188
-73.738471984863 -76.157241821289 -213.401351928711 1.826267361641
-47.386669158936 -74.038368225098 -245.462722778320 1.938916683197
-81.376243591309 -73.007186889648 -212.946777343750 1.008632183075
-56.253971099854 -78.642379760742 -246.623031616211 0.464344918728
-50.087890625000 -78.644042968750 -246.600097656250 0.536608397961
-147.399093627930 -76.940307617188 -268.598571777344 2.551610708237
-127.721519470215 -75.371711730957 -286.787445068359 1.959635257721
84.793205261230 -71.087738037109 -217.028839111328 1.760426521301
-109.829963684082 -68.637428283691 -292.600952148438 2.481225252151
-150.185302734375 -65.374526977539 -258.493988037109 0.874280512333
-145.139709472656 -61.300312042236 -256.295257568359 1.648122668266
-26.813188552856 -68.907646179199 -56.072071075439 2.886205673218
34.689785003662 -69.656677246094 -115.798187255859 1.997249245644
-78.434562683105 -61.924026489258 -131.354766845703 1.618929743767
-1.894407987595 -77.426696777344 -246.248382568359 1.379295349121
20.142435073853 -69.982803344727 -34.577701568604 2.124061346054
110.652030944824 -73.163726806641 -123.345214843750 1.481293559074
-7.554841995239 -80.816093444824 -252.486373901367 1.746040344238
-11.324926376343 -78.677452087402 -254.077713012695 3.017043590546
76.903312683105 -70.006019592285 -228.192367553711 1.107508301735
63.605125427246 -61.264400482178 -70.223396301270 2.106558322906
-70.998023986816 -58.186767578125 -96.507957458496 1.574183106422
17.597366333008 -74.416633605957 -163.324325561523 1.541125655174
-157.136962890625 -68.892219543457 -267.060760498047 2.478096246719
-153.464279174805 -75.666122436523 -264.900695800781 2.081628561020
89.906089782715 -77.363578796387 -87.276168823242 1.457527279854
75.926025390625 -73.975646972656 -223.555313110352 1.826170086861
-12.041878700256 -79.637573242188 -263.720001220703 2.440853834152
-9.758557319641 -77.364486694336 -274.145050048828 1.401003956795
-3.744086027145 -65.682151794434 -256.479095458984 2.193349123001
-90.057647705078 -70.983306884766 -215.171737670898 0.873765707016
-86.691917419434 -64.332138061523 -53.663974761963 0.972714960575
86.645584106445 -76.291969299316 -75.573974609375 1.489496469498
81.064201354980 -75.472709655762 -73.294601440430 2.495399951935
16.804491043091 -76.318351745605 -277.917449951172 1.431712746620
70.705558776855 -69.675987243652 -67.936981201172 2.678831338882
-46.047439575195 -76.861396789551 -63.136051177979 1.905568480492
-76.381996154785 -76.313301086426 -65.397949218750 2.714697122574
-36.898399353027 -75.952598571777 -64.184135437012 2.825607299805
-85.611404418945 -75.815650939941 -73.711524963379 2.897629261017
79.500221252441 -76.741256713867 -221.329040527344 2.778226375580
-78.131782531738 -75.210128784180 -63.392482757568 2.387596130371
-35.241004943848 -76.926338195801 -68.025032043457 1.899205923080
0.462496012449 -73.344772338867 -225.266082763672 1.120812416077
-32.052822113037 -77.339256286621 -70.926841735840 2.959518194199
4.167439937592 -75.507461547852 -234.119338989258 1.621683120728
-79.685531616211 -73.097076416016 -212.484176635742 1.568489193916
-52.680015563965 -74.321907043457 -88.995025634766 0.495311915874
-62.742534637451 -74.294075012207 -93.920257568359 1.391272306442
50.662590026855 -77.295738220215 -98.624053955078 1.518683552742
104.208915710449 -74.008567810059 -173.587005615234 2.158098459244
-126.225791931152 -74.723472595215 -262.458984375000 1.227445483208
49.044914245605 -76.058654785156 -103.386283874512 0.755071520805
-107.372711181641 -69.579582214355 -256.521850585938 1.878875732422
-156.312774658203 -71.533607482910 -308.042449951172 1.191216707230
-41.542884826660 -70.657768249512 -52.262569427490 2.439646959305
49.348480224609 -76.625831604004 -107.820808410645 1.038722634315
-90.705764770508 -76.756858825684 -111.935371398926 0.553276658058
42.071151733398 -78.105567932129 -109.833435058594 1.597564458847
-39.353527069092 -62.970447540283 -79.086502075195 1.490662217140
-133.344161987305 -64.031303405762 -258.381622314453 0.962646007538
27.880615234375 -71.434684753418 -137.842529296875 1.907883644104
25.647623062134 -72.865127563477 -133.649887084961 2.155567169189
-166.580184936523 -69.605842590332 -215.596023559570 1.944916129112
-28.505584716797 -73.303947448730 -61.927902221680 2.260774374008
31.453027725220 -76.790702819824 -118.268119812012 2.823335886002
-25.846897125244 -65.098442077637 -70.906600952148 1.064950466156
6.593187808990 -71.823982238770 -236.458541870117 2.114391565323
31.702253341675 -75.594017028809 -123.196105957031 2.320169448853
-150.631988525391 -73.923263549805 -206.336807250977 1.832310676575
-31.675321578979 -66.310295104980 -77.519287109375 0.518639266491
-159.620315551758 -65.787910461426 -204.275878906250 1.352293372154
-83.080970764160 -66.460113525391 -128.497390747070 1.353169918060
39.104820251465 -75.217453002930 -125.681091308594 2.126238107681
-97.596572875977 -66.638130187988 -147.339797973633 0.648604094982
-17.529613494873 -61.364864349365 -53.612838745117 2.841645956039
-145.472152709961 -69.491828918457 -189.116470336914 2.584757804871
-42.540012359619 -72.349548339844 -290.038208007813 1.302261114120
-142.754470825195 -64.702217102051 -188.716735839844 1.916538000107
16.630052566528 -68.888618469238 -245.780334472656 2.345871686935
35.474441528320 -78.784873962402 -136.750122070313 1.871174693108
36.897884368896 -76.559806823730 -130.698577880859 2.100096464157
-25.544923782349 -75.893638610840 -71.781059265137 2.603819131851
-150.887710571289 -73.829551696777 -194.194839477539 2.914540767670
-156.607055664063 -64.602752685547 -195.268035888672 2.014204978943
35.978469848633 -76.235496520996 -139.033416748047 2.557581424713
-27.045400619507 -76.306015014648 -221.218139648438 0.903778076172
-51.615772247314 -75.618537902832 -145.653900146484 1.942826390266
32.530700683594 -76.987655639648 -150.864562988281 1.578802704811
-91.501388549805 -67.466560363770 -255.747756958008 2.278824567795
42.839076995850 -68.218719482422 -252.248138427734 1.502487778664
-51.520984649658 -75.857246398926 -148.943542480469 1.454372644424
-44.465362548828 -77.561897277832 -159.202896118164 1.808278441429
-45.536579132080 -76.391960144043 -150.639007568359 1.381666183472
-50.860855102539 -75.327690124512 -157.647689819336 2.374801397324
-15.397096633911 -76.937347412109 -197.597473144531 1.783768892288
31.790470123291 -77.950973510742 -151.804168701172 1.229173898697
-167.947570800781 -69.666664123535 -246.547927856445 1.994624853134
31.296504974365 -79.010116577148 -150.632629394531 1.142066478729
-42.584594726563 -75.626068115234 -153.075073242188 2.341684818268
-18.685951232910 -76.593917846680 -196.130615234375 1.669245123863
-48.966457366943 -61.458076477051 -45.089138031006 1.940688967705
20.209642410278 -64.131050109863 -246.228012084961 2.449839115143
-48.652755737305 -75.847953796387 -156.879379272461 2.240593433380
-30.955657958984 -76.360832214355 -210.048614501953 1.591724634171
-53.511363983154 -57.824939727783 -43.653911590576 2.333780765533
2.915347099304 -76.642082214355 -243.870269775391 1.869847655296
2.741211891174 -75.595748901367 -225.359451293945 1.576398253441
-65.701118469238 -76.346916198730 -157.441772460938 1.443722844124
-13.171572685242 -78.116035461426 -210.338027954102 2.262589931488
20.674354553223 -77.260520935059 -243.316421508789 1.658175110817
-30.450847625732 -76.121620178223 -191.712905883789 3.121190786362
-53.752429962158 -75.127372741699 -152.497070312500 2.245756149292
-45.555431365967 -75.206863403320 -162.880554199219 1.099225282669
-19.039955139160 -76.277534484863 -189.396591186523 1.432685017586
-89.133575439453 -70.221450805664 -257.152984619141 1.598379254341
15.000741004944 -76.192237854004 -221.981231689453 1.030979514122
86.869750976563 -77.872062683105 -82.105331420898 1.360153794289
94.475959777832 -75.532829284668 -88.013969421387 2.125381946564
-2.521759986877 -79.141670227051 -165.703323364258 1.119695305824
-3.269117116928 -79.008537292480 -169.064193725586 1.862218618393
-44.285251617432 -74.434837341309 -165.431915283203 1.374829053879
-22.757865905762 -76.186294555664 -186.756973266602 1.688146114349
28.041772842407 -74.599418640137 -125.751091003418 2.525935173035
-52.508964538574 -76.815773010254 -186.468170166016 1.290904879570
-44.199012756348 -76.661125183105 -197.167480468750 1.522952198982
-30.925100326538 -74.773399353027 -167.491271972656 1.734223723412
-34.810039520264 -77.942192077637 -170.994567871094 2.047338724136
-26.719505310059 -76.440612792969 -180.324066162109 1.965161442757
22.498163223267 -79.109382629395 -180.402328491211 1.522739052773
18.798969268799 -76.295265197754 -172.304031372070 0.957772612572
-152.590927124023 -75.154655456543 -300.867340087891 1.289416551590
-150.829650878906 -75.454696655273 -296.589935302734 1.812573194504
-31.462047576904 -77.551704406738 -174.012191772461 2.567562580109
-45.388969421387 -76.058296203613 -189.748748779297 2.123444795609
-47.104885101318 -76.831756591797 -194.066711425781 2.234437704086
-66.822525024414 -77.243263244629 -207.926498413086 0.723317325115
37.352775573730 -76.954116821289 -107.955970764160 1.804404020309
-70.103485107422 -77.148475646973 -212.129074096680 0.839611053467
45.491317749023 -75.807899475098 -97.241935729980 1.653652667999
41.305393218994 -76.917785644531 -102.726837158203 2.572317600250
-35.830577850342 -75.505752563477 -179.159561157227 1.843365192413
-155.621551513672 -68.943641662598 -304.416656494141 1.699589490891
-155.985794067383 -65.588607788086 -293.465148925781 1.710743904114
-148.546890258789 -65.614494323730 -303.800323486328 2.952724695206
-156.287872314453 -63.507114410400 -292.197662353516 1.150879621506
-57.353607177734 -76.494476318359 -175.738235473633 0.874240100384
35.935676574707 -64.878067016602 -256.975341796875 1.323050260544
34.250122070313 -68.796791076660 -128.720291137695 0.916890740395
-12.821937561035 -76.178741455078 -172.517547607422 1.924854874611
-9.486995697021 -76.180366516113 -174.100082397461 1.670145034790
83.824363708496 -73.329330444336 -69.682464599609 1.710692524910
-159.117431640625 -71.939262390137 -295.083465576172 1.675962686539
-144.805175781250 -74.838562011719 -285.136810302734 1.869855046272
-149.300201416016 -75.644638061523 -300.401824951172 1.417975902557
-36.259426116943 -77.321372985840 -175.456237792969 2.224537611008
-31.960384368896 -78.003921508789 -179.731246948242 2.025329589844
-139.510009765625 -74.822921752930 -290.941955566406 2.690876960754
-154.615890502930 -76.132133483887 -294.210052490234 1.826572179794
-154.182678222656 -66.937393188477 -301.961822509766 1.559063315392
-127.199485778809 -64.064056396484 -257.884185791016 0.483638972044
-156.186508178711 -63.598407745361 -287.610382080078 1.239230513573
-43.911296844482 -75.864562988281 -169.218582153320 0.974261879921
1.817443966866 -79.147438049316 -230.811813354492 0.200292751193
-52.486709594727 -75.189193725586 -180.222854614258 1.040571928024
23.854598999023 -78.761573791504 -178.656402587891 1.063433766365
-57.028244018555 -75.737220764160 -178.606491088867 0.886561691761
-1.270413994789 -76.453979492188 -235.041244506836 1.699984312057
-35.742336273193 -75.842361450195 -201.843948364258 1.049564719200
32.101139068604 -71.333328247070 -127.160972595215 2.763846397400
-76.048362731934 -72.918334960938 -142.462722778320 1.342824459076
-33.093208312988 -75.279640197754 -183.807769775391 1.117321968079
-39.650588989258 -76.323112487793 -175.723281860352 1.377263307571
-27.059339523315 -77.704093933105 -182.841842651367 1.087872147560
-39.559043884277 -76.680213928223 -170.980026245117 1.450677037239
-90.819458007813 -62.830017089844 -132.018051147461 2.100521802902
-48.286205291748 -71.134002685547 -51.801624298096 3.086863994598
-37.862594604492 -75.224296569824 -199.910446166992 1.836062312126
-57.435363769531 -76.572555541992 -184.754608154297 2.727153301239
4.496249198914 -65.928466796875 -234.560470581055 0.731993138790
-90.679824829102 -62.438812255859 -140.800567626953 1.891697406769
-35.468193054199 -75.834945678711 -183.353729248047 2.782293558121
-37.702117919922 -76.429046630859 -178.985641479492 2.089391708374
-23.266822814941 -78.025085449219 -195.831909179688 0.939503550529
-31.708183288574 -77.080375671387 -189.015396118164 0.812001585960
-65.298324584961 -73.869255065918 -156.079010009766 1.628905296326
-8.431204795837 -76.270080566406 -208.894104003906 1.576057910919
-27.232389450073 -77.092414855957 -191.817001342773 1.420083284378
104.392669677734 -67.967620849609 -106.837310791016 2.276487350464
37.047626495361 -67.686691284180 -40.584003448486 3.149976253510
8.013738632202 -72.251983642578 -200.456878662109 1.219082832336
13.241853713989 -78.557586669922 -191.156661987305 1.743622779846
-91.764617919922 -60.835456848145 -120.932426452637 1.781261682510
-68.240570068359 -71.374542236328 -287.005340576172 2.218891143799
-124.558502197266 -71.869773864746 -231.496292114258 1.376411557198
-154.252456665039 -72.816780090332 -196.964553833008 1.659012794495
-156.715560913086 -68.979927062988 -195.586547851563 1.868591308594
-15.810222625732 -74.562644958496 -227.304840087891 1.694857597351
21.627552032471 -75.866981506348 -193.694854736328 1.316620588303
-31.099088668823 -77.388671875000 -243.724441528320 0.632919073105
-121.240531921387 -66.057464599609 -204.696792602539 1.281192779541
-76.515655517578 -76.114585876465 -289.444824218750 0.509363770485
-146.893096923828 -72.778900146484 -222.450744628906 1.393141031265
-48.595928192139 -72.805107116699 -138.502471923828 0.422459840775
12.936546325684 -78.021568298340 -201.665512084961 1.462368726730
19.824705123901 -76.256851196289 -200.099899291992 1.064324975014
-149.029434204102 -75.322990417480 -201.731628417969 3.313920497894
-159.181793212891 -65.440284729004 -202.210525512695 2.454048871994
11.363534927368 -71.912834167480 -225.614562988281 1.125656485558
-46.411048889160 -72.308998107910 -165.778533935547 2.629086256027
-22.923070907593 -78.681037902832 -200.778015136719 1.649239540100
-21.517202377319 -70.428634643555 -192.011474609375 1.372345447540
-27.247171401978 -68.448890686035 -192.784347534180 2.663964748383
-125.337516784668 -70.763526916504 -235.006225585938 0.497040301561
-128.263488769531 -67.129463195801 -235.749359130859 2.047813653946
-119.551734924316 -66.271202087402 -227.411392211914 3.442959308624
-78.278656005859 -61.766227722168 -130.053512573242 1.082512855530
-6.647447109222 -78.042076110840 -213.550338745117 2.643898725510
-71.548934936523 -75.475517272949 -151.961151123047 1.115888834000
-15.545563697815 -78.105438232422 -205.229202270508 1.631374120712
19.278757095337 -76.913185119629 -237.626968383789 1.416720390320
-129.150634765625 -72.198822021484 -201.808624267578 2.406281471252
-149.190643310547 -65.918754577637 -229.060043334961 1.627300858498
-143.567398071289 -61.661914825439 -226.784835815430 0.743414700031
17.022487640381 -78.589820861816 -205.679855346680 0.885362148285
-114.600547790527 -65.234550476074 -192.436248779297 1.754823923111
12.466117858887 -78.485824584961 -207.170822143555 2.279739856720
-23.092578887939 -77.631492614746 -242.583740234375 1.152896642685
-5.273960113525 -78.234878540039 -226.368896484375 1.038213372231
30.644418716431 -75.126091003418 -160.903961181641 2.390077590942
15.823371887207 -79.335754394531 -207.536926269531 1.337892532349
-34.740489959717 -75.103790283203 -213.209655761719 0.982762336731
-60.399139404297 -75.693313598633 -170.395401000977 1.169590830803
14.180300712585 -78.010276794434 -213.440139770508 1.526982426643
-158.739669799805 -70.987014770508 -230.007568359375 3.013974428177
-124.510612487793 -70.423233032227 -197.639022827148 2.544398546219
-6.154098033905 -76.950218200684 -217.339187622070 0.832418918610
-73.195945739746 -74.669395446777 -149.888198852539 1.495182156563
-154.570510864258 -74.625480651855 -233.347640991211 2.346327543259
-130.362289428711 -66.323471069336 -195.565795898438 1.340740323067
-129.718032836914 -69.425163269043 -196.280426025391 2.316030740738
-8.319647789001 -78.259910583496 -216.765716552734 0.302445471287
-150.356887817383 -75.304344177246 -229.507446289063 1.082346320152
-73.051895141602 -74.748352050781 -153.196395874023 1.498425960541
-159.173416137695 -66.245780944824 -232.152923583984 3.303946495056
-124.515632629395 -64.756233215332 -196.066223144531 1.709994912148
-24.790655136108 -76.831748962402 -217.815704345703 0.715820133686
-22.661443710327 -78.663520812988 -220.695343017578 1.745996952057
-72.202339172363 -73.095878601074 -158.854553222656 2.658604145050
-14.101943016052 -76.248977661133 -215.860580444336 1.140414834023
18.953586578369 -77.444099426270 -183.584167480469 1.530595421791
-20.538139343262 -75.849235534668 -221.301345825195 0.582233250141
-80.300918579102 -75.147850036621 -287.642333984375 1.610540032387
-142.307586669922 -74.944694519043 -227.518112182617 2.109229564667
-113.207664489746 -69.633300781250 -201.286666870117 1.366810679436
16.389471054077 -77.380180358887 -188.660018920898 1.525757312775
-17.229700088501 -77.507980346680 -222.127288818359 1.146486043930
-7.166817188263 -78.547843933105 -222.442291259766 1.081872105598
17.761777877808 -76.238319396973 -241.968582153320 2.561094045639
-32.467704772949 -74.201591491699 -61.843776702881 2.664538145065
-165.045364379883 -64.517417907715 -205.059677124023 3.306996822357
-3.057138919830 -78.539558410645 -225.437408447266 1.998811483383
-26.256181716919 -75.421920776367 -242.948989868164 0.492722243071
-9.783986091614 -75.933746337891 -226.278411865234 2.191844940186
34.622390747070 -62.607925415039 -12.065980911255 1.374328732491
-58.611133575439 -65.181495666504 -122.329925537109 0.327314764261
0.597388029099 -76.105560302734 -242.840484619141 1.349472880363
-18.861974716187 -70.960876464844 -70.452156066895 2.424346208572
-44.799530029297 -77.381721496582 -287.044586181641 2.289022445679
-155.067306518555 -69.832588195801 -206.076248168945 2.648825645447
-30.661972045898 -74.541206359863 -78.517608642578 1.399444818497
-151.352966308594 -64.049568176270 -207.153930664063 1.974613428116
-147.024520874023 -59.758327484131 -207.990142822266 2.209729909897
17.269634246826 -76.422523498535 -225.359146118164 1.064619421959
-143.263702392578 -71.274154663086 -234.045700073242 0.564262270927
-89.395996093750 -68.901489257813 -288.901672363281 0.677790462971
-146.554199218750 -65.743003845215 -236.939773559570 1.889295101166
-151.160064697266 -60.810600280762 -234.377182006836 1.321975708008
-158.654998779297 -70.545745849609 -219.670379638672 2.609853506088
-7.101667881012 -76.363800048828 -230.100265502930 1.438970088959
-68.664321899414 -61.895465850830 -119.817123413086 1.391334414482
-133.186798095703 -66.041763305664 -225.521179199219 1.724707961082
-1.244596004486 -77.217048645020 -239.003723144531 1.806721329689
-147.203826904297 -74.590415954590 -244.020385742188 2.218320369720
11.108035087585 -77.816299438477 -204.576766967773 1.249133348465
-21.054222106934 -77.930473327637 -238.352218627930 1.592729687691
5.199194908142 -76.545738220215 -215.306030273438 1.373143553734
-51.455196380615 -77.987365722656 -242.795928955078 1.534170269966
-45.382511138916 -78.691703796387 -246.138610839844 0.809053540230
-151.036758422852 -74.168121337891 -246.594665527344 1.370532631874
-156.717697143555 -67.919326782227 -246.658401489258 2.377301931381
-109.001960754395 -66.904235839844 -196.072128295898 1.922824859619
-151.286376953125 -76.332885742188 -265.990692138672 1.833367943764
-159.435256958008 -67.905860900879 -264.526092529297 1.519139170647
-84.217315673828 -72.039688110352 -62.159255981445 3.594191551208
83.470550537109 -76.669876098633 -224.979095458984 1.793349504471
-61.555088043213 -65.704025268555 -89.809349060059 1.636162281036
21.934143066406 -73.716865539551 -153.591018676758 1.217494845390
-126.711547851563 -74.516853332520 -293.981231689453 0.327523589134
-154.960296630859 -72.856170654297 -271.153259277344 3.492781877518
-147.556503295898 -74.765281677246 -274.236022949219 1.737303614616
-157.603729248047 -68.962600708008 -268.822357177734 3.012682199478
-109.018569946289 -68.592102050781 -288.106262207031 0.952990174294
25.695745468140 -68.305374145508 -148.989929199219 0.631044149399
-153.216506958008 -61.629817962646 -257.550689697266 1.923072457314
76.137207031250 -71.007446289063 -232.156051635742 1.026417016983
17.867755889893 -63.935894012451 -23.732599258423 2.853745937347
-10.120718955994 -68.422546386719 -259.186004638672 2.716946601868
-9.737653732300 -79.635421752930 -271.217468261719 1.725350499153
-6.295990943909 -77.156898498535 -280.468292236328 1.353827953339
7.933448791504 -78.408767700195 -283.620880126953 1.526156902313
-69.601875305176 -60.599266052246 -111.793212890625 1.534718871117
-162.333938598633 -73.418128967285 -292.299865722656 0.998574674129
-156.227416992188 -78.217643737793 -288.582489013672 1.949430942535
-144.746276855469 -74.239433288574 -306.113891601563 1.754801273346
-114.700363159180 -71.315605163574 -258.234924316406 1.682877182961
-111.024131774902 -72.309967041016 -260.701904296875 1.575195431709
95.617172241211 -74.901901245117 -195.653305053711 2.597172737122
-27.517709732056 -76.882293701172 -286.786132812500 0.393300443888
-23.281827926636 -78.474929809570 -288.396026611328 1.602659106255
6.134543895721 -62.276565551758 -272.039306640625 2.033578395844
-36.283256530762 -78.314865112305 -289.912048339844 2.152661800385
-29.487754821777 -77.546768188477 -286.990203857422 2.252374887466
114.191200256348 -71.993782043457 -152.795761108398 1.964118719101
-11.721428871155 -77.356842041016 -287.091705322266 1.516444087029
-19.251173019409 -78.743698120117 -288.938781738281 1.026179909706
12.189658164978 -78.321395874023 -293.165405273438 2.028933286667
-102.899627685547 -72.603164672852 -222.301895141602 1.205757021904
-52.276130676270 -75.055099487305 -57.821044921875 2.180423736572
15.507188796997 -77.042716979980 -279.307434082031 1.567288756371
-64.916656494141 -75.177993774414 -58.252758026123 1.756081223488
113.386840820313 -72.278137207031 -160.255096435547 2.584429264069
-3.819678068161 -75.948722839355 -285.427001953125 1.053098797798
-54.135898590088 -75.819931030273 -59.280506134033 2.421909570694
-9.272294044495 -78.441680908203 -290.349304199219 1.859544873238
24.717784881592 -65.124755859375 -269.212402343750 1.789192318916
-41.894050598145 -75.508171081543 -60.555534362793 2.607458591461
96.853012084961 -78.141822814941 -196.045196533203 2.421935558319
-75.574661254883 -65.785820007324 -103.896911621094 2.233148813248
-163.518081665039 -69.890930175781 -292.533416748047 1.541387557983
-144.466369628906 -73.122291564941 -306.800170898438 2.126547813416
73.845176696777 -77.171928405762 -229.723297119141 1.842912793159
-85.745346069336 -74.249168395996 -68.746376037598 1.858024239540
-9.564735412598 -68.030052185059 -257.451843261719 3.059774398804
66.215988159180 -64.750946044922 -99.666847229004 1.887125611305
-23.321084976196 -63.145915985107 -52.079666137695 3.118516206741
-24.010974884033 -71.062515258789 -60.549171447754 2.819977521896
-27.154634475708 -75.842475891113 -69.859703063965 2.255791902542
-27.357889175415 -76.759147644043 -73.498619079590 2.009741306305
16.663991928101 -73.752204895020 -247.400894165039 1.173620939255
105.430694580078 -73.248275756836 -189.967910766602 1.297672510147
31.572071075439 -67.016548156738 -38.542373657227 2.603411674500
104.510574340820 -68.651100158691 -109.299972534180 0.560316562653
-61.139915466309 -70.883247375488 -138.233078002930 1.380033016205
9.015887260437 -73.090873718262 -204.836502075195 1.360991358757
-37.084510803223 -76.013900756836 -81.201576232910 1.285068154335
-92.488594055176 -75.065032958984 -215.784912109375 1.675118207932
82.101341247559 -77.259262084961 -79.323875427246 0.962366402149
95.172561645508 -69.314048767090 -101.580886840820 2.175616264343
-5.421255111694 -67.682167053223 -271.533294677734 1.247552156448
-119.351432800293 -74.607902526855 -291.417694091797 1.765423655510
-144.458633422852 -74.936836242676 -264.413421630859 1.573878765106
-94.826217651367 -60.232692718506 -59.060474395752 1.641244173050
83.001380920410 -77.623184204102 -83.427490234375 1.958900809288
73.600334167480 -76.963485717773 -81.319641113281 1.232231616974
66.418510437012 -66.639701843262 -98.698043823242 1.491430640221
-44.610393524170 -75.287658691406 -84.444541931152 2.335578203201
78.351951599121 -78.147674560547 -85.388114929199 1.993800401688
-13.284981727600 -77.453834533691 -265.594512939453 1.770577311516
14.919780731201 -77.520225524902 -292.798889160156 1.033714056015
83.191772460938 -77.885391235352 -88.485443115234 1.247088432312
-62.446025848389 -61.349578857422 -85.797698974609 1.063404679298
78.443870544434 -78.082061767578 -90.030693054199 1.202844023705
70.285034179688 -75.019119262695 -81.776947021484 1.304949641228
-95.970130920410 -61.754322052002 -62.510913848877 1.389542222023
26.746440887451 -62.885097503662 -39.985996246338 2.775534868240
86.973487854004 -78.112106323242 -86.725181579590 2.038583040237
78.279617309570 -76.755065917969 -94.882987976074 2.091583013535
-9.367117881775 -76.229316711426 -276.445892333984 2.220190048218
-91.659271240234 -68.081657409668 -64.214408874512 2.669315576553
-66.527069091797 -75.783569335938 -97.827972412109 1.003459095955
43.559829711914 -77.814384460449 -107.556289672852 2.064599275589
79.294685363770 -74.843437194824 -71.745620727539 1.598666787148
-48.865169525146 -75.643806457520 -141.377456665039 1.711464524269
15.038744926453 -77.545501708984 -208.722198486328 1.344645500183
-46.974643707275 -74.740867614746 -146.175689697266 1.852898120880
-166.763580322266 -66.628356933594 -240.180145263672 2.532511949539
-134.767135620117 -66.419670104980 -204.523132324219 1.321596860886
-101.871200561523 -66.522567749023 -257.239990234375 1.154627561569
-162.603408813477 -64.950103759766 -198.432205200195 1.825289011002
-41.276058197021 -75.583404541016 -151.214660644531 1.019182085991
41.943088531494 -59.630126953125 -119.997879028320 1.272915959358
-61.219837188721 -76.531250000000 -164.509017944336 1.845024824142
-18.123435974121 -77.500495910645 -205.360916137695 1.736514329910
-121.944931030273 -70.906326293945 -227.243545532227 1.925254940987
-124.046218872070 -67.035552978516 -234.643524169922 0.408102422953
-69.135093688965 -73.989585876465 -156.156768798828 1.654224038124
22.804084777832 -77.261299133301 -156.479431152344 1.628187179565
-69.608673095703 -75.690597534180 -162.800872802734 1.643311381340
-18.306188583374 -75.701713562012 -212.646606445313 2.581192493439
-11.104915618896 -77.725532531738 -206.277755737305 1.716892838478
107.409942626953 -78.267700195313 -165.731689453125 2.447747707367
-57.274787902832 -75.219841003418 -171.487091064453 1.596703767776
-25.708028793335 -76.311386108398 -199.622894287109 1.561504125595
7.730173110962 -70.396743774414 -225.121124267578 1.685388803482
-80.461555480957 -64.795753479004 -136.290222167969 2.376174926758
110.059509277344 -78.214477539063 -174.765930175781 1.725407481194
-65.323936462402 -75.637046813965 -172.044204711914 3.131186485291
109.288414001465 -76.365287780762 -169.730651855469 1.995590448380
-17.044017791748 -77.141296386719 -176.178436279297 1.605230927467
-36.337402343750 -75.343093872070 -159.035995483398 1.308057427406
109.785598754883 -77.275672912598 -178.884948730469 2.331436157227
22.990339279175 -77.021942138672 -187.208969116211 1.040916681290
15.040087699890 -77.674568176270 -196.025894165039 1.036783814430
-48.660945892334 -75.707778930664 -291.099792480469 1.641492247581
-145.553298950195 -74.557029724121 -192.331100463867 0.699366927147
14.740860939026 -63.399597167969 -239.935653686523 1.013222217560
-26.771137237549 -68.791488647461 -75.307449340820 1.526257038116
-24.972291946411 -66.426956176758 -71.939590454102 1.916068673134
-78.482566833496 -63.790676116943 -115.240150451660 1.183644890785
105.152000427246 -77.766616821289 -190.993682861328 1.300141215324
-154.270233154297 -70.237411499023 -215.415756225586 2.456773519516
-141.728713989258 -73.254386901855 -198.278198242188 1.575552225113
-151.542556762695 -64.806251525879 -213.586212158203 2.259982585907
-126.924301147461 -62.021484375000 -231.021789550781 2.131894111633
-146.864715576172 -61.399734497070 -216.100387573242 0.872411489487
40.721263885498 -68.481620788574 -114.885131835938 1.930802464485
-103.467880249023 -68.026199340820 -260.706420898438 2.200654983521
-91.881301879883 -63.827457427979 -119.079452514648 1.878650546074
58.669235229492 -73.281265258789 -245.830062866211 0.849657595158
-48.312690734863 -75.867622375488 -196.785812377930 1.375700473785
10.425194740295 -77.584022521973 -196.491729736328 2.136489868164
-105.288337707520 -61.448402404785 -172.092193603516 2.350885868073
20.037239074707 -77.468826293945 -196.356979370117 1.820388913155
40.045757293701 -66.738304138184 -20.410581588745 1.951401591301
-105.069923400879 -62.667640686035 -162.090393066406 2.568497419357
-12.971726417542 -74.851547241211 -200.904556274414 1.575472950935
7.354755878448 -74.183876037598 -224.589492797852 2.872890949249
-23.173557281494 -75.606941223145 -200.027175903320 1.406973361969
-129.486557006836 -70.962455749512 -204.178894042969 1.838611125946
-124.069778442383 -67.920387268066 -204.722229003906 1.115092635155
16.060455322266 -77.556205749512 -200.497573852539 0.902972459793
95.857872009277 -78.675857543945 -199.167633056641 2.722432613373
96.288383483887 -79.225311279297 -203.346405029297 2.480770587921
-71.413139343262 -76.507606506348 -208.850219726563 1.711906194687
-63.950447082520 -74.677101135254 -164.199417114258 1.401704192162
-16.434398651123 -77.712417602539 -208.146209716797 2.345560073853
-154.339172363281 -65.586311340332 -234.496765136719 1.903641581535
-73.410606384277 -75.893356323242 -290.059692382813 3.022496700287
-146.265701293945 -75.734016418457 -218.779830932617 0.965668976307
42.851547241211 -59.819404602051 -37.294609069824 1.786741375923
-31.165939331055 -77.056282043457 -216.843368530273 1.632502794266
-74.797706604004 -73.541252136230 -146.172760009766 0.796420753002
-3.047729015350 -78.012229919434 -218.746200561523 1.274707555771
1.088857054710 -65.207763671875 -238.763366699219 0.948626875877
4.985465049744 -76.621780395508 -222.028411865234 1.599231600761
-35.751308441162 -75.229904174805 -243.378677368164 2.186655282974
-18.557287216187 -77.089477539063 -226.609420776367 1.551772713661
15.040760993958 -67.863586425781 -203.048507690430 1.040456414223
-61.856407165527 -66.836822509766 -129.621414184570 1.687983989716
-150.111389160156 -74.736511230469 -229.155853271484 1.193845272064
-157.490447998047 -66.735679626465 -225.825637817383 1.586052060127
-139.453353881836 -75.418197631836 -231.935897827148 2.576993227005
-130.110443115234 -61.964099884033 -197.426666259766 1.224304318428
-5.555929183960 -71.953109741211 -235.421615600586 2.037371158600
-8.806261062622 -67.850097656250 -233.726287841797 0.583891391754
-150.723327636719 -75.355369567871 -236.337371826172 2.087685108185
-106.952072143555 -65.914306640625 -183.766815185547 1.475188374519
-158.542953491211 -66.693191528320 -235.270156860352 1.618479013443
-71.708244323730 -70.279205322266 -290.688537597656 2.384346246719
-57.507114410400 -75.809989929199 -243.720214843750 2.686919450760
-77.869850158691 -63.713321685791 -137.250213623047 2.135939121246
0.736995995045 -79.520339965820 -246.554595947266 1.410268783569
108.560997009277 -72.195487976074 -152.102813720703 2.055908918381
20.006881713867 -77.503257751465 -256.197082519531 0.926477313042
110.796882629395 -70.777267456055 -149.728057861328 1.914558410645
-56.294452667236 -74.846984863281 -57.059928894043 2.638252258301
-94.858329772949 -73.003440856934 -97.123756408691 1.290737390518
20.166257858276 -76.773063659668 -269.501922607422 2.894870042801
19.452056884766 -76.761100769043 -271.048583984375 2.443556308746
-81.715042114258 -74.932571411133 -253.709381103516 1.386191844940
-46.361335754395 -77.155647277832 -286.904754638672 2.918874025345
-73.218765258789 -75.620254516602 -251.507888793945 1.333059787750
-116.495750427246 -66.877296447754 -234.484924316406 0.655882060528
-39.339523315430 -77.061035156250 -286.857818603516 1.499516129494
-39.653785705566 -77.973037719727 -287.870758056641 1.867262840271
-29.135423660278 -74.575614929199 -64.698448181152 2.946746587753
41.113624572754 -66.182418823242 -255.770645141602 1.543261408806
112.178817749023 -74.254455566406 -150.625671386719 1.688040614128
-12.510555267334 -78.475265502930 -288.252746582031 1.776138186455
112.794876098633 -71.012870788574 -152.614120483398 1.724702239037
-16.239377975464 -77.908706665039 -287.302368164063 1.845840811729
-28.886112213135 -77.847023010254 -291.009368896484 2.499112606049
-147.443206787109 -73.753639221191 -276.321014404297 1.822519063950
79.368171691895 -76.143272399902 -229.251312255859 1.651561498642
-85.658012390137 -72.805412292480 -65.380218505859 1.221892714500
-132.120040893555 -76.403434753418 -289.851806640625 1.517567873001
68.191360473633 -65.041221618652 -102.301994323730 1.550704002380
114.506355285645 -74.073036193848 -158.602905273438 1.101597905159
-10.356996536255 -76.372619628906 -286.778320312500 1.014323830605
-4.618214130402 -78.442848205566 -288.667846679688 1.166386485100
24.300655364990 -63.244647979736 -270.586730957031 2.570388317108
25.251899719238 -61.510845184326 -268.785919189453 1.413432002068
-68.318786621094 -71.014854431152 -52.037635803223 1.777725696564
93.267471313477 -73.212951660156 -212.798660278320 1.649536609650
-57.380706787109 -77.241950988770 -289.034149169922 2.331781387329
-146.890426635742 -72.981674194336 -199.529205322266 1.824731945992
-110.766754150391 -65.017951965332 -226.932250976563 1.524603843689
8.026320457458 -77.843414306641 -288.291412353516 1.784259319305
-88.486335754395 -75.489677429199 -78.686660766602 2.737036466599
-111.763206481934 -70.566925048828 -293.024078369141 2.460664272308
85.381462097168 -74.116546630859 -217.051651000977 1.268146157265
-125.262588500977 -73.561660766602 -287.553558349609 1.157450199127
-146.813430786133 -72.968864440918 -275.599273681641 1.851815462112
-128.611694335938 -76.534034729004 -289.804656982422 2.051255226135
-86.527534484863 -75.762435913086 -212.837921142578 0.726385891438
-142.798706054688 -63.429588317871 -258.616851806641 1.171086549759
-78.470527648926 -73.971870422363 -61.064846038818 2.406948804855
83.808212280273 -78.362113952637 -220.949386596680 2.119768381119
-59.553787231445 -64.568862915039 -88.510017395020 1.113682270050
14.969173431396 -76.573936462402 -288.880554199219 1.015282988548
-83.814979553223 -74.703971862793 -67.386436462402 2.508620262146
-91.107215881348 -74.493766784668 -82.086791992188 2.047471761703
28.464035034180 -68.380043029785 -258.350830078125 1.240015506744
44.251354217529 -70.570182800293 -110.115127563477 1.670872569084
60.028297424316 -71.549095153809 -92.218147277832 0.823230385780
85.337615966797 -77.720916748047 -214.675430297852 2.926157712936
24.393775939941 -60.731075286865 -257.039001464844 1.089512348175
-38.498649597168 -58.066226959229 -47.348285675049 1.521458983421
-77.076919555664 -69.270515441895 -52.489025115967 1.511872291565
15.919091224670 -60.781234741211 -285.270233154297 2.272392034531
73.112899780273 -76.772903442383 -90.085060119629 1.089112520218
17.564575195313 -78.554481506348 -272.200408935547 0.766367137432
-92.711540222168 -74.861885070801 -91.371719360352 2.626805782318
36.704875946045 -72.317962646484 -112.149391174316 2.034269094467
48.655853271484 -70.677940368652 -90.238487243652 1.724195837975
53.281841278076 -73.275222778320 -93.140808105469 1.591177105904
23.021718978882 -73.012275695801 -149.815246582031 1.956298708916
-141.266510009766 -70.617095947266 -256.563049316406 1.427297949791
-152.068038940430 -73.324951171875 -274.263854980469 1.398513674736
-151.103210449219 -75.875465393066 -268.365142822266 1.407294988632
75.474380493164 -76.946044921875 -91.875022888184 1.002338171005
-156.587127685547 -69.135772705078 -273.653106689453 2.507985591888
-143.856933593750 -65.702453613281 -256.437286376953 2.357047080994
-110.293746948242 -69.306610107422 -287.852416992188 2.095672845840
25.947496414185 -68.060523986816 -154.060775756836 1.715468287468
-111.375106811523 -67.675552368164 -291.577911376953 1.649476170540
-52.898891448975 -61.266914367676 -81.613708496094 2.439304590225
-149.504409790039 -61.517906188965 -255.767288208008 0.710974037647
75.194656372070 -72.940170288086 -234.201049804688 2.419448375702
-75.501144409180 -70.776962280273 -53.835048675537 2.509054660797
-79.250541687012 -68.173316955566 -100.051918029785 0.586570978165
-86.742797851563 -69.166725158691 -108.513000488281 1.181717514992
109.633850097656 -77.313407897949 -131.640655517578 2.563694477081
111.871864318848 -77.737419128418 -134.700057983398 2.514922857285
8.832515716553 -74.989334106445 -196.862228393555 1.344778537750
-52.702148437500 -75.301261901855 -139.268447875977 1.595387578011
-78.892745971680 -73.280014038086 -209.917495727539 0.656322956085
111.043182373047 -77.456169128418 -130.445632934570 2.072854042053
110.384483337402 -77.716484069824 -137.335098266602 2.198458433151
-52.214725494385 -74.921821594238 -143.346908569336 0.899497151375
115.381851196289 -75.071380615234 -144.732299804688 1.064527869225
112.070983886719 -78.125320434570 -143.583999633789 2.907560586929
-56.524703979492 -74.926368713379 -142.022750854492 1.787000417709
-63.349468231201 -74.840751647949 -250.588729858398 0.369876801968
-43.662101745605 -75.317680358887 -147.466049194336 0.964696705341
109.248550415039 -77.165473937988 -143.269241333008 2.223381042480
108.237068176270 -76.732124328613 -152.418457031250 2.884759664536
67.588935852051 -62.789806365967 -64.220420837402 2.428685903549
25.930887222290 -62.593349456787 -261.250427246094 1.116936683655
107.581344604492 -77.594505310059 -161.314071655273 3.679832458496
0.072410002351 -76.176582336426 -167.283950805664 2.140780448914
-44.986274719238 -67.876747131348 -79.976173400879 1.900647282600
-99.854484558105 -71.105079650879 -224.274139404297 0.562357068062
112.317535400391 -77.625503540039 -165.665084838867 2.300711393356
45.854415893555 -67.650474548340 -93.779266357422 2.087747097015
50.677955627441 -66.470314025879 -98.086502075195 1.466457486153
-85.695098876953 -61.215499877930 -113.276023864746 1.258143305779
-53.338703155518 -60.355163574219 -79.878807067871 2.017095804214
103.253059387207 -77.785781860352 -179.090255737305 2.751592159271
103.597343444824 -78.771972656250 -181.811584472656 2.456359624863
102.252334594727 -78.391090393066 -184.385177612305 2.929925203323
106.447090148926 -78.396774291992 -185.967758178711 2.790930747986
101.411849975586 -78.690620422363 -187.245300292969 2.845156431198
-154.388397216797 -71.239021301270 -237.931793212891 2.890109777451
14.228850364685 -76.468963623047 -190.318420410156 0.870460510254
-147.277236938477 -62.168685913086 -238.545196533203 2.512125015259
-143.477584838867 -74.396018981934 -204.814208984375 2.634508132935
-61.499641418457 -75.686798095703 -286.710662841797 0.935034513474
-34.967590332031 -63.173919677734 -78.391624450684 2.476097345352
103.732177734375 -77.751548767090 -194.184982299805 1.796458125114
-157.713455200195 -69.802787780762 -204.719329833984 1.812785983086
-31.238685607910 -70.822891235352 -78.104667663574 1.768429517746
-153.065567016602 -73.617568969727 -204.585983276367 1.865448713303
-34.464839935303 -66.152130126953 -78.379028320313 1.680356621742
-81.373283386230 -68.451622009277 -129.711105346680 1.531267166138
-81.089401245117 -59.971866607666 -127.284339904785 2.706401824951
-60.285106658936 -76.831077575684 -289.594696044922 0.978668987751
-145.857833862305 -75.096527099609 -206.541290283203 0.951770961285
110.326995849609 -74.365219116211 -135.921691894531 1.570146679878
114.487960815430 -72.460144042969 -132.081893920898 1.262497782707
-76.159881591797 -75.478866577148 -209.871414184570 0.816916882992
96.822204589844 -77.019927978516 -207.701675415039 1.759919047356
16.577817916870 -63.869464874268 -148.884948730469 0.967472076416
-53.632205963135 -71.907463073730 -88.786094665527 2.844431400299
-75.843193054199 -75.024749755859 -213.346557617188 0.724420785904
-129.389251708984 -73.188476562500 -232.472335815430 1.920453906059
-69.353675842285 -75.652046203613 -290.875579833984 1.370114088058
-146.960617065430 -73.972702026367 -216.182083129883 2.000685453415
-154.772171020508 -64.159660339355 -197.116409301758 2.370833158493
-141.947402954102 -61.277786254883 -198.478851318359 1.556681871414
-146.310455322266 -57.863033294678 -195.715286254883 2.400856018066
-10.799230575562 -58.671569824219 -60.345626831055 2.294662952423
15.157148361206 -76.689712524414 -218.113464355469 1.818796515465
-75.789543151855 -73.180137634277 -57.837677001953 2.551602840424
88.577163696289 -78.573135375977 -215.724578857422 1.831175565720
-19.326635360718 -76.423767089844 -218.593338012695 1.565907239914
-14.455695152283 -76.772193908691 -228.392059326172 1.511323332787
47.111274719238 -68.934753417969 -31.101245880127 2.639185190201
15.620199203491 -78.012619018555 -229.554107666016 0.951950728893
-138.348175048828 -74.643135070801 -229.966796875000 2.605624675751
-8.999601364136 -71.339263916016 -230.861053466797 1.712345361710
-151.963104248047 -70.421966552734 -217.869308471680 1.879641413689
-5.844295024872 -69.041519165039 -232.086288452148 1.630347013474
-155.516571044922 -66.616737365723 -218.452804565430 4.147509098053
-90.017440795898 -75.093261718750 -288.628967285156 2.502309799194
-145.793273925781 -75.101615905762 -235.641342163086 1.428420424461
-95.412048339844 -74.934242248535 -289.311401367188 0.470776349306
-147.062301635742 -74.127761840820 -239.054840087891 3.432390213013
-61.244823455811 -75.969703674316 -244.778015136719 1.361153006554
-43.279949188232 -77.146911621094 -246.112533569336 1.586571812630
-51.678028106689 -70.054260253906 -86.059539794922 1.777865529060
-80.855911254883 -73.683410644531 -215.459228515625 1.757956743240
-47.881622314453 -76.474159240723 -246.994506835938 0.786663413048
-5.911321163177 -67.539451599121 -262.802581787109 2.664130687714
-12.498859405518 -76.814636230469 -253.552917480469 2.382134437561
-13.351224899292 -77.603004455566 -257.078186035156 1.177287220955
111.668052673340 -70.461746215820 -117.784553527832 1.670635819435
24.443632125854 -65.794891357422 -30.988737106323 3.363237857819
-146.100860595703 -71.780845642090 -267.106994628906 1.925041198730
-141.375839233398 -67.914215087891 -263.565124511719 2.036358118057
-84.568870544434 -64.616630554199 -52.226047515869 0.838233888149
-12.029081344604 -75.614204406738 -273.078369140625 2.782954692841
23.425031661987 -63.785942077637 -27.681806564331 2.886447668076
-136.830337524414 -74.757507324219 -289.168182373047 1.561864256859
-146.838317871094 -74.861259460449 -283.769622802734 1.791194081306
27.487834930420 -66.788909912109 -12.633525848389 2.440425634384
21.391448974609 -65.320594787598 -16.837955474854 2.459817171097
4.291102886200 -79.320793151855 -283.988098144531 0.689480721951
-112.768943786621 -70.722427368164 -228.563644409180 1.812788367271
-80.281188964844 -71.866172790527 -254.984069824219 1.284660696983
-142.246902465820 -74.531089782715 -202.928329467773 2.556452751160
-54.776245117188 -76.452186584473 -286.738494873047 1.400756359100
-126.207046508789 -73.398178100586 -229.548919677734 2.519786596298
-155.049636840820 -69.686416625977 -197.619140625000 2.070137977600
-69.713233947754 -75.892700195313 -287.676177978516 1.051262259483
-11.980812072754 -62.344841003418 -60.354446411133 2.749936103821
-123.126586914063 -71.578186035156 -256.072601318359 1.173383355141
-144.311431884766 -71.107124328613 -302.366973876953 1.489852309227
-147.001251220703 -74.349037170410 -297.889526367188 1.918702602386
-150.627975463867 -75.819313049316 -288.181274414063 1.335467100143
