19.012506484985 -88.561912536621 -245.053359985352 5.930447101593
15.827967643738 -81.331748962402 -244.232055664063 3.004180669785
11.137267112732 -85.503990173340 -252.074722290039 3.485745429993
14.773146629333 -81.524505615234 -252.471115112305 2.979361772537
-154.875900268555 -86.893379211426 -255.418991088867 2.814586877823
-132.800430297852 -78.617851257324 -254.635238647461 3.837583303452
16.621803283691 -80.974983215332 -261.917846679688 2.018468379974
-148.174407958984 -87.667900085449 -271.831207275391 3.834972143173
-145.022979736328 -84.059074401855 -273.260986328125 3.058976411819
4.283778667450 -80.992576599121 -271.517669677734 3.010631799698
-143.537948608398 -81.576705932617 -274.469299316406 4.021862506866
-141.553497314453 -87.400100708008 -287.157928466797 2.032196998596
-146.518569946289 -86.543151855469 -286.119384765625 1.687468290329
-149.757080078125 -87.888427734375 -286.261505126953 2.598076105118
-153.399261474609 -82.757728576660 -294.387634277344 2.275322914124
-131.644042968750 -82.603912353516 -294.489044189453 6.494009017944
-151.960205078125 -80.201011657715 -293.989868164063 1.270348906517
-55.454700469971 -75.924453735352 -66.573471069336 4.962938308716
-57.072513580322 -83.244918823242 -72.190460205078 1.532122254372
-43.036190032959 -82.199226379395 -73.866897583008 1.611776947975
-80.958328247070 -81.572860717773 -81.153854370117 1.550570726395
-38.175521850586 -83.182518005371 -78.045738220215 1.920531868935
-47.130317687988 -77.897819519043 -84.600997924805 1.422588109970
-84.104125976563 -86.245712280273 -105.614486694336 2.061270475388
-74.966041564941 -77.083206176758 -100.008544921875 1.152939915657
29.381689071655 -80.760978698730 -123.545707702637 3.484461307526
33.369407653809 -78.196792602539 -140.752182006836 1.614240407944
-13.114336013794 -81.657424926758 -182.918090820313 3.103374004364
-19.107097625732 -79.805442810059 -182.100479125977 3.040759086609
-23.439882278442 -83.883392333984 -179.177337646484 2.620042085648
-37.455123901367 -83.820861816406 -188.967697143555 2.717707872391
-52.902198791504 -81.957023620605 -190.312118530273 3.829713582993
-32.843612670898 -81.761772155762 -194.889114379883 2.258133649826
-139.507400512695 -77.657012939453 -187.249496459961 3.781521081924
-152.748031616211 -80.488006591797 -197.113830566406 1.244732618332
-152.787384033203 -81.155502319336 -200.508270263672 1.733212232590
-148.997924804688 -80.105819702148 -201.252197265625 2.219353914261
-70.847503662109 -86.304420471191 -210.143829345703 3.269916057587
-60.297946929932 -79.334228515625 -204.430191040039 1.463389515877
-149.399703979492 -81.561813354492 -214.621566772461 2.814736366272
-72.597488403320 -83.175666809082 -211.569168090820 1.448381781578
-71.373832702637 -84.119346618652 -213.044189453125 3.046256303787
-76.154907226563 -78.693702697754 -210.353515625000 2.207699060440
-142.163986206055 -83.209709167480 -225.650360107422 1.589959979057
-145.057540893555 -83.374305725098 -232.119827270508 1.193540334702
-150.222457885742 -84.710189819336 -253.360366821289 1.486163020134
15.095623970032 -78.240570068359 -244.758331298828 4.065871238708
11.291158676147 -78.378570556641 -246.007339477539 1.363172411919
-134.724502563477 -84.331932067871 -260.080108642578 1.470443010330
14.426980018616 -85.851081848145 -252.418930053711 3.428142309189
10.333706855774 -82.527931213379 -254.374771118164 2.695929765701
-149.818908691406 -85.541229248047 -265.224945068359 0.463861733675
-154.088134765625 -80.067588806152 -276.081390380859 2.998105764389
-5.929602622986 -80.639305114746 -272.458038330078 2.092440128326
12.174643516541 -83.523109436035 -278.549468994141 2.960082769394
-153.263671875000 -87.458068847656 -284.142395019531 3.372589111328
-139.853317260742 -86.639259338379 -276.021881103516 6.485823631287
-142.642669677734 -83.160835266113 -305.086273193359 5.478084564209
-43.952968597412 -83.229095458984 -71.119583129883 1.933886170387
-70.362480163574 -77.219451904297 -70.339622497559 3.679156064987
-42.827915191650 -82.998245239258 -70.688827514648 2.009488105774
-30.881103515625 -82.466415405273 -75.833518981934 2.031242370605
-72.742935180664 -77.767539978027 -68.886947631836 1.800057053566
-34.233734130859 -82.724182128906 -73.721023559570 2.487068653107
-46.890644073486 -74.032745361328 -83.604087829590 2.432067871094
-55.593276977539 -75.255950927734 -89.956901550293 1.406642556190
-65.295127868652 -85.450782775879 -89.781448364258 1.691420674324
-62.181964874268 -80.594093322754 -100.095184326172 3.468945980072
-92.766639709473 -80.318511962891 -111.344078063965 3.903518676758
40.484939575195 -78.253684997559 -119.282630920410 2.654449462891
37.752220153809 -84.392494201660 -119.076301574707 4.010284900665
-42.064254760742 -84.046310424805 -166.585800170898 4.961203098297
-42.485267639160 -79.992820739746 -159.060943603516 2.913449764252
-4.410699367523 -80.585876464844 -171.309310913086 1.595168113708
-62.063457489014 -86.683570861816 -167.320098876953 5.852407455444
-60.274597167969 -81.274230957031 -180.039001464844 3.714247941971
-57.406013488770 -80.744834899902 -173.706604003906 0.942683815956
-32.994617462158 -80.910102844238 -171.519897460938 1.272770166397
-57.611026763916 -79.818565368652 -180.234085083008 1.907903432846
-31.351465225220 -78.695999145508 -179.957138061523 1.321941375732
-146.211227416992 -79.356086730957 -184.417419433594 2.290888547897
-51.718528747559 -80.594657897949 -181.493560791016 1.447582125664
-46.228321075439 -79.102668762207 -194.434661865234 0.790874302387
-29.904390335083 -81.543777465820 -181.603164672852 2.960227966309
-32.830471038818 -83.947669982910 -187.321670532227 0.932176828384
-33.678153991699 -77.617218017578 -191.836486816406 1.963151574135
-21.755664825439 -82.924255371094 -187.591171264648 1.512771606445
-47.494625091553 -80.794395446777 -199.935485839844 1.854305148125
-144.426528930664 -74.661071777344 -192.994400024414 0.779870927334
-39.985580444336 -74.770301818848 -193.418975830078 2.581272602081
-38.769802093506 -77.772689819336 -202.352569580078 1.662392616272
-39.207603454590 -83.451690673828 -202.196853637695 3.397566556931
-44.339389801025 -77.586700439453 -200.320541381836 1.448350310326
-132.609375000000 -79.875671386719 -194.900802612305 2.934301376343
-135.596878051758 -78.994255065918 -200.287567138672 1.727315783501
-49.170074462891 -79.517448425293 -203.464645385742 1.171927571297
-60.011394500732 -85.393959045410 -204.914611816406 1.778887867928
-41.119937896729 -80.705337524414 -202.849990844727 1.920946955681
-141.602783203125 -82.170249938965 -205.627105712891 2.487083435059
-69.158317565918 -74.622695922852 -207.679183959961 2.115099668503
-37.200885772705 -84.078674316406 -208.472000122070 5.436995506287
16.268960952759 -82.212501525879 -204.960601806641 2.636235952377
-72.736251831055 -82.092849731445 -212.999923706055 1.777075171471
-28.678138732910 -77.626319885254 -213.531967163086 1.836613416672
12.729200363159 -79.462287902832 -218.904098510742 1.657034277916
-152.999191284180 -80.883224487305 -217.548141479492 3.160298109055
7.225452899933 -79.312141418457 -226.780197143555 1.607316613197
12.966580390930 -81.643676757813 -223.813095092773 2.904315948486
18.266193389893 -77.710914611816 -224.245986938477 1.938701987267
-138.064895629883 -85.199829101563 -226.357666015625 1.999626517296
-144.393692016602 -79.414558410645 -229.264770507813 1.350049257278
12.341829299927 -81.748893737793 -235.424545288086 1.581418275833
17.659484863281 -78.333915710449 -235.830261230469 2.432220458984
15.753544807434 -79.798614501953 -236.023956298828 1.129541873932
-148.353027343750 -83.774040222168 -241.712188720703 1.863602161407
-145.192443847656 -90.772865295410 -238.678741455078 6.661108016968
11.853007316589 -81.649894714355 -233.796310424805 2.100778341293
-41.456665039063 -81.039352416992 -243.910644531250 1.446744441986
18.463527679443 -80.232566833496 -246.997482299805 1.201159238815
-43.484100341797 -82.864921569824 -242.437438964844 2.515555858612
-144.110870361328 -85.214195251465 -258.057952880859 2.053897619247
19.027812957764 -82.271240234375 -251.723251342773 3.991389989853
-143.647750854492 -83.200248718262 -256.101257324219 1.189474105835
-153.823150634766 -82.297309875488 -259.005462646484 1.330778360367
13.742121696472 -79.621459960938 -254.494552612305 3.584117412567
-8.451093673706 -76.247886657715 -251.024002075195 0.771525979042
-8.337737083435 -79.511581420898 -263.066497802734 2.975005626678
-143.735565185547 -87.245727539063 -260.206909179688 3.119215250015
-155.544036865234 -75.449478149414 -262.529388427734 0.986753761768
-143.388854980469 -83.794784545898 -264.162384033203 2.501168251038
-149.780685424805 -77.826011657715 -271.614685058594 1.083722472191
-146.908142089844 -82.852249145508 -268.490478515625 1.557989478111
-6.979677200317 -83.264152526855 -268.937347412109 3.217323064804
-5.591832160950 -80.503181457520 -271.239471435547 1.780667543411
14.324227333069 -80.401657104492 -265.639007568359 2.015476226807
3.785102367401 -83.226524353027 -277.105651855469 2.118162631989
3.408766746521 -78.326934814453 -286.200012207031 2.554869651794
-138.380569458008 -78.139083862305 -290.090362548828 1.181135535240
-145.548263549805 -80.924880981445 -293.659118652344 0.661539852619
-60.584529876709 -77.278579711914 -62.694992065430 1.989097833633
-45.585086822510 -77.010986328125 -64.700225830078 1.945086598396
-45.748130798340 -73.058174133301 -66.111289978027 5.013406276703
-45.328773498535 -74.905227661133 -65.232704162598 3.211883306503
-66.767921447754 -83.504745483398 -66.368782043457 3.913605213165
-76.471328735352 -76.158424377441 -70.409797668457 4.027658939362
-40.292617797852 -77.923530578613 -76.273071289063 4.855566501617
-42.039455413818 -82.005424499512 -85.680244445801 1.923339605331
-48.813930511475 -84.553855895996 -87.408988952637 1.856913447380
-85.338180541992 -76.179351806641 -87.695297241211 4.016120433807
-72.838012695313 -82.353157043457 -107.748481750488 5.641311168671
43.754035949707 -77.051490783691 -106.814285278320 2.319129705429
-85.239059448242 -77.842880249023 -109.015838623047 2.788773298264
43.808528900146 -79.105506896973 -120.055259704590 1.207369089127
41.013286590576 -76.518974304199 -123.233528137207 0.545121729374
33.912414550781 -76.845550537109 -120.773674011230 1.945643186569
29.036375045776 -82.649520874023 -126.197914123535 5.435083389282
30.341915130615 -77.024963378906 -132.466430664063 2.030048370361
23.708086013794 -74.863777160645 -144.947967529297 1.578956842422
-48.322204589844 -82.457817077637 -156.017913818359 3.309102058411
30.598131179810 -78.174598693848 -141.553207397461 1.577130436897
24.723478317261 -81.943931579590 -155.607742309570 2.141097307205
-42.234279632568 -81.458663940430 -150.866134643555 1.694860458374
26.349779129028 -78.890823364258 -154.255828857422 1.167708635330
-48.661853790283 -75.764228820801 -159.363235473633 1.747115015984
25.541425704956 -78.866439819336 -165.362106323242 1.990519523621
-61.353702545166 -80.558479309082 -169.880950927734 1.149360895157
-3.702435970306 -82.390762329102 -172.602661132813 3.090701580048
-32.612323760986 -78.412818908691 -172.917953491211 2.518753767014
-8.628579139709 -80.698318481445 -171.282653808594 1.213880181313
-57.490596771240 -79.139060974121 -175.412216186523 1.532278656960
23.902591705322 -81.873245239258 -171.519515991211 2.962680101395
-13.337162971497 -77.293525695801 -184.117233276367 2.977152585983
-23.991760253906 -73.743263244629 -186.502792358398 1.409368515015
-51.960186004639 -75.607940673828 -182.788208007813 1.478729486465
-29.474025726318 -80.309906005859 -186.628616333008 1.439985871315
17.042932510376 -82.297225952148 -190.977447509766 2.900476455688
-148.572906494141 -82.698257446289 -188.424209594727 0.731980443001
-29.672296524048 -79.856521606445 -188.725921630859 0.901236653328
-49.322799682617 -76.085578918457 -189.310501098633 1.425888299942
-150.541061401367 -83.869834899902 -189.785491943359 3.221132755280
-142.244949340820 -80.860160827637 -196.583129882813 1.641962885857
-24.198240280151 -79.273826599121 -197.176254272461 1.386459231377
-23.123027801514 -79.867668151855 -194.559844970703 0.825782656670
-45.273700714111 -78.006767272949 -194.666351318359 1.312976121902
-18.553852081299 -81.621078491211 -194.533355712891 2.372724533081
-47.991653442383 -79.477699279785 -197.851730346680 1.629479289055
-47.007110595703 -80.022148132324 -196.739273071289 0.442359417677
-53.684852600098 -82.128166198730 -199.758911132813 1.662252664566
-19.614154815674 -75.388641357422 -205.869400024414 1.040939807892
-144.830444335938 -80.272155761719 -216.454025268555 2.077416181564
-58.573101043701 -77.458992004395 -209.530639648438 1.387589693069
-59.396293640137 -75.968032836914 -209.832260131836 3.018679618835
-33.153347015381 -72.402526855469 -207.871795654297 2.065161228180
-11.769006729126 -75.745361328125 -206.415084838867 0.501068890095
-34.370670318604 -77.103218078613 -209.320831298828 2.214918613434
-80.266868591309 -78.992485046387 -209.482452392578 1.544534325600
-143.759094238281 -86.318321228027 -209.858306884766 3.877361536026
-33.160232543945 -80.706459045410 -208.797927856445 2.551862955093
6.051364421844 -82.856323242188 -208.116271972656 5.760991096497
-67.221115112305 -82.069168090820 -211.877914428711 2.462170362473
-63.946319580078 -78.805168151855 -214.541107177734 4.426625728607
-25.178407669067 -74.296661376953 -214.125686645508 2.142512321472
-9.388232231140 -86.816177368164 -212.408859252930 6.539591789246
-27.022401809692 -81.876190185547 -216.365554809570 2.230363368988
19.394741058350 -78.587440490723 -214.694656372070 2.823670387268
-150.818069458008 -75.065948486328 -219.086471557617 2.119801998138
-11.540785789490 -85.850990295410 -218.691268920898 5.624286174774
-157.274658203125 -82.391792297363 -226.756713867188 4.835432529449
7.696424007416 -80.670562744141 -230.182205200195 2.596706151962
13.135208129883 -74.884895324707 -225.983291625977 3.447398662567
-1.005733370781 -79.053138732910 -222.086547851563 1.935144424438
16.178125381470 -80.325958251953 -228.199005126953 1.710895657539
-139.129623413086 -85.916633605957 -234.732406616211 5.272503376007
11.988200187683 -80.516754150391 -226.841140747070 1.320671200752
-153.705886840820 -77.849945068359 -228.962661743164 1.675846338272
-144.959304809570 -80.922966003418 -234.471450805664 1.164170265198
-0.262496471405 -80.818763732910 -220.940368652344 0.942608892918
19.073738098145 -83.263458251953 -232.918472290039 3.272919178009
-30.597536087036 -76.046470642090 -237.986953735352 1.647349119186
-145.411300659180 -80.256362915039 -239.655120849609 0.396284222603
-36.267501831055 -78.269035339355 -244.336364746094 2.000910520554
-46.169544219971 -77.768936157227 -240.672729492188 1.696282863617
-36.443981170654 -77.007987976074 -239.916778564453 1.211970567703
20.126312255859 -80.140510559082 -243.344070434570 1.382787942886
-49.593955993652 -73.622718811035 -246.421432495117 0.922793149948
17.946430206299 -79.950065612793 -244.939270019531 2.204531192780
13.726193428040 -76.692192077637 -239.882995605469 2.987947940826
9.824434280396 -81.241165161133 -249.114517211914 2.122249126434
-39.165626525879 -83.600540161133 -246.658950805664 3.760481834412
24.900072097778 -82.228179931641 -246.161636352539 4.817750930786
-142.518966674805 -80.536788940430 -247.487350463867 2.886144161224
21.024538040161 -77.051620483398 -250.451980590820 2.575744390488
0.778189301491 -84.425643920898 -249.088455200195 3.225187301636
10.691411018372 -79.272560119629 -240.927474975586 1.707241535187
-149.701492309570 -75.145637512207 -254.812850952148 2.696028709412
-146.115692138672 -84.636344909668 -258.385253906250 0.877962708473
-141.307220458984 -81.079818725586 -257.656555175781 2.139442205429
-151.514450073242 -79.995094299316 -260.348968505859 2.518962144852
16.080451965332 -74.507049560547 -263.033660888672 4.698522090912
-154.185455322266 -75.543960571289 -272.693847656250 3.785927772522
-6.166539669037 -80.272300720215 -273.850830078125 2.342141389847
-151.298278808594 -82.575630187988 -267.990631103516 2.518117189407
-143.550201416016 -78.221054077148 -282.043365478516 1.813853621483
-153.396438598633 -76.320526123047 -276.051940917969 2.681015491486
-153.108657836914 -83.256851196289 -284.737152099609 0.645323157310
-130.087738037109 -83.576492309570 -289.416809082031 5.854276180267
-152.789718627930 -81.174728393555 -289.695922851563 2.137108087540
-145.451675415039 -84.078041076660 -291.326660156250 1.516043424606
-146.312240600586 -80.950691223145 -290.218994140625 1.586340665817
-152.569412231445 -82.936622619629 -296.887725830078 2.627710103989
-144.458038330078 -77.582237243652 -292.574401855469 2.358502149582
-151.824111938477 -80.684623718262 -301.666992187500 1.353842616081
-146.572341918945 -82.016265869141 -303.839721679688 2.861617326736
-146.576416015625 -76.140663146973 -306.302398681641 1.710301756859
-56.901084899902 -69.408210754395 -61.429588317871 7.471807479858
-64.728614807129 -76.831352233887 -64.376594543457 3.406603574753
-47.377891540527 -77.211196899414 -61.388008117676 1.864930510521
-24.764526367188 -79.105484008789 -75.720954895020 1.986884832382
-52.080913543701 -81.355964660645 -88.112922668457 2.002476453781
-88.345306396484 -86.142433166504 -97.909355163574 5.828713417053
41.706024169922 -78.490730285645 -106.522277832031 2.488303899765
-74.679290771484 -80.457588195801 -100.304481506348 1.925309181213
44.265205383301 -80.823883056641 -113.483627319336 1.339479327202
41.516239166260 -77.899032592773 -122.338752746582 2.244142532349
41.126399993896 -78.687530517578 -123.543495178223 2.071467638016
35.799285888672 -78.754646301270 -134.515777587891 1.543724417686
31.978570938110 -76.363868713379 -134.076431274414 2.533595323563
33.851314544678 -85.583915710449 -134.477859497070 3.884586334229
32.374450683594 -75.167144775391 -150.221923828125 2.122072935104
-45.360210418701 -74.155395507813 -150.003280639648 1.627182006836
29.516958236694 -80.429557800293 -139.466323852539 1.648827791214
-66.247436523438 -74.151100158691 -153.205627441406 1.236399412155
-35.714912414551 -81.082313537598 -152.595092773438 4.136656761169
-61.033599853516 -80.514099121094 -163.292526245117 2.089557170868
-38.953422546387 -80.151138305664 -158.343093872070 2.951974868774
31.742902755737 -79.181983947754 -156.895050048828 1.862288713455
-35.704444885254 -84.796012878418 -157.712661743164 4.459915637970
-0.852770268917 -79.300315856934 -173.873382568359 4.072177410126
34.638710021973 -72.385581970215 -164.486938476563 3.010121822357
-10.076077461243 -79.121414184570 -170.841140747070 0.906680643559
-58.374992370605 -78.440620422363 -162.960769653320 2.380507946014
-37.130966186523 -75.003669738770 -170.256958007813 2.093929767609
-31.995323181152 -75.236801147461 -174.001510620117 3.451491117477
24.245212554932 -80.249664306641 -176.911773681641 2.712652444839
-53.114002227783 -79.978935241699 -176.356796264648 1.852004408836
-27.464324951172 -73.816833496094 -174.913742065430 2.371852159500
22.761362075806 -77.966491699219 -184.695220947266 2.512417078018
-51.248111724854 -79.862503051758 -185.664108276367 1.283008217812
-24.588096618652 -72.807777404785 -180.604507446289 1.891627788544
-54.229694366455 -75.410499572754 -184.604217529297 1.251553893089
-40.817489624023 -77.715995788574 -195.179595947266 1.065880179405
-28.874362945557 -76.928230285645 -189.588150024414 1.342221021652
-40.890708923340 -80.519058227539 -195.832168579102 1.715898752213
-22.454010009766 -77.954757690430 -192.221084594727 1.929538249969
-137.466445922852 -80.396492004395 -197.352340698242 2.313119888306
21.276819229126 -78.167457580566 -200.683700561523 1.672589182854
-133.109054565430 -77.328292846680 -199.571594238281 2.107827901840
-20.421579360962 -75.529808044434 -196.108856201172 2.449973106384
-20.212242126465 -75.651824951172 -196.711578369141 2.085447788239
-41.694023132324 -79.306785583496 -194.401016235352 1.444747209549
12.422729492188 -75.599143981934 -197.801727294922 1.803794980049
-15.893844604492 -81.595184326172 -198.285797119141 3.423786640167
-55.143077850342 -80.477447509766 -205.046890258789 1.324691176414
-34.271327972412 -78.836860656738 -203.641540527344 0.747258007526
-60.349246978760 -75.833930969238 -207.007354736328 2.569838762283
-68.073097229004 -77.284385681152 -211.093185424805 1.988174319267
17.273141860962 -76.464248657227 -209.234313964844 1.183049917221
-85.825157165527 -77.686790466309 -212.016708374023 1.464916348457
-27.875696182251 -78.986839294434 -215.254486083984 2.010735750198
-79.880233764648 -79.804313659668 -210.099136352539 1.302905440331
-148.645462036133 -80.577209472656 -214.285949707031 2.334065198898
-6.631836414337 -78.769874572754 -214.617950439453 2.792547225952
-6.039302825928 -76.854576110840 -217.854949951172 1.338932752609
13.193830490112 -79.357421875000 -216.985855102539 1.986286163330
13.092910766602 -72.295845031738 -225.864166259766 1.905521273613
-0.612321794033 -80.393585205078 -228.249572753906 2.386811733246
-141.558593750000 -78.056137084961 -220.427429199219 3.467419624329
-148.982223510742 -84.102333068848 -235.001724243164 0.934435784817
-153.062484741211 -76.472267150879 -233.450744628906 2.245651006699
2.080736637115 -81.392662048340 -236.191894531250 1.871204614639
3.116468906403 -77.000473022461 -237.042968750000 1.545278549194
-23.285179138184 -83.736206054688 -242.307876586914 4.983896255493
-149.952163696289 -77.232528686523 -239.154922485352 2.574960470200
10.791272163391 -80.165954589844 -243.129272460938 0.903977334499
-22.391304016113 -73.170677185059 -241.373153686523 1.691101789474
19.682348251343 -78.356513977051 -235.772552490234 2.882086277008
-52.220321655273 -77.727653503418 -243.505828857422 1.687220692635
-49.762710571289 -79.076515197754 -249.618026733398 3.921205759048
-146.137619018555 -85.192245483398 -246.020797729492 2.151172161102
-61.392673492432 -80.127151489258 -248.362380981445 2.722898244858
-2.029539108276 -78.360321044922 -246.052749633789 2.416271209717
-9.626427650452 -76.125770568848 -254.336715698242 3.010750055313
-146.404907226563 -84.193359375000 -259.354339599609 1.405374407768
-131.298156738281 -77.816238403320 -256.566192626953 3.582955360413
-134.717208862305 -77.465286254883 -258.064941406250 0.763536274433
17.941736221313 -77.672813415527 -257.967071533203 2.677869319916
-144.966079711914 -81.325614929199 -272.429504394531 1.929548501968
18.699731826782 -79.792770385742 -266.083831787109 1.517748951912
-143.691925048828 -77.847511291504 -275.178771972656 2.806246519089
3.671355247498 -81.225723266602 -277.071258544922 1.618363738060
-141.283920288086 -80.576370239258 -282.322082519531 4.219501495361
0.047573566437 -81.656044006348 -283.063903808594 2.747152566910
-152.236068725586 -77.576972961426 -284.633728027344 2.046087741852
-142.971176147461 -76.768341064453 -283.569702148438 1.778982520103
-135.551574707031 -83.997718811035 -286.509063720703 2.082085132599
-148.556060791016 -82.816230773926 -294.448547363281 1.992141366005
-19.981830596924 -76.863037109375 -290.083801269531 1.357065439224
-150.494247436523 -79.135810852051 -292.337463378906 3.372009038925
-146.265609741211 -83.521217346191 -295.506713867188 1.795021414757
-150.690155029297 -78.999374389648 -308.099426269531 2.514555931091
-56.144157409668 -74.326156616211 -56.895759582520 2.025926828384
-39.410396575928 -81.836494445801 -62.815612792969 3.970720052719
-75.711044311523 -79.984550476074 -67.808135986328 2.214885234833
-30.829774856567 -74.905281066895 -66.759895324707 3.048540830612
-26.998737335205 -78.015197753906 -70.686477661133 1.832085013390
-86.656227111816 -78.119651794434 -79.462432861328 2.353694200516
85.291084289551 -78.588005065918 -83.921577453613 1.741826534271
-35.051349639893 -74.624755859375 -85.225227355957 4.504804611206
82.266784667969 -80.605712890625 -85.373878479004 2.641847133636
78.922569274902 -77.180755615234 -88.178901672363 2.948091030121
85.161834716797 -76.375366210938 -85.629562377930 2.308739662170
85.767372131348 -74.317649841309 -90.360115051270 3.764402151108
90.262001037598 -75.507400512695 -93.667098999023 0.617426395416
-90.924064636230 -73.905960083008 -93.778877258301 2.824994802475
55.984828948975 -76.995155334473 -104.848709106445 2.033364772797
-96.123405456543 -66.917694091797 -112.088645935059 3.543527364731
46.865215301514 -79.458015441895 -107.222763061523 2.389185667038
50.335700988770 -77.675224304199 -112.608566284180 1.695989966393
39.001544952393 -75.914993286133 -114.103782653809 0.935285747051
34.305839538574 -77.401641845703 -136.956939697266 2.460222005844
27.265136718750 -76.277954101563 -140.333648681641 2.417822122574
22.339401245117 -70.010139465332 -143.324935913086 2.881889581680
33.009490966797 -73.021598815918 -142.472503662109 0.963750302792
-46.056343078613 -79.918960571289 -153.606430053711 1.219496250153
-48.588050842285 -78.531692504883 -150.857452392578 1.170951843262
-40.404731750488 -76.330558776855 -157.660614013672 2.205988168716
23.764446258545 -74.728569030762 -153.692382812500 1.269749879837
30.267354965210 -75.783027648926 -167.503097534180 3.357977390289
-32.729911804199 -73.786018371582 -168.611831665039 2.955879688263
-34.936275482178 -72.241157531738 -158.703277587891 2.122128009796
-45.310176849365 -79.574134826660 -158.833175659180 2.834882497787
2.343811988831 -74.212783813477 -162.985015869141 2.287098646164
25.223777770996 -77.641723632813 -150.746124267578 1.898971796036
33.548404693604 -73.049118041992 -159.068038940430 1.411324143410
29.613945007324 -74.872886657715 -169.871124267578 1.847430586815
-5.718623161316 -76.437278747559 -172.094299316406 2.057249784470
-4.014893531799 -77.851722717285 -169.969604492188 1.898681044579
-57.720573425293 -75.402679443359 -166.523696899414 1.820113897324
-60.279766082764 -76.757400512695 -170.784881591797 1.049435853958
-43.247303009033 -78.562461853027 -169.303512573242 1.901024103165
-37.482467651367 -75.308929443359 -167.242904663086 2.987665891647
22.232889175415 -72.012481689453 -170.864776611328 3.347895145416
-22.391906738281 -81.484031677246 -177.813079833984 2.592447757721
-29.850702285767 -74.194427490234 -181.121963500977 3.140071630478
-61.944541931152 -80.822349548340 -178.953460693359 3.654094219208
98.765312194824 -77.877677917480 -181.263107299805 4.818919181824
21.716194152832 -80.375122070313 -174.652404785156 2.323957920074
-25.249292373657 -76.889572143555 -179.467681884766 1.285773634911
-50.971332550049 -77.150894165039 -178.114791870117 1.890894889832
-20.808908462524 -73.663993835449 -180.263122558594 1.747495174408
113.175346374512 -76.474159240723 -180.979660034180 2.750365972519
-54.907310485840 -79.434974670410 -184.648391723633 1.743115305901
13.200589179993 -78.871528625488 -189.634429931641 2.316950559616
18.447048187256 -76.745162963867 -178.193023681641 1.965872406960
-55.400917053223 -82.620063781738 -176.781417846680 1.741613984108
-23.971696853638 -75.636421203613 -182.161529541016 2.077768802643
-55.350395202637 -80.568016052246 -176.880432128906 1.866120576859
-35.832229614258 -78.769523620605 -177.074096679688 0.776394665241
-28.369153976440 -77.064651489258 -187.045120239258 1.547713279724
20.396650314331 -77.301094055176 -187.981613159180 1.094306707382
-47.647342681885 -78.845794677734 -188.112884521484 1.969015240669
104.172210693359 -75.419189453125 -189.464630126953 0.638674676418
-50.290077209473 -73.722259521484 -189.137390136719 1.759770512581
7.637884616852 -76.371032714844 -202.259490966797 1.603578448296
21.507423400879 -75.709075927734 -197.964187622070 2.167763710022
-48.825515747070 -77.273391723633 -191.183578491211 1.432132720947
-15.957044601440 -77.933937072754 -188.819244384766 2.708166599274
100.439781188965 -76.163139343262 -194.170318603516 2.259597778320
97.009765625000 -80.396080017090 -194.508224487305 5.801303386688
-49.251190185547 -75.939796447754 -186.660705566406 1.800895333290
-148.924423217773 -84.323081970215 -199.589828491211 2.659016132355
-44.965782165527 -77.004554748535 -195.915725708008 1.233766198158
-144.389511108398 -79.066070556641 -197.028533935547 2.026746988297
-134.610366821289 -73.838912963867 -197.537704467773 0.709960162640
-45.961872100830 -80.145301818848 -195.794784545898 1.381878495216
10.480949401855 -78.787025451660 -206.641601562500 0.569113433361
-15.405411720276 -74.497138977051 -204.502929687500 2.738932371140
16.600133895874 -74.336822509766 -200.650070190430 1.241408586502
92.267181396484 -80.434310913086 -212.012603759766 3.617455244064
-34.484420776367 -75.481895446777 -201.948135375977 1.799159407616
-13.594677925110 -75.168716430664 -203.500640869141 1.325302124023
-15.497955322266 -74.824645996094 -213.493225097656 1.301016688347
-34.712577819824 -76.149276733398 -204.011306762695 1.393800616264
6.887767314911 -77.162284851074 -205.754180908203 2.593181610107
-78.729103088379 -78.615150451660 -210.385971069336 0.800434768200
16.877716064453 -77.949661254883 -214.154571533203 2.110222578049
-34.583698272705 -76.266044616699 -205.315902709961 1.068590402603
-144.629440307617 -81.964866638184 -207.093338012695 2.056758642197
-141.228500366211 -74.058372497559 -210.155181884766 4.574744701385
-87.667610168457 -78.226387023926 -212.568389892578 0.858155667782
-34.462276458740 -75.005264282227 -208.873550415039 1.857960700989
-14.228331565857 -82.101943969727 -211.872222900391 3.100092649460
-32.749607086182 -78.275741577148 -205.713439941406 1.648836851120
-90.333000183105 -80.115455627441 -216.779296875000 3.255536079407
-86.427291870117 -79.425979614258 -213.371093750000 1.167856693268
6.959658145905 -82.625801086426 -220.106735229492 3.233399868011
-149.114669799805 -72.604751586914 -212.905044555664 1.884874224663
-14.065260887146 -80.995796203613 -212.098815917969 2.474853515625
9.676358222961 -83.667228698730 -218.315887451172 2.738593578339
-143.846954345703 -76.618095397949 -219.861892700195 3.265325307846
-22.532741546631 -78.899055480957 -215.549499511719 1.364718317986
1.458384394646 -72.953811645508 -219.405426025391 2.816613912582
-7.681246280670 -78.222579956055 -219.193786621094 2.072999000549
-152.057098388672 -74.062667846680 -223.267959594727 2.109324455261
-139.467422485352 -68.264907836914 -226.207565307617 1.655557394028
-3.700088024139 -77.477500915527 -225.156372070313 1.722870826721
-147.782699584961 -83.412712097168 -226.737838745117 1.268120408058
1.523790955544 -72.523200988770 -228.921615600586 2.773505687714
18.173442840576 -76.260124206543 -234.935546875000 1.455591678619
-1.540285229683 -79.734031677246 -229.301406860352 1.649628400803
-1.328585624695 -71.595436096191 -232.108306884766 2.202796936035
9.064833641052 -75.707946777344 -231.211608886719 1.675453662872
-151.764785766602 -78.766746520996 -239.253280639648 3.022970438004
-19.212543487549 -74.865997314453 -233.256042480469 4.077320575714
-34.013919830322 -79.625045776367 -238.281250000000 1.214003205299
2.263117790222 -75.639427185059 -234.113052368164 2.345894575119
3.626067638397 -82.264472961426 -242.095718383789 4.796561717987
2.188476085663 -75.476295471191 -232.731414794922 1.996645450592
-57.746109008789 -76.807540893555 -241.906463623047 3.077400445938
-148.296875000000 -74.384597778320 -248.895919799805 3.558905839920
-152.628219604492 -78.075775146484 -247.340438842773 1.951203703880
12.334936141968 -78.940933227539 -246.522354125977 1.871719360352
25.798988342285 -79.154693603516 -245.664016723633 3.180178642273
-60.726470947266 -74.436767578125 -246.985000610352 1.965270161629
-141.789825439453 -82.500534057617 -252.061141967773 3.320190668106
-152.782424926758 -81.479324340820 -254.426315307617 1.690468192101
-153.309417724609 -82.297668457031 -256.849121093750 1.441047430038
-142.408325195313 -75.070442199707 -261.981231689453 0.955743312836
-141.003234863281 -78.799942016602 -256.360198974609 2.501257658005
-6.483167171478 -78.969375610352 -255.641555786133 2.144812583923
-144.854568481445 -79.422935485840 -262.027954101563 2.580807209015
-13.630922317505 -78.292381286621 -267.394470214844 2.591314554214
-146.948333740234 -76.690780639648 -271.748168945313 2.477322101593
-147.316543579102 -77.528793334961 -282.173156738281 1.123497247696
-147.625366210938 -76.225830078125 -283.931823730469 1.561896800995
-3.002486705780 -72.616638183594 -284.616668701172 2.309231996536
-147.599182128906 -73.746345520020 -283.018463134766 1.997443556786
-25.135627746582 -78.826042175293 -285.712402343750 2.887537956238
-25.664949417114 -74.500885009766 -284.741912841797 1.166930317879
-13.060051918030 -74.583183288574 -293.031585693359 1.287551045418
-13.414331436157 -74.202873229980 -292.273803710938 1.354059934616
12.746772766113 -79.653144836426 -290.562469482422 3.192668914795
-124.309349060059 -79.675796508789 -289.881774902344 3.133230209351
-60.839000701904 -77.869079589844 -286.752075195313 3.126583814621
-41.057975769043 -74.313453674316 -289.854644775391 2.409033536911
-32.508552551270 -78.008415222168 -287.213684082031 1.348001241684
-7.954141139984 -75.114997863770 -293.219329833984 1.201879382133
6.250480175018 -78.194061279297 -287.333038330078 1.449762582779
-141.051376342773 -78.656791687012 -297.582702636719 5.754439353943
11.500944137573 -77.591377258301 -295.102172851563 2.816109180450
-152.847061157227 -75.376976013184 -302.546386718750 2.111567974091
-153.183975219727 -82.320274353027 -301.161682128906 1.925804018974
-152.642059326172 -73.961837768555 -312.160736083984 2.200269460678
-142.252304077148 -77.010673522949 -309.431671142578 3.313400030136
-50.971004486084 -75.781417846680 -50.088169097900 3.905893802643
-54.030395507813 -79.863067626953 -55.800437927246 3.369870662689
-67.493980407715 -74.136573791504 -54.335708618164 0.897438049316
-40.473030090332 -73.909500122070 -61.820808410645 3.040112733841
-35.749801635742 -76.172897338867 -58.860252380371 1.516423821449
-19.280157089233 -75.050224304199 -69.697654724121 1.791825413704
-81.542724609375 -73.357933044434 -68.873329162598 3.389344453812
85.218505859375 -76.071662902832 -77.492584228516 2.220874786377
-90.751594543457 -74.462440490723 -73.776802062988 1.740287899971
80.547782897949 -73.486801147461 -76.513702392578 1.695400238037
88.153175354004 -71.001121520996 -83.410591125488 5.563656330109
97.783142089844 -72.549942016602 -88.771171569824 1.847915887833
-60.881034851074 -79.104492187500 -95.887489318848 2.257183790207
82.299369812012 -76.940467834473 -95.523880004883 2.779299974442
76.872337341309 -80.041572570801 -90.083641052246 3.769112348557
86.570617675781 -75.481605529785 -89.496185302734 3.049303770065
-59.063816070557 -76.551963806152 -97.020835876465 4.648422241211
49.018653869629 -73.649787902832 -97.271324157715 0.727288663387
45.930217742920 -75.059562683105 -105.779075622559 2.159826040268
39.859851837158 -76.579742431641 -102.874496459961 3.567889451981
36.267063140869 -76.165176391602 -101.217300415039 6.240588188171
-91.798881530762 -72.079597473145 -103.784767150879 2.102048158646
35.680473327637 -74.027786254883 -116.562934875488 2.435857057571
-84.678337097168 -76.615325927734 -106.928085327148 2.963194131851
40.680400848389 -77.123023986816 -126.393684387207 0.376516222954
32.987365722656 -76.780555725098 -120.047767639160 1.569419622421
34.347793579102 -68.218391418457 -120.730537414551 2.205939292908
44.697689056396 -73.642829895020 -116.707527160645 1.171974062920
41.678756713867 -78.554840087891 -127.413551330566 2.175607919693
-51.062686920166 -69.909812927246 -134.619934082031 1.399836897850
37.905586242676 -80.042640686035 -133.389465332031 2.942630529404
36.049579620361 -75.433387756348 -143.284622192383 2.055055856705
-55.326122283936 -73.951972961426 -143.203445434570 2.213243722916
-44.672550201416 -76.304450988770 -139.630706787109 2.407356500626
35.357872009277 -74.278938293457 -141.751724243164 2.069130897522
110.804626464844 -70.577148437500 -139.666824340820 1.634935498238
112.746650695801 -71.679641723633 -145.247222900391 1.607771158218
26.869665145874 -77.235176086426 -140.800323486328 2.347424507141
-39.846740722656 -78.788589477539 -149.045104980469 1.788534641266
117.098045349121 -82.064369201660 -151.515991210938 5.545495033264
-36.995613098145 -73.970764160156 -152.009506225586 2.287847757339
-67.391372680664 -75.282371520996 -161.707626342773 1.286051273346
111.055648803711 -79.722923278809 -154.905059814453 3.901063919067
23.138301849365 -76.815071105957 -165.372329711914 2.132497072220
1.379355549812 -76.710266113281 -162.044876098633 1.364328384399
111.644203186035 -75.436203002930 -151.714706420898 1.273244500160
-63.731826782227 -75.668106079102 -165.644653320313 1.719649910927
-38.193248748779 -77.155166625977 -164.736907958984 2.646733283997
111.969856262207 -76.189445495605 -163.815917968750 1.662892937660
28.101852416992 -70.630859375000 -157.753906250000 1.837084770203
-61.390201568604 -69.694137573242 -164.004623413086 1.579228043556
113.163642883301 -75.705192565918 -164.828277587891 2.797995805740
-64.941146850586 -77.700569152832 -168.361801147461 2.203306436539
-48.458843231201 -78.994255065918 -181.602142333984 1.744048953056
106.676727294922 -74.681167602539 -170.230865478516 1.715768694878
-59.105846405029 -74.466468811035 -171.651092529297 0.867522060871
113.030662536621 -74.333381652832 -176.693572998047 1.699459552765
-60.754203796387 -75.192764282227 -175.727310180664 2.040475130081
-15.289299964905 -73.352645874023 -176.797683715820 4.255793094635
-9.456814765930 -81.141525268555 -181.606643676758 4.787968635559
108.225578308105 -77.242835998535 -165.759109497070 1.773490548134
21.981348037720 -77.009933471680 -170.558624267578 1.455115199089
31.082746505737 -70.918792724609 -168.416061401367 3.005009651184
-57.405731201172 -75.089065551758 -176.914169311523 1.070020794868
18.042037963867 -73.830657958984 -181.012161254883 1.510619044304
-57.005016326904 -76.708221435547 -174.264739990234 1.433824777603
-51.760883331299 -74.508613586426 -193.083938598633 2.930271625519
11.572208404541 -73.436004638672 -184.001754760742 2.035621404648
-55.550354003906 -71.306594848633 -178.973983764648 3.399430751801
106.845237731934 -72.830413818359 -187.317092895508 2.079542160034
26.368661880493 -78.505317687988 -181.088104248047 1.267295837402
-34.422882080078 -73.516471862793 -187.658889770508 2.478332281113
-42.436313629150 -78.419929504395 -189.327377319336 2.622319221497
11.854578971863 -77.935111999512 -190.901779174805 2.344210624695
-19.128652572632 -77.129409790039 -187.476333618164 0.962514936924
-47.024246215820 -77.507949829102 -194.865783691406 1.151002168655
102.527145385742 -79.394973754883 -181.661941528320 2.581336736679
10.514218330383 -79.266845703125 -189.525787353516 4.324337482452
-131.950073242188 -82.470550537109 -199.707595825195 2.000681400299
-47.784904479980 -78.318702697754 -194.869552612305 1.693334937096
95.281509399414 -74.581703186035 -197.731719970703 2.520309448242
-148.907608032227 -82.607559204102 -202.256210327148 1.574428200722
18.947467803955 -76.265045166016 -199.255447387695 1.509136199951
-42.721107482910 -72.967750549316 -205.403701782227 3.450912714005
-29.593269348145 -79.107383728027 -206.362350463867 0.761479318142
-36.604026794434 -77.163169860840 -200.994369506836 1.943554401398
-44.960109710693 -82.261871337891 -197.355453491211 2.067540407181
101.285476684570 -75.299392700195 -203.449737548828 2.248316764832
-20.465986251831 -79.953529357910 -199.625946044922 1.630062818527
-149.646224975586 -76.722434997559 -200.992599487305 2.437446832657
16.463171005249 -78.357276916504 -200.964401245117 2.075022697449
-76.521461486816 -80.750877380371 -205.289215087891 2.419475317001
-143.490692138672 -74.510452270508 -213.508544921875 2.498264551163
94.644775390625 -77.825736999512 -212.470184326172 2.752249956131
-32.371509552002 -74.633949279785 -206.428451538086 1.871991038322
-28.229206085205 -76.725456237793 -210.518478393555 1.729762554169
10.457355499268 -76.564994812012 -209.235137939453 1.260004639626
-71.082122802734 -80.506896972656 -207.385391235352 2.073177337646
-26.572322845459 -83.838012695313 -205.329727172852 6.256047725677
-7.419487476349 -77.544288635254 -216.182632446289 1.905052781105
-69.727485656738 -77.528541564941 -213.555969238281 1.404788851738
-13.379663467407 -76.615242004395 -216.833068847656 1.068605065346
8.330521583557 -67.939781188965 -210.735855102539 1.635991454124
13.515697479248 -78.901229858398 -220.400421142578 1.297585606575
-150.727127075195 -78.679161071777 -217.575149536133 1.009710907936
-8.348943710327 -76.022354125977 -213.527542114258 1.328406453133
-100.775695800781 -72.852172851563 -219.754791259766 1.065425038338
-21.282785415649 -75.751007080078 -218.819961547852 0.948734283447
89.462310791016 -81.187362670898 -211.045578002930 4.673088073730
9.771032333374 -74.193000793457 -223.936965942383 2.131847381592
21.761180877686 -75.616157531738 -215.558517456055 3.990255355835
80.737274169922 -77.166725158691 -213.253829956055 4.183933258057
2.068377494812 -80.296562194824 -229.040832519531 1.799087405205
86.030723571777 -76.132057189941 -215.730072021484 2.083945751190
-20.236524581909 -72.103385925293 -223.777648925781 2.109504938126
17.080259323120 -72.865936279297 -217.647384643555 1.908745646477
-147.767471313477 -78.394798278809 -218.825546264648 2.666056632996
-24.986791610718 -77.759483337402 -225.513473510742 3.536178350449
2.667135715485 -73.645225524902 -230.005081176758 1.856751561165
-155.603164672852 -82.328697204590 -225.348205566406 3.881172895432
-136.708007812500 -79.827270507813 -227.712295532227 2.508139371872
4.027091979980 -75.789405822754 -222.743591308594 1.885697245598
-3.049753904343 -72.714424133301 -224.669784545898 2.997930288315
-136.439331054688 -73.346397399902 -229.077499389648 2.369783639908
-146.392562866211 -77.411865234375 -241.639953613281 2.414065122604
-148.048065185547 -77.603691101074 -235.588668823242 1.660802364349
-30.939994812012 -77.637428283691 -236.211120605469 2.810232877731
-141.521621704102 -80.196784973145 -243.066894531250 3.580502510071
16.412565231323 -77.583320617676 -240.587844848633 1.520860791206
6.504584312439 -75.844261169434 -243.920440673828 0.719202637672
-150.006896972656 -71.593582153320 -238.013381958008 2.997459173203
-148.808624267578 -76.617408752441 -244.664779663086 1.402071595192
-44.790359497070 -78.480644226074 -245.110900878906 1.837311029434
-30.734977722168 -77.186111450195 -246.275802612305 3.763552188873
4.971902847290 -76.250091552734 -241.955993652344 1.746211171150
-35.424083709717 -78.425994873047 -244.775787353516 2.466671705246
22.822267532349 -76.426170349121 -245.640640258789 1.841671586037
-5.045935153961 -78.752685546875 -251.893966674805 1.881486773491
-143.698410034180 -78.136695861816 -252.837142944336 2.201112508774
-8.946072578430 -81.525352478027 -252.216598510742 3.027577161789
-147.554473876953 -74.888137817383 -246.992935180664 2.011978149414
-64.510772705078 -78.692100524902 -249.702621459961 0.525835096836
-146.030242919922 -84.458923339844 -258.931884765625 1.449778556824
-126.547462463379 -77.022361755371 -257.994171142578 1.353711366653
-151.927200317383 -76.766067504883 -257.173980712891 3.057553529739
-9.651819229126 -73.882896423340 -266.591369628906 4.572895526886
-144.693191528320 -83.350502014160 -272.035217285156 2.708792448044
-148.276809692383 -77.656997680664 -269.143402099609 1.903293848038
-10.773917198181 -76.981712341309 -270.108306884766 1.727431297302
-143.391311645508 -77.520507812500 -269.962402343750 3.118470907211
-5.311518192291 -75.193763732910 -275.917602539063 2.774047136307
-44.595600128174 -75.995399475098 -283.437500000000 3.685720682144
-133.784713745117 -74.658554077148 -288.250122070313 2.238325834274
-134.460678100586 -76.589485168457 -285.672668457031 1.771219015121
-122.204689025879 -73.761810302734 -281.664306640625 3.918683052063
-50.761062622070 -75.871345520020 -285.753753662109 2.169064998627
-110.964309692383 -75.539466857910 -283.618225097656 4.595290660858
17.589151382446 -75.718765258789 -291.596679687500 1.161148786545
-55.865554809570 -74.723289489746 -288.044494628906 2.372478485107
-139.680297851563 -76.921569824219 -293.089080810547 2.817980527878
-62.111679077148 -75.447174072266 -289.994323730469 2.123857975006
-143.480789184570 -82.459526062012 -293.398986816406 1.872211217880
-115.340637207031 -74.486198425293 -290.720520019531 2.168797254562
-44.732128143311 -79.212646484375 -289.749633789063 3.379709005356
-32.308689117432 -76.597259521484 -290.929656982422 2.712000846863
-136.601837158203 -72.829956054688 -295.961456298828 3.330225944519
-12.931631088257 -71.104843139648 -281.892547607422 3.454396247864
5.909863471985 -75.894905090332 -286.605926513672 1.691796660423
7.918947696686 -74.660194396973 -289.634155273438 1.379163622856
16.558650970459 -77.280158996582 -294.643707275391 2.259125947952
-148.465286254883 -81.579101562500 -297.969573974609 1.312414646149
-143.765457153320 -74.861045837402 -293.179168701172 1.846584916115
-66.371398925781 -73.652107238770 -61.705505371094 3.817342519760
89.108367919922 -76.199745178223 -71.320739746094 2.035821676254
79.029769897461 -75.825714111328 -76.208244323730 0.980903983116
-27.649896621704 -77.725097656250 -75.800659179688 1.524322628975
83.874908447266 -73.000488281250 -73.458602905273 1.701439261436
-37.706737518311 -77.830352783203 -79.215393066406 3.016702651978
83.030700683594 -70.908096313477 -80.770439147949 5.066822528839
96.336692810059 -70.765876770020 -78.685264587402 2.381647586823
-64.293716430664 -69.227531433105 -95.419380187988 2.574125766754
73.091087341309 -75.309425354004 -93.104835510254 1.464724540710
80.281097412109 -72.598854064941 -96.480880737305 2.937092304230
96.912155151367 -77.432304382324 -93.892387390137 3.250634193420
55.633209228516 -76.659431457520 -95.946060180664 2.046459436417
-66.863754272461 -73.093856811523 -100.884460449219 3.282049179077
-73.706222534180 -71.582382202148 -100.675277709961 0.526811540127
50.952705383301 -76.962638854980 -102.502388000488 1.739687204361
-87.447708129883 -76.952537536621 -101.934768676758 4.085855960846
47.592899322510 -71.942886352539 -116.991394042969 1.732213854790
111.091827392578 -73.848869323730 -118.482673645020 1.208692312241
113.456588745117 -76.718460083008 -128.997741699219 1.345977306366
21.317401885986 -73.024581909180 -136.145751953125 4.694947242737
110.769660949707 -76.364967346191 -125.421852111816 1.090716123581
29.160881042480 -72.472892761230 -132.440505981445 1.876936316490
113.351524353027 -68.905914306641 -130.844268798828 1.332748532295
37.629482269287 -72.689064025879 -133.629974365234 2.059630632401
-55.692409515381 -74.985450744629 -140.058944702148 1.183835983276
36.783077239990 -78.686729431152 -144.219985961914 2.218308925629
109.330223083496 -72.607658386230 -133.466705322266 1.406922459602
-45.580699920654 -73.621643066406 -143.277542114258 1.759948372841
32.626083374023 -73.689109802246 -149.191436767578 0.504657626152
-56.195232391357 -69.896438598633 -140.695220947266 1.408527731895
-58.466709136963 -75.174575805664 -144.151931762695 3.205721616745
-51.950012207031 -78.471542358398 -149.484268188477 2.242535114288
-63.770996093750 -78.286285400391 -155.274429321289 1.877113819122
112.592056274414 -78.738929748535 -145.806442260742 1.822334051132
-49.200389862061 -81.707405090332 -154.713989257813 3.155044317245
23.694334030151 -79.912094116211 -155.434707641602 1.932827949524
108.475311279297 -75.493858337402 -160.725158691406 1.331437945366
-64.804687500000 -75.370056152344 -154.267211914063 1.547921538353
-42.989112854004 -76.555534362793 -156.643127441406 2.655362606049
9.605651855469 -72.719718933105 -153.568664550781 1.272377014160
-67.689514160156 -75.880767822266 -154.618240356445 1.839509725571
-63.313034057617 -78.091888427734 -158.124313354492 2.063698053360
