# This PCD file was generated using the MATLAB® pcwrite function
# from Computer Vision Toolbox®.
# .PCD v.7 - Point Cloud Data file format
VERSION .7
FIELDS x y z
SIZE 4 4 4
TYPE F F F
COUNT 1 1 1
WIDTH 1421
HEIGHT 1
VIEWPOINT 0 0 0 1 0 0 0
POINTS 1421
DATA ascii
-174.869049 -59.764843 309.770508
-192.820801 -63.320744 305.820068
-185.096039 -60.349266 313.065430
-27.034023 -62.678013 111.423126
-22.549959 -57.362713 123.719292
-20.001741 -61.330978 123.011993
-36.117458 -61.145794 153.414963
-45.883911 -67.246544 150.386185
-51.598896 -61.132893 150.735962
-52.728020 -58.970226 163.533218
-123.491455 -59.494598 42.550045
-116.677551 -58.183193 55.934704
-127.470360 -51.543278 42.882061
-125.280815 -65.216637 53.390141
-132.339920 -61.035816 69.963875
-128.931046 -52.400078 62.500080
-133.668671 -56.512878 62.629051
-124.800819 -55.269524 68.357117
-132.056870 -57.674309 62.989712
-138.987076 -55.939655 78.720612
-104.187126 -60.019753 149.529633
-143.608383 -55.231220 80.922005
-142.511627 -64.698990 83.905617
-109.480591 -57.530762 143.783447
-111.812462 -54.967411 147.061813
-142.938690 -56.930824 90.511688
-118.848526 -58.058205 146.861572
-157.949707 -55.926743 85.588470
-113.639694 -58.864838 163.535873
-143.785889 -60.498730 114.536011
-129.218689 -55.101982 144.950302
-126.930557 -66.914680 149.214676
-138.828201 -60.772480 118.502327
-159.813446 -55.148289 96.737526
-152.142075 -61.606686 130.579239
-145.438675 -58.344666 149.368347
-172.743423 -55.489910 91.791779
-136.599731 -55.480595 151.984482
-164.628128 -59.516743 104.855721
-138.824738 -69.247726 169.819153
-135.146805 -57.795769 168.449814
-146.142471 -59.029057 134.403458
-89.384575 -65.050636 251.729614
-150.249023 -55.390369 143.975937
-140.964584 -62.282257 152.339050
-148.598938 -53.595070 144.528656
-174.143280 -61.758286 115.804123
-152.363663 -56.250843 149.821671
-148.632751 -63.026596 168.739136
-158.591614 -54.752281 144.423965
-177.123779 -59.772343 113.525986
-148.620102 -59.475735 165.917496
-156.381882 -65.667549 163.436157
-159.257736 -57.477768 149.938477
-151.428406 -57.257828 182.418610
-185.290283 -59.090565 115.225586
-146.751602 -58.697727 190.898224
-146.707336 -54.844749 180.314148
-182.482819 -54.797829 123.085213
-150.190277 -58.828342 203.417679
-171.082596 -51.249767 142.922485
-147.228317 -61.828423 186.273422
-171.780243 -59.233398 151.945007
-155.348846 -54.415844 192.820602
-140.304855 -57.907211 208.618088
-174.971893 -57.940693 162.149399
-182.418625 -60.487370 157.871338
-176.490265 -63.963673 157.355545
-197.765167 -53.186695 124.917770
-180.909561 -65.130150 148.953827
-188.379013 -56.383026 146.897018
-204.100739 -55.136955 127.481125
-200.786758 -59.425762 138.407471
-198.408035 -66.302925 145.268799
-198.644440 -62.106594 143.853729
-207.309158 -56.525230 139.221603
-209.154984 -62.466331 139.842560
-218.621658 -55.171528 123.095665
-206.729141 -56.556194 141.212250
-189.192001 -60.561764 173.932770
-218.969849 -62.576023 137.059143
-195.822708 -58.614529 175.402847
-222.967804 -59.511753 130.663116
-190.904205 -59.147503 196.587189
-183.565521 -54.818089 194.505981
-214.567963 -57.781055 149.564621
-213.192612 -53.428070 148.538330
-230.133591 -64.762924 136.796555
-141.543869 -63.521393 282.388275
-145.378983 -55.642979 288.568024
-150.113388 -64.870438 290.669098
-139.970398 -62.626472 291.298157
-146.003296 -62.937057 279.641479
-150.907028 -58.683773 296.073273
-155.301270 -60.014427 293.816315
-158.470505 -55.576542 289.257172
-165.676956 -55.239437 296.910309
-241.440674 -56.969139 155.001251
-249.181793 -62.988922 150.771088
-234.846451 -61.572113 172.470703
-171.397568 -60.832607 296.162445
-173.328766 -63.452271 297.362396
-246.004593 -64.676575 164.650864
-180.331375 -63.217915 293.916443
-182.021591 -62.746933 291.442169
-185.998550 -56.991421 293.680511
-173.972046 -57.724239 309.358582
-179.222183 -61.348312 305.028290
-188.831528 -62.388866 313.008453
-15.434767 -58.290546 107.003662
-21.377214 -59.235218 122.842278
-29.952930 -61.995163 108.508118
-32.809769 -59.788631 98.526619
-28.069246 -55.400768 104.637901
-43.145256 -60.512432 92.812698
-19.245571 -52.627689 140.325378
-40.964355 -54.799725 86.709427
-24.999783 -55.472366 137.980911
-55.283997 -57.858887 110.540703
-109.399361 -63.253208 1.500524
-107.459938 -61.261265 43.053375
-54.925259 -58.637009 146.696060
-40.711124 -55.286602 157.374344
-109.331902 -56.066132 37.621170
-112.516663 -56.015980 39.223648
-121.781799 -60.220482 44.843384
-121.597618 -62.462646 49.271770
-110.712288 -56.943249 53.038357
-119.891296 -60.248997 53.399395
-131.498749 -60.955872 52.128139
-136.416565 -59.991455 70.771194
-144.425705 -54.522068 73.228317
-142.918732 -54.765850 78.598671
-151.480804 -57.852005 76.795586
-114.528542 -58.021225 147.378922
-110.018845 -55.733665 143.207581
-108.520294 -57.592415 173.035400
-108.766342 -61.458858 170.536560
-114.417938 -61.630638 141.777786
-118.952911 -58.985558 145.779968
-149.255341 -52.662518 87.358917
-152.026947 -58.101818 79.121895
-115.184280 -56.416573 167.971588
-139.869324 -59.406445 120.912170
-124.389137 -54.492489 140.668137
-152.642624 -56.917088 92.068726
-123.548729 -57.036179 140.536453
-162.335495 -62.526695 96.669716
-162.507599 -55.787739 102.144661
-123.889030 -59.858383 171.702927
-147.349075 -54.054852 134.307770
-137.027145 -58.244740 143.877548
-152.358475 -58.461617 122.880302
-125.994057 -61.001225 165.447800
-169.438934 -55.890064 97.757561
-145.619339 -60.951328 139.688965
-126.423050 -52.360035 162.283325
-175.685806 -52.572193 106.703568
-129.844116 -51.279644 166.405273
-127.828140 -62.388668 168.965088
-145.758881 -58.240582 150.056442
-129.853668 -63.278187 172.591202
-153.287155 -55.374218 151.249832
-174.221832 -59.624931 105.688759
-141.621521 -60.229939 162.578796
-146.122482 -58.080551 147.106537
-173.838898 -55.894409 111.152344
-161.817932 -59.804619 142.403244
-179.568054 -62.340591 112.085274
-143.029144 -53.607742 156.162598
-139.483383 -50.775585 162.948334
-142.189972 -54.913734 162.232925
-161.770523 -58.712490 147.563263
-149.318924 -60.483730 159.606354
-181.514145 -58.306156 117.279877
-154.881638 -64.499733 161.498489
-175.067566 -55.952183 113.986870
-170.428696 -64.007813 148.324829
-155.299194 -57.989742 161.780319
-168.487610 -54.202534 144.409164
-149.270050 -58.234512 196.396484
-192.080765 -55.173412 125.989418
-184.864075 -60.439537 114.754951
-178.045609 -54.223888 134.303513
-167.460663 -54.426311 160.456802
-189.359055 -52.319351 122.717812
-181.041138 -60.165081 146.322922
-114.804703 -61.356609 257.645355
-193.097778 -58.586891 138.344666
-180.992249 -57.659603 155.588989
-186.574783 -65.772163 145.477753
-114.093758 -62.243465 263.858582
-112.829849 -53.872147 268.246185
-180.850784 -58.350693 164.058212
-192.330200 -56.952209 145.322388
-202.547943 -57.329403 129.290390
-125.962738 -58.036022 262.016968
-203.001373 -50.610428 135.487503
-203.869522 -59.879124 127.200737
-136.427307 -54.338982 261.533691
-124.892326 -63.355721 286.337891
-200.960495 -52.556190 151.080948
-125.928085 -64.198189 269.378479
-207.391068 -61.079422 143.688171
-128.829666 -54.104095 278.294617
-210.869873 -59.229187 132.624222
-205.715164 -54.234161 150.238983
-204.671173 -60.886227 147.896561
-197.232498 -54.221199 170.886581
-132.612854 -58.078686 279.833069
-132.585175 -59.942806 277.165253
-195.537796 -55.645420 184.606293
-214.049683 -60.586407 146.321365
-184.772614 -57.596321 202.592529
-214.895508 -60.580925 149.534164
-213.802994 -57.617207 141.686447
-134.827805 -57.717331 292.455017
-188.181198 -56.770580 195.426712
-186.179672 -59.713081 203.866943
-213.374588 -61.231869 166.199173
-141.449142 -58.235386 289.817352
-153.276001 -57.632919 272.613342
-153.323288 -59.241657 286.897339
-219.929184 -58.927151 173.067734
-235.001755 -56.496677 179.492920
-162.920715 -57.209503 297.083557
-170.858917 -55.021999 299.899445
-160.986603 -53.969620 296.754333
-252.507263 -60.052380 151.310059
-245.276062 -64.467896 161.888351
-163.475403 -64.080505 297.654510
-245.297928 -60.870449 170.187286
-180.633530 -57.131023 289.005920
-173.474091 -62.830868 286.325073
-227.023834 -55.698284 207.133270
-234.943375 -60.513645 199.768127
-245.039780 -53.336437 183.065170
-246.917435 -61.188736 182.405090
-179.521820 -55.577187 302.075714
-253.065048 -60.224026 161.132095
-258.797821 -56.481186 163.876129
-187.392197 -60.436302 311.276825
-194.781189 -55.869511 312.049591
-187.586823 -60.218853 306.686371
-28.229300 -53.144939 99.219948
-31.338270 -51.269505 95.838249
-13.603792 -63.001476 121.507721
-34.368954 -55.953461 97.656059
-12.414022 -55.406914 131.616928
-57.150639 -58.667633 102.241310
-116.602119 -62.845757 -5.962552
-121.110321 -53.933277 -6.098968
-58.666782 -65.565201 116.328400
-120.316704 -57.996365 1.689082
-126.898819 -51.777622 0.487149
-44.317890 -55.589783 116.247658
-128.647079 -57.396519 5.989905
-50.360207 -59.595024 130.269287
-122.376091 -60.130192 7.474164
-109.784988 -57.039101 45.403313
-125.342247 -53.325336 55.929417
-120.524696 -48.254116 64.927719
-132.539032 -58.624763 56.220680
-127.938118 -55.035923 72.601143
-126.528030 -58.131260 67.613319
-98.882332 -55.247478 140.092056
-136.744385 -54.485790 78.277740
-100.526871 -62.449604 143.386856
-96.735184 -54.911518 147.726044
-102.890297 -59.135426 144.595047
-108.178604 -55.330639 143.996704
-143.196671 -55.449009 80.392632
-99.700874 -63.019642 162.491486
-193.819656 -60.403111 10.437873
-117.870239 -60.330410 152.469116
-155.827744 -56.103416 90.093590
-198.572098 -56.555206 12.547917
-126.754883 -55.445843 142.921234
-141.898056 -55.000549 112.733154
-151.914276 -52.337631 79.278877
-149.590515 -57.862259 118.041168
-116.060097 -57.535080 161.560806
-116.116394 -58.232826 166.486755
-124.079712 -56.522282 162.643311
-152.374207 -61.412750 112.672485
-200.239441 -59.591743 22.308949
-162.417252 -55.305981 94.306160
-145.010590 -57.363636 138.180130
-148.245590 -61.781097 128.539673
-205.701813 -52.807384 28.449614
-210.440903 -57.646458 25.695875
-136.227097 -59.427826 165.492935
-172.324768 -59.853878 98.853699
-144.066681 -57.367630 130.338440
-154.686813 -58.061600 141.303970
-137.447189 -56.687057 159.011017
-167.178635 -56.769665 108.075829
-93.755035 -59.710827 249.826019
-220.883850 -60.874367 29.739988
-176.167023 -58.916851 115.749870
-141.961929 -62.552906 165.748642
-94.596100 -64.065964 249.003235
-94.336311 -58.495121 258.946472
-148.838730 -60.565804 163.643082
-211.775177 -51.706776 41.189064
-146.721405 -66.409294 168.269287
-164.432343 -52.338078 140.841003
-163.803955 -53.896622 142.735291
-178.417984 -57.312271 115.798668
-160.186829 -61.030182 164.323730
-160.615738 -63.820564 148.949493
-225.340546 -54.731697 43.009983
-179.154190 -57.727718 113.929565
-222.991791 -58.855293 45.983204
-91.744308 -52.702995 255.602249
-149.607193 -53.118607 169.392899
-105.963081 -55.837833 239.798203
-178.728668 -65.198120 114.327957
-96.371475 -55.904232 263.337769
-154.975510 -54.641289 165.669815
-159.862061 -61.654896 162.858597
-112.250412 -62.182690 252.629776
-100.122444 -56.748207 256.687012
-186.302429 -64.402863 127.818405
-109.275230 -57.291462 262.326019
-185.242859 -60.950016 123.442619
-233.820633 -54.298901 46.504349
-233.341309 -62.001873 44.288414
-153.168274 -53.802032 196.301102
-108.018143 -61.716225 253.701141
-168.264374 -54.618507 162.869736
-172.058411 -62.353924 153.776550
-175.056229 -62.989574 142.012985
-165.764771 -58.026527 162.289825
-110.630157 -57.126625 262.671967
-139.490463 -53.197132 194.027710
-186.089554 -55.923199 129.659393
-165.627792 -57.910782 165.797333
-172.519577 -60.532215 152.814453
-181.311661 -56.230404 150.493195
-142.912888 -63.645023 221.562988
-155.589828 -61.465214 212.666290
-195.528015 -56.881695 126.233444
-174.271545 -57.696571 156.536911
-236.405060 -53.750916 64.110519
-112.836723 -53.234524 270.116150
-142.361786 -57.663246 208.527222
-146.288452 -50.552345 210.109146
-119.012840 -62.104424 265.529633
-185.551559 -63.083282 140.507584
-204.064133 -52.002987 129.918167
-193.833603 -63.852882 136.508209
-116.555832 -61.450935 274.258331
-190.484085 -59.855171 150.858871
-138.207474 -56.785942 255.509857
-201.703171 -56.980587 136.084732
-197.265671 -50.973957 144.679718
-208.434738 -59.097103 144.943893
-125.018326 -55.703342 274.439789
-126.809746 -56.838097 279.143921
-210.213730 -56.061962 149.931519
-192.759338 -53.666737 169.539886
-187.256775 -58.671623 173.432388
-210.555511 -53.586079 149.993301
-217.705750 -55.303539 151.144150
-191.046188 -63.917686 186.200607
-130.898148 -54.598312 278.618866
-205.096161 -60.659977 166.913849
-185.164261 -59.015148 203.444534
-135.603867 -50.118958 277.041107
-193.536179 -60.191925 198.056290
-176.396255 -60.016922 208.755997
-224.032303 -54.273479 138.258499
-142.824982 -59.102962 282.242004
-144.386108 -59.069088 297.211121
-213.240692 -61.249325 169.192001
-154.058807 -55.897511 280.540955
-156.439056 -57.454708 291.181335
-160.268646 -61.520424 293.038849
-241.616241 -59.536037 175.928513
-231.682587 -60.558434 198.999832
-224.473953 -60.855782 218.122131
-244.581039 -57.168022 190.523392
-181.171021 -55.330162 291.353912
-248.136505 -51.610981 179.402481
-185.038605 -54.472839 280.958527
-224.094711 -57.181587 223.994614
-255.628113 -59.043903 160.079178
-185.983337 -64.620125 282.553406
-252.758911 -67.505508 170.767746
-184.234436 -57.765884 292.832977
-230.309601 -54.999664 208.927231
-235.734192 -51.524590 192.508987
-249.714462 -58.076660 187.275314
-251.800766 -60.709175 178.349365
-255.393082 -61.061291 167.997269
-185.346161 -56.481453 313.841400
-186.774628 -49.916569 301.597473
-199.101593 -58.150745 313.221283
-39.913616 -61.471561 92.009094
-10.143900 -61.791821 133.617981
-51.261196 -51.800087 83.696556
-17.766493 -56.314644 133.226242
-53.598522 -57.339207 79.918640
-116.059425 -57.881077 -11.424424
-106.757660 -55.840935 -6.179152
-56.003712 -58.032021 101.236916
-114.787498 -59.329277 -13.353540
-24.665390 -56.192463 151.913544
-109.858810 -58.395153 5.699795
-113.428223 -52.364853 -11.850416
-50.367809 -54.415699 115.487602
-119.097679 -51.781033 -6.816623
-117.851257 -58.141567 10.034102
-120.963539 -57.668324 2.563861
-124.112106 -54.294155 6.123048
-55.411037 -59.236221 139.360794
-114.308334 -52.868214 32.094307
-106.984482 -53.806377 36.101696
-52.947823 -56.734592 152.374847
-121.778664 -58.291840 41.962280
-118.154488 -62.672668 42.594257
-115.627975 -61.569122 34.871853
-109.745247 -59.750877 50.878559
-57.021603 -53.203091 162.717865
-171.592972 -53.777088 -0.997118
-126.880104 -54.902771 72.842613
-136.790222 -58.604008 70.464981
-178.555389 -56.248428 4.890568
-98.170120 -51.851795 141.899292
-149.165192 -56.623837 68.282661
-142.015015 -59.716747 72.925774
-179.374695 -64.587746 -1.108347
-100.465683 -54.612679 146.296921
-193.048203 -57.735321 3.871135
-151.211639 -58.653255 79.629204
-190.636719 -64.800293 14.085917
-105.959045 -57.303493 147.546799
-118.538574 -56.576954 144.544693
-102.003471 -51.466339 165.738083
-194.179337 -51.788692 19.164053
-123.563416 -56.705055 145.829041
-154.379501 -57.809498 92.955345
-111.914688 -54.617603 168.434387
-159.690262 -57.571133 87.392891
-123.394630 -54.789402 149.369232
-115.774437 -54.158234 170.333160
-116.929977 -60.216373 172.038559
-160.389359 -56.646423 99.054199
-135.305054 -55.567356 140.648941
-139.465149 -58.813507 142.471375
-138.835495 -63.295410 126.751785
-161.944901 -54.294434 101.420830
-158.432190 -64.531502 103.245323
-131.820068 -52.234261 150.266174
-136.962173 -54.769733 145.197891
-133.162125 -49.137444 166.624191
-147.097458 -53.368160 150.379395
-151.900009 -57.166088 139.414612
-139.301331 -60.373177 169.667770
-146.626694 -53.759621 159.567825
-90.707832 -62.659576 262.567780
-149.064926 -56.647228 171.872192
-160.735901 -57.601643 145.146622
-157.756088 -59.844425 144.028137
-102.081367 -52.239372 242.845398
-145.227341 -54.438274 160.650482
-100.436676 -56.698372 261.777832
-155.251144 -60.112514 170.092422
-183.694992 -49.654228 107.875282
-112.238174 -59.129742 249.778687
-166.618973 -56.119827 144.174744
-159.807571 -61.740383 165.979172
-169.427216 -59.460312 142.868896
-190.961655 -61.111126 117.609451
-155.816788 -59.627987 160.256195
-172.998199 -61.575512 145.466507
-175.334778 -51.644547 167.893158
-189.565201 -52.877155 117.398125
-230.928177 -57.509792 49.900620
-142.297806 -49.882988 193.913986
-114.496841 -63.651245 265.391510
-162.056610 -56.555672 166.549194
-227.522690 -55.558796 67.742355
-146.080185 -53.442772 200.534882
-183.747421 -56.213520 144.881897
-177.489639 -60.287395 147.589325
-106.207245 -56.325497 269.443359
-180.275116 -49.168488 136.216415
-191.055206 -59.341434 138.064682
-233.421799 -57.392044 59.169132
-175.062958 -62.163296 163.048630
-229.242950 -57.159870 61.936829
-179.916107 -54.093708 151.172821
-198.031525 -48.738541 121.296799
-185.289703 -60.972282 160.742813
-191.312622 -54.221638 154.589020
-232.975754 -54.420357 73.301941
-201.890671 -56.379578 138.346527
-188.687851 -55.640987 149.586060
-128.634109 -55.366058 266.215668
-230.401611 -53.838341 74.406830
-191.743134 -64.708199 152.957458
-130.490921 -59.444519 264.055389
-211.393936 -59.046963 122.228271
-214.967926 -53.595001 125.420418
-129.408432 -61.262909 259.864197
-204.318222 -57.409096 145.098373
-136.549667 -57.527893 272.288727
-211.152206 -47.905357 126.607368
-131.497421 -54.251389 285.415741
-141.228699 -58.543705 272.876312
-220.183746 -59.052227 136.963425
-220.011566 -58.053654 148.824020
-213.753845 -59.829483 144.752289
-193.589371 -55.682045 182.471527
-211.572845 -55.420063 134.451111
-207.690964 -58.887608 160.385864
-179.534988 -52.501358 218.322983
-182.104828 -52.535175 214.513397
-177.497513 -57.937958 223.282242
-184.209732 -59.712803 216.272018
-146.625641 -52.949718 287.443512
-153.406418 -58.200829 286.112366
-159.955093 -57.631351 265.689667
-159.947922 -49.179611 269.493896
-157.530609 -56.326550 268.733582
-161.225906 -56.815125 280.978638
-159.878677 -60.250526 292.399811
-242.900620 -58.306606 146.192444
-168.139542 -64.689293 300.288666
-242.787659 -65.665520 173.935333
-189.888031 -59.453754 293.331543
-181.077469 -60.522507 281.183563
-252.539032 -58.439960 163.853882
-222.346115 -53.161232 222.620255
-246.537003 -59.210140 178.909409
-216.905334 -53.259701 228.880371
-245.522247 -59.657700 174.828705
-195.027695 -53.832104 276.667725
-210.885254 -63.064453 242.473785
-217.408478 -55.753563 222.320908
-219.409805 -58.827606 234.312881
-182.637558 -59.362907 295.898987
-192.003067 -61.900169 279.909637
-228.044815 -50.990341 220.781464
-182.635635 -55.781315 310.470551
-185.245255 -55.098675 305.831512
-25.352795 -52.466164 111.111000
-11.982016 -56.400547 116.118195
-28.461512 -59.375767 88.667984
-57.435814 -51.815247 82.208473
-101.700592 -55.880413 -3.288800
-102.810791 -56.326355 -8.437133
-103.717316 -50.432365 -0.376381
-49.271500 -59.403191 113.025154
-116.674744 -55.954964 10.469563
-34.243221 -57.342766 152.246185
-109.484329 -61.300354 31.406570
-120.709053 -51.947632 6.524554
-129.095200 -54.816689 0.978231
-124.758240 -57.220177 12.214506
-111.550797 -57.141785 36.011467
-128.463287 -53.256672 -1.035479
-124.774673 -49.667484 27.894737
-51.407867 -62.682316 151.462997
-114.323578 -53.063766 54.034168
-119.621880 -51.794533 44.819759
-111.187469 -52.716774 57.366024
-157.372940 -50.751266 -5.048373
-122.910660 -47.482285 58.799480
-159.480286 -58.680542 -4.969369
-160.822052 -53.366016 -3.270779
-128.698349 -54.937702 66.917397
-162.748520 -57.052818 -11.534575
-98.895241 -55.128395 151.446564
-180.070679 -51.057629 -2.502893
-137.010406 -56.834892 69.664261
-97.016632 -48.723122 144.099426
-93.461304 -53.118023 143.467575
-133.604309 -55.090763 67.295372
-86.502983 -56.012318 159.661362
-89.655045 -54.567486 169.917236
-92.689400 -56.812965 152.802933
-114.706085 -49.128059 143.409424
-109.882385 -57.202091 141.409119
-187.760590 -57.556416 7.238559
-147.041748 -50.026714 75.493576
-98.189392 -59.944649 165.994232
-103.072304 -56.932194 169.424820
-148.577606 -54.622112 90.453453
-153.068634 -62.712307 86.914299
-139.725754 -55.122105 100.449692
-190.911011 -55.372257 3.462200
-149.599899 -58.755272 77.140144
-145.359497 -53.787476 97.786819
-110.196121 -57.635517 169.517929
-138.061752 -58.196796 113.004745
-160.414978 -55.590755 83.427216
-123.583626 -56.394936 134.141754
-132.815750 -51.175282 139.504990
-142.615158 -59.136360 122.387077
-204.328613 -56.505226 24.042112
-150.078171 -66.616669 109.181206
-146.945831 -53.763130 115.892403
-125.268715 -58.501125 172.264297
-163.009827 -55.113121 107.440979
-206.067108 -51.478981 27.920059
-209.449036 -52.623821 21.847412
-125.225197 -58.691044 175.888718
-208.101761 -54.941494 24.507887
-127.980820 -53.048866 159.854889
-169.706573 -58.158920 94.414299
-212.448914 -53.271774 30.023024
-211.917572 -46.791576 23.835640
-149.996445 -62.185585 140.496292
-87.359756 -48.581947 245.291199
-87.908211 -56.479237 253.298630
-212.731583 -59.260498 35.328903
-218.650406 -64.815300 28.658920
-141.260757 -55.062759 146.338211
-137.215607 -53.602558 167.054688
-173.028427 -53.592655 101.720726
-216.013657 -52.925110 28.863279
-169.813141 -59.547024 114.716614
-157.790100 -55.201424 137.658279
-217.834198 -56.436035 32.506866
-97.922134 -54.442146 251.777618
-223.040909 -55.393208 45.107368
-176.568817 -53.439846 116.166931
-110.328003 -54.040192 252.844086
-218.284088 -54.445335 36.975903
-99.283226 -57.887943 256.426422
-152.538147 -54.196064 161.792740
-158.951889 -64.774117 147.451447
-108.816887 -58.982506 245.713470
-223.753067 -55.394657 39.300034
-219.814575 -53.801582 51.101082
-103.711372 -60.192337 262.166138
-170.953262 -56.217003 148.677094
-105.079605 -59.710880 256.015533
-224.925507 -53.832512 48.604118
-177.568146 -57.419430 137.286880
-234.417435 -58.501682 52.669575
-185.628937 -60.382767 128.748474
-185.511932 -48.563889 122.310226
-164.186142 -53.628193 171.159103
-140.727661 -49.741879 200.605637
-167.635529 -52.336693 161.587082
-116.580841 -59.869488 264.731903
-145.569672 -49.984051 205.286530
-108.537117 -56.342342 260.741119
-167.070679 -51.936546 166.082474
-177.851486 -64.192001 159.975784
-184.137253 -59.348907 135.793427
-140.637726 -56.541245 216.245453
-111.344688 -56.943066 258.320465
-138.632065 -50.484581 217.778046
-190.123291 -55.651737 127.850082
-177.254578 -56.981594 168.225967
-185.830490 -56.437157 151.770126
-124.956886 -53.677166 270.666351
-120.052498 -56.095913 273.534119
-180.973450 -52.850891 156.808701
-184.022583 -56.676865 146.484161
-189.905655 -60.764366 138.759857
-181.528656 -49.273354 163.862930
-234.154190 -48.581242 76.496941
-241.459808 -51.394417 66.918388
-190.191742 -53.345604 161.319336
-202.454712 -55.211224 143.413162
-186.772141 -53.577160 151.199173
-204.148392 -62.251034 143.460297
-201.888077 -53.182156 164.677658
-198.264328 -50.947472 175.370865
-208.552841 -55.906090 146.471802
-185.994751 -47.674522 180.852890
-189.362473 -56.785294 196.575623
-192.299011 -52.243309 169.449707
-213.507248 -61.338051 149.372055
-201.931381 -53.569740 175.938324
-185.414886 -48.512104 198.311096
-198.094955 -62.050377 180.080841
-219.839157 -50.015320 148.353149
-194.441757 -57.180664 189.036606
-215.280670 -55.684216 145.380264
-211.816040 -57.876289 145.277527
-192.302246 -58.254436 188.224442
-146.417847 -53.560200 280.366028
-140.586426 -54.937420 279.473694
-177.028412 -57.009888 214.639526
-183.616226 -61.788528 198.811188
-221.844879 -55.436676 144.207947
-184.261520 -57.559696 224.744232
-188.343414 -51.631565 213.765259
-209.199615 -64.416260 173.583481
-186.876907 -54.702271 226.253143
-160.635391 -52.920906 266.550812
-234.316971 -50.276184 145.872528
-160.049393 -56.353706 266.945984
-156.399139 -56.440430 283.148346
-254.904587 -57.574089 153.563141
-164.794571 -58.509365 315.950073
-174.143631 -56.476761 299.845642
-171.355240 -56.290630 299.334808
-231.410080 -57.887623 199.590164
-176.377045 -54.708122 304.452576
-213.782516 -54.137630 231.250977
-237.567719 -56.137627 195.517746
-208.071884 -56.883915 241.251999
-160.560776 -53.354713 321.338440
-179.558899 -53.729084 296.474213
-177.537842 -51.185646 303.641998
-252.875458 -51.252983 168.491104
-192.942123 -52.438560 273.116333
-184.925110 -55.410858 289.974060
-198.989639 -63.136112 258.454956
-218.868866 -56.279522 240.059875
-188.156464 -51.180050 292.349152
-209.472031 -64.931488 246.411255
-222.665543 -60.500511 227.363815
-230.329559 -62.283245 211.233322
-240.305283 -53.335152 203.821045
-254.596039 -56.117374 189.468781
-254.345108 -62.338646 169.753647
-187.289246 -55.010475 294.634766
-189.201385 -52.216278 294.274597
-264.684021 -51.061535 160.945328
-183.605591 -49.842171 319.501221
-187.949875 -54.446159 321.670898
-25.278837 -47.472244 98.506424
-6.122242 -54.086754 126.405602
-40.487347 -58.074375 77.299980
-42.911697 -54.117958 77.558243
-107.679222 -51.869064 -8.431855
-11.612619 -53.392490 144.966629
-52.415382 -56.257313 91.890381
-107.173683 -53.944469 -12.142171
-110.851555 -54.871078 0.753368
-47.336311 -57.244217 106.188293
-119.723511 -48.641338 -16.905045
-38.121563 -51.988720 158.603577
-121.799355 -48.856285 18.385469
-108.891640 -52.359444 24.283258
-47.016350 -59.786118 132.424744
-125.359474 -46.124695 5.927025
-50.933464 -57.534077 150.096771
-141.928085 -49.673786 -5.861047
-118.242386 -55.077385 47.948826
-116.167274 -53.455925 52.337975
-144.214264 -52.233040 -8.839386
-51.198078 -58.631702 166.557175
-153.586761 -61.237164 -7.923956
-126.428177 -59.067028 48.597389
-115.146828 -62.407047 58.313099
-130.004211 -52.508766 52.652740
-137.582291 -56.716064 52.029362
-168.938507 -54.076935 -2.323469
-139.263107 -61.409134 60.192619
-90.432640 -59.930698 143.777496
-85.310539 -51.675045 145.743591
-176.694458 -59.867195 7.142357
-82.950607 -53.881187 160.256653
-94.623268 -59.682098 139.620087
-91.967453 -51.322388 156.323395
-145.854614 -53.758888 75.026245
-187.259323 -46.027836 14.168805
-106.623405 -47.691505 148.466125
-92.909637 -51.206047 162.249954
-105.730118 -54.095375 168.211990
-120.152122 -48.519760 149.253494
-193.939316 -53.418468 8.736587
-190.557709 -54.624928 16.986555
-151.723038 -53.081615 90.992195
-200.986572 -52.656166 19.350796
-107.500046 -58.743954 174.890244
-108.768517 -57.091293 162.878433
-119.451416 -50.081772 165.739822
-108.488579 -50.469513 176.474396
-123.915520 -52.112030 153.085434
-139.030090 -57.908421 111.410469
-151.407455 -58.351372 95.299858
-203.867661 -60.048805 11.318168
-165.150345 -50.406219 85.600319
-121.375565 -58.300476 166.076691
-165.668488 -51.890221 101.406151
-126.612320 -52.060459 167.875458
-129.141006 -53.746510 164.807938
-158.894806 -53.871929 104.856995
-168.477249 -47.040657 106.210114
-143.596008 -55.213638 147.074402
-145.459457 -59.316662 149.120697
-168.976898 -59.323292 104.880928
-168.631454 -48.966904 92.174286
-136.481262 -52.649891 162.763138
-88.319801 -55.251122 250.430984
-89.769875 -52.959930 253.687225
-149.459488 -60.950031 148.278183
-141.780334 -58.826397 168.784302
-82.860069 -61.076916 252.350082
-177.021698 -51.026066 105.761627
-177.905350 -53.070801 111.905251
-147.492355 -56.510933 166.904922
-178.485641 -56.905239 113.350807
-107.331734 -61.406193 256.432068
-220.374359 -51.751919 56.286968
-148.016449 -51.580910 168.022354
-106.998077 -58.568523 245.447311
-157.617126 -52.557316 165.447433
-186.952362 -59.890900 119.217644
-184.405670 -53.840580 115.580933
-178.675476 -52.382610 134.987961
-158.955276 -60.317684 162.991592
-174.409576 -54.821907 147.183487
-141.096024 -63.203396 201.719498
-231.969910 -59.797890 54.298355
-142.669586 -52.484367 210.938736
-197.103760 -54.981251 118.572540
-230.831268 -54.865665 52.547203
-231.089920 -56.626434 54.616737
-115.169846 -61.022320 258.744690
-235.755447 -52.477081 65.185272
-176.888535 -59.628517 152.410248
-189.595428 -62.472363 141.846527
-140.207458 -56.971199 230.131561
-148.833206 -49.037075 223.784210
-194.577896 -50.800201 135.647873
-176.420883 -60.429695 163.033707
-145.991333 -55.986546 223.978394
-235.597275 -52.829475 66.206024
-201.663101 -55.117161 126.983932
-189.188095 -61.317352 152.439529
-232.339508 -55.037476 64.260628
-194.699539 -51.645073 145.685913
-239.236816 -54.398781 74.607414
-189.753082 -52.317768 157.791138
-189.672516 -55.153355 151.446777
-137.691544 -52.788330 257.444183
-136.954346 -50.179340 255.651978
-205.147614 -49.811726 131.401703
-127.301979 -55.331165 262.441589
-193.512787 -55.302475 152.548843
-135.218857 -62.614872 266.974457
-135.718719 -49.468674 254.699249
-204.481186 -54.058090 140.068802
-236.930756 -53.569233 85.919312
-201.228424 -56.996136 167.538437
-234.203812 -50.398216 92.497505
-128.130035 -52.123947 286.008698
-240.565292 -53.599121 95.631477
-211.567749 -53.523113 146.567917
-244.245087 -59.270115 91.250237
-187.769836 -52.117893 182.348846
-201.375092 -54.067379 167.882355
-186.832870 -52.045811 193.166977
-222.255249 -56.608719 137.107025
-221.195984 -53.976368 124.825531
-128.905289 -51.613155 292.559082
-174.580505 -53.461536 233.778519
-179.390137 -59.268848 233.854218
-171.278137 -50.784607 224.852753
-176.195572 -49.736835 243.202026
-180.904053 -52.627384 231.468536
-159.468277 -55.535133 280.314606
-170.463104 -60.786896 269.771851
-144.050629 -63.273605 300.455597
-151.852478 -49.969078 284.967102
-152.248825 -51.398788 272.815613
-145.996201 -50.600979 309.464142
-150.247894 -61.698555 293.099945
-159.086105 -54.285046 269.805206
-152.458527 -53.136787 295.513550
-156.517807 -53.610455 290.363922
-149.687775 -56.665600 301.062744
-149.147659 -53.267796 312.102814
-154.241165 -55.121849 289.185425
-155.445343 -53.248154 308.518860
-167.077042 -57.750561 296.142792
-164.257065 -49.933880 302.446075
-168.565323 -54.783264 310.227905
-158.080139 -56.446640 322.935394
-190.459732 -61.265186 280.078918
-236.169403 -53.489262 195.569183
-229.832336 -55.184559 215.133850
-168.310349 -61.368111 302.554596
-245.020493 -54.627430 181.348511
-203.475067 -59.894756 249.530365
-194.044586 -59.776760 257.698059
-184.950668 -54.344189 275.681458
-194.763351 -53.809578 267.276306
-204.021240 -59.250877 264.570465
-168.139694 -52.903412 303.201172
-260.852020 -57.248562 157.972000
-196.828568 -51.938885 272.472015
-190.284531 -58.247829 268.033295
-225.624084 -54.550922 228.083145
-204.332840 -59.699680 261.902130
-176.673691 -54.693989 311.256317
-244.823914 -54.765629 191.708435
-179.547226 -54.140842 307.861023
-188.147934 -50.393120 286.883850
-172.767899 -48.972088 310.074951
-181.473145 -53.884041 320.115509
-190.061020 -50.842621 312.641296
-180.244995 -53.406731 308.214661
-185.430878 -59.736504 307.925568
-182.760300 -57.919876 301.712158
-197.557556 -51.223316 314.603180
-193.421280 -55.539909 313.898621
-8.649378 -54.593605 109.926201
-21.030031 -48.762527 101.873680
-24.752768 -52.686150 91.913376
-31.205856 -51.461346 87.376930
-108.791100 -54.920700 -12.279918
-99.134987 -50.395397 5.747175
-107.092819 -53.217976 -0.618533
-48.062370 -50.172630 97.497520
-114.942337 -52.284920 -8.774032
-114.905510 -53.960831 -15.019461
-105.961769 -55.145916 10.535827
-101.622192 -53.230297 20.724916
-112.332603 -56.997948 37.108948
-117.659149 -56.799149 39.680099
-104.561134 -59.504654 28.920828
-133.588760 -51.844723 -11.532825
-103.974007 -53.062145 34.246811
-126.968605 -56.778519 16.992510
-114.254440 -53.876091 41.965458
-118.486885 -53.992092 30.021608
-133.806274 -54.766151 5.032250
-139.749847 -55.534485 -6.003963
-46.131618 -54.326668 156.215927
-107.432510 -49.282021 48.798889
-56.712856 -54.028053 163.454010
-125.484001 -58.202374 52.933033
-168.319504 -54.029461 -1.427189
-122.080101 -51.994610 62.974533
-123.890884 -54.459755 63.138161
-167.577484 -54.857727 -2.134182
-168.823303 -58.220882 -5.587605
-133.434448 -51.875282 62.868546
-134.894821 -54.027580 74.640724
-129.452850 -51.548225 81.190239
-183.563126 -53.409218 3.966444
-79.636856 -50.872162 163.170837
-96.655426 -53.605804 136.451981
-181.238388 -56.044731 7.131811
-176.552460 -53.349392 7.747494
-103.947083 -55.959820 150.812378
-98.562073 -59.627956 163.102585
-133.711456 -54.982441 77.892990
-92.139854 -56.267365 173.010071
-143.534195 -59.424843 77.835014
-96.256409 -52.095779 162.737885
-96.944405 -52.082344 169.384720
-109.449455 -51.183529 142.963120
-109.204865 -53.799477 135.906647
-134.693604 -54.207264 99.401077
-192.220886 -53.943005 5.608923
-183.711777 -55.511036 2.441774
-144.307617 -52.551655 87.936066
-138.568253 -48.627995 100.809303
-149.508774 -51.268055 82.104385
-104.701477 -51.356468 160.740524
-125.943665 -50.602184 136.769516
-139.399719 -52.800289 104.982895
-147.566498 -46.173336 94.542946
-158.276093 -52.608650 78.381500
-120.516922 -54.733280 155.120514
-147.161621 -57.579727 110.096504
-200.148804 -50.342319 15.832835
-144.017120 -55.007774 115.523262
-115.323204 -55.759113 182.391098
-201.574036 -53.163944 18.836716
-121.040588 -53.621605 170.747299
-132.859604 -53.445313 139.427551
-119.800079 -54.020786 168.920563
-166.085007 -52.330921 91.949158
-208.179276 -52.416592 26.735609
-142.056473 -50.477051 138.594650
-132.240860 -49.102867 146.236618
-133.403519 -54.405472 148.146317
-78.699219 -58.371025 252.121246
-130.296295 -49.914543 166.954758
-210.987701 -57.037773 30.574003
-97.914726 -46.766171 252.828522
-207.840775 -46.543587 29.538673
-142.392792 -54.204914 138.930573
-217.010910 -59.684464 28.729778
-89.323120 -51.312126 252.453003
-210.788712 -51.287483 33.943550
-220.484695 -51.642746 34.138729
-216.760727 -53.387352 28.155359
-153.735153 -50.934372 136.874863
-178.005966 -55.059193 119.351425
-158.619080 -53.850475 141.237747
-106.497757 -52.106571 249.244354
-109.913635 -55.320877 239.382782
-221.728989 -53.112305 40.505745
-112.179665 -58.894192 249.461273
-225.645370 -58.711876 42.015457
-165.602432 -52.741383 143.917084
-178.755646 -55.872543 124.512512
-155.697861 -58.137093 159.956589
-222.430008 -56.939373 56.734295
-225.046661 -54.103962 50.526569
-188.526123 -51.446655 126.183189
-224.075348 -55.847137 48.594231
-231.652847 -57.734234 57.610214
-177.014130 -56.823704 154.948242
-135.288193 -54.537224 210.760300
-163.711670 -54.554867 163.668076
-178.375061 -54.328773 153.842819
-225.187057 -51.970844 56.955597
-140.514313 -55.359447 205.112991
-117.219261 -51.235371 272.935181
-186.068054 -55.933071 142.917023
-147.488892 -59.687222 219.309814
-178.233139 -52.700661 157.410934
-197.041763 -60.943783 130.609268
-228.082657 -52.148098 71.399582
-178.662369 -49.786499 159.431000
-122.956619 -58.225777 264.020081
-187.281616 -54.925106 147.683853
-204.238693 -44.686996 128.402649
-239.248276 -50.921352 64.412575
-118.364120 -54.540665 282.319763
-227.712143 -53.750946 75.720764
-132.722504 -57.353481 260.204559
-182.263290 -56.500561 160.677536
-203.962250 -53.860096 135.103531
-131.431870 -47.947052 259.525238
-126.126770 -59.260963 276.808563
-234.451019 -59.670986 88.608849
-129.536530 -55.671158 269.999573
-132.530258 -50.706043 265.171478
-116.133797 -45.772476 282.352051
-246.709366 -56.297756 78.649818
-137.012115 -49.439632 263.038727
-140.360672 -50.670971 258.880707
-211.736343 -45.958115 141.626495
-202.378510 -58.519955 159.838409
-124.066582 -58.269676 289.295654
-130.119843 -53.536316 281.810425
-210.006424 -53.107353 132.002258
-119.208832 -56.828556 287.043854
-202.907745 -54.736023 152.393463
-206.643295 -50.051907 152.615234
-131.354950 -59.326744 277.691650
-243.383606 -54.290855 100.542953
-196.223907 -54.315434 174.360367
-129.461929 -51.552097 282.799225
-128.604248 -54.145168 284.879822
-134.225525 -52.473743 297.327850
-217.744415 -60.829609 136.133896
-207.120148 -54.954403 154.524826
-218.860947 -55.745388 139.233414
-182.059433 -53.641582 204.573380
-184.243927 -50.852833 188.316208
-215.973404 -61.693085 149.124664
-240.064468 -57.458836 99.646088
-179.941757 -51.228954 193.430313
-207.385269 -47.994884 157.193466
-139.597443 -50.917267 283.250671
-180.467972 -47.095093 216.116211
-223.252075 -51.940517 139.144745
-137.237335 -48.134380 286.626099
-129.406097 -58.136517 288.348511
-216.440903 -51.830673 140.017426
-137.355392 -54.538090 294.162750
-147.612671 -60.610016 280.937958
-145.968491 -56.049831 286.911255
-132.834290 -53.315804 292.022186
-149.295944 -55.258881 270.942902
-213.112885 -57.239555 174.854889
-144.713745 -49.680531 294.800262
-166.761124 -47.268723 262.840332
-182.138199 -52.496498 241.513535
-160.351669 -56.081291 263.236816
-167.272064 -57.467003 250.889877
-170.771149 -59.865238 249.624084
-176.193802 -54.838402 231.451706
-147.224884 -60.182968 287.357666
-162.969742 -59.241936 254.682510
-153.337280 -50.902027 288.566437
-164.634583 -53.942566 258.922607
-216.418747 -48.571278 178.519562
-152.186218 -57.817593 293.617920
-159.824448 -54.259129 286.455688
-152.841827 -55.026333 307.133423
-232.935120 -54.924675 175.795609
-161.390030 -53.011169 318.084656
-182.365692 -54.550083 289.103271
-207.177551 -52.437462 239.564026
-231.248199 -50.714237 203.831543
-232.647491 -51.077679 196.909943
-192.719513 -53.870251 274.855011
-241.616592 -53.706882 182.557785
-245.169098 -53.844559 163.896057
-259.026611 -54.888611 157.629883
-229.754593 -44.337849 213.218246
-211.584457 -51.475384 238.282715
-194.044617 -48.464596 275.379364
-252.187012 -52.163017 200.868210
-249.426163 -58.611267 184.096146
-192.409698 -56.387856 281.737183
-253.837250 -56.950844 173.916061
-266.083282 -54.677948 161.926300
-260.520813 -51.664989 170.895081
-175.695145 -48.932255 317.617859
-34.704750 -52.816200 20.737295
-30.018698 -50.437119 10.657135
-37.671257 -48.846191 20.692480
-40.411751 -47.290592 18.706520
-40.964622 -51.067707 17.248011
-35.707211 -57.241116 30.252056
-39.511261 -53.711922 25.437658
-51.054585 -48.504200 14.099410
-56.045864 -54.041454 27.093355
-48.217201 -46.517147 17.944221
-50.499584 -47.093975 13.579114
-48.695801 -55.212814 22.060928
-5.749907 -43.958347 136.306046
-38.679016 -55.073212 84.089996
-5.329582 -46.878178 139.322327
-49.822590 -46.745995 84.518311
-103.152908 -58.149704 0.817195
-49.607807 -54.305210 89.179428
-45.129272 -52.119442 106.085182
-124.439140 -53.229664 -9.362182
-126.369637 -55.993416 -10.985608
-106.815598 -50.995380 25.860157
-110.160995 -55.806301 36.333729
-107.936172 -50.766731 31.161119
-47.420681 -47.917728 152.183914
-134.895294 -50.064388 -2.628997
-57.560169 -57.308895 146.039780
-54.063965 -52.170773 149.046799
-134.424652 -44.045799 14.769879
-116.847618 -56.275917 41.755138
-106.475441 -48.593060 55.643513
-120.048553 -55.678314 34.803467
-154.167328 -51.798450 -6.484499
-117.210640 -48.541878 52.202541
-55.010479 -52.557861 163.676880
-159.768646 -53.852230 -1.717382
-159.143982 -52.883347 -4.793932
-131.360336 -51.786064 53.833050
-131.538620 -48.718842 65.243256
-160.901855 -54.272179 3.175964
-87.691620 -50.399025 143.597397
-170.196564 -52.083839 -2.582384
-78.020508 -54.655937 168.907181
-176.850555 -55.566612 -3.148527
-92.603043 -57.281685 138.824738
-176.840530 -52.724377 -2.353067
-143.884644 -50.242645 67.945244
-99.639595 -53.259285 144.339050
-183.624008 -58.943420 -0.812184
-94.303116 -58.095543 163.734818
-135.081650 -58.810295 80.349854
-95.172539 -55.638382 146.116425
-93.230309 -51.073521 170.204056
-144.745010 -53.492943 76.084923
-187.961761 -59.283844 10.085653
-101.301125 -54.742130 166.949982
-138.308182 -51.681103 97.303406
-144.257141 -47.910873 90.899765
-185.139816 -48.388107 6.427577
-118.974419 -58.242233 155.546860
-107.198097 -54.418610 150.252884
-104.707726 -55.564743 166.826828
-190.202667 -49.682320 11.650667
-189.139801 -47.837772 18.774195
-135.096786 -53.275433 94.108635
-102.417007 -55.358696 171.637878
-125.292168 -54.184116 136.886353
-193.342331 -53.025024 22.118061
-115.869019 -50.902779 153.194778
-110.311478 -51.177338 162.136810
-198.497696 -57.870438 16.699087
-110.425919 -56.910240 168.334869
-161.913300 -51.879631 84.125404
-200.384933 -53.665272 20.230143
-127.138733 -58.582668 152.061691
-127.074669 -49.722649 144.443726
-139.716309 -54.074184 132.008896
-78.565338 -47.913521 243.118790
-83.397530 -54.141205 245.547943
-210.641602 -51.656063 24.753773
-213.855560 -51.579166 29.433807
-165.150467 -51.978176 102.660973
-216.178940 -47.921757 31.410318
-169.458939 -52.050377 101.158524
-157.839966 -54.329189 145.420364
-85.169930 -52.502945 256.738281
-167.524872 -49.189880 105.062553
-217.143524 -53.600574 29.887054
-216.070480 -53.411819 36.185921
-140.995880 -52.580437 145.976669
-219.123703 -56.943684 35.528507
-92.602425 -56.553799 259.244904
-89.889717 -55.751530 251.088745
-225.122101 -48.615829 41.146511
-157.610641 -49.397648 148.828857
-106.617363 -56.121185 245.202332
-102.865761 -54.875523 227.340134
-186.642365 -56.913910 108.843323
-101.390587 -55.964081 251.882904
-105.305008 -50.768375 241.255646
-102.874176 -49.850750 251.654816
-222.793304 -48.665543 49.461544
-106.741707 -49.497311 245.268661
-172.899231 -50.975735 140.455704
-164.129807 -51.445244 155.400482
-116.609703 -49.208191 242.886627
-115.722572 -59.374626 239.089996
-223.882690 -46.588512 48.924702
-103.610207 -52.681797 264.240570
-109.583038 -49.479664 259.219421
-171.505081 -48.696686 143.709915
-192.075882 -43.132813 116.191856
-191.229279 -57.285980 125.250648
-167.049103 -57.792507 149.804489
-104.302986 -59.032261 283.216827
-193.572571 -51.083496 121.082062
-225.742050 -47.857533 53.947826
-186.558105 -47.801090 137.976959
-231.067017 -56.022591 55.458569
-171.980499 -48.148602 170.135956
-181.629364 -51.550537 149.223572
-231.798981 -55.643982 64.912971
-128.116470 -51.611683 267.381470
-109.352669 -53.461903 282.831024
-176.498856 -51.026970 155.480820
-141.834442 -50.873016 211.044418
-105.064682 -54.793484 274.010895
-237.731720 -52.816189 63.969578
-205.128525 -54.963169 126.826042
-239.034683 -51.437737 70.559509
-141.851578 -58.483253 231.767776
-113.070160 -50.661308 265.864594
-235.661926 -47.240837 57.725403
-110.807053 -49.364841 282.997314
-117.492004 -55.502224 274.211548
-186.047638 -52.357243 158.412125
-237.600052 -51.558903 74.766502
-140.088470 -51.849812 231.130814
-138.622162 -54.160725 249.217926
-233.356400 -56.816105 69.700340
-129.847412 -54.609173 264.809601
-119.565971 -51.518902 278.466614
-128.389648 -52.350498 276.522858
-192.746826 -55.246262 154.453522
-207.530579 -46.841072 124.324738
-120.681465 -53.037228 273.219543
-202.020859 -57.112404 140.078186
-206.801437 -57.442120 137.229492
-140.676071 -54.030838 253.284607
-241.205948 -53.664371 71.691376
-115.208054 -47.757271 287.242859
-197.501648 -51.038445 149.069656
-138.627487 -45.187675 241.229507
-197.055984 -46.990772 144.745438
-126.808167 -53.612530 268.543884
-135.453766 -52.704605 254.727692
-127.704262 -58.782234 267.967285
-139.788544 -47.160168 247.578079
-191.441376 -54.486557 161.085709
-243.098053 -52.942982 75.870148
-126.922539 -52.328758 260.655212
-130.123215 -50.800152 266.751892
-124.151459 -54.280590 288.762482
-119.018860 -49.041649 278.088318
-122.773003 -50.657528 277.074432
-235.705200 -46.069118 83.414619
-204.643539 -53.008068 151.392242
-241.905457 -52.685352 85.987694
-209.284119 -49.266281 137.838272
-194.282455 -53.554050 169.715118
-205.150894 -53.570648 135.637238
-243.201279 -52.583252 86.961334
-206.554443 -48.503235 156.664764
-193.105347 -52.776562 167.199860
-213.455276 -50.660465 135.449615
-204.099655 -55.250767 166.580582
-213.370758 -51.083462 154.751068
-207.306152 -53.566166 157.492340
-234.906128 -47.765358 101.860229
-184.599518 -51.279732 207.091583
-202.373657 -51.670578 162.021149
-241.540695 -49.811157 114.095139
-228.054626 -44.805180 140.895599
-212.715256 -46.943504 164.212250
-214.196274 -51.273724 165.636856
-227.244919 -52.281391 141.074234
-171.710052 -50.019760 234.437439
-163.036484 -51.190910 260.440887
-167.550232 -53.799244 246.690659
-181.020737 -52.774426 234.036331
-154.285629 -53.761543 281.975616
-175.791595 -60.223469 236.469955
-179.614655 -48.310936 247.624283
-175.964600 -58.086292 253.714859
-172.531342 -55.669693 255.064545
-170.957550 -48.605808 253.988556
-158.052750 -49.407089 281.561493
-248.050903 -54.518703 143.373901
-143.757202 -58.770031 310.265533
-230.554764 -58.053955 180.444534
-154.033127 -57.213764 293.105347
-169.122498 -54.574619 292.059723
-244.108200 -63.433952 170.816162
-181.935791 -50.212807 281.655579
-175.712677 -54.350555 299.860413
-247.754669 -53.407326 161.565399
-224.228012 -54.476795 215.457870
-183.733215 -52.009678 282.808472
-198.921677 -53.181129 252.688950
-226.455551 -50.615849 209.462982
-236.833099 -45.084206 197.606369
-164.947571 -60.047562 317.338593
-193.643478 -50.984165 262.335052
-232.589615 -57.299038 196.491150
-250.706970 -45.147724 166.170303
-219.838425 -52.871693 223.889938
-224.519547 -56.496792 218.618958
-231.824631 -55.028801 209.079330
-244.282639 -54.043846 190.341537
-245.950806 -57.187119 184.175079
-171.530396 -47.626659 316.700012
-206.259003 -58.914833 263.544861
-254.253235 -53.054401 174.427048
-258.001495 -58.750679 168.148499
-186.705612 -51.164211 298.216370
-179.456818 -54.643345 306.036499
-179.218018 -48.607521 316.716644
-186.805969 -56.362919 315.410828
-183.072128 -52.530300 307.228088
-192.942368 -55.190037 316.636169
-23.188656 -55.211533 9.172587
-27.040373 -48.418018 1.821310
-36.991566 -45.704929 11.817748
-40.664650 -48.187576 2.850887
-40.053009 -45.021881 3.247798
-40.245213 -50.382912 -3.207991
-40.224041 -49.186302 9.956585
-42.089661 -50.267262 3.785114
-46.782654 -53.522381 2.756128
-50.733253 -48.640694 14.203101
-53.492851 -53.446014 8.591279
-59.145836 -50.806034 18.621578
-11.088153 -47.220581 107.988350
-8.395366 -51.170906 115.033577
-21.116282 -55.607651 87.654831
-101.107430 -53.701389 -15.494611
-103.721077 -56.196606 -12.764710
-55.079338 -49.961266 96.105515
-55.311920 -55.817741 84.613113
-47.569881 -55.976875 101.486839
-52.724197 -47.884186 114.751091
-102.362228 -57.644447 18.250134
-112.038437 -48.899090 17.246527
-52.867840 -51.292271 123.218910
-104.211548 -51.965374 30.210749
-49.336227 -55.943634 133.745712
-97.357124 -54.665920 32.689606
-131.425934 -52.136593 -15.571076
-111.466164 -47.170044 39.502464
-133.620834 -55.792488 -4.197186
-134.891846 -49.344051 -5.372469
-117.498795 -54.271763 47.637478
-146.880646 -49.166180 -8.000349
-119.556442 -52.555176 46.536495
-147.207169 -51.839386 -3.981803
-152.721405 -43.728725 -9.932516
-119.401482 -53.498341 50.967876
-56.277550 -46.563522 165.997864
-126.471100 -53.094662 51.291508
-159.995163 -53.182812 -12.260255
-121.744003 -50.507229 62.231720
-163.744522 -57.196037 -0.462193
-170.103073 -52.643036 -2.056133
-71.841286 -51.931496 145.515656
-161.603790 -48.541168 -3.861514
-166.959167 -49.310837 -1.948440
-134.539047 -60.867981 63.190811
-94.096092 -49.181103 145.566879
-124.155594 -51.735687 74.731621
-135.052582 -49.762726 64.503777
-81.586746 -54.304588 160.063248
-179.231659 -46.131306 -0.234134
-93.355675 -51.330383 143.426956
-78.930458 -48.542358 169.952103
-91.585899 -59.064793 147.408539
-131.407211 -54.698559 69.673592
-101.811829 -48.914219 141.339752
-178.812378 -52.241867 0.355563
-99.557121 -52.071320 140.156036
-79.274315 -54.610542 170.949738
-87.963051 -53.126278 163.800613
-103.086700 -57.206223 139.881485
-180.734589 -48.128181 3.658561
-97.425858 -51.953705 168.736084
-90.684753 -46.473625 165.029907
-92.597946 -48.489269 166.579239
-89.839760 -51.225525 175.755508
-105.761467 -49.993984 146.629730
-134.157578 -51.002975 89.889519
-132.403488 -56.255878 95.200005
-141.729141 -55.386436 85.021423
-140.610107 -51.573009 81.499504
-141.116257 -52.392193 100.378807
-139.970123 -51.728691 96.252052
-149.173752 -46.241062 80.339569
-147.535370 -52.056206 101.321724
-99.195244 -50.211243 161.971634
-116.519447 -52.733738 146.702209
-143.952393 -51.375046 99.995003
-141.706207 -49.334419 111.969406
-202.932480 -53.434776 15.012190
