# This PCD file was generated using the MATLAB® pcwrite function
# from Computer Vision Toolbox®.
# .PCD v.7 - Point Cloud Data file format
VERSION .7
FIELDS x y z
SIZE 4 4 4
TYPE F F F
COUNT 1 1 1
WIDTH 1419
HEIGHT 1
VIEWPOINT 0 0 0 1 0 0 0
POINTS 1419
DATA ascii
-125.970795 -61.526237 58.843452
-129.809875 -60.026329 59.356712
-137.980682 -56.533039 71.583420
-135.477859 -61.577202 76.165878
-144.280624 -62.335888 81.940422
-128.163437 -58.425236 143.194443
-127.535522 -63.026581 165.045929
-131.778946 -64.633499 165.119431
-135.575974 -59.705627 163.738052
-135.578461 -61.382786 170.192719
-144.604279 -61.395271 162.283676
-145.668411 -60.239830 163.148972
-152.545013 -62.609924 155.062271
-143.580780 -65.803146 168.954163
-98.394829 -59.144382 255.884415
-151.644180 -61.008621 164.261627
-96.251503 -60.247475 259.257324
-97.941025 -59.411060 256.902588
-95.283142 -61.311790 260.913879
-100.293739 -61.905895 257.312439
-101.870735 -64.036110 263.213409
-151.463760 -62.406258 180.893097
-164.419708 -62.764847 162.723877
-110.404312 -64.768295 260.845184
-110.064613 -60.814117 262.277649
-142.149582 -57.647446 201.759232
-194.071121 -58.641674 129.452713
-118.190552 -64.993187 263.406311
-112.758331 -58.464592 267.796570
-118.392975 -63.198639 272.931549
-201.487350 -60.247723 131.437820
-204.589722 -62.665802 131.284302
-206.043076 -59.370178 136.002838
-214.782089 -60.538845 138.391571
-215.791016 -60.748150 141.333115
-217.110703 -61.711624 143.154205
-223.332367 -61.983242 137.674408
-222.231750 -61.792389 138.363861
-223.421188 -61.470261 134.684692
-229.242554 -60.581455 146.791779
-231.737534 -63.850815 146.111725
-226.022797 -61.936581 169.137238
-235.077164 -60.794140 168.055984
-247.999237 -60.961399 158.113327
-248.886078 -57.958176 167.174301
-176.074463 -62.553768 303.043121
-179.593704 -62.578732 305.258484
-182.617249 -58.379650 292.556641
-179.772278 -59.439178 302.562012
-30.129038 -59.019260 113.823395
-37.539310 -62.863350 102.228828
-42.028797 -60.628468 101.804611
-23.950785 -59.145599 132.473892
-47.916550 -58.435612 93.226334
-27.280535 -60.808479 141.882889
-33.102539 -59.602604 147.982437
-50.899540 -59.620102 117.107315
-52.753384 -59.310486 120.670876
-50.547966 -60.157242 124.720360
-50.071194 -60.608521 132.108856
-55.104912 -59.900276 133.608231
-53.042912 -58.797390 131.727951
-56.132793 -60.535625 157.621277
-118.265137 -59.202774 47.325348
-123.919037 -58.270706 49.400280
-126.095886 -61.799549 63.845142
-129.784164 -60.325447 59.430874
-139.753647 -59.848034 70.213898
-133.048401 -60.772736 77.003189
-107.218307 -60.028534 145.080856
-107.430161 -59.448162 144.729950
-145.644424 -59.188728 76.960846
-156.309891 -60.852665 85.221443
-117.068565 -62.480804 145.706955
-151.093658 -59.453121 88.554924
-119.836197 -59.811028 146.449631
-151.571442 -60.436375 93.603371
-124.037277 -57.180458 150.005371
-114.351830 -60.023052 164.666840
-140.505386 -60.296280 119.897568
-116.866592 -56.856125 168.488983
-120.346581 -61.037174 166.398849
-123.030441 -60.858543 170.648499
-147.658752 -58.740986 137.903351
-145.657532 -58.920044 143.016281
-150.668427 -59.074154 134.920914
-145.749207 -59.968582 147.376877
-144.755676 -55.625122 145.339905
-143.809891 -61.748802 147.254913
-151.480423 -58.542263 142.132538
-90.414421 -61.065907 254.123474
-90.511803 -62.247719 249.014053
-152.279037 -61.830151 145.663803
-146.470764 -55.552727 150.202164
-147.662292 -60.475052 156.160187
-143.242340 -58.291058 162.914749
-151.819763 -61.245811 159.897141
-145.971008 -59.528229 169.065720
-102.411850 -59.978004 245.414932
-99.491119 -59.816673 255.565582
-145.914978 -58.854298 172.457840
-151.379211 -62.142227 166.854965
-166.675735 -61.823460 139.130951
-146.397781 -59.533096 177.533752
-168.850113 -59.750828 145.349625
-157.037003 -59.432796 167.018250
-150.664383 -57.165493 175.371582
-184.988968 -60.629955 119.888138
-145.404877 -60.940151 194.206039
-167.868347 -58.275314 160.384262
-150.191971 -61.588291 190.463913
-174.052567 -59.169384 145.800217
-177.726532 -58.894314 146.473160
-191.188904 -62.337708 128.576859
-146.899857 -60.006168 197.515900
-172.082443 -56.791985 162.012253
-142.363068 -62.987778 207.105820
-191.992538 -61.742500 126.536110
-196.729095 -62.123291 124.836151
-184.107956 -60.398243 145.661652
-182.686493 -62.750717 146.123245
-193.175201 -59.971275 134.044266
-192.181061 -59.528412 141.053238
-195.510193 -60.202820 147.472229
-132.562134 -60.438438 264.884277
-131.807358 -62.643009 270.095337
-193.302948 -59.563183 182.472107
-188.697800 -60.842472 179.520233
-187.635941 -57.630737 191.382492
-188.697006 -59.787197 187.417694
-195.958603 -61.522228 177.084229
-189.667755 -58.283916 188.354019
-220.262665 -58.024242 145.597000
-215.775101 -59.650295 155.656967
-218.438477 -60.334110 153.177170
-227.115433 -60.216713 144.276520
-216.315796 -63.835274 162.969452
-228.886673 -60.011353 143.156448
-151.229660 -59.675209 287.004974
-152.258102 -61.261990 294.363922
-235.510452 -61.555767 173.362045
-170.037140 -62.750088 306.415436
-175.264008 -62.805641 294.023254
-170.454559 -62.515324 310.167572
-175.639938 -61.942368 311.795349
-178.141617 -59.950954 306.833649
-187.423401 -56.772434 308.087830
-184.239502 -58.078381 309.108795
-27.030327 -56.607002 109.886719
-26.854942 -56.898399 122.038422
-24.075083 -58.139027 122.056664
-38.227028 -57.221054 154.227005
-46.867954 -60.329823 145.336990
-48.829872 -60.018459 151.580139
-51.293262 -57.742310 162.081116
-115.827774 -59.847332 43.756248
-114.892494 -57.788795 52.328415
-121.855591 -57.535633 46.467583
-124.025726 -59.000237 55.675285
-129.769592 -57.346523 69.354942
-131.163330 -60.798588 65.518669
-129.827484 -60.339657 65.269753
-129.885925 -62.171463 69.875954
-135.842163 -58.615929 64.578545
-137.612167 -59.357822 75.576653
-105.063133 -57.770123 147.275406
-146.246292 -59.340031 77.948494
-144.973099 -59.173092 80.678513
-113.181877 -57.627979 141.865433
-107.351372 -56.513264 148.502228
-147.289597 -57.397106 87.392128
-116.422897 -60.073357 147.419418
-152.205368 -58.288628 85.253815
-116.421127 -59.354195 163.677582
-143.496719 -60.114956 112.402054
-129.758835 -60.063038 142.680832
-125.855721 -59.418350 150.644989
-140.677933 -57.228245 124.189568
-158.924286 -59.720245 99.453217
-148.166641 -60.246464 128.234894
-139.048691 -57.325539 143.071060
-165.861633 -57.694263 99.445320
-139.385208 -59.305611 149.693451
-165.971893 -59.488220 100.194855
-130.137909 -57.516735 163.297668
-131.263855 -57.937729 163.940826
-149.923996 -59.400105 137.937775
-91.904129 -60.205002 251.178009
-145.142807 -56.297150 152.829666
-144.666367 -60.031277 147.622818
-149.973724 -63.190742 142.809586
-171.234116 -57.810413 108.268196
-151.838593 -60.913300 152.858032
-143.243546 -61.302448 161.695206
-156.995377 -60.850838 142.374695
-175.128891 -61.381069 114.285568
-150.490707 -58.072865 171.080185
-153.017700 -59.396832 164.484283
-165.058823 -63.570522 147.304352
-145.882645 -55.624638 175.771973
-184.022537 -59.941292 116.711647
-142.849838 -60.412994 195.927094
-147.949463 -57.814575 185.575241
-184.445450 -57.862923 123.412643
-141.024323 -58.609673 196.965775
-173.395218 -61.446156 144.952957
-151.339325 -57.678276 188.315475
-172.046173 -60.429150 149.790863
-150.952072 -58.417240 198.189987
-144.904099 -57.111958 210.905350
-171.458878 -56.365585 163.426010
-175.616791 -57.664093 162.001617
-173.132401 -57.043007 161.109787
-195.083206 -58.480652 130.745834
-186.077042 -56.588863 148.773346
-190.996307 -61.063862 138.925949
-204.341599 -61.315666 130.537552
-207.140015 -58.543491 128.592453
-200.419403 -62.569912 144.589157
-197.233246 -58.222404 146.265488
-203.915115 -56.325283 145.882507
-210.941391 -60.353760 140.922501
-209.960175 -59.194870 132.873062
-209.745987 -60.086792 141.229919
-191.432175 -60.056099 173.984344
-219.264969 -58.367130 137.644653
-196.615082 -58.364288 177.436646
-223.306442 -60.444199 132.949249
-185.565598 -59.641865 195.969955
-182.335403 -60.836391 200.022079
-216.898056 -60.296917 146.879944
-210.815063 -59.323006 149.740402
-224.717056 -58.380852 131.941040
-143.150131 -63.021534 280.408325
-147.230453 -55.994675 282.193909
-142.612335 -56.592564 289.827637
-146.604492 -57.942619 291.642426
-157.759872 -60.350075 284.686920
-152.793594 -58.268890 293.139771
-152.875153 -57.882492 287.569244
-158.275589 -57.211300 298.527435
-161.856384 -59.258694 299.338531
-243.028839 -59.511944 151.328476
-249.271133 -55.971630 153.607178
-235.117142 -58.068420 171.997833
-171.292633 -62.572289 294.113831
-173.691864 -58.368557 299.138855
-246.073914 -58.514454 165.579529
-178.841431 -57.951015 294.287109
-180.584152 -59.577122 290.678253
-183.622818 -57.481972 293.918762
-179.869827 -58.760406 307.411377
-181.935059 -57.185146 304.754211
-184.885178 -58.116051 310.134766
-21.655731 -57.545887 106.289352
-20.828222 -58.224247 120.593681
-25.802216 -60.024803 109.934174
-30.710331 -54.054638 98.240891
-31.745693 -58.036179 104.052208
-42.607487 -58.058441 92.498871
-18.456923 -58.915005 133.290878
-45.228989 -58.164639 88.229630
-24.464069 -56.791931 140.134445
-52.682205 -57.792698 104.493179
-115.201637 -58.906311 3.517504
-108.738174 -57.950947 41.110420
-50.666515 -61.474106 144.124969
-40.732315 -60.545456 159.190964
-114.743263 -58.673561 42.283134
-117.687790 -57.345249 48.654404
-121.358734 -56.368935 46.873764
-119.569466 -54.900822 52.268795
-121.118340 -58.976009 59.431118
-125.923676 -62.325897 53.048977
-129.210754 -55.321430 60.721092
-133.066940 -56.256664 78.058716
-144.121231 -56.659763 74.205643
-141.590546 -56.168980 75.952911
-146.898239 -55.959091 80.260025
-108.717735 -58.648041 145.687698
-114.230507 -58.538639 143.287247
-104.311218 -58.547203 167.035980
-105.451668 -59.786205 165.209045
-118.734962 -58.786308 144.201218
-114.829659 -55.869762 148.915405
-151.643295 -58.095715 89.155052
-151.217667 -56.789288 85.823891
-108.027458 -58.172516 171.102112
-139.111786 -60.230980 107.897514
-128.300705 -56.146854 142.105942
-156.124893 -58.994919 96.952141
-126.392708 -59.826309 148.482880
-164.064484 -59.657177 95.529388
-158.462540 -56.832981 96.962173
-119.820496 -59.635670 168.605728
-146.262375 -56.564388 132.057510
-135.334686 -58.545956 144.306198
-147.755966 -58.801121 129.447830
-125.476250 -58.541916 170.029327
-167.149826 -56.591808 97.877251
-143.627731 -59.769386 137.279968
-130.938385 -57.733841 172.052826
-164.412735 -55.465858 104.383255
-134.143097 -57.937225 165.263153
-126.615761 -58.520866 169.662094
-142.988510 -57.762768 148.896362
-135.374619 -60.622269 165.338089
-147.619370 -58.511154 146.925751
-173.481232 -56.845932 100.219795
-138.066528 -55.924286 163.206528
-147.620865 -58.623730 146.657486
-170.041092 -59.352600 114.434906
-151.211090 -58.958309 142.271133
-179.192322 -58.149570 108.149033
-147.372574 -56.722633 161.623871
-142.427765 -57.980659 168.618271
-147.651764 -57.479160 164.914764
-157.349625 -59.917706 146.455063
-151.421295 -58.996021 165.637558
-180.004761 -55.982040 119.038086
-152.912201 -59.625908 165.562286
-186.027649 -57.638157 114.638252
-172.297913 -59.787186 146.181732
-160.170578 -60.941875 158.871811
-170.932922 -57.756920 144.398331
-147.149872 -58.721848 190.636581
-188.358200 -54.919464 123.222481
-186.606369 -57.816231 119.263947
-178.889297 -58.390705 144.477386
-171.583786 -58.790356 163.099609
-196.452133 -57.705215 125.496330
-180.867340 -57.851627 142.032959
-115.446663 -56.321690 266.119598
-193.477615 -55.968369 133.791733
-180.000519 -57.639812 162.059555
-188.035690 -56.330227 143.229935
-122.349480 -59.334206 266.917358
-116.279015 -57.157089 273.155823
-183.916031 -58.394913 155.388947
-191.728210 -60.369682 141.242935
-205.892685 -59.690815 128.001068
-126.415085 -57.096760 261.329254
-202.486893 -57.092747 135.308243
-201.147110 -57.851177 128.796204
-134.340927 -60.363800 263.342682
-126.047478 -57.221355 276.308594
-201.475784 -58.402687 145.141373
-131.445480 -58.298828 268.930573
-204.122391 -60.105530 141.123032
-125.020462 -57.904724 279.065277
-213.038681 -57.347977 131.811523
-206.796326 -57.208008 148.883087
-208.441254 -57.644253 152.872055
-196.876846 -55.458523 165.407700
-132.765274 -58.724575 279.197144
-136.134140 -60.541416 276.990601
-192.118988 -57.829937 182.218948
-220.522171 -55.832813 143.548965
-185.707672 -56.042976 207.090607
-215.362045 -54.734756 147.696045
-221.432556 -59.367699 142.665298
-141.308289 -60.269520 283.492310
-187.130630 -57.666615 199.531067
-183.604889 -56.539421 209.219437
-214.038452 -61.120590 163.927643
-140.393143 -57.969601 288.881531
-154.767929 -57.061310 280.292450
-156.511703 -56.886681 278.650024
-218.011795 -58.066647 174.542038
-232.263336 -58.958851 173.749741
-163.117401 -57.035633 299.617950
-164.254791 -59.447258 296.983215
-166.832443 -57.784870 299.469208
-247.625000 -58.128307 154.501068
-249.725769 -58.778957 161.550980
-169.838562 -59.322327 298.476410
-247.816238 -59.717739 168.468842
-179.469315 -56.982800 297.623962
-177.661346 -59.724762 296.697449
-233.751770 -58.764584 206.674911
-234.843826 -60.887627 204.181229
-244.394333 -59.358028 186.812241
-242.958527 -58.606846 184.551788
-179.707108 -57.722546 296.438782
-259.127167 -58.975510 162.976532
-259.749329 -55.366264 163.172333
-186.359818 -57.073128 313.703033
-194.861465 -61.005505 316.251221
-195.132416 -55.769451 311.936249
-24.799496 -59.472683 103.488609
-28.782225 -56.065041 97.466492
-16.946583 -56.665310 115.975868
-36.267857 -55.999714 96.854034
-14.297894 -58.101421 125.608887
-54.828617 -59.526241 94.784149
-115.647774 -58.501232 -1.598952
-115.686699 -57.462254 -5.375099
-53.525467 -58.918228 117.677574
-118.734779 -57.716621 1.334441
-121.282616 -61.430305 -1.400225
-53.072147 -56.612644 123.625618
-119.028282 -58.873398 6.220039
-52.534534 -57.571079 124.675667
-126.253059 -59.259991 1.002681
-113.064957 -58.122910 46.601120
-127.550011 -56.810886 46.141029
-117.457932 -56.292084 62.475807
-132.244690 -59.933468 55.008240
-127.494743 -58.967346 68.473068
-127.776833 -56.927959 66.833061
-96.817139 -57.812592 146.907349
-134.131622 -57.890923 77.080856
-101.727089 -54.894207 140.485168
-103.091049 -57.835270 150.745163
-98.558617 -57.651299 146.677734
-101.632393 -54.802200 137.883011
-142.241135 -59.813511 84.554039
-101.822975 -59.513710 169.348816
-193.453766 -57.001251 11.293365
-114.057472 -54.448860 150.032761
-154.427277 -59.766834 89.174629
-197.554932 -57.439987 13.087362
-125.119919 -55.840065 139.331650
-139.599869 -53.290791 112.590759
-155.608063 -58.765537 81.621918
-144.802261 -57.979794 115.429398
-115.266243 -55.695641 166.167801
-118.701111 -58.060822 171.834045
-124.988342 -57.125877 161.180023
-147.786560 -58.808929 119.243423
-203.140564 -57.830498 17.400194
-165.811905 -57.253601 95.353973
-145.496429 -56.850025 125.960068
-148.189774 -57.520626 135.783249
-208.444824 -56.790142 25.766106
-210.387146 -57.579506 23.568176
-129.961594 -57.858761 166.080933
-168.227432 -57.639034 100.604256
-145.306595 -54.720749 143.274841
-148.111176 -60.659168 143.241364
-137.419418 -56.811909 169.037521
-169.074493 -55.661137 113.266129
-88.576721 -57.235096 249.259125
-216.690628 -59.507687 34.489647
-175.110977 -57.249218 109.957962
-145.628006 -59.438206 167.899033
-96.325409 -54.478897 249.694397
-90.503319 -54.506001 262.419037
-149.954605 -56.945499 167.304047
-219.986938 -56.980137 39.641518
-150.408493 -58.732677 165.284958
-162.768265 -56.805244 143.554291
-163.623627 -58.847279 141.566879
-180.200851 -54.454227 109.703758
-152.748215 -58.212849 162.485916
-161.515854 -54.565849 150.005356
-224.344269 -53.870506 43.137436
-178.901688 -55.532867 118.732361
-220.406540 -57.263210 44.070248
-99.275757 -56.716930 254.893143
-150.422852 -58.622868 170.646347
-105.595146 -60.998299 246.819641
-183.085205 -57.617313 116.419098
-102.312706 -58.626808 263.919250
-154.355942 -55.387798 166.690506
-158.156570 -57.587864 161.421951
-105.954796 -55.921097 254.374649
-106.200546 -56.984432 256.854431
-181.937927 -57.568821 124.042145
-101.419731 -62.831661 263.263885
-180.679550 -59.942959 123.558052
-222.972244 -56.586201 52.411121
-226.683136 -54.878433 51.507187
-146.365860 -56.028664 194.505188
-108.923584 -56.275387 258.332642
-164.991226 -58.872002 162.916870
-173.082718 -57.476643 151.599121
-175.679840 -56.845840 145.306107
-164.382690 -56.978664 165.809204
-108.289055 -57.663265 263.482971
-149.464447 -57.971333 193.074844
-187.160599 -61.880611 132.185593
-169.277039 -62.006702 162.346939
-173.919861 -57.700745 158.301620
-179.231415 -59.890995 146.976532
-141.762772 -54.207870 217.396988
-146.717300 -58.751007 207.220490
-193.338501 -58.014332 126.413879
-176.601028 -58.354675 156.629745
-233.128677 -56.091450 64.117317
-111.021614 -58.118187 269.154236
-143.781006 -58.453094 214.535660
-145.461792 -55.476845 208.251160
-114.203636 -54.967724 265.071014
-188.937103 -58.141136 142.344528
-200.296127 -58.489895 126.300529
-196.829117 -58.742458 140.617981
-120.221336 -54.694599 278.192780
-191.574600 -59.006130 155.241669
-127.744843 -57.112862 261.591278
-203.848206 -58.693195 138.834290
-200.756195 -58.163807 148.589355
-207.402313 -54.228111 143.204865
-131.345459 -61.649349 273.239807
-128.252213 -55.453632 276.202118
-204.643173 -57.173260 144.427292
-194.387329 -60.142052 166.919891
-191.708954 -56.351364 179.036163
-213.980316 -53.716839 144.511246
-210.275497 -57.468941 141.416611
-192.161575 -57.769165 184.344620
-136.895279 -59.159962 279.410706
-201.057693 -57.875935 170.980698
-182.294556 -56.850822 204.759048
-139.675125 -54.971634 281.972046
-188.936661 -58.167965 193.985931
-181.157761 -55.518513 210.264053
-225.673294 -55.440010 139.708267
-150.567200 -56.083954 283.000641
-145.908661 -57.737530 291.209320
-216.419617 -55.478149 171.754181
-155.186401 -61.032345 279.854523
-159.327774 -58.416561 295.150269
-157.358215 -58.990154 292.606079
-244.300354 -57.064754 173.037689
-234.557312 -57.505783 200.005829
-223.655579 -58.633926 220.221375
-243.002518 -52.553158 184.283142
-183.437759 -55.979168 289.081818
-247.002594 -58.577141 175.224991
-189.722946 -55.190758 279.461273
-222.483826 -56.643574 219.529236
-257.816162 -57.396729 162.572449
-188.061249 -59.089794 282.338928
-255.629959 -59.455486 170.784927
-187.421371 -59.488697 291.237823
-233.280396 -56.038216 209.317596
-242.597473 -58.912220 199.578079
-246.051529 -57.919498 184.858170
-252.485809 -55.365757 178.133499
-253.662689 -56.057625 173.052887
-181.017410 -57.740654 315.573486
-189.097366 -56.494640 307.080170
-194.482101 -53.819973 317.468231
-34.583710 -55.643417 90.395836
-17.492844 -54.221104 128.885010
-44.894516 -58.999050 85.673744
-19.008497 -55.427555 137.846832
-54.691093 -54.620537 85.643478
-111.670807 -58.115990 -7.068193
-112.781952 -58.960392 -6.734188
-52.880074 -59.523705 100.200516
-117.344452 -58.306808 -7.958510
-26.058336 -53.658707 152.174484
-109.474884 -54.015625 6.370583
-118.283012 -56.602158 -7.535587
-52.042843 -59.043846 113.088326
-124.485023 -57.140308 -5.528844
-115.349670 -59.829334 9.399481
-121.364967 -59.262066 13.499821
-122.920319 -54.539440 9.936996
-51.686699 -56.079208 132.860062
-111.846466 -56.290764 33.064247
-107.477692 -57.590557 38.473438
-49.122070 -54.814384 150.327103
-115.399948 -54.890251 37.895664
-110.948204 -56.713219 43.199104
-116.606499 -56.248093 36.746758
-114.418602 -57.265297 49.346233
-51.211975 -56.293404 160.397430
-171.025391 -57.982101 -2.458704
-130.600479 -57.118008 74.533356
-134.959824 -60.500282 62.947578
-172.215103 -54.116505 1.773041
-96.952782 -56.661613 143.441666
-144.964752 -55.139404 69.708107
-137.527679 -57.963272 79.348297
-182.036407 -59.429283 1.717502
-100.318581 -54.900036 148.610168
-186.711273 -54.273209 2.782147
-145.017181 -58.296227 78.217567
-188.242950 -56.735672 7.545780
-105.172607 -58.568394 149.929031
-114.000549 -61.279537 141.611496
-105.592316 -57.075237 164.245300
-193.163635 -51.988987 11.585719
-120.441711 -56.967579 141.571716
-148.207230 -57.919422 93.847595
-107.989578 -55.745995 168.598083
-154.406754 -57.119171 83.127106
-120.819054 -55.564785 148.029602
-115.776291 -55.065578 166.564972
-122.205978 -55.256748 165.862289
-162.863785 -54.121532 96.562950
-134.890198 -54.810230 140.493683
-135.918182 -59.182194 138.323196
-147.085754 -55.972443 126.795906
-164.837616 -57.474369 101.385895
-158.950043 -54.294903 103.575752
-135.335678 -56.282204 148.000885
-138.347305 -55.558655 150.470932
-128.530334 -59.758507 167.888657
-143.979446 -56.095791 150.218460
-149.991577 -57.095959 139.058105
-137.925735 -57.194649 170.190033
-146.268707 -58.945377 165.044678
-93.661163 -55.598770 258.915009
-144.593369 -52.202244 169.482925
-156.531723 -54.237133 150.508636
-162.627945 -55.901882 145.633301
-98.326157 -57.345608 247.473099
-151.729568 -57.617661 159.280777
-96.623314 -58.627781 262.599548
-150.912033 -56.648693 171.428528
-180.116013 -56.789536 113.794777
-106.619926 -59.755642 246.727905
-162.755447 -57.009136 142.591904
-156.643356 -59.561413 164.252472
-167.657288 -54.921387 145.784988
-183.959976 -56.955219 117.022148
-159.685211 -54.758579 162.559708
-174.553284 -56.441624 144.129471
-162.923553 -54.127701 163.495941
-193.470520 -56.042084 116.756737
-229.023682 -56.443424 50.171291
-142.728424 -56.252644 200.448975
-110.847534 -53.363808 261.591431
-167.225967 -62.027557 166.631210
-231.835526 -58.932114 59.497429
-146.476486 -57.003849 201.264343
-178.349167 -55.522144 148.974487
-176.124374 -55.134174 150.256348
-113.264473 -60.678131 264.819305
-185.461349 -55.248074 142.297226
-194.845901 -58.397640 132.278122
-235.074585 -55.363953 58.478649
-173.968369 -57.059616 164.958939
-234.224564 -57.705868 65.281006
-184.771927 -57.037880 150.661438
-199.995987 -53.749584 126.073799
-183.649750 -57.322655 158.439651
-193.700912 -54.897270 143.837311
-233.785324 -55.764248 71.282295
-197.879822 -56.369148 139.027740
-194.124786 -56.145061 147.484863
-127.822449 -57.380455 267.344696
-234.856873 -56.261051 75.099655
-192.707718 -56.685760 152.897079
-130.351074 -57.548645 262.558594
-206.508911 -58.680576 130.785522
-206.870697 -56.123268 127.957069
-134.451202 -55.488659 264.749542
-202.484070 -57.025944 140.395447
-130.237442 -57.859451 276.026276
-217.137817 -56.769150 129.349319
-135.634476 -57.661049 280.049164
-135.464127 -54.849503 280.544861
-223.089600 -56.796593 138.030899
-215.761047 -58.852283 144.961929
-211.405441 -53.737648 150.664642
-195.354828 -59.133678 181.709793
-222.420120 -57.331017 130.366974
-209.644348 -54.933601 158.624054
-179.568497 -55.259529 218.886490
-184.894882 -58.243328 208.005035
-180.303894 -55.906673 219.852097
-179.906052 -56.830738 214.369629
-140.370758 -57.956764 286.015656
-147.184921 -56.803036 281.275146
-162.437561 -55.237309 271.017334
-159.311539 -52.967266 277.508240
-162.926865 -57.440861 269.748505
-151.568054 -55.872391 284.521088
-153.861130 -56.629414 294.567017
-242.687439 -59.819489 142.907471
-166.526688 -58.652302 297.382141
-238.505920 -56.659431 177.366638
-180.620850 -55.457520 288.127960
-182.987076 -54.526405 281.883942
-252.979782 -54.612122 166.365051
-222.941772 -57.713902 221.565887
-241.880081 -57.247162 182.557449
-217.576477 -57.174870 228.624100
-248.229233 -57.123238 176.518097
-192.618408 -56.119827 274.490356
-208.224747 -55.798363 244.884171
-221.905258 -57.297802 227.330322
-218.578949 -57.030769 235.233337
-180.111740 -55.037056 299.627472
-191.172409 -56.172119 280.001282
-223.938507 -54.362274 222.079605
-180.502274 -56.507507 307.856812
-184.909958 -58.157837 308.889038
-21.352306 -53.964966 106.601082
-10.151720 -58.026035 118.374413
-28.257204 -51.409958 91.319763
-53.017605 -56.929630 81.744751
-106.293991 -54.015442 -6.667778
-104.070534 -55.620041 -4.134758
-104.215744 -54.089352 -0.123293
-54.948093 -55.785728 107.107788
-112.571526 -56.580906 11.137193
-30.356367 -56.174347 154.418457
-105.691788 -56.444202 30.251768
-119.983025 -56.685314 3.883648
-128.532913 -54.844418 -4.223763
-122.202103 -54.029461 11.741066
-109.075409 -54.308167 38.987621
-126.174126 -58.391888 3.577258
-113.985832 -58.673080 36.560760
-53.965401 -57.917000 155.554901
-118.743660 -54.371445 48.660519
-123.122917 -52.240601 44.453808
-117.464256 -54.621433 56.411701
-161.888107 -55.887714 -7.149580
-123.248383 -56.436367 61.306751
-162.773178 -56.998871 -7.721883
-161.959244 -59.783649 -1.921283
-124.778961 -56.844917 67.686241
-167.698593 -52.965126 -3.837078
-90.751099 -53.695816 148.292160
-179.339386 -52.805233 -2.659924
-131.235901 -51.920597 78.015823
-94.394470 -53.560982 144.909134
-94.214233 -57.786160 144.714462
-139.120438 -58.729332 72.500061
-89.085915 -52.223930 162.317184
-89.429100 -54.077076 166.414520
-100.700005 -53.416508 148.721481
-111.583588 -53.722889 140.444778
-108.938431 -55.554501 142.143021
-186.289352 -53.988438 4.724115
-151.390762 -53.566601 78.262367
-100.686691 -56.827152 164.395172
-100.452332 -56.536533 165.594910
-146.802200 -56.279610 90.733322
-147.469315 -56.932888 84.784973
-141.152023 -56.489548 103.434013
-191.563965 -60.476360 15.075181
-152.736664 -55.786949 85.301346
-137.929047 -56.231186 101.968399
-104.770538 -57.348175 167.822601
-139.751007 -54.341068 110.512779
-157.368286 -56.773903 87.329964
-126.429039 -57.151764 144.774063
-133.396408 -54.618267 136.299255
-144.522141 -55.638638 121.088646
-203.095627 -53.951111 18.312405
-145.367874 -55.274693 118.271217
-145.406921 -58.042171 120.225151
-121.252808 -55.656258 168.803299
-161.662582 -54.786381 98.848282
-205.908875 -55.597492 25.889219
-209.453644 -55.053200 22.390976
-125.810966 -54.929745 170.333099
-205.628830 -55.547371 25.743933
-127.341293 -56.952625 163.612747
-166.215057 -59.072430 95.384834
-212.457596 -54.164665 24.097654
-209.828629 -57.078686 22.109234
-149.672943 -57.689835 137.275681
-89.320450 -57.285469 249.341125
-88.801231 -59.283138 250.607010
-213.571960 -53.914024 34.434654
-218.898666 -55.435005 29.936190
-149.068741 -53.961636 148.699875
-140.674667 -54.634308 162.289459
-177.067017 -55.076088 103.073364
-212.957245 -58.544281 33.573387
-174.036011 -56.456657 114.789467
-160.739288 -54.136940 138.822403
-217.119934 -60.669884 33.595280
-94.142845 -57.163654 251.362595
-219.278458 -56.505489 40.925491
-180.674820 -59.051197 111.727791
-103.360001 -52.792938 242.222092
-221.763763 -57.441647 42.065498
-98.399902 -57.667633 260.978058
-151.113083 -55.809013 169.146683
-161.732727 -57.595646 150.965378
-107.829018 -57.450333 248.140320
-227.899078 -52.895378 41.066597
-222.789734 -55.127472 50.385242
-103.378395 -53.819458 263.261017
-167.626495 -56.967838 149.754333
-102.865028 -52.844360 263.794922
-225.155624 -54.290691 50.076679
-173.148361 -53.337337 140.107162
-226.250885 -56.319515 52.183556
-187.167236 -55.044758 126.132851
-183.786331 -56.021633 127.851120
-164.840546 -57.030888 165.362228
-143.164658 -52.639233 202.337448
-169.012451 -54.225876 154.536713
-112.746193 -55.460495 260.630524
-143.845428 -54.147011 205.433823
-107.957581 -57.456905 261.719452
-169.584778 -56.477592 162.757874
-172.175400 -55.597881 160.898453
-182.066620 -56.345612 143.538605
-137.947067 -57.896957 219.088577
-114.168221 -54.676487 270.201172
-141.412933 -53.722000 219.113205
-188.813828 -55.142868 128.632324
-178.873474 -55.216839 160.193573
-184.696945 -54.729019 153.380737
-122.774849 -56.979027 267.570282
-117.138840 -54.124355 272.612946
-181.534195 -51.559715 159.573257
-188.208420 -52.346664 142.949738
-195.180847 -56.097816 139.777237
-184.722717 -57.679260 162.453705
-234.721588 -57.374798 76.069839
-236.229340 -54.034492 74.898140
-187.956100 -53.423107 158.719269
-200.506119 -54.468288 143.032898
-193.945267 -56.912167 156.100052
-199.659378 -57.446537 149.477615
-199.129059 -52.307556 161.524948
-192.171097 -55.900532 178.854340
-206.137680 -55.223095 149.980194
-189.194855 -51.466457 179.998367
-182.476501 -54.721249 190.455673
-198.896927 -57.889191 170.375092
-209.260254 -57.165668 148.629059
-198.605209 -53.654152 172.696014
-180.454437 -55.855930 204.044312
-191.276443 -55.225922 184.643021
-212.908005 -55.413754 148.490631
-190.441742 -51.756729 186.079559
-217.305420 -55.930344 140.617325
-216.687790 -60.211872 147.871704
-191.132904 -55.351910 191.340408
-140.219604 -55.905270 282.825348
-140.545486 -58.045158 279.609589
-176.625732 -57.920662 217.731339
-188.597153 -58.114319 204.575623
-222.743011 -57.135754 139.326263
-175.696243 -51.728088 225.850601
-186.956970 -55.098911 210.278397
-211.196442 -56.098484 164.692871
-178.985611 -55.534843 230.090637
-162.703461 -56.647804 266.518890
-233.553894 -52.953655 139.373672
-156.159317 -54.932163 272.680237
-154.601440 -54.653923 283.714966
-250.220810 -57.751858 156.388962
-158.474167 -55.551678 311.013367
-169.296280 -55.897388 302.019501
-171.311066 -56.128513 295.401947
-232.004364 -56.639797 201.364380
-175.939117 -54.437881 301.624908
-214.658447 -54.122791 230.570663
-234.049911 -58.185593 192.273926
-215.022018 -54.046978 231.798737
-168.064529 -56.196526 314.788910
-178.869995 -57.076195 294.412720
-174.311005 -57.041889 303.388672
-251.375916 -53.534672 168.455322
-191.443451 -54.149380 272.917542
-183.073090 -57.845921 291.493591
-203.484161 -56.797722 256.953827
-214.319855 -53.921436 238.624969
-183.806671 -55.672165 291.266724
-210.216385 -53.704197 245.759415
-223.063629 -53.614540 229.231339
-230.713943 -55.527344 210.400055
-240.165298 -55.799786 198.143448
-252.237701 -56.338051 180.739426
-253.286865 -55.839699 174.370895
-189.306335 -54.785652 294.096710
-192.847916 -53.102539 287.337585
-260.030853 -55.712635 165.965424
-184.905426 -57.076435 316.649139
-192.770355 -55.796638 321.282288
-22.481224 -59.979759 98.867302
-10.035138 -59.937241 122.520203
-38.556629 -53.859215 82.950729
-47.590885 -55.084496 78.566559
-104.304337 -53.617390 -9.230535
-18.218678 -56.562851 142.916168
-56.569077 -56.235207 90.116234
-108.707008 -52.867035 -5.750664
-106.537041 -53.022007 6.386847
-52.213688 -57.929688 112.912392
-124.403893 -56.845242 -9.206849
-35.415718 -52.382084 159.156586
-116.819504 -52.150131 14.143788
-110.661728 -49.819252 27.636459
-51.657764 -53.910400 138.251114
-130.109756 -52.421902 6.922898
-46.221539 -53.969307 150.343719
-145.553955 -53.914116 -13.487392
-120.176064 -54.122887 40.524887
-115.554077 -57.509750 52.849747
-147.822708 -52.576584 -7.467798
-49.804859 -54.886665 167.761658
-151.975708 -53.707832 -10.668900
-125.055031 -53.566853 51.357166
-118.785065 -52.693684 55.809093
-128.377884 -58.799408 53.581066
-129.862518 -56.393856 54.423012
-165.395279 -54.444008 0.565605
-129.693192 -54.121788 58.189762
-89.241531 -53.808834 142.054840
-91.867584 -56.382744 148.873825
-177.614883 -54.668606 2.013057
-85.511795 -55.893425 165.924927
-98.727737 -51.904514 142.513168
-92.945610 -52.849701 161.565613
-144.579346 -55.002415 73.579979
-190.609146 -52.799187 5.894518
-108.906708 -54.631691 153.224472
-100.727837 -55.429291 165.074081
-100.337845 -56.089523 163.587936
-113.664864 -56.767536 149.267700
-193.353912 -54.822979 11.539833
-198.278732 -53.055084 11.182158
-152.913559 -58.210510 91.513901
-196.058380 -53.790802 10.648210
-108.773476 -58.997681 167.745514
-107.311211 -54.735031 168.013672
-109.412918 -55.493233 163.310974
-111.918465 -53.187878 171.552200
-122.425529 -54.293880 152.003433
-144.484634 -50.717224 113.661987
-153.759781 -54.205841 99.232346
-203.223206 -54.536224 17.913498
-161.798996 -53.834080 93.933426
-120.543465 -54.068306 158.706512
-159.370102 -56.879501 102.500671
-123.867378 -54.514324 170.913620
-128.117157 -55.123104 164.986862
-165.774918 -50.930893 108.050934
-167.121109 -52.552345 105.658157
-145.477753 -55.482605 138.345703
-141.178497 -53.521076 148.667343
-170.551529 -58.443859 100.275230
-175.526947 -52.754425 98.735519
-133.574936 -54.665386 168.940887
-89.532578 -56.486416 248.676102
-87.910614 -51.733765 249.426636
-146.218628 -54.780064 155.525833
-142.204529 -55.699730 165.225632
-93.961273 -52.895641 254.070007
-177.065170 -53.056351 106.378128
-182.399643 -55.953732 111.748772
-150.057144 -52.904804 163.894379
-177.149536 -55.522663 115.605240
-100.577530 -54.707508 247.813385
-224.225906 -58.074883 49.175152
-157.270264 -55.513359 166.509338
-101.621262 -54.479458 254.592422
-159.198105 -52.581608 160.458801
-188.269241 -55.407440 119.844124
-186.544952 -53.611240 117.585701
-173.686798 -54.904087 140.982513
-162.295212 -56.258228 166.249680
-173.101654 -52.623566 148.404266
-143.582474 -51.739372 203.266220
-227.648407 -53.262497 56.355545
-141.165741 -51.488739 210.132492
-192.883377 -54.778786 119.298462
-228.451935 -52.187225 61.997490
-231.368927 -54.150539 59.855408
-113.741158 -53.245556 263.947693
-232.661316 -51.628368 59.141651
-183.181763 -53.558430 149.047577
-188.782715 -53.435505 141.269089
-141.118774 -51.227905 223.117233
-145.620941 -56.514153 218.629227
-194.309387 -52.994419 135.833069
-179.133011 -54.426365 158.329483
-144.460358 -52.290043 227.449966
-233.893570 -51.129215 64.674408
-200.996292 -54.907185 124.626472
-189.219574 -52.773819 152.088165
-235.080505 -51.653954 67.317833
-195.601929 -54.923702 139.347260
-235.312027 -56.004444 74.079620
-187.009583 -53.585899 153.329910
-192.850647 -54.427769 151.462204
-127.253967 -57.155064 259.896698
-133.345947 -54.195244 253.377548
-208.090652 -54.686642 131.873810
-129.284241 -52.108421 265.774323
-195.046158 -56.913914 152.112610
-131.635269 -54.239574 262.493347
-134.882080 -57.673244 251.447525
-202.483673 -53.107136 137.942200
-238.111099 -54.265480 89.958778
-198.370239 -55.819050 166.954788
-240.415695 -56.338776 84.390350
-130.589615 -56.276718 289.753601
-238.444855 -54.131676 93.794060
-206.598404 -58.451778 147.838669
-242.484055 -52.217110 94.798668
-192.065750 -56.588829 180.384323
-199.418854 -55.826172 171.178940
-185.481949 -52.334797 194.606277
-223.063248 -52.610687 137.423477
-225.033752 -55.554211 133.341614
-132.597122 -53.228512 292.653076
-175.759338 -55.687000 229.338486
-178.417618 -52.394611 237.105652
-181.486984 -52.820576 227.203934
-176.084427 -55.733658 241.126038
-180.295013 -54.208832 229.351074
-152.858337 -53.886711 274.166199
-166.310776 -52.457878 266.355804
-145.552505 -53.406487 299.665314
-153.045929 -54.994316 288.525391
-163.012009 -52.306282 280.097137
-141.731445 -53.738171 303.488556
-148.538177 -55.658009 294.242432
-164.902008 -56.077694 269.601685
-155.617218 -57.228077 291.607941
-155.848709 -52.722404 288.119812
-150.255966 -54.253502 304.325073
-149.232147 -55.342533 306.333282
-154.462067 -52.428577 293.715912
-158.514526 -54.076008 311.304657
-162.874527 -57.579243 296.960724
-162.270004 -53.263855 299.455383
-167.181213 -52.805031 303.410339
-159.948151 -54.392853 317.120697
-183.564743 -54.476593 281.796570
-230.985245 -56.463486 198.865341
-226.653244 -53.348427 212.758118
-170.314835 -57.363827 307.132507
-240.507935 -55.432129 182.120758
-203.910172 -56.851276 249.526688
-199.988144 -58.896942 260.892212
-186.746643 -54.349174 283.568604
-194.404556 -57.397572 271.244324
-199.444809 -54.541485 262.162445
-178.053680 -51.463150 303.214508
-261.821259 -57.588078 157.493134
-199.631027 -54.169983 276.720306
-194.017136 -54.801701 273.616791
-222.117615 -56.604671 226.104553
-201.593719 -52.877758 264.928314
-176.995636 -51.653530 308.766113
-245.961945 -55.659542 189.111572
-180.326462 -54.166302 303.264038
-179.355530 -55.262627 295.709869
-173.794724 -52.519367 314.416809
-178.016129 -54.618950 310.478302
-182.008209 -54.426437 300.677246
-182.101578 -52.605671 312.156647
-186.055237 -53.155704 304.160950
-190.376862 -55.978825 304.300690
-196.624451 -56.659431 311.365356
-199.385590 -51.974110 312.298645
-17.130186 -53.729725 110.379219
-19.211308 -56.679543 98.512680
-23.530287 -54.453056 92.127907
-30.847677 -54.278732 84.680397
-106.310272 -52.604683 -9.384685
-101.804085 -54.543186 0.249084
-105.959221 -57.324940 5.370706
-49.521076 -52.008274 102.002617
-115.273331 -51.485657 -18.079645
-120.078148 -49.484287 -15.508355
-105.346146 -53.034115 11.500644
-104.161354 -52.934235 24.620184
-107.952698 -53.463772 28.181372
-104.613045 -52.049904 35.036674
-110.026070 -51.906303 26.661697
-139.747055 -53.995693 -11.822717
-107.596581 -53.947453 40.377666
-123.840889 -55.671410 15.304900
-113.015625 -55.477108 40.268597
-115.696320 -52.892838 33.064434
-131.574509 -56.166733 0.766378
-144.307007 -53.434383 -10.716868
-45.173100 -50.500370 164.833679
-111.289009 -52.309433 47.475029
-54.183853 -53.196602 161.430847
-122.735069 -52.840145 49.304287
-160.656357 -53.259464 1.654741
-123.660858 -54.371723 66.530182
-125.001457 -56.834068 63.642754
-164.247269 -53.611286 -5.048462
-170.734863 -50.957752 -4.113937
-133.710754 -53.582138 62.050472
-127.868484 -56.331413 70.737610
-129.535110 -55.580997 75.501106
-172.145187 -55.349312 0.858651
-80.766365 -48.537388 163.483627
-98.555405 -54.786121 144.707062
-184.785690 -51.452358 0.611145
-174.494217 -54.875183 5.142442
-102.799316 -53.314899 140.768799
-99.535408 -56.202549 146.967468
-138.746552 -52.570290 82.915848
-89.729050 -55.120335 169.384491
-145.849884 -55.213005 75.009888
-93.762306 -51.228951 165.650497
-93.777710 -54.566219 168.122742
-111.581161 -55.089355 140.717026
-111.433495 -53.662937 142.834595
-138.456848 -54.881947 97.089737
-187.190506 -50.652943 11.048255
-192.086563 -54.294880 7.355289
-146.868988 -54.003689 86.926567
-141.145004 -55.932911 95.618927
-149.993973 -49.442776 84.848991
-102.475388 -53.493889 165.507385
-120.923386 -55.341347 136.681030
-144.385818 -58.211254 101.184692
-145.676743 -55.327972 94.011475
-154.916534 -52.273159 84.772263
-123.313423 -53.846554 147.963211
-143.316422 -51.698101 114.740311
-202.395569 -57.042965 17.939308
-143.674454 -52.294598 116.767937
-115.159569 -55.514366 172.742691
-204.052658 -53.582680 18.509953
-114.889381 -50.526649 172.043533
-134.655441 -52.641602 141.486023
-120.522293 -52.848866 164.678070
-165.699951 -52.465801 93.953255
-204.043457 -53.459267 18.480543
-138.824615 -51.525494 136.722061
-137.427155 -54.812817 149.991837
-136.788162 -56.467468 151.801605
-82.534485 -53.567932 249.875580
-126.241264 -55.230457 165.054672
-211.927582 -54.796478 26.658810
-84.867882 -53.831131 248.283829
-211.161606 -53.036877 26.871193
-144.381943 -51.774662 141.124023
-214.582825 -51.839180 25.284771
-84.713638 -50.741962 253.236191
-215.215469 -50.899063 35.616962
-214.247360 -56.132011 33.737934
-218.041397 -52.827255 36.015533
-156.206818 -53.340912 141.912094
-175.280258 -57.943623 113.842514
-163.788315 -51.689945 139.000671
-107.389084 -54.758144 243.847885
-111.522575 -54.357170 237.328018
-225.214798 -54.928223 41.872288
-108.068413 -55.289513 244.866898
-221.298889 -54.239296 43.920223
-170.741547 -49.527599 141.706635
-184.198380 -54.654205 121.745079
-160.408554 -53.408653 163.696762
-224.696289 -52.535393 54.937408
-225.453308 -53.701294 46.646675
-184.794052 -54.569313 129.206497
-223.864075 -53.938316 46.720093
-229.543091 -52.841068 55.119045
-173.966827 -51.697796 153.314362
-143.357574 -52.269009 207.385147
-168.013138 -49.907490 169.240189
-173.189285 -52.859432 157.327164
-236.201675 -55.542686 55.827686
-146.883301 -52.884445 209.881180
-108.622810 -51.972279 266.355255
-185.038910 -54.063221 145.682709
-143.082230 -53.106552 219.083282
-179.779694 -51.949894 158.758530
-196.523712 -56.602993 132.036118
-228.707169 -54.276554 67.493408
-179.125931 -53.624298 160.145462
-122.445900 -52.734829 269.815826
-189.426956 -55.176510 153.254852
-202.335541 -52.923923 128.799637
-236.621353 -55.922298 70.393486
-114.053856 -51.979336 281.906006
-231.403870 -55.859024 75.828400
-128.207703 -51.786552 258.766907
-188.477341 -54.988899 161.359497
-201.463593 -53.685116 136.514526
-133.681183 -54.358772 258.645111
-120.055824 -52.805794 270.855255
-236.178116 -54.746067 81.991020
-128.354797 -54.813614 269.807159
-132.185440 -52.205303 263.457245
-122.516052 -55.578602 279.567993
-237.451477 -51.053459 81.330627
-137.503662 -51.740669 262.454437
-139.544693 -53.609295 255.230942
-207.363632 -53.000809 137.554520
-201.748703 -52.674702 155.184464
-120.892632 -55.081451 288.361359
-130.382111 -48.853607 279.395264
-211.187592 -51.853745 134.892761
-121.066055 -52.855415 288.928894
-203.794739 -58.677460 151.987305
-202.863602 -55.453030 151.140106
-130.590805 -56.139309 273.498566
-235.585831 -52.726032 96.224281
-195.597275 -52.054874 170.713440
-134.518478 -54.787342 280.937439
-124.168335 -53.862904 288.515259
-127.962517 -53.182293 289.821381
-218.063263 -54.327808 138.278824
-207.858170 -54.434628 157.891815
-220.000580 -53.276196 132.026260
-181.668182 -52.988350 205.968765
-188.044601 -48.429134 192.269547
-216.151733 -51.723579 142.946884
-242.183548 -51.162155 98.511589
-187.300293 -53.059807 194.569794
-208.021118 -51.407028 152.875687
-139.629547 -56.306412 282.576050
-179.116043 -52.802891 211.006729
-220.073868 -52.931343 139.431107
-136.952652 -54.460545 280.985718
-132.045578 -52.403347 294.906403
-219.867767 -52.121719 139.191895
-133.639709 -54.749870 299.358887
-147.487274 -50.500427 281.842041
-145.870834 -53.317272 286.516510
-138.734711 -54.664787 293.390533
-151.580734 -52.936497 277.197235
-214.858627 -56.364315 167.920532
-143.648788 -54.710499 295.391968
-164.141846 -54.510429 259.116638
-177.159927 -52.806229 239.170624
-159.559174 -55.408905 266.381866
-168.901611 -53.146481 248.767303
-174.311218 -56.534431 241.885391
-177.557114 -51.137474 237.031754
-146.656799 -51.804016 290.709961
-169.742905 -52.450249 257.715576
-151.942123 -55.538303 283.384094
-167.202530 -51.231220 260.954712
-219.712204 -53.955341 172.819733
-149.926682 -56.132355 293.541016
-154.508560 -52.907505 284.743927
-145.364120 -51.306953 307.014893
-232.525864 -54.787106 174.154312
-161.285614 -52.005211 315.515564
-179.373535 -52.875381 290.171021
-213.060425 -57.203289 235.922043
-228.120621 -54.076027 200.247131
-235.256317 -51.994808 197.364151
-191.904922 -54.462818 273.600830
-245.023575 -51.589256 176.344864
-254.395584 -56.833622 167.589569
-255.601959 -50.097439 161.672333
-230.229965 -53.626652 213.688690
-212.021240 -53.511650 241.993530
-195.117966 -51.620090 269.899719
-242.972687 -54.115307 190.617661
-247.026627 -55.078892 184.951889
-196.533722 -52.091919 280.388123
-256.523407 -51.593018 175.714661
-260.903076 -55.550430 161.619461
-260.951904 -52.282360 164.454651
-180.536652 -52.709290 313.877563
-26.413200 -52.700134 16.432453
-30.794767 -51.165977 10.510580
-29.187902 -52.562786 14.594404
-30.693531 -50.915039 25.315113
-36.063663 -54.498711 20.822790
-37.806252 -56.563004 25.958368
-42.584106 -52.440308 23.425694
-50.102077 -52.811298 11.713605
-44.631592 -54.262234 26.837914
-46.662647 -53.175545 19.884077
-50.365654 -49.760151 14.656149
-46.857388 -50.649776 24.930901
-8.840794 -49.854553 133.615952
-39.096249 -54.073196 79.033562
-10.953030 -49.840675 138.761917
-57.266270 -55.461369 80.340164
-100.978409 -52.572575 3.762760
-54.025043 -54.124950 90.191925
-52.119942 -51.762138 109.795586
-122.843651 -54.330563 -12.988430
-132.203537 -49.924168 -9.377234
-109.846634 -51.981331 24.353134
-108.659714 -49.695747 35.204475
-116.312157 -50.074116 28.087360
-44.517574 -57.002789 147.016830
-134.583344 -53.863495 -2.633327
-54.979736 -54.217606 141.274841
-54.066463 -54.297699 143.778214
-128.272415 -50.192215 14.616387
-115.172523 -51.874386 34.640530
-115.680977 -52.593719 45.188194
-120.709480 -52.483093 41.168961
-151.646194 -51.886440 -9.554615
-115.073952 -53.235104 50.718285
-57.538921 -52.293545 171.700592
-161.376953 -54.711094 -10.128979
-159.469437 -52.682106 -8.179273
-123.478226 -53.788589 54.948780
-130.215302 -53.249279 56.175545
-166.694595 -54.269314 -0.768867
-87.397018 -50.204895 143.714752
-171.074615 -54.955090 -2.735866
-76.317886 -53.381664 164.309937
-174.918015 -50.829216 -4.432721
-92.020889 -51.557293 136.460159
-173.964417 -54.991455 -0.908457
-138.114670 -53.633579 69.685768
-100.894012 -52.796303 138.782440
-182.784332 -53.628380 3.826703
-89.581612 -52.599609 163.095642
-137.191437 -53.465027 78.171059
-100.497963 -53.711292 149.957397
-89.287338 -51.822533 165.939499
-143.052475 -51.077629 76.377068
-185.902481 -51.396088 10.760317
-94.519424 -51.550461 163.784851
-139.528717 -53.132744 97.040039
-140.082733 -52.125656 92.571907
-190.105225 -54.769878 8.173948
-108.167831 -53.113022 154.826538
-111.564224 -55.629524 150.874908
-106.170685 -50.741364 164.654022
-191.693237 -52.816204 7.649962
-193.018250 -49.245869 9.978878
-141.770584 -51.478394 96.867821
-101.710587 -53.620445 171.826523
-117.720612 -52.375988 141.018219
-194.468460 -52.479404 16.548201
-117.328316 -51.826195 151.567734
-110.009575 -51.255966 163.048233
-197.085678 -52.574486 14.947200
-108.965454 -52.741180 168.019897
-158.001175 -50.104954 89.346207
-200.205872 -51.743980 19.932331
-125.533989 -51.606594 151.046204
-128.904861 -50.988312 151.986877
-135.468826 -52.130577 134.884430
-76.521095 -50.360924 247.083466
-79.578674 -54.052490 239.139633
-206.658463 -52.767643 26.255535
-204.574844 -52.970589 21.613520
-167.265701 -53.077412 105.188774
-212.905136 -50.895863 25.555140
-173.147690 -52.913776 101.646652
-150.047241 -54.869297 139.394638
-87.705025 -52.349072 248.997406
-169.853775 -51.754166 111.444298
-215.801102 -52.168148 32.614746
-214.862686 -53.096291 31.664787
-155.321548 -53.869991 150.549545
-218.520721 -52.500416 34.097919
-92.274185 -54.174797 256.409637
-94.011604 -50.808029 253.556747
-223.836929 -53.782188 36.202145
-156.681656 -52.629898 150.360870
-105.287064 -50.862087 239.092331
-111.209778 -54.693062 234.418823
-182.080368 -52.294373 108.528000
-102.736450 -51.938976 250.720642
-106.158485 -50.579342 243.942902
-102.693375 -49.976486 250.438782
-222.229980 -49.969048 44.097870
-107.351440 -48.352085 244.065338
-169.120651 -54.988186 140.063751
-166.720352 -54.192734 147.378754
-107.587509 -52.009319 246.688980
-115.008797 -55.149353 237.701248
-224.520798 -55.033558 45.092018
-102.584747 -50.472446 265.916016
-105.169083 -53.320313 259.627258
-173.392075 -52.188080 145.206039
-188.520447 -53.156120 119.510002
-182.255386 -54.946571 123.929710
-173.925751 -54.834660 151.405685
-100.482529 -50.835735 276.316406
-190.183395 -50.221016 117.895813
-227.806656 -54.053337 55.647976
-177.674805 -53.656361 141.564545
-229.676910 -51.625156 55.601551
-167.397156 -53.240726 164.091171
-181.824905 -52.873283 150.692307
-233.122833 -57.935688 62.140541
-111.797256 -55.393475 266.773895
-107.750404 -51.209347 280.056000
-179.819794 -50.880932 152.793793
-146.516068 -50.472908 214.827805
-111.597977 -53.895874 273.605957
-234.314224 -52.728836 64.203850
-199.530640 -51.819592 126.405167
-233.999130 -50.379597 67.378006
-139.413361 -50.380554 229.765793
-117.287209 -55.662697 270.868408
-237.758591 -52.761944 63.760731
-112.209419 -54.280079 281.447662
-118.161896 -51.690548 272.655762
-188.702011 -52.195202 156.690994
-230.545593 -53.160397 72.210320
-141.492538 -53.390469 235.346527
-133.621979 -53.702950 249.480255
-235.507584 -51.540596 71.360504
-124.949326 -51.073795 262.905823
-113.838257 -54.377071 286.431061
-120.536797 -48.864765 271.515198
-187.665512 -52.715538 156.266006
-204.065872 -51.094097 127.985306
-120.858208 -49.499035 275.693359
-197.216858 -50.295734 141.342804
-200.399597 -53.782604 138.411484
-134.635742 -52.057934 249.419556
-235.521362 -50.581173 76.038956
-120.396271 -55.009914 282.000671
-192.288422 -54.116276 149.395477
-140.958130 -53.031116 238.160919
-195.656830 -54.689777 146.591812
-128.315674 -51.696220 272.250977
-140.120331 -56.163551 252.246384
-123.753227 -52.027840 275.505768
-137.427124 -50.208244 252.249832
-197.129150 -52.084892 150.966995
-239.923340 -52.861843 73.482086
-131.288193 -53.042690 267.637634
-136.394073 -51.610668 259.761505
-117.044090 -51.481964 289.842743
-126.294922 -52.293983 279.326416
