# This PCD file was generated using the MATLAB® pcwrite function
# from Computer Vision Toolbox®.
# .PCD v.7 - Point Cloud Data file format
VERSION .7
FIELDS x y z
SIZE 4 4 4
TYPE F F F
COUNT 1 1 1
WIDTH 1417
HEIGHT 1
VIEWPOINT 0 0 0 1 0 0 0
POINTS 1417
DATA ascii
-55.882153 -75.666748 -149.486313
-51.922359 -75.360435 -147.780518
32.421051 -75.403160 -149.564117
30.341166 -73.220970 -153.892868
27.731895 -74.249863 -155.819122
23.619354 -74.997688 -151.950867
-47.867287 -71.677513 -157.884323
19.894262 -77.526443 -153.541992
-2.364206 -73.857056 -153.997589
-5.553072 -76.144875 -161.743820
4.247043 -74.396233 -160.180786
21.050213 -75.822914 -165.287277
-34.019005 -75.376991 -166.219025
25.422453 -76.670380 -167.515427
107.636398 -74.843338 -163.361069
17.705366 -75.967789 -171.356644
-10.945648 -75.937057 -169.405136
-32.171982 -75.815239 -171.449875
-11.116224 -73.255951 -174.676697
18.502367 -77.858978 -171.187424
-60.138363 -73.653732 -174.423706
-57.842129 -77.420151 -175.645401
16.013523 -77.333244 -177.789444
109.372688 -77.898209 -178.450745
12.265183 -76.620445 -178.970078
16.626463 -76.820076 -178.743835
104.078087 -73.973625 -178.963974
-58.954510 -77.681145 -182.064224
28.262318 -76.197311 -186.477295
-21.518333 -76.466789 -180.591476
-48.396202 -75.407143 -187.166840
-146.840744 -80.932358 -186.322296
100.858749 -76.073128 -184.677628
-151.646149 -77.425873 -194.329468
21.427153 -78.261696 -193.759827
-34.237278 -75.742767 -188.722137
-51.306522 -75.973335 -193.398865
-26.770220 -76.839310 -195.390182
94.428528 -75.570274 -194.565109
-39.155548 -75.162376 -199.014603
5.845429 -77.150726 -201.789124
94.859268 -75.783936 -197.543243
9.312136 -77.156380 -203.290009
19.031336 -76.317780 -200.664703
-12.907124 -77.042786 -204.729263
15.505083 -78.463593 -198.541489
-39.903160 -75.631760 -209.204666
-11.867272 -78.105476 -203.152512
-21.775648 -75.327538 -206.072525
-77.337639 -75.752960 -208.275925
-35.156174 -74.817467 -209.037460
7.394941 -78.927315 -205.011627
-12.844572 -76.954933 -207.250458
92.464912 -75.455917 -216.453690
-13.689249 -74.103691 -214.594696
-21.258837 -77.714722 -214.985016
-82.108696 -75.011513 -217.348816
-150.116119 -74.365089 -217.181198
15.306041 -74.620209 -214.432083
-5.507925 -74.292763 -214.784348
-21.118738 -77.042847 -216.665497
-14.053763 -76.820229 -216.254288
-22.111309 -76.690392 -220.712250
1.223665 -74.795586 -217.909851
-150.610962 -77.634636 -217.688446
-20.912102 -77.491013 -224.107101
80.766098 -77.582657 -221.979080
-13.792826 -74.367195 -223.318054
-6.789624 -78.483910 -226.207794
-26.137455 -77.662933 -226.748367
-157.508606 -76.534485 -228.628204
76.902710 -77.839340 -229.878067
-12.194489 -78.749855 -226.346649
-139.813232 -72.444275 -229.763840
-148.966187 -74.940361 -232.438644
-139.942764 -79.459816 -229.824051
-1.656045 -76.633080 -231.689774
-148.141922 -75.868774 -233.405319
2.368630 -74.515274 -232.787933
18.172636 -76.253021 -239.502853
-4.279418 -74.196663 -240.813690
-49.021500 -71.686722 -240.660034
-50.065094 -76.637077 -239.203842
-27.963148 -77.463463 -241.615952
-147.914276 -73.066055 -241.708832
-40.406933 -76.765076 -242.093445
-69.438004 -79.114487 -248.265793
-52.855961 -73.296829 -246.389725
-62.454945 -74.818291 -249.778748
-74.679543 -76.919197 -248.971954
-143.780350 -72.445770 -255.822937
17.865200 -78.653030 -258.583618
-130.230927 -75.758385 -260.645966
-11.174278 -81.574425 -267.502319
-15.641340 -73.622383 -268.980560
17.602200 -76.136208 -274.108368
-149.521729 -74.510208 -279.536407
-4.412960 -75.531891 -281.463562
-157.006241 -76.433228 -282.780396
-133.912827 -78.039131 -289.235748
-29.197153 -75.523987 -285.270477
-136.777710 -78.180916 -288.202759
-67.372223 -78.017448 -285.941681
-139.963318 -75.468956 -286.417267
7.507062 -76.552490 -288.514832
-121.917442 -77.855347 -291.499512
-67.352676 -77.778503 -287.184967
-143.414551 -76.945885 -290.566223
-57.972881 -76.042961 -288.665466
-33.748940 -76.158447 -286.526978
-6.519043 -77.235428 -289.383209
-144.375412 -75.121956 -296.844147
-158.739227 -74.327560 -293.908966
-153.671982 -76.866081 -293.936554
-147.125107 -77.660774 -299.177246
-144.489960 -74.969757 -302.531830
-47.563259 -71.570030 -55.232967
-64.375137 -70.511131 -54.362148
-64.018219 -74.062630 -55.721088
-46.174412 -75.080162 -58.213417
-38.704514 -74.473442 -59.482880
-36.629673 -72.378983 -57.803551
-29.455927 -72.938385 -62.304596
-30.654209 -72.315292 -63.951420
-26.015833 -75.110580 -71.983574
89.157608 -73.515900 -74.682701
72.824997 -74.548355 -74.459145
69.723251 -71.987274 -71.754013
-39.565826 -75.590332 -79.061516
-46.890858 -69.639442 -82.914650
-52.144840 -71.286201 -86.949493
-53.176628 -74.781975 -86.959671
-92.317314 -78.920944 -94.471802
69.097778 -74.121857 -95.456482
92.562141 -74.275597 -94.164543
74.314201 -75.227425 -94.053925
-94.312675 -73.807510 -101.259773
76.512909 -73.185760 -93.660057
47.763119 -74.836937 -96.518730
51.987633 -74.293221 -98.698029
40.150654 -73.115761 -102.839890
42.164726 -71.686348 -97.956284
42.654377 -72.931335 -101.895981
-93.298141 -73.012993 -104.850822
44.234173 -77.531387 -111.031288
32.695747 -77.238777 -114.308884
29.108452 -72.796951 -125.080818
107.765228 -73.597832 -121.824181
107.739128 -74.361504 -122.356567
105.939240 -74.020584 -123.149101
109.812485 -76.027519 -127.511429
37.440434 -74.846756 -132.178299
38.417816 -73.452873 -137.109451
26.527685 -73.733704 -134.657394
20.834927 -73.927849 -141.602646
107.736542 -75.651596 -141.817062
109.107353 -75.538544 -146.932404
-49.873726 -71.042351 -148.128403
20.409973 -73.332108 -144.949112
-69.664337 -74.749290 -152.349396
-74.511444 -71.189522 -150.971222
107.018265 -77.142746 -153.329880
112.826942 -75.670273 -154.274673
29.357859 -74.436127 -154.756439
-72.519615 -73.960266 -154.202362
1.243847 -72.455261 -157.695618
1.131427 -72.870743 -157.406998
-67.487930 -71.218407 -161.328781
-46.353447 -74.924744 -163.712814
20.324711 -76.742821 -166.306641
105.574242 -79.280083 -157.368332
29.482592 -73.338737 -161.679443
-1.334392 -73.765022 -164.947876
16.375706 -77.998795 -165.016113
-65.519585 -74.976089 -166.104736
-63.825710 -74.392708 -168.164108
-45.362404 -73.992020 -168.771042
24.423147 -74.651375 -169.918961
17.516022 -76.584679 -169.317245
25.649279 -75.722816 -167.241180
19.397930 -71.868660 -171.721771
-30.588018 -72.394974 -173.381561
14.288419 -75.085571 -174.675980
15.157274 -73.150269 -177.632660
-61.296768 -75.179924 -175.654404
105.013275 -75.197548 -179.125000
12.380768 -74.788391 -178.933624
25.602497 -72.976601 -176.582840
-32.684666 -74.370323 -185.755814
-48.769547 -73.482880 -187.430588
12.913184 -77.739777 -187.420395
-54.720024 -75.156685 -186.507507
100.810928 -75.940521 -185.724380
-52.263920 -71.635338 -191.618683
-149.349365 -73.433029 -190.123932
12.663609 -73.878235 -191.477081
-43.347645 -74.751625 -198.867111
14.155623 -75.173668 -194.116501
-18.050880 -73.243988 -194.715378
13.353780 -73.821609 -195.663574
-138.215057 -72.827377 -194.995010
15.347025 -76.226547 -195.747223
-137.622620 -72.738411 -200.477753
-142.852493 -75.372704 -202.004745
-36.867203 -77.129761 -202.368637
96.255646 -75.631195 -201.012146
-157.646179 -73.123627 -201.889328
-15.220078 -77.481834 -204.750778
-34.647331 -77.306778 -202.078644
-41.059128 -79.279503 -204.505234
6.693274 -76.271805 -207.425766
91.398491 -74.394852 -205.085831
-76.257622 -75.823685 -208.962143
-35.618656 -75.699089 -207.254456
-10.324585 -74.312561 -214.043533
-72.857903 -76.312584 -211.905289
-37.979828 -75.468918 -211.443329
-20.709253 -78.409172 -213.745041
-28.032885 -73.474045 -212.889954
93.013420 -77.467789 -213.709503
-77.244034 -74.913811 -211.620865
15.300290 -76.553459 -219.230301
3.807196 -75.415642 -213.625198
-7.051185 -73.460236 -218.551910
-94.852226 -77.384232 -218.083511
2.423510 -73.499084 -223.827484
-19.490932 -76.143883 -219.484772
17.337198 -75.396965 -219.627029
79.051453 -77.413513 -220.549942
-155.002655 -77.180824 -224.017639
-15.709962 -76.672073 -221.427399
81.627975 -75.696121 -223.533325
-143.994293 -74.803421 -227.578690
14.968357 -71.130867 -225.230347
-8.204439 -75.518188 -223.069778
4.923656 -77.400429 -223.096130
19.583153 -76.606735 -228.544388
67.648392 -74.937172 -233.368881
76.151360 -76.068695 -233.370193
6.010662 -77.111916 -235.039551
0.383793 -72.821533 -235.811295
-1.870688 -74.755150 -237.387299
0.964721 -76.903877 -237.439026
-46.291286 -78.785545 -236.332901
3.376044 -75.885162 -237.800568
-37.988590 -72.744820 -245.070267
6.388109 -73.036049 -243.459030
7.390098 -77.085464 -246.140335
16.699648 -75.754860 -248.747726
17.104534 -72.101242 -248.430145
-81.127487 -77.654434 -248.857956
17.631861 -76.391830 -248.633865
-76.025795 -75.740608 -253.851959
-144.992783 -73.432259 -257.748627
-130.479111 -74.128403 -259.934357
-138.127869 -74.025642 -261.992554
-134.735855 -76.038933 -260.988953
-153.707993 -79.419930 -266.618439
-148.381546 -78.419891 -273.871338
-150.046860 -77.372421 -266.852966
-153.107941 -75.147820 -280.231567
-165.275299 -72.106148 -284.923889
-131.633774 -74.901108 -284.548615
-50.671230 -77.633499 -284.781006
-63.312504 -75.392097 -281.538483
-74.645523 -74.141579 -286.545319
-1.536229 -78.393982 -283.183136
-127.046661 -74.443794 -285.697144
1.094072 -77.891541 -286.158539
-136.811890 -76.413963 -287.330536
-94.696892 -77.543365 -287.392120
-82.587128 -74.886635 -289.684143
-160.486893 -75.856239 -289.847656
-140.992950 -76.608093 -291.766785
-117.538185 -76.194366 -289.748413
-69.827560 -77.928429 -287.026672
14.767989 -75.011726 -290.562988
-33.956207 -78.518456 -290.816193
-19.659424 -76.174683 -291.267029
-134.401993 -75.344215 -292.258667
-133.057114 -74.556244 -294.896606
-145.509277 -73.793007 -295.868927
-148.343948 -75.368271 -301.924896
-148.450226 -73.744560 -309.977722
-60.846706 -72.535675 -54.014858
-79.960663 -70.010521 -55.324646
-81.332481 -71.145660 -55.349590
-28.976812 -72.744545 -59.146774
-23.638494 -71.428047 -59.793560
-84.016388 -71.885536 -66.162720
-90.120506 -73.036026 -68.884888
82.214828 -72.292511 -71.302559
88.328087 -75.642746 -72.485779
-95.747978 -71.007179 -75.811752
-32.409100 -75.115776 -74.361366
91.321899 -72.777740 -77.629158
89.864273 -72.236801 -84.085213
-95.740440 -68.081619 -76.138458
-51.889828 -70.988350 -83.807961
96.180344 -71.939377 -87.122414
-58.950676 -74.964531 -88.267570
51.837322 -75.501205 -91.939430
-61.742599 -73.348885 -89.394394
47.451103 -72.081337 -91.388084
42.848560 -75.840874 -96.615860
50.946117 -73.450287 -93.036476
50.067970 -73.309570 -96.993256
40.568054 -72.744629 -104.146088
105.986649 -74.880028 -102.284286
-83.816124 -71.354378 -108.920013
-87.289627 -71.593872 -107.702858
106.705788 -73.616631 -109.692642
43.398125 -74.315842 -113.539246
44.638599 -72.707260 -118.837868
-91.053864 -73.974251 -114.745911
107.788063 -75.248024 -111.880768
110.243179 -70.173515 -115.987740
40.645088 -75.544899 -121.476135
108.539215 -75.593765 -123.672577
105.561394 -73.631210 -128.429321
25.432793 -71.957321 -132.885132
111.923615 -74.713455 -135.801971
106.778198 -75.224785 -129.606201
-63.487576 -71.989029 -135.165390
-58.289059 -73.568581 -137.238525
24.317595 -72.087524 -140.885818
-56.133701 -68.477341 -133.361755
-77.045319 -70.432701 -138.787415
-74.107582 -71.868004 -143.253586
102.912697 -76.074844 -138.350418
-57.833580 -73.689560 -145.308685
-75.805016 -72.151520 -144.423492
-44.718769 -73.452927 -144.409561
110.201035 -72.225372 -151.256393
22.231237 -73.106056 -152.204163
-77.539429 -74.045227 -155.275070
-54.216980 -74.264366 -155.888977
-38.520855 -76.473473 -153.272583
-41.639801 -77.365631 -153.144043
-73.374214 -75.316841 -157.267441
8.162165 -73.988396 -158.584473
-52.492672 -72.633377 -157.506989
-48.630222 -73.284645 -157.156799
27.701628 -74.216438 -160.391907
-36.380539 -74.634544 -164.670822
-71.805595 -75.602722 -164.236115
105.174789 -74.300278 -159.024689
106.779518 -71.101624 -163.103989
27.765545 -73.751205 -164.250412
110.028175 -72.062225 -164.770477
105.374916 -75.827179 -165.734772
15.908410 -76.654999 -174.105865
-30.068272 -70.401283 -171.871246
-55.273994 -75.375816 -176.417496
107.977844 -74.989288 -176.280273
-39.138855 -74.587021 -177.260620
12.112858 -73.397865 -176.341293
-36.676128 -71.365128 -175.805145
-56.842590 -72.849388 -181.814453
-150.290649 -72.287025 -183.102509
-151.515686 -71.064186 -183.458450
104.716545 -76.217255 -178.405289
18.199190 -72.502403 -182.696579
-58.148739 -72.588997 -183.063309
-51.603973 -76.064697 -191.746460
-49.827309 -72.125038 -189.608978
-50.584576 -75.904930 -192.813278
13.319633 -74.265656 -186.915848
13.120260 -74.575867 -186.526443
103.632996 -73.802017 -191.618561
-26.301538 -72.992630 -194.844711
-46.638565 -74.649193 -196.099380
20.420115 -73.435486 -195.793396
-44.846386 -72.836952 -196.144440
96.473854 -76.306747 -197.725540
-39.164227 -72.014015 -201.479218
92.220200 -77.895737 -199.224960
17.335064 -73.175804 -201.695236
-40.370159 -72.436829 -204.938187
15.168852 -71.754639 -199.514008
-23.866503 -75.416542 -206.843033
-41.916660 -74.427063 -203.750092
91.040489 -76.140358 -206.053299
7.058150 -74.118973 -205.843414
87.855049 -71.696068 -215.165512
-9.484055 -75.861343 -210.711472
-26.458311 -74.324104 -208.679062
-81.635994 -74.102364 -212.251236
82.965553 -75.330620 -216.285217
-21.488365 -74.613396 -216.662064
16.317144 -72.985748 -216.300522
-27.967180 -76.714882 -217.252121
-31.862982 -73.969109 -214.992783
-101.002625 -74.961182 -219.029877
-11.569247 -72.878036 -219.888809
-23.089277 -74.199890 -220.484146
-1.265046 -74.332855 -223.290771
12.715869 -76.875839 -220.843521
-16.320660 -73.627808 -221.711105
-15.714494 -79.221428 -224.018585
15.820484 -75.623436 -222.265533
6.341660 -75.252090 -220.685394
4.757803 -76.396736 -219.635406
-130.901855 -75.068695 -229.665771
-14.526277 -73.802094 -226.311478
76.604378 -75.157074 -226.966537
-18.063951 -75.547333 -226.893951
-153.981750 -76.722969 -229.874207
-130.982132 -74.853065 -233.143997
-12.473290 -73.224174 -234.703247
75.018356 -76.772331 -226.573242
-9.265011 -75.481621 -229.197006
-4.217795 -75.156624 -233.516525
65.076363 -76.313293 -235.855728
-0.266503 -75.494537 -240.058853
65.652161 -78.981529 -236.013519
-155.643234 -72.859581 -245.180710
61.386894 -72.697327 -237.120407
-37.485203 -74.044090 -239.716690
-39.594910 -72.988045 -241.227692
11.570006 -75.608437 -237.965714
-47.290596 -77.184364 -243.495239
-27.359882 -75.326393 -241.901627
4.923536 -72.734520 -241.699295
-47.909115 -75.623253 -244.203735
-146.456131 -71.218567 -246.446030
14.302711 -74.208450 -238.769638
-151.821503 -77.150185 -241.936279
-72.965096 -75.653168 -246.761017
-6.583744 -77.466980 -246.977036
-10.329822 -73.553055 -248.391235
-83.562325 -74.575981 -247.704956
-152.603790 -73.046227 -253.928940
-149.430695 -79.075279 -252.641846
-89.032188 -75.059654 -257.603210
-163.839249 -74.585312 -259.895935
-127.172585 -77.054497 -255.804901
23.489128 -73.918457 -257.234833
-156.801605 -73.012238 -257.689087
-146.957092 -71.484367 -258.773132
-165.456894 -73.555016 -260.325562
-137.307266 -70.433418 -261.074341
-124.531822 -75.203323 -262.756042
-162.658142 -76.925903 -266.576355
-146.048340 -74.675316 -261.325897
-167.960861 -73.810692 -265.873871
-155.688583 -73.063705 -262.140076
-162.203003 -72.295898 -267.466400
-169.592087 -73.267532 -263.027557
17.036804 -80.633446 -271.731049
12.645538 -76.605629 -271.838196
-160.649231 -73.342049 -275.670715
-159.497253 -74.175797 -273.299652
-168.525055 -70.842461 -280.357269
-156.830551 -73.941048 -272.398438
-153.688828 -71.353172 -272.828796
-152.047775 -73.291740 -274.153717
-142.389923 -73.635872 -280.448212
-163.317474 -74.419266 -278.956360
-155.135895 -72.423897 -283.792511
17.260168 -74.881783 -280.202911
-154.404449 -76.894302 -282.412720
-161.423889 -76.127441 -283.833191
-163.253281 -73.852097 -282.388733
-128.775604 -74.181755 -286.950287
-32.104687 -76.108444 -284.987427
-44.715637 -74.205833 -283.545074
-69.081116 -73.094269 -288.583954
-16.125341 -72.824028 -285.896118
10.297486 -76.676910 -284.288788
-3.441089 -77.305298 -288.095337
-112.612045 -76.069862 -289.639587
-97.486130 -73.899460 -286.765045
-114.683983 -74.982109 -291.742523
-104.326775 -75.231949 -288.563446
-93.843987 -76.859665 -290.447449
-49.453056 -74.791862 -287.471741
-119.739777 -75.452965 -289.710724
-87.759872 -73.943924 -291.464752
-117.325912 -74.534363 -293.114197
-136.395721 -75.616150 -291.462311
-12.246046 -73.822144 -292.376282
10.459840 -76.143272 -292.384033
-154.325226 -74.742241 -295.522827
-158.933029 -77.334442 -310.921051
-69.279747 -69.255920 -53.802425
-63.788948 -70.510292 -52.533016
-58.268749 -74.666946 -56.561714
-77.409882 -71.396530 -54.527702
-45.655632 -75.154793 -56.553200
-81.878227 -71.513428 -57.765133
-85.113258 -71.205811 -62.225334
-22.033449 -73.951164 -70.755180
-21.119043 -73.791687 -71.217247
71.517288 -73.068741 -72.994141
-40.260860 -71.493080 -79.387390
-38.807610 -72.940254 -75.207939
65.381798 -69.567650 -78.802818
94.692490 -75.516464 -84.472328
-58.604877 -71.608932 -91.577080
56.831367 -73.388145 -94.444481
44.760971 -71.018532 -94.052643
46.312469 -72.317368 -96.975014
37.065811 -71.159195 -99.643631
105.904869 -73.596466 -95.968018
56.387604 -70.017906 -91.122871
-99.115799 -73.003906 -101.657494
-78.153641 -68.895012 -101.226532
53.282776 -71.362694 -97.759514
40.528145 -68.927010 -101.290123
39.731865 -70.864723 -103.665649
-96.746658 -71.220398 -112.419518
33.586105 -71.686836 -108.120674
48.775555 -71.251671 -110.814934
40.435860 -73.053429 -116.643005
43.066788 -71.309540 -121.018494
112.336563 -72.105934 -126.291367
-58.865089 -71.397606 -130.572327
35.437771 -74.251610 -134.477692
34.765835 -72.989716 -133.475281
111.291145 -74.730171 -136.152786
-76.814812 -70.715652 -132.969482
-58.279457 -72.352448 -138.574570
116.874741 -71.874107 -134.509369
-76.031975 -72.004768 -139.971603
-51.258698 -71.090057 -144.445328
-63.513638 -69.124504 -143.403229
106.205132 -72.934250 -137.404205
19.048309 -75.907173 -148.498550
28.510317 -72.259377 -144.720200
-46.232159 -71.735924 -151.048279
-68.397522 -71.833351 -151.958847
22.295105 -76.113472 -149.512665
-75.268700 -71.648537 -151.467422
28.646097 -73.651794 -147.904190
-39.198151 -72.671883 -154.981064
21.058788 -73.070076 -151.616074
7.692256 -74.008881 -154.087479
-73.577141 -72.196556 -160.802216
-51.423508 -75.719978 -157.023712
-63.259754 -74.353233 -158.212112
-52.188046 -73.748085 -158.014374
2.861936 -73.439606 -160.078461
-36.636818 -73.936340 -166.539078
-44.525040 -74.683449 -164.956406
18.181599 -72.597076 -165.437012
-44.068260 -75.079910 -166.844345
23.918848 -71.870598 -165.196350
113.655411 -71.328110 -163.928452
-34.217278 -73.636070 -170.791122
25.443472 -75.826591 -170.360107
-68.799004 -73.211281 -169.852905
-61.278755 -71.594162 -170.123672
-45.138386 -69.932755 -170.197815
-63.452137 -73.843521 -174.509964
106.215462 -74.360336 -172.906982
-149.987762 -71.166199 -175.969635
-146.562256 -73.288124 -177.494186
-59.561581 -72.438377 -176.731430
102.435417 -74.330460 -174.557083
106.857765 -72.945290 -175.475723
104.790131 -72.736305 -178.630203
21.694008 -75.114525 -185.869339
-37.722900 -74.400009 -179.878204
-140.487656 -71.891808 -184.914932
104.712608 -72.203339 -181.525284
19.169531 -73.045891 -192.593491
103.670647 -72.500404 -190.900299
101.495430 -69.657730 -191.158691
7.535615 -80.259392 -195.400421
-133.327927 -72.691238 -197.457138
-125.818024 -70.166885 -197.255997
-147.278305 -77.089882 -200.768875
-133.681183 -71.854568 -199.973404
-124.486046 -73.440704 -201.151993
-23.803276 -74.846046 -201.526031
-26.836332 -74.588776 -201.121368
-132.093201 -73.446136 -200.653320
-143.001709 -73.828720 -202.057739
-15.014832 -73.745880 -209.163879
94.166420 -73.594704 -198.669846
-22.257523 -75.263763 -202.961212
87.075417 -70.919174 -208.274292
15.401670 -73.035179 -206.393616
-7.942954 -73.496498 -212.909454
16.104103 -74.443329 -208.737061
-32.681213 -71.384697 -208.272049
-86.916679 -75.543152 -215.193146
-94.734909 -75.126732 -215.404541
-14.300296 -76.522377 -216.386871
-96.734352 -73.286469 -216.077499
-98.050919 -72.454918 -217.051117
82.579163 -72.345123 -217.764023
-26.185894 -75.308136 -221.907196
-24.447887 -70.568420 -223.730408
-25.134850 -73.085083 -218.925125
-21.197460 -72.930153 -222.130539
-20.677717 -73.111717 -220.848541
12.783157 -74.720268 -220.848846
-141.060654 -72.684715 -227.532654
74.559570 -74.707825 -223.016495
-5.948430 -75.189072 -227.873917
8.312447 -76.469666 -231.489395
77.603638 -73.714706 -227.431458
-126.240082 -74.237572 -230.684692
-162.223282 -72.744438 -235.762131
-137.792969 -74.449600 -231.725555
12.464041 -76.458511 -229.231277
5.827589 -73.445244 -229.749969
-127.259888 -75.189735 -233.060959
-3.495561 -76.330299 -235.580414
-148.972076 -71.743401 -236.338669
-5.551746 -78.530594 -233.411880
8.939702 -73.227325 -234.893326
-5.020898 -73.794350 -234.952164
-5.255322 -76.116890 -241.227936
5.128817 -77.414749 -236.638672
-163.954269 -75.792610 -241.549072
-157.887665 -74.430901 -238.701920
17.641418 -72.849251 -240.680344
-4.300671 -75.950188 -238.138290
63.650070 -75.347900 -239.951263
60.265480 -72.892372 -238.226624
-166.638611 -72.022408 -244.293823
-162.245575 -70.997490 -245.960449
-153.377411 -73.328789 -242.449036
-58.640961 -73.147133 -241.553329
-9.146083 -71.327324 -242.576920
-54.898254 -75.301239 -242.375961
-155.660553 -76.056793 -249.864380
-60.188534 -71.597382 -244.604614
14.944435 -70.310837 -245.622589
-11.638375 -74.748032 -245.468170
-9.515262 -73.170517 -250.254440
-161.085693 -72.154106 -249.829727
-166.526123 -72.812103 -250.767044
-86.466469 -72.147095 -246.681992
-165.587051 -74.162918 -252.772980
-148.317978 -74.139275 -254.479874
-75.539139 -72.782257 -253.064697
-97.196136 -73.199471 -256.677521
-87.651451 -74.098526 -252.478226
-136.103561 -74.324303 -257.482452
20.207384 -74.355408 -253.346848
-99.250351 -70.998779 -257.232300
-102.640190 -70.952370 -260.036804
-104.301048 -69.785118 -259.064362
-116.494484 -74.055298 -260.091492
-110.741341 -74.358696 -261.166168
-117.321915 -74.212151 -261.332336
-145.973434 -75.685051 -265.007416
-132.219666 -73.233612 -263.277191
-153.989304 -71.427895 -264.284821
-148.036926 -73.876106 -271.253662
-167.809814 -73.858818 -276.502350
-11.149469 -75.827156 -277.414429
-130.219299 -75.489685 -284.215393
-140.173447 -75.265320 -286.800140
-45.541668 -73.879066 -287.230591
-89.190453 -73.447968 -288.328400
-29.057468 -75.669876 -288.186584
-34.641014 -73.310310 -288.832886
-118.822197 -76.509064 -285.546906
-19.604336 -74.897812 -287.425812
12.733097 -74.135918 -288.851685
-54.155048 -74.014091 -286.767853
-118.638115 -73.467728 -293.321716
-79.118317 -71.305824 -289.966736
-70.897675 -71.383194 -290.207764
-31.736208 -74.999260 -289.450256
-101.636658 -73.784500 -290.313843
-113.990974 -73.719078 -291.601044
-11.845729 -72.309708 -294.998779
-162.923325 -71.365288 -292.552185
-152.567978 -75.994316 -300.848755
-153.248856 -74.837906 -314.092834
26.626234 -71.964211 -15.108619
21.696981 -72.724655 -16.288309
23.009344 -69.620682 -19.790733
18.316145 -68.639160 -24.863529
20.455444 -71.828506 -31.591408
28.367729 -68.796822 -37.091396
19.876457 -72.762619 -39.621521
-59.644955 -70.608215 -50.865963
-34.571575 -65.914581 -51.896362
82.536041 -68.608788 -67.187592
-93.832100 -70.793633 -72.908684
68.511482 -71.567101 -73.393448
-42.103931 -74.296036 -79.864174
-96.882835 -69.721222 -82.588776
-51.635170 -74.199577 -81.560921
98.067558 -72.908546 -86.649071
-96.661507 -71.011345 -91.787857
64.445595 -71.458382 -90.518257
-99.796974 -68.719208 -91.775299
54.013870 -75.998253 -92.898590
102.050598 -69.536934 -93.139236
-73.529129 -71.748978 -100.582771
40.295612 -69.008461 -96.501862
74.975243 -71.052216 -101.404533
81.967369 -71.442223 -98.665390
40.254154 -70.284233 -100.008759
104.859573 -75.508011 -100.980537
-97.573410 -71.961472 -112.834572
103.588409 -69.973175 -102.521019
104.298737 -71.555534 -108.288269
32.466129 -72.338257 -115.559082
43.464790 -73.037331 -111.602898
41.874638 -75.282509 -118.020836
31.982431 -72.638779 -117.587624
40.253754 -72.269150 -116.769165
43.399391 -70.344719 -120.057945
104.657898 -73.456642 -121.249725
110.653755 -71.575745 -123.452721
28.700256 -73.881676 -128.293060
27.576321 -73.030426 -132.889359
-74.595070 -70.862579 -135.162354
-56.736320 -71.207870 -128.021957
110.216652 -73.807686 -137.216003
25.625698 -71.468681 -132.973053
35.042671 -69.025108 -134.722397
-81.939194 -71.080109 -139.747833
24.763138 -72.930046 -136.322662
21.473394 -74.451241 -140.568909
-48.767818 -71.083076 -143.815155
-75.272263 -70.831108 -145.036209
-56.663647 -72.010521 -146.289368
29.385178 -71.057526 -145.880463
-56.550098 -72.748299 -152.686691
33.042435 -71.589882 -154.138016
27.186468 -68.873840 -160.072205
107.834976 -71.319687 -151.850189
21.928600 -73.707474 -154.393753
12.428679 -72.948502 -155.540955
-42.210533 -76.776962 -153.812378
-75.129555 -69.606232 -155.709595
-49.377327 -70.803810 -158.238647
106.286850 -71.255615 -156.548233
32.156246 -73.034744 -159.252380
109.796989 -74.142609 -161.299744
-38.001873 -72.524834 -161.488388
16.245218 -68.271980 -168.241577
-1.799706 -71.365524 -163.290878
-34.500813 -69.832756 -163.626617
-63.907318 -69.856407 -166.036804
-33.865013 -72.762115 -165.250671
-61.355320 -73.672295 -171.200409
-37.028606 -69.160858 -173.270599
22.032740 -73.835205 -170.040451
-41.694508 -73.434830 -174.922333
-153.166672 -72.194336 -178.458893
111.363121 -71.810310 -173.232437
-152.408600 -70.016449 -184.363235
-147.245728 -73.123810 -184.000092
12.561783 -71.446732 -182.075287
22.128109 -72.431648 -181.940582
-39.895813 -70.679062 -185.705826
-153.006607 -68.997490 -188.510132
-32.446701 -71.878922 -187.470230
-147.455078 -68.954887 -191.121643
-20.913645 -72.093948 -194.026184
11.363904 -75.601639 -191.404694
96.761543 -73.251968 -198.350037
5.323755 -77.913132 -194.670731
-129.893921 -72.884453 -192.970642
-134.291809 -71.403481 -196.717560
-143.132355 -72.893311 -200.770432
94.127747 -70.496857 -197.311813
-135.210983 -73.810928 -202.989029
5.168490 -73.146362 -203.887802
-27.150187 -70.495964 -202.961319
-138.186264 -72.790756 -203.493652
-149.374680 -72.251633 -206.278458
96.353302 -75.570259 -206.580170
-13.833532 -73.130165 -202.717834
97.034592 -73.770622 -197.966980
-9.504202 -71.698471 -207.551468
92.801956 -73.959244 -208.631287
-147.431229 -71.314117 -208.219437
-16.356401 -74.891518 -210.693893
-155.201859 -72.538086 -215.989899
-152.271561 -70.812927 -208.965729
-18.421312 -71.175697 -214.000229
-90.116371 -69.752022 -214.197449
-161.365219 -70.930138 -217.637970
-162.798828 -70.996773 -210.676331
-156.183731 -72.102470 -209.972702
-32.535976 -72.985107 -214.782532
-29.947908 -72.645477 -217.283218
-17.071859 -69.309303 -213.821640
-18.783985 -76.723213 -215.528671
-149.256882 -71.733391 -221.163818
14.907926 -77.125175 -220.972153
-153.181610 -70.266319 -224.541916
-92.681297 -70.942993 -217.249390
-166.518433 -73.109711 -226.607269
-27.573927 -68.128426 -217.628159
-20.077000 -74.191673 -218.295181
-163.371292 -71.147514 -216.058197
12.556048 -71.606247 -219.344818
-159.587540 -72.782555 -218.857056
3.694790 -69.855232 -223.576614
-164.311523 -70.041847 -223.708237
-153.445313 -68.115044 -224.414963
-107.137657 -72.402290 -224.503113
4.875867 -72.873077 -218.417313
-160.767792 -71.374893 -226.030914
-162.776550 -70.324730 -224.748032
2.987958 -71.646271 -223.187943
-115.883812 -70.997498 -228.743744
-158.391296 -71.993347 -228.291321
13.399446 -73.230721 -225.014130
-113.689835 -71.647644 -229.196838
-117.260643 -70.644150 -228.604492
-122.838707 -71.894043 -227.653366
78.277908 -72.689545 -227.222748
-164.129028 -73.547714 -228.375366
-159.505753 -74.562469 -228.698990
-4.372707 -72.808784 -227.515442
-165.228867 -69.954872 -232.875351
3.612681 -70.388397 -228.630585
-165.823273 -72.055412 -233.152008
-164.039154 -71.552757 -230.853516
71.647934 -72.049217 -230.322632
-166.931488 -71.645226 -234.631790
-168.617111 -73.341309 -238.943970
4.367404 -74.327332 -232.161499
-157.003235 -70.315895 -238.286850
69.885788 -72.720451 -235.159500
70.365059 -72.131371 -232.896530
-148.314209 -73.874130 -240.604935
6.537443 -69.853371 -239.170288
-13.400195 -74.077057 -239.608826
63.431805 -75.466743 -239.920319
-168.275650 -72.035934 -243.316330
5.879417 -74.784958 -243.968948
17.031082 -74.963211 -242.892899
63.957027 -73.553909 -242.500610
18.058010 -76.303734 -246.039825
10.309465 -74.816002 -243.704651
-75.914154 -71.487823 -246.714081
16.479252 -75.729927 -243.358856
-15.167740 -69.471619 -248.528961
-148.105499 -73.810524 -248.291916
-66.967087 -74.441833 -253.592819
-144.713257 -72.309875 -255.075226
-129.552536 -72.176773 -254.241043
-99.874687 -74.459984 -255.297913
-135.838837 -72.400375 -255.892548
-111.878548 -72.205849 -258.170654
-114.337372 -70.745750 -258.908356
-97.202187 -75.387527 -258.082092
-104.651543 -70.914261 -258.961945
-116.650131 -72.538734 -264.229675
22.146027 -71.213760 -264.924683
-15.806397 -74.502197 -268.397644
-171.261169 -72.577057 -273.173370
-146.691116 -75.821022 -273.812073
10.804683 -70.169029 -285.024597
-130.279099 -73.538094 -282.644623
-127.306900 -67.564766 -286.291931
-82.074631 -73.061546 -286.237976
-54.171246 -73.510979 -285.530426
-109.216225 -70.955681 -288.901489
-40.598534 -73.718483 -286.240753
-31.092796 -73.729912 -285.232208
-10.962559 -76.036705 -286.713623
-38.766033 -70.641991 -290.579803
-60.578766 -73.425980 -291.079712
-31.470301 -77.064499 -289.793732
-21.012337 -72.707039 -289.473022
13.129126 -73.809273 -291.413391
-115.285172 -74.796211 -290.497009
-121.575897 -72.328262 -294.501282
9.861720 -74.438438 -291.009186
-139.204788 -74.912849 -293.730774
-148.428070 -73.807060 -300.713013
-145.182541 -74.515327 -303.800812
-154.509613 -74.049896 -313.657654
21.910397 -70.936920 -14.066095
41.324543 -67.148460 -15.198561
37.966045 -69.298744 -17.967796
41.949100 -70.741829 -22.057373
39.994534 -68.577225 -25.260201
43.023193 -70.740196 -20.853350
20.678762 -71.157486 -24.144400
19.847532 -69.255180 -27.585499
42.337856 -73.777206 -29.004414
37.239838 -71.314720 -33.401417
32.867142 -70.948654 -36.582245
33.802505 -68.889763 -39.365700
-64.141228 -69.055557 -50.366295
-53.965698 -70.429497 -49.445396
-82.701134 -69.987137 -50.562149
-76.984932 -70.186661 -51.921646
-77.704651 -70.460434 -57.092834
-28.539963 -70.688751 -57.530350
-26.534365 -73.560455 -60.569324
-20.168732 -69.348671 -63.668888
74.549095 -70.710777 -66.385208
74.845566 -71.001846 -66.334000
71.096581 -69.925621 -69.485909
69.237587 -72.380867 -70.181564
-35.882584 -67.410988 -74.736710
-51.788422 -71.499496 -85.763596
95.336235 -72.883987 -86.100807
48.268909 -67.512299 -86.695732
-69.101051 -66.411057 -91.017593
49.958744 -69.775223 -89.231049
-66.011230 -69.181389 -94.566757
55.949368 -69.944412 -96.177673
102.242531 -70.711769 -96.365036
65.171326 -73.417831 -94.640282
91.952393 -71.265289 -99.519920
103.146202 -72.360237 -103.647591
-97.567558 -70.368500 -100.656784
52.021774 -71.567177 -104.685158
36.264057 -69.650314 -104.488533
41.665146 -73.833412 -103.839111
-98.632057 -68.506645 -107.411865
-87.041199 -72.675598 -113.637711
36.339680 -70.007004 -114.249664
-100.076508 -71.039711 -114.508621
41.488659 -68.664169 -116.716698
105.479935 -72.582924 -114.591179
110.167381 -73.133492 -117.708817
104.709625 -69.722397 -120.040565
109.387207 -71.774597 -122.489540
39.014309 -75.422195 -123.019753
32.413586 -68.487221 -124.727074
39.844933 -73.180504 -129.259964
32.442959 -73.098625 -126.780487
-58.890560 -68.351532 -128.532288
-54.877960 -72.024399 -131.750168
-59.981529 -70.926689 -131.957535
-53.885586 -69.672165 -137.742111
28.159391 -71.263557 -131.724976
-83.172966 -68.456627 -134.397385
115.153091 -71.984596 -144.549271
33.150600 -73.213005 -137.553802
31.192595 -72.208725 -143.302750
-68.162315 -67.708099 -144.353027
-71.157486 -70.906326 -147.330200
-75.716965 -69.192886 -147.389893
106.207634 -70.217422 -147.024002
-69.773048 -73.550087 -151.840820
-73.635887 -70.869949 -146.439240
-41.074417 -72.119484 -153.916962
20.955019 -71.068604 -153.853851
30.378740 -70.547684 -150.081360
5.105308 -72.516083 -153.615372
11.017655 -71.167061 -155.408127
22.419619 -73.222397 -151.774872
-38.095528 -71.657089 -151.836334
-70.171181 -67.413200 -159.602768
-41.367401 -69.973206 -156.485321
26.663773 -70.129395 -161.595245
-68.254593 -73.100189 -164.657928
-68.652855 -72.055725 -164.094223
-48.049999 -72.379059 -159.304077
15.419377 -69.924736 -162.495956
17.104618 -72.125275 -167.743469
109.777863 -71.590286 -166.596527
-29.855888 -70.874557 -171.030579
109.475807 -74.630684 -169.697601
-148.278275 -68.914719 -173.800171
15.316288 -71.555679 -175.142960
109.703529 -71.010048 -171.618469
22.908407 -70.013008 -179.394821
100.197952 -72.304497 -181.736572
-22.652977 -69.181122 -182.516006
-33.324936 -75.979996 -182.934647
9.379243 -72.377136 -189.621231
-30.843357 -75.136040 -189.595947
-151.279831 -71.849586 -188.744644
95.968407 -74.931808 -190.861343
-135.029556 -70.659492 -194.033417
18.234547 -72.612251 -195.068634
101.151093 -73.106995 -193.422943
-124.017776 -70.820168 -199.399933
101.406784 -74.393845 -194.023026
10.005125 -72.697701 -196.412949
-157.336090 -67.307648 -200.475754
15.994758 -73.189240 -198.818375
-160.461044 -69.517143 -201.359726
6.556633 -72.998802 -196.648178
-124.147957 -69.448616 -200.025360
5.587910 -70.505440 -206.116623
-26.416275 -69.038498 -198.429031
-164.032257 -69.943649 -204.344757
-159.411316 -73.353294 -204.109909
-156.357651 -71.661522 -207.275925
-26.372276 -71.617188 -206.651581
-155.662582 -70.537170 -207.423004
-163.149551 -71.670036 -205.158447
-152.774277 -72.010506 -205.965240
2.574829 -73.605522 -209.067291
17.211906 -72.717430 -206.037018
96.653694 -73.241486 -208.051895
-152.792404 -74.990532 -210.640228
-165.582932 -69.344475 -215.965103
81.890762 -74.336761 -213.580048
-148.045059 -73.125946 -217.258087
-6.969326 -69.848175 -216.458023
5.072908 -72.212288 -214.075226
14.907719 -68.509361 -215.880875
13.345677 -70.250687 -220.557693
-145.968109 -72.783493 -221.298035
-18.836357 -72.416595 -222.568604
-23.966208 -71.831589 -220.600418
-100.559418 -71.739319 -220.413986
-2.776514 -70.239616 -224.631012
79.641708 -71.505882 -225.908081
75.496597 -72.828064 -220.511246
-101.139000 -69.933968 -224.086929
9.616792 -71.265762 -229.161438
84.768112 -73.678345 -221.889343
-108.880714 -73.728638 -226.620773
71.451889 -75.302612 -221.538177
-5.443620 -74.748322 -226.837860
-21.504812 -71.470078 -229.009903
-10.713024 -71.646515 -231.181931
69.908073 -73.176147 -232.274643
6.065598 -71.728012 -235.086319
-126.339775 -67.903252 -233.358795
-165.242722 -71.973244 -231.325424
72.990494 -72.756119 -232.750473
-125.733574 -70.867447 -237.951035
-9.137328 -71.345779 -235.782623
72.095688 -71.728516 -235.409744
8.806248 -71.269135 -237.176575
-4.841747 -73.353630 -237.930786
-11.420348 -71.229401 -240.712952
68.603676 -73.240562 -238.942108
12.832753 -71.661087 -236.668243
-147.320892 -73.118553 -246.469986
50.580112 -71.188118 -244.638306
-13.747540 -71.693504 -244.070328
-70.475952 -71.954399 -247.991196
54.924492 -70.516571 -246.193344
-68.835258 -73.909157 -251.178284
48.482491 -72.745033 -249.368912
-92.775566 -71.533768 -253.516312
18.566502 -72.316200 -252.202652
43.783783 -73.473335 -252.896317
-137.962204 -71.831917 -256.051788
-169.587036 -73.794456 -259.825226
-110.664925 -74.627823 -262.807556
-146.020950 -73.500679 -262.622589
-146.231171 -72.341507 -264.935852
-16.397989 -70.890907 -262.590302
20.465614 -70.708534 -271.113770
-11.211631 -72.779221 -278.453491
-158.787811 -72.572845 -280.390564
-131.440475 -73.519806 -282.653198
-157.179016 -71.526077 -288.060455
-91.993988 -74.073814 -286.372437
-86.685310 -71.921753 -285.267426
-48.459572 -73.331474 -286.021393
-15.604954 -71.983734 -284.382294
-38.806850 -73.027412 -288.627869
-14.785760 -72.989876 -287.806305
-33.903503 -73.264915 -285.690521
-14.950267 -70.513191 -289.741211
-49.249313 -71.554131 -292.387146
-7.755929 -70.737923 -287.975677
-74.411880 -72.870323 -291.904572
-88.725853 -73.087990 -292.403320
-103.717590 -74.037766 -292.993256
-119.373596 -73.743950 -292.507904
-135.077072 -70.463120 -296.319336
-151.793854 -72.286301 -297.626587
-157.691833 -71.973167 -307.326721
-149.622635 -71.795357 -312.478729
39.497066 -69.020607 -12.643921
18.905424 -65.524498 -17.632309
39.913048 -70.467751 -18.870703
19.883171 -66.709236 -21.087597
37.147522 -71.277763 -32.464233
20.959576 -68.216942 -35.433987
31.211912 -70.389908 -38.166351
-65.075081 -67.971916 -49.646057
-48.605171 -67.459862 -48.257088
-47.692463 -66.047012 -52.906681
-46.200161 -67.061234 -45.745647
-38.256580 -69.676033 -51.987816
-31.249807 -68.020073 -54.044659
-21.670525 -68.361046 -66.126076
73.714119 -71.364769 -68.760391
93.915649 -70.738510 -70.754356
-21.980293 -68.466492 -74.418205
69.589134 -69.308060 -72.076042
-48.066673 -69.073753 -80.801216
62.538609 -67.029991 -80.555397
55.498371 -72.142235 -85.464676
57.467972 -68.739655 -87.432182
50.485497 -73.592972 -90.556686
-65.183121 -68.655670 -90.151772
-102.113693 -69.383499 -94.183243
45.826485 -70.749161 -93.242279
100.578880 -72.217201 -94.561310
59.235420 -69.301941 -95.038269
70.417366 -69.847839 -98.323524
-76.658478 -65.774506 -99.984650
51.381142 -68.650650 -104.350220
104.020775 -70.731369 -103.270752
72.718605 -68.616508 -101.865486
99.512199 -72.717773 -100.203285
87.286293 -68.169289 -101.872742
102.739960 -69.505585 -104.702721
47.086964 -72.244812 -102.127808
-91.561806 -69.722672 -112.541801
39.245663 -69.038574 -114.035271
-97.715317 -69.126450 -114.863998
40.691475 -68.815590 -115.749237
-81.439560 -69.891983 -118.807541
42.306572 -67.860558 -112.946983
109.789169 -70.341827 -113.103302
34.196697 -70.809937 -122.124260
-84.730881 -68.609848 -118.434807
-88.024574 -70.760429 -121.697708
33.168690 -71.061523 -125.041206
-88.670311 -70.147919 -128.260727
34.818546 -71.572823 -121.714996
-81.334145 -69.153900 -125.989906
-51.998421 -68.204559 -130.766205
-58.568447 -71.206161 -128.971237
-51.393753 -70.399338 -132.050095
28.648294 -68.779060 -132.811691
-62.260044 -69.743462 -136.207291
30.948944 -70.894981 -137.146790
-72.614822 -68.647537 -137.056412
113.114326 -72.548347 -142.599136
24.381695 -69.288040 -139.780945
23.545280 -71.660248 -140.301804
-72.824440 -67.481300 -143.313583
-57.411728 -70.171051 -148.679947
27.179197 -71.614670 -141.404572
-54.759937 -68.967819 -147.718445
23.224592 -70.129585 -152.065216
-75.687180 -69.931000 -151.977554
-58.327446 -69.344505 -152.075928
-48.911045 -67.751625 -151.152679
5.990117 -70.300552 -148.487915
112.689758 -70.800819 -150.837662
-53.767799 -69.384857 -154.222885
27.397818 -68.993568 -158.474915
-38.780170 -71.250229 -154.768982
27.701193 -72.114922 -157.320267
-41.724300 -71.635300 -157.762863
-37.958275 -66.247620 -159.562637
-47.455296 -70.102737 -160.632172
-46.793655 -71.271896 -157.505844
3.902890 -70.292389 -159.666458
-47.978306 -69.009796 -163.221619
21.667858 -68.531342 -158.393066
-39.457733 -71.953232 -162.225250
-35.350109 -68.441895 -165.278244
24.491758 -71.857140 -166.825638
-35.071167 -67.633827 -169.249771
-34.336506 -70.173935 -176.289795
112.203064 -70.560402 -167.638031
14.459731 -72.572571 -174.519775
-37.279179 -69.440308 -171.317368
-31.069254 -69.857155 -169.593781
-40.852493 -68.173904 -173.376877
-142.576172 -70.616119 -177.766312
-26.022335 -69.041580 -181.816711
14.393353 -68.002274 -173.958694
106.104118 -70.464104 -179.425751
106.699310 -71.325996 -179.137527
-24.666248 -71.914345 -178.236069
11.944730 -71.734985 -182.647522
-144.766342 -68.003822 -183.911453
-29.489962 -70.138298 -184.576538
-29.544172 -68.634239 -185.752701
21.681200 -72.716309 -184.625946
19.967068 -75.574982 -190.459274
-115.002541 -66.977646 -188.370529
11.789419 -69.620476 -190.046417
20.196754 -71.641502 -189.780579
-23.026758 -69.732979 -189.508621
-115.947548 -68.054382 -197.681854
100.308594 -67.372665 -190.983490
-122.800758 -67.112137 -194.964355
-139.932251 -69.622879 -196.831161
-117.375481 -70.247772 -200.567871
-115.053848 -70.368057 -202.383179
98.086754 -73.987000 -200.495789
-13.666101 -68.187080 -203.332565
-20.566994 -70.852760 -205.563553
96.953995 -69.826134 -202.139603
-131.126450 -68.243958 -205.752838
-22.444841 -69.889771 -203.803513
6.346773 -73.188385 -208.712906
-146.881973 -70.049103 -206.568985
-10.529215 -73.123840 -210.551712
12.484378 -69.623756 -208.021698
92.028000 -72.527863 -210.333755
96.113243 -71.678185 -209.684464
17.662535 -70.106239 -208.498154
11.627262 -71.822159 -211.748108
-95.162125 -71.811455 -213.258041
-92.519287 -69.587997 -216.866653
83.364906 -71.736320 -219.073914
8.377863 -74.569191 -222.692276
-104.005707 -72.407478 -218.964478
-15.835651 -70.310120 -217.831650
-20.292994 -71.098465 -222.804703
7.369956 -70.124146 -223.348572
-9.054285 -70.782288 -224.292419
-126.275841 -65.965660 -224.533524
-10.022554 -70.058121 -225.901611
-106.359085 -69.637978 -226.599274
-141.696259 -72.046974 -223.840729
-117.003983 -69.996918 -226.965668
78.151230 -68.738815 -226.134995
14.229157 -70.764572 -228.739182
-169.588760 -72.046524 -226.639267
-110.543983 -69.349068 -233.154938
-118.505577 -71.088570 -233.668060
74.322769 -71.731728 -231.966370
10.304382 -72.019821 -235.410782
-3.728546 -73.891785 -232.113022
13.856500 -72.171013 -236.803741
-2.696845 -70.566742 -238.130096
70.260551 -70.812706 -234.433319
-6.092897 -71.429955 -238.020126
7.632836 -71.121849 -235.320358
-4.887616 -74.272133 -234.996155
-0.718299 -73.456314 -238.781799
2.126559 -73.442291 -241.890503
62.150181 -71.131187 -241.447296
7.077212 -68.658043 -243.530960
51.368225 -71.663292 -246.962631
-15.207801 -72.531151 -246.403961
-15.559627 -72.523956 -247.256622
-75.490349 -68.708199 -254.103958
33.713028 -71.880608 -253.117065
-80.940872 -70.843979 -254.006531
-156.830505 -69.809708 -255.671585
-84.966103 -70.142311 -256.808167
-138.603882 -69.649452 -254.722961
36.862782 -73.719780 -252.998718
-112.453506 -71.702835 -257.787720
-93.468582 -69.113960 -256.394226
-155.301346 -68.158539 -259.216766
-111.955070 -69.900391 -262.047668
-167.580475 -72.337509 -262.402161
-155.493607 -71.479561 -264.723663
-151.849838 -68.218864 -267.472076
-17.631079 -70.819626 -263.305359
23.055948 -71.113121 -265.599884
-157.018906 -71.930748 -268.788025
-14.978470 -69.878754 -265.865509
-162.513596 -72.204567 -270.124146
-17.325264 -68.171700 -272.507080
19.141514 -73.517830 -274.827240
-162.379776 -69.095619 -282.747925
-164.134155 -70.359428 -279.316467
-158.667328 -68.359871 -282.236389
-126.270996 -68.644417 -283.326508
13.054385 -70.472839 -283.330658
-138.324936 -66.758690 -286.649506
-92.466850 -69.709206 -285.988617
-79.768654 -71.672783 -283.925903
-75.135414 -69.329247 -286.782379
-71.467888 -72.049637 -286.120941
-56.230156 -72.329353 -287.608643
-160.089417 -69.513161 -285.499146
-70.643875 -69.266243 -286.454437
-62.192387 -73.300659 -289.026337
3.141393 -71.562729 -290.370209
-80.486572 -74.802559 -292.630005
-105.327515 -70.268013 -291.112213
-123.820122 -73.771446 -289.979523
-155.699554 -70.727188 -294.464478
-129.557007 -68.322250 -295.666138
-146.975021 -71.508499 -308.779572
-153.620789 -69.569763 -312.824707
37.466640 -64.037918 -21.830357
47.089989 -66.327118 -23.932640
43.235970 -66.345688 -32.107235
-54.030079 -65.307877 -49.766514
-76.105736 -66.922691 -46.424191
-36.391068 -69.618118 -49.263794
-91.288704 -68.982330 -63.878361
78.586403 -66.280800 -61.296734
83.516434 -70.956268 -65.027481
-17.151829 -66.680618 -68.743286
91.968147 -66.629829 -71.580124
64.213348 -71.016609 -69.343552
-42.692638 -64.037270 -78.152252
-47.224152 -68.863724 -79.080170
58.335533 -68.254601 -83.493538
60.285923 -69.861816 -88.887596
99.129539 -70.875595 -88.034569
-62.614944 -67.943665 -87.262947
-99.467728 -67.380684 -92.013359
44.051720 -72.177902 -96.236786
99.616081 -69.973404 -92.156471
103.780945 -69.932884 -98.142944
70.237968 -67.820389 -98.741547
48.245804 -64.488861 -101.597290
-99.585999 -67.335915 -103.867035
45.286221 -66.306053 -101.083946
50.241875 -67.218086 -102.110107
78.192337 -67.149612 -101.485954
82.101311 -68.378235 -104.738022
-99.936470 -68.718513 -104.295174
35.634399 -72.943237 -105.846367
44.889263 -68.192986 -108.733276
100.810936 -69.299820 -104.063683
36.580231 -71.344460 -110.873260
34.783657 -70.640121 -107.577614
109.884102 -70.521126 -108.655434
31.987942 -73.138847 -112.705055
105.205765 -72.141930 -114.757759
-79.949326 -66.311050 -113.292320
-88.083260 -69.094002 -121.207314
105.942284 -70.726669 -122.599106
33.590027 -71.861832 -128.094284
-64.456787 -68.048538 -127.247963
-90.644005 -64.815910 -125.432007
-61.496414 -72.372711 -131.702148
-89.570999 -66.908981 -128.076996
-75.093941 -67.784737 -131.062256
-51.801620 -71.177231 -137.746628
-91.151962 -68.124512 -134.836380
-78.569626 -67.755501 -135.464890
-79.739014 -64.562378 -134.547745
-48.307041 -71.369339 -133.619797
-79.815140 -69.068161 -139.034149
-80.279022 -66.398880 -136.925003
107.183769 -71.682968 -141.414871
24.657450 -71.332596 -142.687881
-45.762550 -67.781197 -147.059814
111.671997 -69.250885 -141.760544
-58.244938 -69.071159 -146.003876
-55.763832 -64.515572 -143.872696
29.172680 -70.410950 -149.343933
24.194416 -69.243279 -149.224854
114.175362 -74.182655 -148.730042
-49.156872 -67.438194 -149.935501
7.315517 -65.455444 -153.387497
-50.993050 -68.374847 -157.330734
27.265055 -70.075470 -152.237717
107.463081 -68.320305 -150.889450
111.962112 -70.166573 -156.140182
29.354895 -67.239128 -155.743988
109.351280 -71.551949 -155.260284
21.853477 -71.610786 -162.707275
108.919083 -72.911186 -157.213806
23.462315 -69.600510 -161.010056
22.974409 -69.382965 -163.929001
108.517616 -69.656464 -164.382874
-31.836742 -68.934570 -167.618713
-42.819736 -67.566734 -169.670715
24.435236 -70.971535 -173.208725
-143.385284 -67.285889 -175.971527
-38.321671 -68.671310 -177.068726
-111.150879 -69.182037 -182.110199
24.042917 -68.153496 -178.172943
-154.701874 -68.635406 -181.302338
-26.877111 -69.050827 -177.582260
-36.118965 -75.747559 -183.134247
-147.758163 -70.820930 -184.330444
-114.346802 -68.528419 -185.159622
-35.383240 -68.839760 -186.162704
-111.001419 -67.941719 -187.860565
104.572937 -69.619789 -187.433472
16.827160 -69.668701 -185.139084
-29.149147 -67.497238 -189.788605
12.843026 -67.780495 -184.780640
-22.930429 -69.732178 -194.329514
-28.170179 -68.245422 -191.545105
12.690729 -69.610168 -192.916000
18.690338 -72.137779 -191.615189
-23.924839 -70.768867 -195.778381
-111.071732 -70.596420 -196.865982
-163.614304 -67.992165 -200.436127
-15.473421 -70.797836 -195.905121
-16.179853 -74.006432 -197.894073
17.770967 -69.345703 -198.757446
-16.936159 -68.876961 -200.729630
12.288022 -69.658066 -200.074890
-116.305214 -70.419914 -200.752594
-122.129044 -66.399094 -203.490234
-25.585676 -70.697205 -205.600204
15.989958 -71.408218 -203.876205
-130.901871 -69.497566 -204.748611
-146.034531 -68.524872 -205.130859
11.319299 -70.683075 -207.525833
14.501758 -67.278183 -208.826996
-18.590097 -67.778671 -206.363159
-10.887454 -71.415024 -211.875977
5.432686 -67.050499 -210.887543
91.381531 -68.955185 -207.215347
-15.761335 -69.544952 -213.202820
11.657213 -68.581680 -210.488419
13.820324 -66.889618 -211.472488
-14.924007 -65.353432 -216.138824
-103.542114 -68.242462 -219.499435
-5.616195 -71.682724 -219.835083
-106.042183 -71.762093 -223.158951
12.182772 -70.436630 -222.696564
-3.177025 -70.508659 -223.340652
80.604691 -69.314369 -223.748367
-111.343956 -70.340462 -224.808792
-135.307434 -70.963921 -225.057983
-17.524019 -69.907707 -225.336578
3.431043 -72.484665 -228.358047
5.304795 -73.330925 -231.145569
7.950620 -68.620255 -230.432022
-4.653822 -69.815437 -232.611847
-127.157669 -68.301033 -233.836197
-141.716568 -69.278702 -229.773956
