# This PCD file was generated using the MATLAB® pcwrite function
# from Computer Vision Toolbox®.
# .PCD v.7 - Point Cloud Data file format
VERSION .7
FIELDS x y z
SIZE 4 4 4
TYPE F F F
COUNT 1 1 1
WIDTH 1455
HEIGHT 1
VIEWPOINT 0 0 0 1 0 0 0
POINTS 1455
DATA ascii
7.946212 291.331482 -74.827423
-104.371300 302.275665 -67.661438
-155.346252 297.447144 -76.589577
-147.446503 294.849915 -67.431168
-105.443649 301.553589 -68.587090
-152.537491 302.661407 -73.380104
-147.685226 298.414642 -74.469254
-74.177383 303.059814 -73.364342
-167.146591 298.626099 -72.558525
-121.982285 301.219879 -66.025581
-42.232883 295.629547 -74.344116
-150.879333 297.429535 -69.650063
-130.948212 303.416351 -64.675171
-19.332148 304.466797 -66.950211
-128.416306 302.799927 -65.763031
6.875555 304.746796 -70.642227
15.812720 302.172424 -66.619385
-132.723450 300.644806 -65.520920
-144.847458 308.221497 -71.995422
-155.635025 324.944061 -73.641212
-70.986649 62.564449 -63.659691
-21.020460 75.641052 -62.116825
-18.725000 74.874199 -71.478310
72.070808 88.335617 -65.648560
91.169395 85.685837 -67.303192
-35.517941 89.718803 -68.431381
76.835510 90.578133 -67.076836
90.928337 92.702911 -71.968506
67.181381 94.062241 -68.429245
74.017120 100.406303 -66.706757
-49.283405 94.998375 -69.234207
-91.005669 99.321655 -71.495560
60.104767 103.815422 -71.253342
51.162766 109.926636 -70.660942
93.674347 111.150238 -64.112038
-90.150215 111.561356 -63.145302
81.018677 110.182541 -62.912033
72.627739 111.162979 -68.895256
92.099541 107.987045 -70.782555
84.468216 106.494247 -68.302620
81.601257 108.912872 -71.179260
-87.418098 112.521248 -70.559273
44.743832 114.936722 -65.407799
105.696831 120.731102 -69.473099
107.712059 120.641045 -68.910851
50.475101 130.189941 -71.790543
113.789513 129.621445 -71.651443
118.104927 145.060196 -71.931564
-49.980789 139.393448 -65.651787
28.452232 144.803253 -67.900383
41.798283 143.682251 -72.149551
25.297421 152.002151 -65.536133
113.533073 147.053528 -72.293236
112.203979 140.278168 -69.785538
-72.889503 158.255508 -68.343719
-42.907978 150.599243 -67.368355
-70.669273 162.505402 -66.433250
19.341728 158.132233 -66.210121
112.767960 158.157730 -65.099625
-53.407169 162.046326 -70.381500
-71.608704 162.191238 -67.367340
-38.553417 161.414917 -71.832153
32.385120 163.858963 -62.500156
109.493141 160.456055 -64.082550
117.429153 171.834183 -66.967850
-67.623291 166.010040 -65.076927
-74.133301 170.237564 -71.115623
22.602154 173.444214 -73.113358
-59.662796 177.087036 -65.864113
-31.831326 173.422409 -66.016525
9.211556 174.015411 -70.189011
108.072472 171.535950 -65.139656
10.562226 178.259064 -72.430832
-31.784727 175.872955 -68.714149
-2.724192 174.797455 -62.579472
107.356308 176.918625 -63.954792
-41.102478 173.735535 -65.809334
30.937822 183.400391 -65.497437
115.097656 182.385056 -72.804520
-56.504131 185.700165 -64.886703
-27.202469 185.583496 -71.909393
102.393211 184.446655 -68.815346
30.001102 177.926300 -65.652679
105.384514 185.850769 -69.931862
-36.225975 189.230118 -63.899273
110.352974 190.816177 -72.110779
-62.587776 187.590851 -64.887459
-25.087282 187.808640 -73.013428
-146.786209 194.481873 -62.006557
-53.365345 189.085007 -67.310608
-146.737350 195.897461 -69.090149
-34.304878 193.536835 -65.843681
29.699244 188.871384 -73.756767
106.491608 193.557007 -69.264946
-35.646717 192.043823 -67.636612
11.176173 200.919556 -68.820869
16.874762 215.401276 -67.786537
-148.569778 198.077194 -69.173889
107.187012 205.921158 -71.479767
-22.622501 202.865311 -66.032646
101.313431 197.168579 -69.671257
12.636160 200.403732 -65.141777
-139.213074 215.607376 -68.381241
-137.068771 209.385803 -67.605354
102.907433 211.562897 -72.162643
-11.098011 209.899704 -72.914726
-16.568964 214.237854 -68.895615
12.065554 217.446732 -70.849632
-149.258041 216.146591 -67.598991
-145.793625 219.396027 -69.846573
101.732750 215.617981 -62.000530
-83.843689 217.460403 -68.078995
-34.578033 210.520905 -69.654305
20.790308 225.010605 -72.012573
-23.888302 220.799210 -68.992081
-74.343887 215.776093 -66.303429
91.729111 219.011276 -68.309189
-78.538712 222.113083 -65.377205
-147.264679 229.118484 -68.342667
-79.600327 222.485718 -66.447502
-11.054228 217.635071 -62.048805
-19.767927 229.998718 -65.229767
19.104738 224.518616 -68.841225
-4.444584 231.834885 -70.000778
-87.679825 229.109863 -74.188766
93.744743 223.765060 -67.118362
-99.287331 225.334625 -66.708473
-153.054581 235.170502 -66.520897
-28.046394 234.448593 -67.425980
19.622694 225.664276 -69.466682
-101.466080 229.934616 -69.154648
8.052899 227.512589 -63.357170
-26.367815 224.612076 -68.161598
83.164276 234.764359 -65.762886
-143.836197 227.374176 -66.742599
14.680444 235.780792 -67.335518
-8.714860 237.684311 -72.065964
18.439436 233.417084 -60.261105
84.666855 232.660492 -69.521118
-13.652016 239.104691 -71.996704
-129.714020 236.898743 -70.531700
-14.173291 234.125778 -67.984276
17.451685 239.311386 -67.937675
-126.948372 236.990738 -71.481316
-152.583954 240.929932 -64.782104
-142.337067 239.063934 -67.191765
-127.900055 236.412933 -65.981285
-10.830431 234.167816 -65.040703
72.659302 237.142334 -67.773453
-143.659561 249.152435 -63.666061
69.508102 238.172195 -69.072151
-20.388258 241.042358 -72.389931
-141.797714 238.148087 -71.437645
77.363930 239.138123 -75.874336
10.924665 242.019623 -73.398666
-139.447098 246.024979 -72.288681
-148.883484 243.125107 -67.436569
18.376173 240.634094 -63.733261
-1.713775 248.960266 -72.000496
-28.742247 246.745575 -67.186180
-0.785739 246.285492 -63.231842
-159.820587 247.822540 -71.781136
6.708458 252.672653 -65.809898
-164.077469 250.676697 -69.737358
-11.227434 247.383026 -69.378006
59.747753 249.068802 -69.083160
-12.775982 246.575806 -66.589081
-24.260889 256.990417 -67.796272
-23.677078 251.648315 -67.675316
-10.220334 249.937927 -72.177727
-145.654938 238.393448 -69.215477
8.608678 251.412582 -66.858269
64.874313 254.589340 -67.675087
16.329086 255.108566 -65.005547
-167.967941 252.686722 -66.341423
-50.772213 248.865906 -67.018524
5.767906 258.757111 -75.405243
18.034477 253.210083 -68.502907
-53.085522 257.349060 -67.788811
-1.292007 259.910095 -62.624596
21.431168 258.615326 -75.321312
-170.954971 259.078003 -65.713814
-64.754929 258.966003 -72.573044
-51.592754 257.633636 -66.153908
-81.840378 262.731018 -66.332451
-161.143082 256.410553 -69.988503
-149.965378 258.036041 -59.175114
-59.813023 259.772888 -70.420425
-67.921028 258.908478 -67.705276
-152.928360 262.186646 -65.577042
-151.366959 262.147888 -69.683441
-74.072472 264.928864 -63.202526
-92.794960 266.528534 -64.602798
-162.631897 263.528778 -61.357525
-156.613541 271.178314 -68.735596
-134.638794 270.091370 -70.420311
-82.571297 259.943054 -67.557884
-161.051895 263.642151 -64.012016
-140.945633 267.270264 -65.348221
-84.142906 258.862335 -66.953362
-96.685532 271.719177 -66.000671
-142.556946 265.311829 -69.474457
-91.813911 265.798737 -67.827988
-153.714279 265.470764 -65.850716
-102.978020 264.742218 -67.562347
-170.173904 268.721954 -66.969803
-161.392838 276.101624 -70.421120
-127.086807 266.180298 -72.594002
-151.724030 269.643280 -68.698082
-109.275925 272.837372 -64.027496
-13.245974 272.052612 -65.757011
-140.129074 270.696472 -67.724312
-126.117653 270.175812 -67.052391
-152.704391 273.399841 -65.782784
25.388283 282.143524 -69.094292
-148.817627 289.432037 -71.000954
-168.323425 292.157288 -68.583740
-8.120249 289.755005 -66.900406
-144.336960 289.621948 -67.382858
-9.886125 293.632446 -65.993507
13.609256 296.733490 -69.189453
-136.329849 295.989868 -65.417747
-65.536140 297.488129 -70.784584
-32.521999 299.275513 -71.443466
-111.650337 292.889587 -68.288635
-96.139229 300.081757 -73.393158
-87.861183 301.667236 -68.750107
-50.060955 302.658234 -69.837135
-115.202988 297.363770 -74.244911
-114.679604 300.385193 -69.862038
-32.907364 298.071564 -64.680588
-115.734970 303.935547 -69.589417
-127.560478 299.185577 -62.558395
-144.064072 304.554382 -71.156975
7.793424 300.922699 -68.421310
18.874725 302.940277 -70.278671
-160.722473 302.393280 -67.808090
-159.606918 310.895050 -72.707909
-147.604721 320.102173 -69.944534
-152.182236 320.432800 -67.364624
-151.922913 324.552277 -68.846809
29.119875 23.930208 -71.531616
35.185043 29.465576 -64.090378
22.149258 35.436230 -67.239784
30.190088 49.287632 -63.857323
-57.953224 60.351845 -66.248802
-63.937351 60.753223 -66.941460
-38.266438 59.092342 -71.613312
-85.602554 75.762833 -60.640858
81.281250 85.462967 -70.847488
-12.277429 81.505638 -63.311958
90.229469 73.508453 -68.025719
101.458282 85.871811 -67.160759
-91.185471 85.086685 -64.368416
66.933990 90.676765 -67.388390
-39.052723 96.782295 -71.244743
102.448509 91.058060 -67.166885
-56.395370 98.432930 -64.392662
50.841465 100.876640 -68.105179
71.000015 100.176949 -75.010887
54.967335 105.882317 -66.007057
53.585167 109.010704 -69.186531
76.239090 106.276360 -71.528389
48.017418 118.322533 -66.736984
99.052704 112.161858 -68.345589
106.139297 117.770500 -73.224678
78.704697 114.035271 -65.147110
94.556602 115.030724 -69.075920
101.066956 103.776588 -68.036865
110.854996 114.446388 -69.085281
40.644760 116.711647 -66.709480
114.348862 128.042694 -64.798462
115.314606 129.659592 -69.513863
31.018019 134.681625 -65.290543
45.422718 128.392654 -69.323883
116.204597 142.294174 -68.824280
35.040039 136.964355 -66.842308
117.499702 137.230255 -73.591080
108.772705 132.826767 -69.539581
27.934111 144.146545 -69.854034
-46.128849 143.519196 -68.153641
-51.204174 144.837830 -65.491508
112.390602 145.658920 -67.612625
-66.894447 149.641006 -72.916252
-70.673378 150.567093 -68.131493
-59.081989 149.574265 -67.998398
31.702759 155.077850 -68.648560
119.820557 157.197205 -71.075470
-69.271004 157.934769 -63.348217
-48.325020 151.516693 -68.059082
33.693146 162.810638 -68.315948
-67.425690 157.875168 -69.095238
115.144913 150.018295 -66.711899
112.255531 168.034454 -65.688103
117.279289 164.442932 -69.506371
-37.654205 162.591415 -71.339500
-63.042160 175.540176 -67.388878
-66.294128 167.881836 -62.648540
29.910385 154.439438 -69.155281
-1.142572 172.018524 -70.227295
110.881325 172.786743 -66.815819
113.101768 162.563385 -65.737419
113.564896 169.601379 -72.202927
-61.954571 168.397293 -64.863380
-43.970104 177.559570 -70.261497
-2.565780 175.264938 -67.311478
-29.958513 185.185303 -68.753456
106.614059 178.062546 -66.767929
-31.835546 169.958405 -72.341827
109.793427 177.678299 -66.081375
-40.832989 184.416946 -68.212288
108.993217 180.041855 -65.152840
-152.167709 189.102905 -68.976044
-24.803007 187.607193 -62.818974
-18.544832 194.094574 -68.429916
25.681131 187.017075 -72.301208
15.336312 194.058090 -66.735016
29.612570 192.965836 -68.689957
103.715187 194.740280 -74.465042
-151.275513 193.774033 -63.442036
-18.212246 192.524963 -70.554665
102.276566 188.736694 -70.168221
103.960083 199.304581 -63.562275
110.164040 186.734070 -70.257584
101.177887 203.315155 -70.258728
-149.899918 208.111374 -66.567421
100.666054 216.544006 -69.056206
-27.171654 208.827942 -65.568382
97.470764 204.766357 -68.107857
-118.397293 211.629440 -72.653999
-29.111719 198.612625 -73.274910
-141.544052 208.443024 -61.870438
96.971283 207.894867 -68.259834
9.353974 209.785156 -68.304420
25.530153 201.751022 -65.713417
-147.822937 214.353729 -69.515747
-136.702972 212.686142 -67.065300
-8.532383 218.671463 -67.571663
-123.334496 215.530594 -67.182587
-143.437454 207.317230 -69.377213
2.541804 208.838043 -68.603897
-24.801842 210.325958 -70.450890
22.070881 211.480667 -72.193184
6.574234 223.112991 -70.061722
83.900711 219.194290 -63.874073
-16.880817 222.153137 -64.823563
91.650185 219.227249 -65.150009
99.079826 217.129532 -71.440529
-147.205414 223.891754 -69.558083
96.144920 221.725845 -71.100876
5.195376 216.243439 -66.036766
3.509006 224.554626 -70.459930
-31.041748 215.954559 -67.462959
-88.448555 222.972580 -67.171707
-24.055414 220.047028 -70.509995
86.513489 228.020844 -66.693077
91.534149 225.778458 -67.081932
-30.412312 221.699493 -66.690765
-82.804855 229.707764 -63.607727
0.858502 229.519318 -70.238861
79.809174 221.913254 -62.983719
-151.572067 231.526871 -73.964630
-165.378784 224.511444 -65.592133
-162.445313 231.949753 -72.004456
-20.668222 237.062988 -69.946579
-153.760132 232.536499 -72.759811
-3.536454 233.990326 -68.663803
6.868002 228.583084 -70.095993
-168.187149 236.426376 -67.737152
-156.176361 238.441208 -68.045013
79.764999 242.182251 -72.657036
-0.354195 236.015366 -67.379257
-158.316269 236.701447 -60.832153
-141.832672 233.398407 -70.640205
-17.808788 233.817673 -66.082268
-1.011699 230.803879 -72.703148
80.779274 236.877121 -64.557671
-160.086563 238.112900 -65.327736
-141.107544 242.919189 -64.366829
-124.852844 241.919891 -65.474693
79.019310 236.180893 -70.993996
-114.902977 239.630264 -68.070541
-143.231552 239.719330 -67.657700
-150.224625 242.258560 -66.044502
-148.932037 242.223511 -68.809715
-154.837875 239.430267 -68.844757
-163.962921 238.775360 -68.577309
-131.818756 247.194489 -68.909538
-132.289322 243.806488 -69.079201
-151.139191 243.850998 -73.844368
-144.593491 248.194351 -63.333073
-150.070801 245.979691 -68.783127
76.537621 243.439804 -71.521515
68.138817 244.927185 -61.175964
-154.478226 245.678818 -65.658531
73.751740 243.197876 -62.003395
-19.533712 246.594543 -65.460464
13.451904 248.292435 -70.170616
8.727058 246.021042 -68.878929
-154.755264 251.692947 -68.004883
16.782883 251.442062 -67.349174
60.317604 248.635208 -66.184151
14.203135 248.407272 -64.639671
5.687945 251.471832 -68.169228
-5.661849 249.818558 -64.468407
-20.803921 253.109589 -65.937302
-1.439210 250.930725 -68.166840
5.710668 256.265472 -71.685814
58.433170 251.013992 -69.788834
-53.771515 255.011871 -73.529968
21.342352 258.192596 -66.852356
-57.321365 250.501129 -68.772118
-9.582638 258.311157 -68.448914
-65.894646 260.872467 -63.458179
-84.790031 264.393707 -64.789650
-81.372864 264.040710 -69.763206
-7.275489 266.577454 -67.283287
-122.517715 271.734558 -68.092270
-13.017237 261.800385 -68.859283
-115.956123 265.144684 -67.750557
-116.716187 269.266235 -65.988693
-102.815926 265.192902 -67.858612
-142.289749 270.816132 -66.357361
-143.633743 278.633026 -67.585754
-168.133987 273.642426 -68.041473
22.153709 290.727234 -72.780037
-59.184532 295.393127 -65.352104
-67.171570 292.640350 -66.833321
-41.207836 292.838501 -70.209412
-25.909882 297.513763 -68.822609
-94.793541 301.027740 -71.162430
-30.694986 294.974976 -65.655685
-2.660806 295.807098 -67.707832
-166.334610 300.184265 -68.325020
-17.476444 295.545380 -71.010109
6.477918 298.022980 -69.577690
14.986353 290.626770 -74.254051
-56.069603 295.933411 -71.924820
-34.115620 302.248779 -69.479218
15.309766 303.985931 -65.836075
-70.675415 304.300964 -65.897957
-41.283981 298.373932 -64.438461
-17.127352 299.656464 -65.661934
15.298686 301.716125 -71.166107
-11.169757 305.813263 -70.873970
5.404721 305.033569 -67.043907
15.406594 298.984955 -71.519592
-133.983551 304.674194 -67.067421
-144.183334 308.417999 -70.849525
-152.352646 323.876740 -67.683159
45.634716 24.171747 -66.193413
30.774231 21.706156 -66.784180
41.076019 25.025209 -67.193237
23.822874 28.141092 -62.162022
46.571022 33.232933 -63.814316
27.169456 35.034325 -63.705910
24.579779 36.645924 -67.055542
27.478848 50.743027 -67.905746
38.504887 40.932213 -70.489746
26.974211 47.436356 -72.170898
44.793114 49.552135 -65.028000
33.125881 51.015923 -67.596283
41.424011 45.429535 -68.991562
31.714348 50.115833 -65.303032
46.030876 52.046375 -67.029327
33.575901 47.674404 -66.078499
-41.264702 57.621994 -65.733002
-28.496061 60.304817 -60.956608
-89.243423 63.812473 -66.930016
-89.070206 76.266541 -67.548218
78.124969 74.534180 -70.153328
85.420654 82.726501 -65.691704
-19.776014 84.985672 -64.572388
-87.042984 82.264122 -65.324150
-24.031328 86.797226 -65.385971
-48.492550 94.763367 -68.337959
67.023430 96.398712 -63.086224
53.121441 103.828896 -65.229584
100.511864 101.491669 -64.415482
70.025620 106.867760 -69.531738
-68.866264 99.382591 -67.195030
-58.932201 108.868744 -63.019543
45.642220 107.477074 -66.530289
78.447945 108.127327 -64.644875
56.181187 115.242500 -76.316345
102.794258 105.459938 -66.492546
-93.693344 117.573387 -69.718018
42.403103 119.545120 -66.353691
108.520218 119.437187 -68.324326
50.267712 121.459351 -66.989967
101.589119 120.785439 -68.534241
-83.745834 127.198318 -65.972252
36.598179 122.701096 -70.855194
108.365356 126.638168 -64.815041
105.782509 126.112083 -63.524342
105.094360 125.036064 -67.404099
112.167992 123.871513 -65.192001
42.116016 118.215538 -70.138588
33.421162 125.723160 -62.189850
40.357082 122.503120 -66.326546
106.279953 130.844376 -69.014793
42.122917 131.533890 -64.531555
110.788818 142.478699 -65.446579
111.090340 140.979645 -65.197800
34.654884 128.598312 -63.590103
-77.418320 133.206253 -67.308083
113.603943 143.519165 -62.931458
-52.158501 148.060379 -66.907845
35.896259 144.027893 -67.780869
-72.593727 143.712555 -67.073807
26.635223 139.864594 -70.318047
-79.848755 153.688614 -67.757729
-44.439377 151.798431 -70.248764
-74.399605 148.494873 -69.037170
110.226761 145.963165 -65.771233
120.677673 151.043991 -64.219505
120.012665 157.353348 -70.728088
-79.346443 153.170593 -66.639442
7.705960 160.536423 -62.103504
-49.827114 157.738739 -67.387436
-50.908298 164.694122 -68.186859
106.985535 172.958069 -67.660545
-39.877346 158.094162 -69.591232
15.416350 168.119110 -63.657127
23.407476 167.030670 -69.363495
115.400841 174.866730 -65.088821
31.204559 176.911819 -65.735344
0.120085 173.544632 -68.682861
32.863174 170.052185 -67.658836
-66.742447 166.044403 -65.258881
-65.601364 168.855881 -66.891350
-68.767410 176.038315 -64.440979
115.416977 171.474426 -62.295376
-43.833847 172.787552 -67.386665
17.233749 174.793076 -66.888618
-62.999767 179.651611 -65.075737
-63.681675 181.341537 -64.044518
-42.074230 170.525772 -68.586143
-33.773361 177.457001 -70.470871
116.667343 181.162552 -69.902069
-36.469223 191.469925 -59.950283
13.311902 182.093445 -68.047043
111.444321 195.632919 -70.363876
-146.348846 185.778946 -68.953056
-145.478348 181.767868 -66.060280
-146.168304 191.181473 -64.302238
-141.257645 193.809875 -69.399559
-31.859879 194.569641 -64.963196
-22.452723 195.105865 -67.507950
24.469387 201.982391 -61.447186
-139.889145 196.262268 -65.858055
-147.020035 198.500641 -67.334709
-21.154152 195.140854 -64.409698
10.509594 192.298035 -66.608635
-149.325775 205.117676 -66.559082
-30.749887 198.916031 -66.891197
100.689613 197.929489 -67.289902
106.184258 199.439713 -64.863136
25.760717 203.097824 -60.885086
-9.744775 198.122299 -66.764427
-27.739662 202.459030 -69.134384
-155.419281 210.806915 -68.934158
-132.029297 206.447083 -67.946472
-124.832779 204.356644 -63.088676
-125.229950 207.121490 -65.100876
-21.082510 204.798248 -61.793720
14.963523 201.756180 -69.867599
92.440773 210.903839 -72.873894
-150.444595 204.029266 -61.663204
-143.477875 208.581497 -63.296806
-150.898407 210.719666 -66.644058
-153.998291 206.128036 -63.759991
-23.156168 209.369339 -65.614136
-7.660303 204.580673 -63.083809
-144.177612 212.573792 -60.992657
-19.203110 212.019150 -65.865074
-159.870300 211.524994 -65.980911
-133.764923 208.851212 -66.274033
15.886297 216.582703 -70.358902
-158.856049 214.042419 -61.983513
-145.527420 216.391617 -69.010788
7.739221 214.025436 -64.176735
-153.546951 212.022217 -63.176682
-24.543974 212.469757 -65.578278
95.119545 208.680084 -68.240471
-159.060364 220.395462 -68.324654
-163.506104 216.072037 -71.430199
-74.959595 216.407516 -64.012177
90.931023 217.858444 -66.177238
-3.031288 229.511688 -65.858437
-155.635590 222.503677 -65.168488
-86.366936 222.424576 -67.503998
-9.037035 220.667328 -70.691246
16.884813 227.964340 -66.322052
-143.318802 230.647568 -67.392105
-3.136888 230.576920 -72.773743
-16.764681 226.260757 -69.267204
-13.730700 231.151566 -63.228310
92.316307 230.833023 -67.148918
-19.158024 225.833801 -65.226219
-32.639732 227.713791 -66.072861
-106.956688 235.386261 -60.249229
-15.680593 233.622910 -64.748322
94.774368 228.700211 -64.726151
76.086250 231.362274 -68.420685
9.273722 228.413498 -68.363800
-10.669052 235.353210 -63.089054
79.939865 231.469543 -67.209618
-120.637756 235.128403 -71.793190
-17.135353 233.442291 -64.369232
-94.763947 233.151901 -66.229553
-99.995827 232.702286 -66.865189
-128.763260 239.118515 -69.212868
81.970886 233.032028 -67.698875
-121.888176 237.234512 -67.784210
5.062832 239.122345 -65.788284
82.766724 234.538452 -65.294731
-15.624017 243.331360 -68.460510
-13.527740 235.274185 -67.894920
0.833427 239.845184 -74.235535
12.387676 237.610886 -69.898361
91.549858 237.471786 -68.861145
10.155638 240.939178 -65.021172
7.735543 239.636444 -65.798111
-8.192933 241.818176 -67.633789
-5.851233 238.038513 -68.566582
20.890938 243.334610 -65.571594
-11.698835 242.770767 -63.224567
71.724602 250.747589 -67.761742
-8.899747 249.441376 -65.491676
20.191854 245.609238 -67.961830
-159.895447 249.501053 -64.241806
-5.129879 245.805527 -63.880703
-6.442724 249.096527 -69.089790
-166.640442 260.094208 -68.059097
-10.223320 253.883377 -64.381042
15.667584 254.878708 -63.445389
-147.442261 261.518127 -68.765686
-75.070511 261.796448 -66.902565
-61.372276 257.145172 -68.592781
52.171658 256.842133 -63.563622
-72.283127 255.955841 -66.199310
16.835566 259.745941 -67.484848
-71.994080 260.602600 -68.310600
-15.059001 252.880188 -64.119728
-144.516052 262.376984 -70.565208
46.118649 260.888306 -62.065971
-80.171501 266.708405 -70.971596
-102.440201 265.126862 -62.747398
-99.583488 264.143005 -68.592857
-120.583542 261.371674 -63.158962
-105.387665 267.130310 -62.502178
-104.378853 267.245361 -65.831940
21.795780 267.438538 -62.248688
-129.768265 274.992340 -63.569584
-14.701623 284.962616 -67.973122
-148.221558 294.003693 -63.055481
-168.184357 296.469055 -69.219048
-124.487328 292.754913 -68.157051
-113.647110 296.614502 -62.880459
-75.183632 292.799072 -61.803291
-57.408768 296.598602 -68.739838
-40.752243 295.644928 -65.451263
-15.101833 301.043060 -71.950302
-13.293143 303.338593 -63.971226
-38.393089 300.875214 -70.473663
-34.122906 298.690430 -67.126472
-18.935020 298.548920 -62.793831
-72.946800 304.162506 -65.797363
-56.051380 301.288147 -66.129845
-18.584967 301.851013 -62.280628
-13.532316 298.931824 -69.489601
-3.252480 303.473358 -66.420311
2.936161 302.921570 -62.256512
-93.393280 303.486084 -66.918716
-137.957993 306.133057 -70.074112
-115.186401 302.602264 -68.022026
-153.133728 303.453674 -64.013000
-150.244858 309.262787 -68.031456
-147.106369 310.094879 -63.725246
44.474674 32.520653 -61.834469
21.176001 33.227299 -69.702324
51.067146 33.859890 -61.010639
48.188774 45.538483 -66.616722
89.248756 81.591255 -65.173248
96.980194 84.412743 -67.787163
102.451828 86.529121 -65.818314
99.264679 94.142761 -65.409546
56.645508 100.004997 -66.685722
44.713280 99.461845 -72.554695
64.380714 100.736214 -64.427971
-64.626999 103.857964 -63.547939
72.833054 97.184433 -63.825508
100.908600 109.559761 -56.574947
75.390045 111.851036 -65.698952
94.255714 113.350334 -64.058105
-85.877571 114.965523 -66.456673
46.804516 105.873810 -63.705856
-87.043976 110.014488 -67.293243
52.604473 120.023125 -66.723282
37.526775 112.938728 -73.486771
100.579292 113.227707 -64.300812
37.528790 114.407379 -65.731590
45.602531 130.751648 -67.944084
43.287067 122.968521 -66.120056
112.425446 121.355347 -63.990837
-79.721291 131.850937 -72.077187
113.802788 132.553162 -71.045334
42.507168 135.258896 -60.557777
40.824776 129.827438 -65.474350
35.202026 129.790466 -66.574608
-54.177795 139.267380 -71.700523
30.537607 133.139984 -64.346581
-77.186615 148.415329 -62.024845
-54.204967 142.308762 -70.683479
-78.739029 144.836807 -62.850166
37.604351 141.929871 -63.254272
-59.206970 143.302200 -67.935760
36.093254 142.885666 -64.987053
-70.489349 149.577408 -63.307762
-58.551971 152.303513 -61.037491
24.468966 154.457428 -67.177826
112.696045 152.883438 -68.935570
115.680687 147.646271 -60.355644
31.128452 152.764969 -66.318504
-49.117889 149.602890 -68.506081
105.799355 162.730072 -62.872189
-75.778572 152.324036 -65.593445
-57.815002 152.022446 -65.606079
32.442719 156.025116 -59.415306
-77.617371 155.828522 -67.729218
-69.640938 159.692108 -65.153580
114.612129 159.328033 -71.269012
-63.829700 165.599152 -63.948505
-38.894035 161.564209 -61.565693
25.183228 154.518097 -64.102592
-71.396294 153.926941 -66.505592
13.104525 158.776474 -64.441986
32.543900 168.401917 -65.323235
32.016388 161.839218 -62.601372
17.942915 163.578354 -71.076653
-50.101974 162.881149 -68.433678
23.701868 163.119446 -68.726578
-46.385323 161.059326 -64.699593
4.015590 164.219070 -65.912682
19.997583 159.971344 -64.676598
-66.588310 168.420517 -64.472481
-46.743324 164.091797 -62.233818
-67.987999 161.862244 -65.688042
20.820320 168.659882 -64.235481
24.230370 160.104858 -64.733284
3.050721 176.514328 -65.904663
22.507006 162.068253 -64.541832
31.201056 178.810944 -64.692261
-46.669346 174.065918 -66.799141
-37.990017 174.394409 -74.977837
-41.134781 171.093872 -67.275314
28.293571 167.549774 -66.524292
-44.113163 176.225388 -62.806492
-38.793633 178.787888 -63.897350
22.321836 175.346939 -63.687298
-39.193272 186.400284 -66.468590
27.826925 180.120697 -60.403122
110.877419 173.528503 -61.131306
-33.829796 182.173172 -65.916794
100.631546 183.595764 -62.522106
-34.154716 187.889084 -65.384346
-37.552910 192.087540 -69.836617
23.281235 188.327240 -69.195763
106.986305 192.079483 -66.668015
-32.692261 191.815247 -63.607216
-35.638725 189.593414 -65.445305
-22.339548 197.453308 -71.456268
-148.790039 199.421402 -66.172142
11.586387 193.414764 -65.179947
104.463280 202.419144 -64.006874
-160.532623 202.159409 -65.461044
-20.499502 198.120529 -61.013519
-115.300240 207.844009 -68.338104
-128.523926 204.443344 -67.913216
-106.221497 210.085663 -67.122536
-114.504272 210.097916 -64.479225
-10.756498 206.327286 -67.128372
20.202553 205.949478 -63.246895
-15.530260 212.097153 -60.977627
-128.012161 216.114227 -65.799416
-20.019945 211.146927 -60.676956
-127.609894 212.812210 -63.369629
-16.285576 208.658737 -65.449600
-146.812927 211.325363 -64.270973
92.160698 216.100021 -60.111546
-163.811600 211.023911 -58.376507
-1.543564 230.406891 -66.785622
12.648504 220.352524 -67.681122
10.606881 227.290039 -69.496056
82.720978 226.096573 -65.775124
9.917719 223.414734 -67.073380
11.754849 225.101135 -64.440384
-15.395574 225.345657 -69.288643
-89.973122 222.678452 -66.947693
-98.142952 226.661484 -65.802513
2.793822 228.105927 -64.711945
-166.189468 231.076828 -68.650406
16.701727 228.070007 -62.584423
-144.363449 229.975815 -65.007492
14.100849 234.935745 -66.316399
-134.907257 234.891693 -67.942284
-114.962021 238.338699 -66.971870
17.763517 230.215500 -64.907806
80.001663 229.516785 -65.753632
6.633469 233.707092 -66.429306
-108.384361 241.405914 -64.409218
70.068527 237.508194 -67.139145
86.081749 239.472427 -67.308678
-125.951187 246.823029 -65.357811
-118.432304 239.890442 -65.467621
-8.836032 236.030548 -60.832584
72.494820 243.043991 -66.298515
65.037819 242.280777 -66.243507
72.587898 238.478806 -65.036659
-136.077469 243.731735 -61.051296
69.590195 240.629990 -67.218933
66.172829 245.040359 -62.370747
-165.522690 241.435776 -63.330879
2.555085 252.254791 -74.300323
21.180809 249.068588 -67.516495
-5.674470 251.620636 -62.020405
17.502590 249.329132 -58.515736
67.678513 247.768280 -66.790939
7.897386 254.799149 -62.869511
-11.160085 250.245560 -58.424809
-1.356606 245.509018 -61.565678
65.312599 252.147980 -66.170433
1.877211 252.454102 -65.622818
-5.576184 253.165253 -66.581200
15.137272 251.907730 -69.367332
-167.133286 251.026337 -68.704445
54.698139 257.180054 -67.006599
49.121262 262.983307 -57.627258
60.185093 253.180664 -66.378479
-11.814659 257.965332 -62.824116
57.489994 254.975128 -64.782043
-74.135422 260.940491 -65.347427
50.673679 258.135864 -66.108513
-87.087868 262.916443 -64.821487
-121.395737 268.089844 -66.671883
-131.514359 262.191986 -65.975792
47.840569 261.467743 -67.865570
-130.219513 261.632263 -69.154831
-108.008865 263.969574 -62.516945
-117.130730 267.855682 -63.040947
-84.001060 264.406769 -65.924484
-110.130417 268.098999 -62.171051
-123.800697 272.648682 -69.995483
-146.932770 278.539703 -62.613770
-14.849257 277.826416 -63.511662
-173.077988 274.803833 -68.996429
-14.522459 284.981049 -64.267136
-158.231827 277.123413 -61.284489
-152.361084 282.297546 -66.689537
-170.584869 287.624359 -65.519539
-14.843209 292.008606 -66.319702
-127.734406 292.728882 -68.718590
-156.661331 296.288025 -65.359467
-142.770157 290.438507 -64.289185
-134.532852 287.927887 -68.506432
-7.877445 294.185577 -57.551674
-125.830383 292.807343 -69.376221
-140.411377 295.826691 -61.963413
-114.976418 295.487183 -70.165665
-80.699944 299.067139 -62.394836
-59.363819 296.888794 -67.166389
-7.644937 297.732635 -67.013786
-54.290142 293.591309 -63.935883
-56.468204 298.647461 -62.459038
-71.020813 300.278656 -63.409306
-88.699486 305.248413 -63.713882
-92.903526 297.836975 -63.354355
-158.995911 301.523651 -65.086090
-159.953140 304.603546 -66.432587
-123.787010 303.335785 -69.241905
-144.080658 304.316589 -65.222343
-151.278442 315.349487 -68.313461
-152.134064 321.475189 -69.256561
49.134365 22.958345 -63.312191
15.661521 41.542233 -67.159622
43.169971 45.250973 -59.783718
-13.916227 76.070427 -68.666779
82.264236 75.080513 -62.457336
91.144417 76.083076 -59.630207
79.387115 75.139374 -70.169464
72.740341 79.919106 -67.038483
91.630966 86.144508 -66.879692
-96.952827 80.212074 -61.098106
66.781830 85.187286 -65.169785
-35.705658 87.730766 -67.869034
98.844406 95.489105 -64.245621
63.122936 100.590485 -60.715881
108.336113 102.352646 -70.774185
100.164658 108.965210 -70.180946
74.013802 111.568153 -64.906219
-81.312195 112.831108 -61.916504
55.029118 115.929970 -63.759937
108.783974 116.894333 -60.571438
46.518597 124.098740 -64.486618
80.162743 116.373009 -63.166542
41.931324 118.145439 -64.223557
103.196243 113.237534 -64.431961
47.934792 117.962494 -64.433739
106.547508 119.303520 -71.816078
111.309372 120.085899 -69.209076
-79.663277 124.321686 -62.116634
-82.878647 130.523468 -62.297302
44.189686 129.726624 -68.375603
114.091385 133.125320 -66.543114
113.783920 133.621262 -64.634109
-88.593719 136.701569 -63.729225
105.523186 137.284058 -67.356667
-59.272205 141.975555 -70.753860
-85.840958 137.952744 -65.607597
-70.412651 136.711487 -65.844398
-59.803631 136.857147 -60.638290
32.399601 140.960342 -64.586403
44.525135 145.972504 -61.133888
-71.154541 146.249130 -64.550514
29.181026 139.960159 -61.524704
113.150650 154.956589 -64.328819
-37.929558 159.567657 -65.181656
33.618275 159.595749 -67.060654
113.477180 159.160736 -62.252384
36.429699 152.453949 -65.580788
110.175049 149.802200 -63.010612
-51.390339 159.725403 -64.427307
-73.072052 161.589157 -61.139198
-57.105309 161.069702 -65.351158
-42.276649 175.062378 -69.956451
3.919067 165.779434 -67.335548
109.212181 163.148834 -65.154396
108.770035 170.926834 -64.150513
11.288651 166.882828 -64.476830
2.368306 170.566574 -63.823566
21.540882 164.243668 -62.560570
26.370583 165.708298 -62.853394
107.679169 175.484848 -64.114174
111.230011 177.670074 -68.454559
24.362791 186.125946 -61.242718
24.582056 175.133209 -68.055008
111.878548 172.256516 -61.644203
-29.559004 188.900711 -63.048496
110.924622 177.515228 -64.922951
18.196924 175.123215 -64.920815
21.702896 179.175629 -64.603096
108.339638 182.639633 -64.911354
27.778406 180.056168 -63.415127
113.998337 195.122375 -62.676567
-38.294224 189.469955 -64.153145
24.380701 179.513458 -64.480461
108.165443 194.799103 -64.242142
22.945807 187.139481 -65.823524
-151.024918 195.987015 -62.885117
-27.641304 200.000488 -60.837250
24.487932 195.265701 -61.360096
-115.087219 202.236420 -67.193642
-111.542076 202.630463 -61.340233
25.232290 197.873215 -65.329445
11.121182 194.727676 -61.155899
-26.743574 200.531799 -60.517036
-28.654577 199.333298 -70.070671
-28.579878 198.235657 -65.211044
13.312539 190.158722 -61.550072
-150.473267 205.855316 -64.784782
-145.998062 202.195099 -64.116173
-146.103806 209.303772 -69.238297
-23.308489 201.489395 -63.370789
14.689121 209.787796 -61.097481
98.764854 202.707901 -62.668812
-113.258064 208.379288 -62.903419
21.531790 207.872986 -69.309608
-13.477138 204.887360 -62.964691
-16.949200 208.555618 -64.275520
101.838280 210.284088 -62.424961
7.450813 208.301254 -67.461746
-21.873905 206.772125 -62.481441
-120.308662 214.223099 -68.572861
-134.157562 213.133987 -65.299179
-114.011543 215.955582 -58.218781
-141.903732 213.108032 -68.880836
17.122334 207.959381 -64.024658
93.027336 210.111023 -66.377777
-165.167145 210.042053 -58.648197
100.472778 211.645340 -63.288116
-22.937563 215.362534 -70.019012
95.010056 219.441238 -60.441372
88.576797 219.728195 -66.697227
11.004057 213.431259 -67.229034
21.033094 222.987305 -63.064896
13.669473 218.369415 -60.219563
-10.559698 233.672165 -64.591263
-93.495331 229.675781 -67.967278
-11.787201 221.317444 -67.411980
88.297417 227.558395 -64.911316
-94.018318 226.532089 -67.972336
-99.622421 231.981949 -60.808765
-95.792320 229.025864 -64.142952
89.490120 232.621979 -67.023239
-135.475739 235.142838 -65.670456
-130.888977 237.642899 -71.462654
-116.164413 234.674683 -64.938385
-113.050240 231.512390 -61.463673
-132.437515 237.841827 -62.147755
-112.848717 238.179214 -73.934357
-110.987747 238.363068 -63.840210
-6.701567 233.992554 -69.308754
-14.854732 233.218582 -68.009758
-0.488893 239.918518 -61.331409
-9.643771 236.916000 -60.411961
16.055077 244.137955 -65.580276
-19.927513 239.504898 -61.990795
-166.513687 230.670319 -62.974720
-4.982523 243.889938 -65.254196
81.397743 242.351425 -60.033760
12.321035 243.355545 -66.971344
-5.046085 245.442734 -63.687439
-156.773819 245.821594 -62.066216
-142.911285 238.533157 -62.745575
61.426743 246.696838 -63.065914
-5.223289 243.287582 -65.451180
11.368846 239.317612 -67.214684
69.920670 237.627304 -67.819473
77.235359 244.759125 -64.065567
72.001999 252.532471 -65.814728
-1.539217 244.845306 -68.640106
58.912395 246.872803 -61.707752
-18.952028 250.226410 -68.224327
-14.041892 249.858292 -60.775578
8.177342 248.589233 -64.266487
64.398773 246.840424 -68.963570
67.748764 251.560013 -62.141838
49.076828 255.831741 -64.954758
61.337925 252.716507 -68.674072
-14.927380 259.047180 -71.248466
-83.559982 266.517242 -60.713062
-76.588470 263.618011 -61.936447
44.415611 257.095795 -68.341553
-151.414124 259.758148 -66.866440
35.675354 267.101624 -63.982262
-91.980881 261.850616 -70.259407
-156.855743 263.927277 -59.525528
-139.544754 262.002686 -55.386749
43.721252 264.153748 -63.666267
-125.212891 268.400848 -60.180016
-117.327271 264.561615 -66.000832
-91.339462 266.593109 -59.387402
-12.756247 258.037415 -59.452019
32.447849 266.403076 -63.826935
25.333836 269.012207 -60.840237
-159.780853 270.802551 -58.153572
-114.231766 272.597015 -67.867287
-13.144782 272.162964 -64.347389
-131.640533 275.647827 -64.210159
-14.212866 280.258057 -62.959442
-163.363556 281.108154 -64.076401
-5.772612 288.440979 -65.495773
-159.746887 297.419891 -65.700798
-164.533310 287.937286 -68.341652
-142.028519 294.897125 -65.321892
-171.374863 294.300476 -67.648483
14.740300 298.766571 -67.898079
-102.861252 296.270477 -66.096283
-87.405128 295.358734 -58.236492
-168.384277 293.845978 -60.939655
-92.445129 291.697632 -71.381767
-155.479401 298.831818 -65.704216
-76.807709 306.570831 -66.504166
-71.841339 298.672180 -63.662598
-83.075577 301.769348 -66.652374
-3.242895 298.050812 -62.232098
-89.941483 297.148590 -64.520172
-98.978973 300.290497 -67.081657
-118.228981 302.727814 -64.891510
-116.493782 302.815948 -60.535515
-133.949738 301.087677 -65.069946
-142.150223 310.488251 -64.324753
-144.344879 321.843231 -66.199951
24.851864 24.357628 -60.396225
33.935413 25.774002 -63.101063
30.483253 27.831463 -66.586227
45.451622 29.540756 -60.282883
24.588675 41.617035 -63.209267
-74.053894 56.378437 -62.539825
90.267036 76.426636 -58.053158
-18.372955 76.822731 -60.248638
104.855316 83.563133 -63.191971
94.608414 85.620308 -68.322090
69.005318 88.819801 -64.731674
72.659660 92.055954 -68.245934
-43.641285 91.753616 -67.807350
61.465141 91.197250 -69.185783
-92.817360 98.697151 -64.354805
-47.008965 94.241959 -61.088299
-55.586693 95.050758 -70.896950
103.149826 108.464577 -71.013504
60.779926 100.552567 -67.592880
67.968063 100.762993 -62.968853
-93.945374 106.963692 -56.764683
108.804489 101.228683 -65.828514
43.356518 109.107719 -62.017166
102.955673 108.242485 -63.276524
107.955910 116.348953 -60.502956
101.008446 113.642097 -64.095039
74.978966 109.115959 -67.504448
87.743301 117.707260 -66.297806
51.129185 121.028915 -62.403332
111.359505 112.327431 -59.502483
48.248646 114.260910 -68.137642
39.479740 111.850952 -61.964310
114.168686 120.431763 -64.577614
-77.484978 118.629128 -59.580837
46.414093 122.617546 -62.379169
34.127781 125.794205 -66.984779
106.739532 120.504372 -60.835785
38.411064 121.412415 -60.626938
-86.502037 120.960846 -63.520874
-94.417564 124.011597 -59.392128
103.073685 129.762878 -69.126541
-94.103966 128.448364 -64.548195
40.224464 130.763626 -67.546486
37.391945 132.251724 -63.917885
-84.055222 133.515045 -63.597851
33.984032 143.880920 -61.584682
112.857803 141.259689 -65.178299
-52.400051 147.874191 -63.590961
-87.177681 142.596298 -61.904053
39.060234 140.331070 -68.581917
-86.304115 146.110367 -58.258030
-87.418961 150.310562 -67.023964
-49.352146 145.979904 -64.097031
-70.291473 148.581223 -60.880085
-49.920601 142.223099 -62.878510
117.792557 146.692673 -60.164532
-71.261673 144.424408 -65.918877
38.229607 140.445755 -64.852402
-77.783524 150.608078 -61.475525
-71.646706 144.961639 -63.802288
-92.897148 151.461166 -61.121140
-54.301998 155.411819 -59.801384
32.290737 155.785156 -58.233303
28.111263 158.835236 -61.954601
20.915602 154.260651 -57.187870
113.289513 156.116760 -62.927814
-90.671928 161.294678 -61.626778
12.005672 162.146500 -65.216896
-70.927940 164.382187 -62.830029
24.492573 159.004074 -61.894238
-48.588146 165.081406 -62.094097
10.579365 163.609634 -61.915680
17.373997 168.831161 -66.872932
17.892191 173.642029 -69.422623
-49.889244 173.070877 -66.264328
-37.865452 165.075806 -61.821861
-46.559830 171.792130 -64.583870
-102.555077 182.500290 -64.442444
22.588652 184.629486 -65.391098
-33.103535 187.580566 -63.610058
16.242487 188.139694 -68.874123
-141.844193 185.707672 -62.779785
-30.888474 182.275146 -59.422863
-155.477554 187.826935 -70.599182
25.315516 191.515625 -57.171856
-33.226227 180.251419 -65.424828
-106.219421 185.771393 -60.633884
-106.236061 193.874756 -69.666664
-29.835630 195.521973 -57.226555
-23.450634 191.395416 -69.052841
13.355399 198.910980 -62.203308
16.817942 208.545044 -59.887115
14.028295 197.244263 -63.977619
-141.891449 196.570801 -61.226456
24.478161 199.634567 -58.558029
6.658877 206.628784 -62.614414
-134.604431 203.213043 -61.345104
-112.236977 205.032242 -62.734837
15.644011 213.332489 -61.065506
-117.634720 206.607605 -61.425846
-106.941605 202.196960 -56.112755
-165.900238 211.180206 -64.963356
-23.696445 209.755997 -61.526642
11.744010 209.620590 -61.185402
-144.076721 213.888504 -64.072792
-136.810898 216.889236 -66.903694
-20.891102 217.695007 -60.935753
-11.678123 215.143814 -64.310150
-13.233531 215.731049 -64.710846
-138.280945 212.709122 -68.382843
-16.578688 222.755844 -63.091984
-8.588058 224.425903 -69.215942
18.670904 221.127686 -59.592201
-16.112017 221.629578 -68.775734
10.998823 219.111725 -64.520523
-10.385555 225.111008 -64.950417
-22.438566 221.528915 -59.300980
12.473516 230.645828 -70.270439
-1.696442 229.116989 -69.962799
11.796089 230.439804 -58.500328
-5.826739 238.077148 -66.651367
-159.616699 236.366913 -64.888306
81.228004 229.623932 -66.616333
-135.054169 233.757614 -60.710266
-134.622849 231.794479 -66.227959
-7.403487 235.026520 -64.311340
7.494237 245.109085 -62.874683
-157.493668 240.964890 -63.284050
89.997246 230.039642 -61.350201
-0.997044 236.292435 -61.719337
1.368353 231.433533 -64.018768
74.614258 240.745773 -67.033699
0.907668 246.080597 -60.113365
-13.245773 235.096680 -65.115082
-126.813438 243.768402 -60.010082
-4.554460 247.773499 -62.954285
3.166389 240.368042 -60.544968
66.745743 248.036545 -60.138760
-157.484756 247.319733 -66.108871
-12.635098 255.369049 -61.590984
-169.551956 248.994659 -66.916054
11.069703 251.442581 -58.387074
-163.107025 248.765610 -65.363747
-159.563812 256.952332 -65.848572
58.546875 254.873871 -63.905979
61.762436 252.150009 -65.748299
56.186279 255.572311 -64.422050
52.022987 259.277069 -63.357246
-152.813690 253.055222 -65.283440
-155.738647 256.910248 -59.627499
-12.091930 259.377777 -68.284424
-150.272705 257.327667 -62.875835
18.847513 261.021332 -63.965652
-170.491913 261.399078 -70.361420
-168.236588 260.089355 -61.639557
-81.634384 257.406769 -65.885170
-170.027390 268.274353 -62.647453
-84.657578 267.976959 -63.213463
43.432236 263.545319 -62.136208
22.334011 267.044647 -67.016418
-157.571442 273.123657 -65.080566
-100.692238 270.004761 -55.842739
40.295628 264.825043 -63.073143
-106.260445 268.408478 -72.612465
-153.150574 275.895569 -59.727203
-103.614288 267.014587 -62.582157
-168.682709 269.516754 -66.975983
-112.708214 273.936554 -64.575638
-153.117065 276.297119 -66.349808
-158.867935 272.945374 -60.619461
-165.283417 273.911041 -62.710388
-164.740677 272.370300 -61.716976
-165.334457 274.724731 -63.802952
-167.840210 270.366486 -64.668686
27.051517 275.567413 -64.830894
-147.842728 272.854004 -68.892715
-150.901001 295.203278 -63.554760
28.035995 285.711426 -63.446030
-11.823690 284.622711 -66.504364
-124.909180 294.857178 -61.010422
-136.000092 296.531799 -64.041031
-133.293915 299.476440 -62.944500
-127.564064 295.942810 -63.958069
-112.719734 301.794983 -62.155502
-103.826950 294.357788 -58.837719
8.381609 304.665436 -67.478416
-83.992920 300.743011 -64.874069
-148.366272 296.861572 -64.358887
-101.931877 301.128998 -64.539742
-131.679688 302.531128 -60.868565
10.425916 297.595917 -65.849419
-110.708511 297.527954 -56.131954
4.623279 303.864197 -63.821514
-142.829941 297.014832 -63.313694
-152.067627 305.368317 -63.892113
-158.905151 326.484222 -62.501492
-155.498337 321.316040 -61.616360
47.604103 34.829067 -66.270615
25.579037 46.859089 -62.608547
30.100464 46.428204 -64.062271
-41.697292 57.145618 -66.199867
-10.252072 72.870796 -60.294186
95.696136 77.955513 -63.709080
69.197906 78.897057 -56.917747
-24.365038 84.167610 -61.983452
-99.245972 97.983444 -67.782921
-41.944180 94.907166 -62.595089
59.510647 90.328423 -62.479416
65.267342 94.884888 -66.393494
52.606003 97.677956 -59.937305
-58.603130 100.660271 -61.896229
68.174690 99.200104 -57.626930
43.732536 108.468407 -67.268867
69.936485 105.009819 -65.599983
-59.929314 106.441139 -60.911587
51.911350 101.856148 -64.969147
47.375641 108.106575 -65.676903
104.004448 112.335930 -58.787395
-64.526474 108.253891 -62.797020
112.256660 109.840370 -62.101299
-78.281380 111.498642 -66.554337
54.564453 116.470535 -65.985092
48.909050 111.176788 -60.992729
91.778885 114.206841 -58.705742
84.159546 116.101151 -62.846031
57.092476 114.995193 -63.760353
-76.222557 122.070427 -63.741428
-77.474014 126.645813 -62.335999
-80.355461 127.752403 -64.023125
-93.216530 127.494675 -69.353699
103.890907 127.465233 -55.751774
-89.551598 128.320374 -66.354767
-74.722908 131.514404 -57.849915
109.744263 126.691872 -61.679359
-59.385597 127.187599 -53.415680
114.078651 141.607697 -67.913414
110.650551 139.733643 -65.028687
106.241516 137.621475 -64.913116
-93.098900 146.812012 -63.674072
-45.058311 151.776291 -62.883495
-80.345802 153.474014 -59.524647
-68.692070 158.296509 -62.691250
-68.226204 159.219009 -61.599625
-54.372314 153.652557 -62.170589
-45.369507 154.305420 -68.358826
14.571199 157.266724 -62.972656
-93.172142 151.162247 -58.150669
-45.711105 156.304550 -60.920124
-50.562347 156.626114 -53.915619
-41.813480 164.110245 -60.216850
27.556843 170.558609 -65.825859
-50.253269 161.466461 -64.254463
-101.536026 158.226089 -56.730251
-46.670010 164.972122 -58.741272
25.940506 155.972046 -66.270668
-95.626686 173.482681 -70.414284
23.637987 167.925034 -65.885712
-107.569450 178.604385 -58.680412
-100.967743 173.780014 -63.414772
22.642578 176.117111 -63.115429
27.110626 177.386765 -60.711864
-109.944901 182.933411 -66.131416
-141.864899 183.184265 -59.434612
-17.788559 200.442398 -63.448399
-27.025211 190.354401 -61.794365
-116.313728 196.546753 -64.889107
-143.147614 195.833939 -58.045479
-101.138130 191.019882 -59.025383
-158.945679 198.646790 -63.186676
-130.507523 205.227722 -68.637161
-132.362198 206.082062 -65.862785
-18.784773 197.390778 -60.801579
-118.418350 208.950546 -63.760834
-117.916946 210.004883 -58.266762
-27.894279 202.866013 -66.035637
-153.756775 205.440445 -59.779621
-132.107132 214.745407 -64.354660
-124.367317 213.560608 -59.810112
19.157314 211.673828 -66.412949
-161.918991 211.693787 -63.300346
13.562039 226.634094 -60.738228
14.958405 225.243469 -64.646935
-14.960272 220.158936 -57.913006
-4.360292 226.647064 -62.788902
-171.625107 220.589706 -59.336948
-158.765625 222.096085 -57.805347
-94.308830 228.782913 -62.130276
-96.310043 231.326920 -65.375954
-160.373947 236.438293 -64.362434
-108.167053 228.761002 -59.868385
-11.141532 221.792572 -60.684994
-127.655136 231.109695 -65.107872
-142.491516 232.842010 -63.244022
-2.585123 231.185944 -65.489594
-133.671921 233.942505 -60.544205
-123.075569 231.884674 -68.223122
-113.740776 233.601120 -66.432236
-0.882280 239.058609 -55.547176
-107.058617 241.605469 -60.148926
-161.052994 232.358398 -55.547749
-145.257919 236.028870 -62.060841
-164.408524 235.583237 -62.311653
-7.708231 235.444748 -60.790535
-7.575295 243.477722 -63.364567
79.002884 235.047211 -66.218155
-0.742044 238.865204 -65.856682
-142.761703 247.789398 -62.735233
-14.034360 239.361816 -60.128792
74.498299 237.586594 -63.284195
74.670624 243.187607 -63.338890
-133.900513 241.766129 -60.739136
-155.810120 238.246750 -67.333862
-113.334587 242.703491 -60.469265
-124.831070 246.364105 -57.052868
-162.264465 244.955978 -61.275646
-160.352737 245.248413 -63.726410
-147.415436 242.708099 -56.851990
-14.286973 244.405045 -60.148643
-5.343295 251.874390 -61.344158
-159.871964 252.251648 -61.344433
6.159720 247.057785 -63.418541
1.479281 247.945999 -64.288269
-158.752426 247.304550 -62.459965
18.767765 250.682938 -67.949249
51.417282 256.090820 -65.807701
49.728039 253.660995 -66.539085
-16.625671 257.090302 -63.863930
47.905209 259.723938 -61.607624
-159.668915 258.823334 -58.011204
-156.643265 256.550049 -63.440910
-160.706146 259.086212 -68.320641
56.209068 257.572693 -61.971291
-93.297676 262.616455 -61.144787
-123.952194 264.494965 -61.083565
-105.888008 262.569855 -68.457222
25.381132 267.576294 -68.031883
40.262352 261.495667 -59.868759
-100.221886 264.455200 -59.447090
-92.837051 259.328033 -57.196106
46.008438 265.423126 -68.450760
41.417812 267.087463 -60.467712
-154.013702 267.233368 -69.170372
29.177250 269.978455 -62.883614
-143.277451 274.728760 -65.861702
-112.509552 272.531036 -62.596745
-137.848557 271.842163 -59.999741
33.030174 272.863647 -61.770176
-126.017159 272.610748 -61.385529
-11.223932 266.569214 -60.986656
20.567604 281.103638 -66.601234
-3.913065 274.195831 -69.506821
19.309345 290.322083 -65.564056
-154.275879 292.174866 -65.994568
-11.492534 290.738983 -60.472046
-152.472763 291.397369 -66.844086
-122.376892 294.704681 -66.187241
-163.156586 295.821411 -70.401688
-114.960655 296.627441 -62.481541
-103.545609 299.941711 -63.636425
-6.876964 294.385895 -60.898762
-107.650108 298.106201 -65.161278
-116.860352 293.065796 -60.248558
-122.525528 301.602844 -58.875275
-139.444244 299.795685 -63.239601
-127.056885 300.690765 -58.639839
-158.474472 299.102356 -68.980789
-147.174988 301.159271 -59.311340
-159.326248 312.543365 -59.429539
-154.528580 320.469116 -60.902592
-160.308350 310.872803 -60.097885
-139.695313 319.831024 -64.132607
