-95.721229553223 -53.038383483887 -56.171752929688 3.437352657318
-88.306198120117 -63.864112854004 -56.033843994141 2.540693521500
-93.807418823242 -58.124938964844 -54.847656250000 0.631979703903
87.384902954102 -69.085678100586 -190.547424316406 11.259292602539
81.077972412109 -78.884651184082 -183.915298461914 20.113061904907
-97.662826538086 -60.982048034668 -52.347320556641 4.717923641205
84.612014770508 -78.421005249023 -188.656127929688 15.558721542358
11.597412109375 -69.300857543945 -131.111938476563 12.469161033630
39.368469238281 -66.564468383789 -149.398468017578 7.490445613861
34.167068481445 -67.600280761719 -148.386245727539 2.835869550705
-94.237236022949 -58.540412902832 -47.442657470703 4.530694484711
43.799240112305 -69.537788391113 -148.688735961914 7.707427978516
77.170135498047 -73.363410949707 -176.550018310547 26.153322219849
39.817703247070 -72.128524780273 -149.489929199219 3.158604860306
34.910644531250 -68.050148010254 -142.165649414063 1.535206556320
24.639175415039 -71.082611083984 -136.638641357422 2.872756004333
14.443099975586 -68.658386230469 -125.130630493164 13.492270469666
28.848327636719 -67.630416870117 -138.402511596680 2.193218469620
37.903930664063 -64.475440979004 -138.476791381836 6.445728302002
77.203384399414 -69.619178771973 -173.689392089844 27.674190521240
-10.688011169434 -59.066848754883 -104.525863647461 30.366802215576
51.441757202148 -70.215232849121 -145.906967163086 12.769665718079
-16.406250000000 -63.663932800293 -105.850250244141 27.756612777710
26.659637451172 -66.756095886230 -127.664230346680 6.016129016876
-17.400428771973 -68.307693481445 -92.184555053711 14.025338172913
-30.490119934082 -65.791213989258 -78.272918701172 2.251327276230
-27.744110107422 -61.038017272949 -80.803619384766 7.736913681030
33.356033325195 -67.944366455078 -122.301422119141 0.860645949841
-56.416465759277 -60.119483947754 -50.276000976563 5.721634387970
25.970779418945 -66.091293334961 -122.845199584961 6.498556137085
-55.037567138672 -60.947067260742 -59.441772460938 9.433521270752
-53.285797119141 -62.602821350098 -55.587066650391 8.726285934448
-44.417404174805 -61.630577087402 -67.150421142578 9.485844612122
-72.960067749023 -60.671997070313 -39.285583496094 5.207275390625
-69.374114990234 -59.256973266602 -32.245819091797 11.342021942139
-92.044960021973 -57.394317626953 -21.856506347656 24.547132492065
71.560607910156 -63.898406982422 -120.419174194336 10.665055274963
8.481430053711 -66.345024108887 -68.381927490234 18.803909301758
0.479454040527 -64.423248291016 -65.965454101563 10.545370101929
21.652633666992 -62.615837097168 -81.261871337891 26.910755157471
36.684997558594 -64.857490539551 -86.439849853516 12.096896171570
-16.644584655762 -58.321655273438 -43.126892089844 6.539562702179
31.201156616211 -67.764999389648 -85.520111083984 16.512948989868
54.363571166992 -67.395050048828 -101.463256835938 1.142460346222
-74.899749755859 -56.853149414063 -1.520935058594 40.931404113770
42.405364990234 -63.209693908691 -93.098999023438 4.563149929047
63.111877441406 -66.048995971680 -105.148056030273 5.635996818542
65.786041259766 -61.996597290039 -116.345916748047 10.532390594482
11.576507568359 -59.965171813965 -70.088775634766 21.981935501099
32.898056030273 -63.642135620117 -77.816192626953 20.327108383179
73.599975585938 -70.233421325684 -105.367263793945 0.946806967258
4.508888244629 -64.984558105469 -54.451538085938 14.706746101379
24.628631591797 -68.294700622559 -76.482269287109 26.779720306396
44.899444580078 -68.511894226074 -89.738632202148 4.058504104614
72.465545654297 -64.944274902344 -107.440750122070 0.873923182487
53.548706054688 -63.583877563477 -88.526443481445 1.898418664932
66.287261962891 -68.416404724121 -98.742401123047 1.450230479240
70.952926635742 -64.635696411133 -109.723861694336 2.663093566895
-46.231681823730 -59.996284484863 -16.902496337891 25.714551925659
-52.084457397461 -55.554916381836 -8.049530029297 35.024791717529
-49.659988403320 -58.009292602539 9.381317138672 52.089729309082
-67.298370361328 -75.569595336914 -348.954803466797 55.652404785156
-80.704757690430 -74.118293762207 -342.215057373047 49.997425079346
-70.426597595215 -74.285118103027 -345.627014160156 52.232593536377
-82.690200805664 -78.223739624023 -332.712554931641 41.140090942383
-61.285896301270 -77.875411987305 -342.086364746094 49.636802673340
-75.857994079590 -76.789306640625 -329.196411132813 36.438957214355
-76.856636047363 -73.267723083496 -326.527160644531 33.846530914307
-66.156211853027 -72.399169921875 -316.904144287109 23.819526672363
-62.965084075928 -70.620223999023 -331.435302734375 38.761535644531
-68.344116210938 -68.157440185547 -319.473419189453 26.645801544189
-53.026016235352 -76.331481933594 -327.932189941406 36.399803161621
-61.457565307617 -73.044647216797 -319.996917724609 27.903726577759
-58.016216278076 -72.229370117188 -329.457672119141 37.669128417969
-63.219566345215 -75.260864257813 -319.784057617188 27.273342132568
-50.473831176758 -74.374137878418 -326.743164062500 35.119503021240
-63.130970001221 -74.632804870605 -322.886474609375 30.272922515869
-117.567146301270 -70.329231262207 -270.748565673828 6.490307807922
-105.887268066406 -75.829055786133 -275.884857177734 9.246107101440
-152.517944335938 -66.157081604004 -237.540985107422 3.181734561920
-144.994064331055 -65.378479003906 -227.626296997070 2.078775644302
-11.200241088867 -72.879959106445 -327.660797119141 34.072280883789
-0.661636352539 -77.659637451172 -325.142944335938 31.645368576050
-84.130737304688 -72.404891967773 -261.283966064453 4.938887596130
-139.906677246094 -67.637641906738 -223.879058837891 1.362830519676
-86.455917358398 -71.311347961426 -257.353454589844 0.892172515392
-101.337936401367 -66.780578613281 -236.652679443359 9.179683685303
-7.510955810547 -78.962394714355 -303.152832031250 11.465871810913
-14.234664916992 -75.882560729980 -289.068359375000 2.410523891449
22.534545898438 -79.583847045898 -318.839111328125 25.802453994751
1.355178833008 -72.565559387207 -296.778625488281 3.745956659317
-115.070098876953 -66.629486083984 -220.868652343750 3.758105993271
-101.629577636719 -71.264732360840 -218.875152587891 2.511179208755
-18.052398681641 -74.083145141602 -281.779541015625 4.984766006470
8.687667846680 -77.933334350586 -300.496826171875 7.302847862244
-4.576126098633 -64.843788146973 -282.183105468750 1.932003498077
26.802520751953 -77.593513488770 -317.080169677734 25.763132095337
-124.222373962402 -62.363616943359 -191.684890747070 4.182491779327
-13.538177490234 -73.897476196289 -270.128417968750 1.533810853958
39.749511718750 -75.917304992676 -309.265380859375 28.907752990723
-6.044624328613 -73.710014343262 -273.248168945313 4.687543392181
34.970214843750 -75.271392822266 -304.103698730469 22.135578155518
-110.671615600586 -66.568855285645 -189.607482910156 1.259516477585
-16.168174743652 -69.011100769043 -264.372802734375 2.289281129837
43.737854003906 -79.311073303223 -303.201660156250 29.520812988281
41.293685913086 -80.450897216797 -302.043823242188 27.090787887573
40.260452270508 -76.551948547363 -302.687622070313 25.912008285522
45.182098388672 -79.202255249023 -307.691528320313 32.921863555908
-14.401947021484 -70.120880126953 -271.208679199219 1.334324836731
-17.292945861816 -77.426628112793 -259.658111572266 1.799667119980
-13.439865112305 -73.760383605957 -266.535644531250 3.073455333710
44.713119506836 -74.935569763184 -298.776428222656 28.040851593018
-6.753356933594 -75.533638000488 -260.207824707031 4.321870326996
55.076431274414 -78.608024597168 -291.881927490234 36.997142791748
54.423492431641 -78.895202636719 -293.257141113281 36.529705047607
-14.543266296387 -76.063705444336 -258.131378173828 2.858027935028
-101.969177246094 -65.533981323242 -188.552154541016 5.234546184540
57.857635498047 -81.273643493652 -292.583831787109 39.843692779541
-72.855598449707 -67.250808715820 -191.435546875000 17.531414031982
-4.255867004395 -71.742652893066 -246.612976074219 1.429456591606
-91.883087158203 -65.913490295410 -182.909393310547 12.221073150635
-14.075088500977 -68.709625244141 -244.632934570313 2.106137990952
-91.805908203125 -64.655784606934 -170.619689941406 10.307314872742
-64.292053222656 -64.329925537109 -193.124832153320 15.738698005676
-90.432693481445 -63.778976440430 -178.079620361328 11.486946105957
56.695724487305 -78.201980590820 -288.755310058594 35.235736846924
68.055725097656 -80.310485839844 -290.742401123047 43.124206542969
71.511672973633 -73.687126159668 -285.565582275391 38.627357482910
-91.752563476563 -65.809364318848 -171.281219482422 9.977511405945
-17.443969726563 -75.481964111328 -216.421142578125 2.337861776352
-65.238662719727 -66.778984069824 -185.024948120117 9.571624755859
-61.967399597168 -65.819847106934 -178.814941406250 7.841062068939
70.112380981445 -75.748046875000 -265.159271240234 20.228778839111
-56.922729492188 -65.174209594727 -190.703918457031 11.174769401550
-6.687973022461 -74.291313171387 -214.920593261719 2.489741086960
-0.661560058594 -69.092567443848 -220.773849487305 2.008125305176
77.916488647461 -78.795715332031 -268.458007812500 27.982379913330
11.312728881836 -73.047256469727 -217.228179931641 3.573508024216
-15.602981567383 -68.278274536133 -201.766296386719 2.677967548370
8.673507690430 -71.322174072266 -223.828491210938 2.045143127441
-74.045867919922 -67.769172668457 -168.259048461914 8.442955970764
-71.399047851563 -66.169769287109 -166.739913940430 7.363136291504
-69.804977416992 -68.325408935547 -158.966400146484 3.790014982224
75.811843872070 -81.631652832031 -271.073211669922 29.845571517944
-51.517257690430 -66.933128356934 -176.417678833008 8.036751747131
-1.149108886719 -71.083366394043 -210.759170532227 3.477742910385
-62.997047424316 -67.989601135254 -159.479965209961 4.106234550476
-62.589611053467 -68.954399108887 -157.666839599609 3.524739027023
-51.387466430664 -65.873245239258 -179.334930419922 7.165672779083
-40.527259826660 -64.396720886230 -178.723251342773 7.624811649323
82.852050781250 -73.981056213379 -264.350952148438 27.052740097046
-34.844810485840 -74.541130065918 -165.339965820313 0.862581193447
0.051780700684 -69.589935302734 -202.613891601563 6.894556045532
87.213211059570 -73.005439758301 -249.622985839844 15.639536857605
-126.375160217285 -59.011199951172 -105.607543945313 24.755226135254
-128.161087036133 -62.006317138672 -109.220657348633 27.784631729126
-123.225532531738 -63.589378356934 -101.138763427734 22.740680694580
-117.509429931641 -58.761497497559 -102.150405883789 15.781710624695
-29.096382141113 -69.772827148438 -165.789932250977 3.395378351212
-21.097000122070 -67.792549133301 -171.019287109375 4.886097431183
20.527053833008 -76.574958801270 -192.836868286133 3.026175022125
-115.101013183594 -62.344833374023 -100.813079833984 14.897083282471
-119.464027404785 -60.410270690918 -94.874908447266 17.823614120483
-20.155464172363 -70.962661743164 -171.611373901367 4.242429733276
3.765708923340 -70.715721130371 -192.664276123047 6.461878299713
-117.443107604980 -60.954040527344 -88.142639160156 15.443560600281
-25.555664062500 -67.855377197266 -163.028244018555 7.370040893555
79.780609130859 -75.393569946289 -241.289886474609 6.393210411072
85.001907348633 -78.126022338867 -243.195861816406 11.136954307556
22.203872680664 -77.198410034180 -192.671752929688 2.686302661896
-9.105628967285 -69.258949279785 -176.039245605469 5.107500076294
-20.945854187012 -65.748992919922 -162.048950195313 11.641032218933
-118.894744873047 -58.137634277344 -80.074188232422 18.439123153687
-102.665306091309 -60.593490600586 -97.326660156250 3.279872894287
-98.298858642578 -65.904632568359 -103.026123046875 1.648495912552
-96.903625488281 -63.834152221680 -100.655990600586 1.848964810371
-14.496940612793 -73.444549560547 -163.741485595703 6.773440837860
13.075195312500 -67.600814819336 -187.811874389648 3.877508163452
81.027145385742 -69.143852233887 -226.225189208984 1.689478516579
-119.185897827148 -65.788146972656 -88.132476806641 19.115755081177
-110.816589355469 -64.514709472656 -88.641891479492 11.052748680115
-115.396469116211 -60.697059631348 -82.701324462891 14.935286521912
-120.724098205566 -63.452186584473 -84.443664550781 19.971057891846
-13.311958312988 -69.443321228027 -159.011123657227 11.895112991333
-3.758781433105 -72.968963623047 -171.886001586914 2.383389234543
-109.114547729492 -66.717132568359 -84.901611328125 10.308697700500
-8.550933837891 -69.394531250000 -159.214706420898 9.356846809387
-122.176246643066 -60.807037353516 -76.734283447266 22.425317764282
-102.710792541504 -62.124900817871 -94.286605834961 2.923483848572
22.599792480469 -66.961280822754 -176.419250488281 1.348945140839
-120.033271789551 -64.823143005371 -75.114440917969 20.462465286255
-107.621528625488 -58.580253601074 -81.401580810547 8.420490264893
14.274169921875 -72.675872802734 -173.392547607422 4.454217433929
-116.901100158691 -63.980171203613 -79.928009033203 17.548986434937
-12.599502563477 -69.352638244629 -155.690872192383 13.773821830750
81.683868408203 -73.960586547852 -229.380706787109 0.827430307865
-116.187103271484 -58.394073486328 -70.166015625000 17.095014572144
-122.198173522949 -55.086212158203 -71.178985595703 22.243772506714
-50.956756591797 -67.822547912598 -122.735336303711 4.853521823883
83.649185180664 -75.640640258789 -219.412872314453 2.233117341995
14.815292358398 -70.134292602539 -154.633468627930 2.486182451248
-112.309692382813 -61.721504211426 -70.335906982422 13.231965065002
-56.450935363770 -63.566719055176 -111.323608398438 5.311910152435
4.945739746094 -65.070899963379 -158.454666137695 4.278084754944
29.966461181641 -70.893379211426 -167.638275146484 2.957421064377
-97.483482360840 -60.132049560547 -71.128204345703 2.347507953644
15.639602661133 -63.211135864258 -154.035263061523 3.032279014587
1.967041015625 -65.949172973633 -149.323028564453 7.458069324493
7.057159423828 -72.091827392578 -146.883407592773 2.647593021393
92.471542358398 -74.575103759766 -209.809036254883 0.942766189575
-0.377204895020 -69.844070434570 -148.068298339844 8.252084732056
-10.094467163086 -68.160469055176 -138.647705078125 20.777406692505
-65.674880981445 -69.387527465820 -88.397430419922 4.988395214081
7.007965087891 -70.423065185547 -143.812118530273 5.181855678558
93.093643188477 -77.170852661133 -212.864486694336 1.287215113640
79.758941650391 -72.320190429688 -199.878433227539 13.328544616699
24.182144165039 -68.390571594238 -162.886795043945 2.147168636322
12.001144409180 -72.357322692871 -145.291793823242 1.377584695816
82.878219604492 -73.759735107422 -202.005950927734 10.439696311951
-76.383041381836 -57.044586181641 -81.083831787109 13.846675872803
5.713775634766 -70.716239929199 -143.082916259766 6.209263324738
-56.929214477539 -64.184425354004 -97.663497924805 6.027747154236
-61.384590148926 -63.240867614746 -94.973129272461 1.489208459854
-80.676528930664 -59.075088500977 -72.957000732422 15.485204696655
85.457748413086 -73.372253417969 -201.965225219727 7.853647708893
-76.308273315430 -60.941436767578 -78.460845947266 13.924270629883
27.013092041016 -70.559432983398 -151.647308349609 2.108302354813
86.891799926758 -75.798957824707 -201.106658935547 7.299243450165
12.940673828125 -66.587287902832 -136.187988281250 7.040608882904
9.845703125000 -67.389434814453 -143.895767211914 5.087654113770
24.374481201172 -61.863433837891 -148.967071533203 5.334762096405
32.188079833984 -66.919601440430 -157.374588012695 2.184952974319
95.846252441406 -72.728248596191 -204.082534790039 2.642317056656
32.158996582031 -71.606948852539 -153.146774291992 2.439203023911
29.470748901367 -70.703620910645 -152.807922363281 1.855160593987
18.000427246094 -67.881233215332 -141.748474121094 3.205291748047
17.691482543945 -67.143577575684 -146.220596313477 0.600416064262
42.246383666992 -71.671562194824 -157.565795898438 7.405969142914
15.560073852539 -72.057540893555 -138.708221435547 7.470695495605
87.673049926758 -72.447212219238 -181.641143798828 14.659969329834
21.848861694336 -69.871345520020 -135.082870483398 4.593461036682
43.123992919922 -69.212348937988 -155.430877685547 8.073153495789
-99.826301574707 -62.016746520996 -46.006072998047 10.266969680786
22.672637939453 -71.756690979004 -140.161590576172 1.350010871887
23.770416259766 -66.432975769043 -136.976959228516 2.274333953857
-98.846702575684 -57.653884887695 -33.665588378906 16.908380508423
23.362319946289 -70.838722229004 -130.668090820313 6.156968116760
44.773361206055 -73.319412231445 -145.077011108398 6.372217178345
-82.508369445801 -58.086143493652 -43.862091064453 2.542995691299
-24.108161926270 -64.304061889648 -86.193649291992 9.225873947144
-15.751342773438 -63.506988525391 -98.095764160156 21.213150024414
75.350311279297 -75.374565124512 -165.007873535156 30.751960754395
-25.342079162598 -65.254661560059 -92.514282226563 13.627524375916
48.754058837891 -69.290847778320 -142.028060913086 9.524023056030
-22.277893066406 -63.100639343262 -89.035140991211 12.205992698669
18.862762451172 -70.821922302246 -128.615753173828 9.441054344177
-79.570327758789 -56.454574584961 -44.977630615234 1.712255001068
72.803604125977 -76.448616027832 -158.107574462891 35.085147857666
-25.150863647461 -59.867507934570 -79.416168212891 9.002596855164
-44.360610961914 -66.755569458008 -67.186157226563 9.604938507080
-42.403656005859 -61.107070922852 -69.936248779297 7.374271392822
-61.181343078613 -65.303070068359 -59.543884277344 10.261395454407
-45.561492919922 -66.794990539551 -63.821960449219 9.326811790466
-44.545890808105 -63.530815124512 -64.479248046875 10.898392677307
57.084289550781 -74.709716796875 -138.500991821289 16.509012222290
-60.516368865967 -64.151489257813 -43.164581298828 2.599857330322
38.264648437500 -66.554298400879 -103.128250122070 3.509290218353
-64.171234130859 -63.289741516113 -16.932586669922 26.132116317749
-78.549285888672 -55.900657653809 -3.469573974609 39.310878753662
-45.579566955566 -59.645767211914 -32.163116455078 10.567471504211
-34.778335571289 -65.512336730957 -35.190582275391 11.092094421387
-6.085838317871 -68.958526611328 -60.881408691406 4.539260864258
10.761657714844 -63.054153442383 -68.614257812500 21.095760345459
23.485443115234 -67.353584289551 -79.044219970703 26.543560028076
47.605331420898 -62.338493347168 -90.107620239258 3.712065935135
50.096115112305 -70.379615783691 -88.948715209961 2.165413379669
28.680221557617 -62.410736083984 -76.450225830078 24.725772857666
30.694274902344 -66.039093017578 -80.572113037109 20.001604080200
42.672409057617 -71.280845642090 -89.432785034180 5.381454467773
2.592910766602 -64.949966430664 -53.220153808594 13.063525199890
14.520812988281 -65.676193237305 -65.509399414063 23.739290237427
44.884933471680 -71.768562316895 -86.951538085938 3.942702770233
47.522750854492 -64.918251037598 -92.620346069336 1.476724505424
58.364822387695 -68.538551330566 -94.870697021484 0.858775436878
62.856521606445 -73.075027465820 -98.767639160156 4.209689140320
-14.235488891602 -62.607696533203 -41.770660400391 8.354384422302
-48.450180053711 -56.735633850098 -13.524475097656 29.312828063965
-32.272186279297 -60.205123901367 -29.694122314453 16.513010025024
-62.506172180176 -61.907440185547 -6.460479736328 36.755069732666
-56.583198547363 -57.990562438965 -3.664794921875 39.073711395264
-53.737098693848 -62.466209411621 -4.641601562500 38.594703674316
-63.476001739502 -79.734954833984 -341.333160400391 48.765216827393
-81.512084960938 -70.468063354492 -327.402832031250 35.286918640137
-57.406311035156 -80.936073303223 -344.098815917969 52.746360778809
-52.597488403320 -75.005905151367 -333.244750976563 41.491394042969
1.730911254883 -78.423522949219 -328.290039062500 34.580062866211
9.733337402344 -76.241653442383 -330.691925048828 36.206024169922
15.312835693359 -78.507301330566 -332.116790771484 37.796886444092
17.227340698242 -78.618011474609 -324.078460693359 29.919723510742
-13.595916748047 -74.694442749023 -294.297302246094 2.004692316055
-23.293296813965 -68.124984741211 -287.979034423828 1.814808845520
-7.022834777832 -77.404006958008 -298.159729003906 6.297544479370
-109.157516479492 -70.463302612305 -219.586120605469 3.859974145889
-2.335830688477 -78.563842773438 -305.976806640625 13.931776046753
27.304382324219 -87.321853637695 -312.198486328125 23.755800247192
8.466918945313 -76.645523071289 -295.740692138672 3.527187824249
24.486846923828 -79.399642944336 -305.570739746094 14.927496910095
-119.598114013672 -66.125831604004 -198.241226196289 3.464663028717
-18.177642822266 -76.994369506836 -283.625579833984 4.646734714508
-123.429679870605 -65.288948059082 -201.586639404297 1.402720689774
-5.021339416504 -74.136878967285 -275.771057128906 2.424493789673
-21.082183837891 -66.575370788574 -272.917480468750 7.550303936005
29.519226074219 -79.540252685547 -309.406982421875 21.143814086914
-20.526641845703 -74.295547485352 -271.371490478516 6.020014762878
-4.273872375488 -72.348175048828 -263.048614501953 6.342061042786
-10.812477111816 -74.136657714844 -267.877014160156 3.718975543976
43.854064941406 -80.451400756836 -309.816650390625 33.005584716797
-104.432540893555 -60.653915405273 -188.511322021484 5.396931648254
51.866348266602 -73.338745117188 -301.925659179688 35.834129333496
-4.403457641602 -79.471527099609 -257.243835449219 2.892155408859
-8.769493103027 -74.537979125977 -260.863464355469 3.496520042419
-13.277145385742 -73.101425170898 -257.631652832031 3.518896341324
-79.484481811523 -62.467041015625 -197.562347412109 15.231496810913
-15.146263122559 -74.997772216797 -252.077346801758 3.304569244385
-93.009094238281 -70.611000061035 -176.173797607422 8.938074111938
-77.750343322754 -63.438499450684 -195.045562744141 16.321496963501
-96.341094970703 -69.743110656738 -178.184173583984 6.426247596741
-4.302612304688 -76.392524719238 -249.100112915039 2.790978431702
-81.304733276367 -65.865737915039 -191.168487548828 19.509826660156
-4.885200500488 -74.558776855469 -247.519775390625 2.953707933426
-86.874374389648 -69.718162536621 -179.242630004883 15.080848693848
-75.737228393555 -72.665962219238 -183.971343994141 16.094974517822
-7.324485778809 -71.511703491211 -231.438919067383 1.933890581131
62.902664184570 -75.096946716309 -284.776184082031 34.489860534668
61.865417480469 -83.912696838379 -290.358093261719 40.826564788818
-2.993698120117 -72.794158935547 -236.687835693359 1.323729634285
-69.429534912109 -65.817604064941 -192.057632446289 16.764879226685
62.918945312500 -80.597015380859 -272.486572265625 25.272506713867
-89.420455932617 -67.080108642578 -174.017456054688 11.624250411987
-75.124588012695 -68.154418945313 -184.845886230469 17.242416381836
-0.287742614746 -79.718338012695 -234.509841918945 3.850590944290
-88.744689941406 -64.789176940918 -170.207061767578 12.138840675354
-80.139152526855 -67.787300109863 -171.670120239258 14.691752433777
68.349136352539 -72.794448852539 -280.815948486328 32.858619689941
-72.015167236328 -69.258750915527 -170.273208618164 6.819685459137
-54.404830932617 -73.195732116699 -188.109146118164 3.508545875549
-6.837631225586 -74.623268127441 -231.667083740234 2.071482181549
-84.905464172363 -66.411705017090 -175.349304199219 16.122289657593
-14.039573669434 -73.497665405273 -221.131011962891 1.638697028160
7.346542358398 -73.656852722168 -224.862304687500 1.718489527702
2.933349609375 -76.432357788086 -229.717834472656 1.742359995842
-7.035133361816 -67.100997924805 -220.418792724609 1.625145554543
-62.379047393799 -65.647140502930 -180.763946533203 7.878205299377
-2.761352539063 -69.800033569336 -224.072387695313 2.871573686600
-60.612171173096 -69.623260498047 -184.248855590820 4.839632987976
-18.087051391602 -71.406768798828 -211.454254150391 1.729697227478
-7.770156860352 -73.662475585938 -224.239730834961 2.711878776550
-72.549430847168 -68.530532836914 -166.396499633789 6.402036190033
-59.208503723145 -72.020858764648 -181.476593017578 0.935834586620
-77.503356933594 -67.323516845703 -170.918609619141 12.432934761047
-1.990936279297 -74.032325744629 -217.695571899414 2.117333412170
-4.278533935547 -73.859184265137 -226.628753662109 2.316510438919
-11.599342346191 -71.186782836914 -200.967803955078 1.609751820564
-4.514633178711 -73.919273376465 -224.020629882813 2.409723758698
12.389907836914 -74.061904907227 -215.645492553711 2.962516546249
-53.070251464844 -67.330963134766 -173.688308715820 7.565213203430
-45.551979064941 -59.686523437500 -178.919738769531 13.041704177856
-50.347908020020 -67.230346679688 -179.368988037109 6.476870536804
3.467071533203 -72.213676452637 -223.101409912109 1.618121743202
-49.896247863770 -71.440216064453 -173.265960693359 6.200997829437
-44.051826477051 -70.636688232422 -174.384399414063 3.947672128677
3.148147583008 -74.577598571777 -213.160797119141 2.978034257889
-39.771476745605 -67.941131591797 -168.128845214844 2.106420993805
10.271636962891 -78.121368408203 -212.400405883789 1.933105826378
73.320907592773 -82.491500854492 -266.687133789063 25.781927108765
-37.970230102539 -68.873542785645 -174.672988891602 1.879273295403
71.070816040039 -80.346733093262 -252.594635009766 12.994578361511
-34.875961303711 -69.306434631348 -169.846084594727 3.731280565262
-34.952789306641 -64.599868774414 -164.665390014648 6.060301780701
11.814376831055 -68.958206176758 -203.513458251953 2.664063930511
81.371917724609 -76.474609375000 -249.689697265625 14.331001281738
-31.449554443359 -71.114082336426 -167.457824707031 1.396756410599
-35.062072753906 -69.132598876953 -167.599792480469 3.648442268372
-19.458847045898 -63.826179504395 -169.377059936523 9.200103759766
-120.393119812012 -61.451217651367 -93.034912109375 18.665895462036
5.235366821289 -72.191162109375 -192.331192016602 5.290563583374
85.341217041016 -78.835762023926 -239.738540649414 9.004405975342
-128.265167236328 -61.415344238281 -83.874160766602 26.510787963867
-18.004737854004 -74.350639343262 -169.434906005859 6.833519458771
-88.345100402832 -61.191650390625 -106.075332641602 5.250877380371
-101.026344299316 -60.865638732910 -101.006805419922 2.849339246750
-79.754776000977 -62.921150207520 -109.559783935547 1.596074819565
-86.528114318848 -65.059989929199 -104.545913696289 2.905254840851
-5.057617187500 -68.721389770508 -168.841857910156 5.949389457703
19.506240844727 -74.466712951660 -187.206970214844 1.949280023575
-5.743408203125 -74.492927551270 -161.087448120117 4.017939567566
-93.803085327148 -62.845039367676 -91.795623779297 4.961213588715
-9.934501647949 -74.535537719727 -159.194442749023 7.727436542511
-95.528549194336 -65.340034484863 -94.582519531250 1.571047544479
-8.202766418457 -70.031486511230 -163.624938964844 6.552990913391
-111.842864990234 -63.303489685059 -84.509094238281 11.472265243530
83.355346679688 -81.793136596680 -221.272247314453 4.829621791840
-125.955734252930 -68.166244506836 -74.460693359375 26.713172912598
16.580490112305 -69.286193847656 -154.831314086914 2.482383728027
22.110290527344 -69.386703491211 -171.345504760742 2.621482133865
24.638259887695 -67.356361389160 -164.631454467773 1.999587893486
81.885955810547 -75.433334350586 -207.911529541016 6.671800136566
21.694931030273 -69.786392211914 -167.238006591797 1.758013367653
24.065078735352 -72.501785278320 -166.837127685547 2.320573091507
2.530265808105 -66.022933959961 -150.868865966797 7.021104812622
-59.228996276855 -63.901092529297 -108.967987060547 3.039729118347
-63.504302978516 -64.496627807617 -100.887817382813 3.375347375870
18.631607055664 -71.649116516113 -159.146057128906 1.384627461433
-115.606185913086 -57.491691589355 -57.364837646484 16.808012008667
29.730087280273 -74.611358642578 -167.270446777344 2.243309974670
-98.818641662598 -62.458412170410 -70.943054199219 2.075263023376
31.842651367188 -70.634925842285 -160.374389648438 2.673442125320
-88.175971984863 -60.031303405762 -72.686828613281 8.614788055420
-70.108146667480 -62.154441833496 -81.613250732422 6.908300876617
31.947448730469 -72.326789855957 -166.274108886719 3.668144464493
81.715148925781 -75.243637084961 -203.549423217773 10.426946640015
25.104598999023 -70.089103698730 -156.970779418945 1.786848783493
-63.099697113037 -65.066299438477 -82.895095825195 2.757028818130
78.490188598633 -73.151664733887 -191.315353393555 17.399600982666
92.559875488281 -73.920524597168 -199.174270629883 2.161032676697
-74.014144897461 -62.985855102539 -68.219146728516 10.184283256531
-72.048164367676 -63.425209045410 -78.246520996094 10.220051765442
13.786956787109 -74.710601806641 -145.720001220703 2.727642536163
83.682235717773 -74.060470581055 -188.240432739258 15.501865386963
77.220779418945 -73.676445007324 -184.459640502930 22.788801193237
81.008514404297 -75.388580322266 -191.918624877930 15.360898971558
-84.174079895020 -66.716468811035 -64.544677734375 5.444012641907
79.952728271484 -73.000076293945 -188.519165039063 17.957004547119
79.609176635742 -77.572090148926 -182.721450805664 21.549514770508
-109.163024902344 -62.698150634766 -49.153381347656 16.153320312500
33.097274780273 -61.731132507324 -139.974761962891 5.115833759308
45.946975708008 -69.668655395508 -153.202392578125 9.926494598389
25.594757080078 -73.500282287598 -135.063186645508 2.059962987900
42.772979736328 -78.426895141602 -150.404190063477 6.952109813690
82.613220214844 -73.213432312012 -181.614868164063 18.876951217651
38.442459106445 -73.426940917969 -140.535888671875 1.341828703880
20.216827392578 -76.777343750000 -132.772003173828 6.919273376465
25.443893432617 -74.298812866211 -142.515838623047 1.663623690605
83.269882202148 -73.629646301270 -176.659088134766 21.220621109009
32.317611694336 -70.348426818848 -139.008926391602 2.768083810806
26.771316528320 -68.932800292969 -134.088394165039 3.040962696075
42.830200195313 -67.417869567871 -147.437820434570 7.127767562866
-104.575996398926 -57.105316162109 -40.719665527344 15.974225044250
77.725006103516 -72.085792541504 -166.384918212891 28.267694473267
76.281173706055 -81.030883789063 -157.979446411133 32.113769531250
79.757217407227 -73.098670959473 -172.814575195313 25.662218093872
24.429229736328 -72.240371704102 -126.365081787109 5.608254432678
78.581481933594 -74.504821777344 -169.704483032227 26.842769622803
-23.923500061035 -65.924407958984 -87.362350463867 8.904204368591
75.010879516602 -72.726387023926 -163.200668334961 31.587312698364
-33.213172912598 -65.641342163086 -78.112030029297 1.517973661423
-57.723682403564 -61.655120849609 -53.810577392578 7.723041057587
-69.389724731445 -61.821441650391 -52.573211669922 7.361103057861
74.768173217773 -70.755897521973 -158.925918579102 33.023532867432
-68.548507690430 -58.734268188477 -53.936248779297 8.669797897339
-49.540565490723 -66.665916442871 -64.827697753906 9.877428054810
-54.572631835938 -65.539421081543 -56.342773437500 7.146741867065
-29.800773620605 -64.705932617188 -78.780303955078 3.519407987595
-48.823791503906 -66.826232910156 -60.230590820313 7.391307353973
-56.832977294922 -58.129959106445 -48.871643066406 5.498516082764
-72.288612365723 -64.021888732910 -30.144805908203 13.725830078125
33.748214721680 -71.096893310547 -108.588882446289 3.851175069809
-95.303466796875 -56.127143859863 -18.051208496094 28.947771072388
38.269882202148 -70.263740539551 -103.045715332031 2.599436521530
-82.283180236816 -64.687141418457 -24.567413330078 20.295101165771
-74.276741027832 -59.574813842773 -24.105712890625 18.710327148438
-85.859634399414 -59.570564270020 -9.016448974609 35.526493072510
42.247222900391 -68.098701477051 -97.284133911133 2.340510845184
-48.188446044922 -58.889938354492 -30.297119140625 12.419225692749
-69.528205871582 -60.449905395508 -10.224792480469 32.699123382568
-61.835727691650 -62.436233520508 -23.078094482422 20.473249435425
-56.511642456055 -58.758224487305 -30.153961181641 12.894961357117
48.791107177734 -77.239746093750 -99.222671508789 1.411210894585
-46.581352233887 -58.347244262695 -31.386474609375 11.381597518921
-56.845420837402 -64.825302124023 -20.013031005859 22.978723526001
-36.220626831055 -58.176513671875 -35.657196044922 10.111904144287
-6.802597045898 -67.949043273926 -52.602783203125 7.426441669464
9.294235229492 -64.502738952637 -67.154663085938 19.112840652466
51.457489013672 -67.760749816895 -96.940872192383 2.678601264954
11.302886962891 -68.078430175781 -72.652984619141 23.384084701538
12.475952148438 -69.351325988770 -67.222198486328 22.516119003296
1.753021240234 -67.503189086914 -57.376159667969 11.358878135681
-9.541969299316 -66.064971923828 -42.964996337891 11.640407562256
-17.323303222656 -66.272781372070 -46.449279785156 5.523035049438
-68.326477050781 -60.509719848633 -4.613281250000 38.371654510498
-67.223274230957 -59.065567016602 -1.627929687500 41.245983123779
-38.719001770020 -58.459045410156 -24.091766357422 20.406896591187
-54.653099060059 -61.234169006348 -11.155242919922 32.009201049805
-53.807853698730 -57.562728881836 1.840667724609 44.688632965088
-50.839302062988 -56.485244750977 7.241821289063 50.118694305420
-65.312294006348 -78.673004150391 -351.860931396484 58.869411468506
-81.144714355469 -72.558662414551 -317.327728271484 25.762613296509
-57.087711334229 -81.527297973633 -330.200042724609 39.351913452148
-84.511810302734 -68.794670104980 -272.119262695313 14.053873062134
-7.853866577148 -80.803176879883 -329.299285888672 36.999027252197
-0.220962524414 -84.146301269531 -333.590850830078 41.073593139648
-9.825042724609 -72.931571960449 -327.917053222656 34.473339080811
-12.482788085938 -75.589904785156 -319.998870849609 26.476249694824
6.409957885742 -76.801040649414 -326.100708007813 32.073738098145
-149.274856567383 -71.286628723145 -219.497619628906 2.455960988998
-14.246269226074 -77.023117065430 -312.151214599609 18.898717880249
-95.209960937500 -68.116470336914 -249.837722778320 3.076784849167
17.637191772461 -79.735794067383 -322.690429687500 28.620872497559
-8.272636413574 -81.035202026367 -297.362609863281 7.385752201080
29.604843139648 -73.697021484375 -323.052093505859 32.633037567139
26.904403686523 -73.705253601074 -312.875762939453 22.583608627319
7.158813476563 -77.357696533203 -295.120910644531 2.482926845551
-117.364753723145 -70.961975097656 -202.440658569336 3.496138811111
-5.606430053711 -77.297233581543 -280.362762451172 2.123759984970
38.145584106445 -83.706382751465 -311.109497070313 29.316661834717
-7.607040405273 -75.946136474609 -268.793090820313 4.265422821045
14.881958007813 -79.398300170898 -294.786987304688 1.522753119469
-14.831619262695 -76.014434814453 -270.879882812500 1.095558404922
31.638870239258 -79.566955566406 -310.947174072266 23.724529266357
-10.094123840332 -76.169036865234 -274.574676513672 1.964527130127
38.222427368164 -72.315177917480 -308.374084472656 27.319717407227
42.415939331055 -75.193405151367 -310.426940917969 31.774179458618
-109.238143920898 -70.702903747559 -194.153106689453 2.266782522202
-108.156791687012 -70.243110656738 -187.264541625977 1.413208484650
-6.000457763672 -71.846481323242 -263.063079833984 4.849998474121
52.254714965820 -77.841842651367 -301.423736572266 36.226558685303
52.222763061523 -79.721817016602 -300.753295898438 36.223052978516
-109.052841186523 -68.384117126465 -178.980651855469 1.110626339912
47.841567993164 -76.455955505371 -293.058654785156 29.746198654175
-82.027153015137 -63.067428588867 -192.331878662109 19.800882339478
-106.019508361816 -66.657974243164 -179.681228637695 2.376121520996
-94.312545776367 -67.368721008301 -189.784255981445 12.376861572266
-85.889350891113 -73.202308654785 -195.674468994141 15.560122489929
-9.015159606934 -74.762619018555 -246.877655029297 1.454285264015
3.576599121094 -78.870162963867 -249.818038940430 2.773528337479
-89.326751708984 -68.483665466309 -181.593414306641 13.593782424927
-12.323371887207 -77.638275146484 -245.644836425781 4.521756172180
64.307510375977 -79.693649291992 -283.156463623047 34.951072692871
-54.661148071289 -69.672401428223 -190.456909179688 6.367797374725
3.078826904297 -72.109153747559 -232.679779052734 1.160687208176
66.970855712891 -81.727722167969 -279.860656738281 33.502590179443
1.063949584961 -73.854293823242 -240.027832031250 1.566645622253
58.810852050781 -80.901176452637 -285.499145507813 34.409854888916
-65.444061279297 -69.611778259277 -182.362991333008 7.332343578339
-81.945175170898 -71.560989379883 -167.930587768555 12.910909652710
-69.216949462891 -68.326660156250 -177.954467773438 9.147667884827
-48.814346313477 -64.430702209473 -175.620422363281 10.484588623047
-17.185173034668 -69.959251403809 -210.205276489258 2.127880096436
66.008560180664 -78.519104003906 -274.266418457031 27.320676803589
70.207809448242 -79.386985778809 -267.685119628906 23.727485656738
-10.711090087891 -73.241462707520 -213.523956298828 1.819918155670
-15.748023986816 -73.304924011230 -205.265991210938 3.154168367386
-4.087776184082 -75.808464050293 -221.604034423828 0.876491487026
0.680923461914 -75.787078857422 -223.282104492188 1.140484809875
72.020797729492 -79.294540405273 -263.364074707031 21.185548782349
76.348754882813 -75.146301269531 -263.896575927734 22.650833129883
11.063079833984 -76.991630554199 -205.554565429688 2.068664312363
5.019752502441 -70.357429504395 -214.869140625000 1.541940689087
73.396652221680 -82.057495117188 -268.326995849609 26.800952911377
-30.669883728027 -71.900848388672 -171.628799438477 1.296350717545
75.868240356445 -78.654884338379 -263.676422119141 23.352994918823
-0.257637023926 -73.100898742676 -210.968414306641 3.338648319244
4.948951721191 -73.573356628418 -209.750625610352 1.189148187637
76.813079833984 -78.439872741699 -258.019348144531 19.627105712891
10.316329956055 -75.113098144531 -212.564666748047 1.837756633759
88.658157348633 -80.839035034180 -251.180313110352 19.983369827271
-37.326911926270 -70.263931274414 -166.074310302734 2.249981641769
7.301177978516 -73.852493286133 -211.050231933594 1.215299248695
83.830841064453 -78.929351806641 -248.077377319336 14.921242713928
10.705749511719 -72.320175170898 -204.116256713867 2.819947957993
-124.356292724609 -64.644683837891 -94.334655761719 23.473773956299
-22.655265808105 -74.070137023926 -163.702148437500 7.669470310211
16.569488525391 -76.755775451660 -198.261520385742 1.477298140526
-91.533393859863 -62.424224853516 -110.670532226563 4.686303138733
-88.681106567383 -68.474670410156 -112.167953491211 2.203969240189
18.870712280273 -72.802864074707 -196.782394409180 1.394902944565
5.473464965820 -76.161331176758 -190.809936523438 5.746092796326
-21.630950927734 -74.436508178711 -163.787567138672 8.428289413452
-23.492149353027 -64.802513122559 -164.074890136719 9.171056747437
-24.277297973633 -69.672515869141 -164.777114868164 6.668582916260
4.555175781250 -75.963104248047 -195.804977416992 5.116192340851
-118.003601074219 -62.645591735840 -86.788574218750 16.745433807373
-116.587783813477 -63.633224487305 -92.346603393555 15.700990676880
-112.265029907227 -58.416336059570 -86.789779663086 10.015182495117
-18.181861877441 -71.782035827637 -165.172592163086 9.603306770325
17.245086669922 -76.226669311523 -180.761795043945 1.083585143089
80.866378784180 -79.823806762695 -236.085418701172 4.174463748932
-86.603378295898 -66.731636047363 -106.592834472656 2.050294160843
21.959289550781 -68.469154357910 -186.722061157227 2.169842720032
-8.269104003906 -72.733009338379 -168.205627441406 2.824756145477
-8.845916748047 -71.164733886719 -163.262191772461 6.251577854156
87.809692382813 -80.147796630859 -231.773880004883 8.603351593018
10.792266845703 -69.458831787109 -177.993392944336 5.757558822632
-13.940353393555 -72.683181762695 -161.715179443359 8.349090576172
-88.601470947266 -60.567352294922 -97.989761352539 9.862073898315
-100.535865783691 -63.015068054199 -90.555114746094 3.250841379166
-82.923156738281 -71.257247924805 -99.818710327148 2.606146097183
-106.647430419922 -58.973724365234 -86.179260253906 5.807447910309
18.243637084961 -73.477012634277 -183.807159423828 2.760439872742
80.768280029297 -75.673843383789 -226.906646728516 2.284310579300
-127.617111206055 -67.826934814453 -74.466644287109 28.306087493896
87.548797607422 -79.185180664063 -229.911651611328 6.512118816376
-9.416046142578 -64.977264404297 -154.511642456055 14.883503913879
87.638839721680 -81.589530944824 -220.271499633789 4.821452140808
82.878280639648 -74.953910827637 -216.541839599609 1.937352538109
16.677139282227 -69.834411621094 -175.938232421875 1.145282030106
30.235946655273 -74.463088989258 -173.944854736328 3.727580308914
21.458999633789 -76.922920227051 -173.197891235352 1.689158201218
11.156723022461 -70.887794494629 -146.782394409180 2.184133768082
-57.890819549561 -62.574508666992 -101.296112060547 6.468160152435
2.981292724609 -68.169143676758 -156.156494140625 2.048638820648
87.207855224609 -76.611419677734 -209.977767944336 3.791195631027
-60.169643402100 -62.581352233887 -103.523941040039 5.156864643097
-61.754554748535 -69.318153381348 -95.491073608398 3.730486869812
-60.280384063721 -66.262039184570 -100.288146972656 5.331184387207
91.246459960938 -74.505477905273 -206.694900512695 2.970814704895
-88.577575683594 -62.261047363281 -72.043060302734 7.369086742401
-83.170150756836 -56.721862792969 -72.999877929688 14.603374481201
-73.324363708496 -64.162170410156 -83.765167236328 9.815032958984
-72.824531555176 -67.861625671387 -87.988449096680 8.988852500916
-84.677352905273 -65.922859191895 -71.491546630859 8.239089965820
-68.217819213867 -55.334861755371 -83.312561035156 8.068656921387
-67.018371582031 -65.519325256348 -83.788940429688 4.474218368530
14.645568847656 -66.407455444336 -149.017791748047 2.075016498566
7.566482543945 -67.223228454590 -144.777328491211 5.348667144775
22.830047607422 -74.662155151367 -147.525558471680 1.827916026115
13.642333984375 -75.069503784180 -144.510177612305 3.489088773727
38.825119018555 -71.360321044922 -154.068817138672 3.880541801453
6.950286865234 -72.838081359863 -136.436325073242 11.574539184570
-116.337387084961 -63.142593383789 -57.236389160156 18.099391937256
21.714996337891 -70.421165466309 -141.857772827148 2.842096328735
90.192626953125 -80.859436035156 -193.752014160156 10.048660278320
35.410522460938 -69.757652282715 -152.564743041992 3.033370494843
22.517944335938 -71.959640502930 -140.494567871094 1.743669986725
-99.573463439941 -64.427154541016 -50.711639404297 8.091209411621
-92.683532714844 -64.685325622559 -64.790466308594 4.303607463837
76.792144775391 -76.569305419922 -178.621292114258 25.637365341187
21.173049926758 -70.218368530273 -142.210983276367 3.464101552963
32.267089843750 -69.513160705566 -155.272140502930 1.535034656525
78.468963623047 -72.462089538574 -191.163970947266 17.458713531494
88.424865722656 -76.551193237305 -189.545837402344 11.272592544556
88.872451782227 -74.382568359375 -180.273864746094 14.707441329956
25.190948486328 -67.236083984375 -143.274322509766 1.119738459587
74.815307617188 -77.770881652832 -176.934371948242 28.332223892212
14.324081420898 -66.527175903320 -128.654357910156 10.314446449280
17.761199951172 -74.262725830078 -131.496231079102 9.935311317444
35.055038452148 -72.135284423828 -145.775177001953 2.760864019394
79.510360717773 -70.860092163086 -180.532363891602 22.250888824463
84.722229003906 -77.805496215820 -178.380462646484 19.053621292114
72.316024780273 -73.813499450684 -164.064361572266 33.928592681885
80.504730224609 -70.883369445801 -173.975555419922 24.557119369507
22.901535034180 -63.629577636719 -124.052169799805 9.568881988525
-28.409248352051 -69.904815673828 -77.094238281250 1.124278426170
-24.455856323242 -69.144020080566 -83.597763061523 3.943778991699
69.444442749023 -70.134780883789 -160.456588745117 33.755485534668
-86.825447082520 -59.766662597656 -42.852600097656 3.966669797897
68.138381958008 -73.820701599121 -147.031982421875 28.825391769409
-37.565246582031 -59.933624267578 -76.342864990234 1.833559751511
-89.043426513672 -66.707954406738 -35.940246582031 12.590727806091
-76.400466918945 -71.908813476563 -47.499206542969 2.750323057175
72.866378784180 -74.661773681641 -154.135833740234 35.469383239746
-60.878242492676 -67.900192260742 -51.007080078125 4.036419391632
-56.557693481445 -62.618850708008 -59.022399902344 10.241714477539
-34.686134338379 -70.757980346680 -72.387207031250 2.962002515793
23.576660156250 -75.548263549805 -125.594482421875 4.690638065338
65.118865966797 -73.790840148926 -145.686447143555 25.565687179565
60.807861328125 -76.306991577148 -139.250518798828 20.445100784302
-87.393066406250 -67.806007385254 -28.606842041016 18.764970779419
-49.239807128906 -60.831558227539 -54.452117919922 9.270680427551
31.808761596680 -70.443725585938 -114.200500488281 2.143415927887
-61.611618041992 -63.390235900879 -41.562652587891 3.127424478531
35.675506591797 -71.652824401855 -106.976654052734 3.926373481750
-83.950241088867 -61.536209106445 -18.460052490234 25.978481292725
47.414031982422 -69.517059326172 -105.467926025391 0.623357892036
-71.331634521484 -59.907615661621 -7.509704589844 35.171112060547
-80.684646606445 -57.114288330078 -12.461669921875 30.912544250488
-58.561706542969 -61.388610839844 -19.966979980469 23.304967880249
-82.464965820313 -57.305862426758 -3.265411376953 40.268177032471
70.140426635742 -68.213142395020 -109.338119506836 4.119224071503
-26.161094665527 -62.957534790039 -41.973693847656 7.320455551147
-14.564750671387 -71.746498107910 -51.448791503906 5.456273555756
-80.595535278320 -64.188392639160 -5.080535888672 38.972404479980
-20.256843566895 -58.373161315918 -52.046722412109 2.889419317245
-67.058776855469 -60.141914367676 -8.885467529297 34.153518676758
0.933845520020 -63.978530883789 -49.035705566406 12.751033782959
0.152877807617 -67.223114013672 -58.200317382813 9.560729026794
-6.947547912598 -63.519134521484 -49.222381591797 7.457435607910
54.998748779297 -72.794227600098 -99.054473876953 1.879658699036
-15.296325683594 -65.297241210938 -48.804321289063 3.880477190018
-20.617698669434 -62.152526855469 -41.064666748047 8.478100776672
-34.776176452637 -63.144523620605 -27.653747558594 17.984315872192
-33.502349853516 -67.595550537109 -28.401458740234 18.156734466553
-48.404617309570 -62.041511535645 -19.721984863281 22.986394882202
-49.487121582031 -62.161148071289 -7.272583007813 35.459579467773
-44.469657897949 -60.000419616699 3.092010498047 45.770385742188
-84.168304443359 -80.100433349609 -336.288116455078 44.816825866699
-75.903091430664 -77.928718566895 -340.624328613281 47.811328887939
-77.327690124512 -74.213729858398 -337.093566894531 44.323375701904
-64.512527465820 -81.383621215820 -344.239898681641 51.733436584473
-74.067665100098 -77.038513183594 -322.342834472656 29.457658767700
-144.850067138672 -71.557106018066 -252.282196044922 1.177315115929
-0.788696289063 -85.662704467773 -332.723052978516 40.680137634277
-87.998893737793 -76.917678833008 -268.492919921875 11.272692680359
15.390396118164 -81.314453125000 -335.802612304688 41.680183410645
8.557571411133 -75.548110961914 -328.345367431641 33.961082458496
-10.326004028320 -77.544235229492 -310.510803222656 17.850887298584
-5.327087402344 -74.212265014648 -310.217987060547 17.042535781860
-99.229171752930 -67.644149780273 -241.914093017578 8.723834991455
-14.816078186035 -72.611320495605 -304.358489990234 10.664687156677
-134.887924194336 -68.030097961426 -207.176208496094 4.218844890594
-100.744163513184 -74.112991333008 -237.608535766602 9.667061805725
-106.780403137207 -63.794914245605 -232.360473632813 3.831819534302
29.047485351563 -73.061134338379 -315.077423095703 25.659021377563
-9.904457092285 -74.030654907227 -296.334136962891 4.502782821655
-4.175697326660 -79.076194763184 -300.183654785156 8.459066390991
-131.219207763672 -75.423522949219 -199.488815307617 2.401432514191
29.117874145508 -78.676986694336 -324.003509521484 32.995700836182
-19.113143920898 -78.427337646484 -278.906463623047 6.825098514557
28.446624755859 -80.774673461914 -314.780487060547 24.774991989136
37.153366088867 -83.732353210449 -311.058288574219 28.509630203247
