# This PCD file was generated using the MATLAB® pcwrite function
# from Computer Vision Toolbox®.
# .PCD v.7 - Point Cloud Data file format
VERSION .7
FIELDS x y z
SIZE 4 4 4
TYPE F F F
COUNT 1 1 1
WIDTH 1494
HEIGHT 1
VIEWPOINT 0 0 0 1 0 0 0
POINTS 1494
DATA ascii
100.498398 34.828228 -85.550003
89.794342 23.965458 -86.349998
104.518356 38.895882 -86.750000
86.868698 21.499599 -87.550003
105.223816 39.538292 -88.349998
104.462234 38.952049 -88.750000
-33.030056 -99.124481 -89.150002
95.391617 29.194971 -89.949997
108.086121 41.879372 -89.949997
81.445740 16.139198 -90.750000
87.974159 21.783413 -91.949997
79.397232 14.144065 -92.349998
84.927773 19.396799 -93.150002
80.056816 14.832383 -95.949997
75.595749 9.857754 -96.349998
75.909126 10.892548 -97.150002
-7.322785 -73.437668 -97.949997
77.526070 11.971306 -98.349998
-9.680928 -74.703590 -98.750000
-12.779792 -78.890335 -99.150002
75.338814 10.114888 -99.550003
-31.385303 -97.481033 -101.362000
72.781776 7.280126 -101.150002
-7.210165 -73.130905 -101.550003
-13.532809 -78.939316 -103.150002
-9.978398 -75.754295 -104.349998
-18.029318 -84.135681 -105.150002
-7.886284 -73.802666 -105.949997
-20.743425 -86.847626 -107.949997
-8.782864 -74.253799 -111.550003
-5.402614 -70.894478 -111.550003
-7.423131 -72.917770 -112.750000
34.389011 -31.158697 -227.949997
30.643805 -35.501305 -228.429993
38.075531 -26.757404 -228.350006
30.125982 -34.983070 -229.149994
34.139221 -30.908709 -229.149994
37.652012 -27.682007 -229.949997
32.284752 -33.098148 -230.750000
37.508667 -27.538548 -231.550003
47.307831 -18.467016 -231.550003
26.675829 -38.272430 -231.949997
30.545908 -35.403332 -231.949997
33.555885 -31.673372 -231.949997
41.454880 -23.397146 -231.949997
36.056374 -28.782019 -233.149994
38.201626 -26.883602 -233.149994
27.880020 -38.129154 -233.550003
40.757263 -25.395895 -233.770004
25.964643 -40.176739 -233.949997
28.641495 -36.194248 -233.949997
43.100555 -22.347218 -233.949997
54.311600 -11.852346 -233.949997
48.797054 -17.260578 -234.350006
52.386139 -12.761697 -234.350006
48.012379 -18.146555 -235.149994
26.183838 -39.128471 -235.550003
53.030312 -12.057959 -237.149994
46.046616 -20.110752 -238.350006
27.525194 -37.774048 -239.550003
54.570354 -10.902380 -239.550003
45.702831 -19.557726 -240.350006
53.562336 -12.601016 -240.350006
59.245987 -6.921888 -241.949997
57.438679 -8.379151 -242.350006
57.651825 -7.243905 -242.350006
27.794868 -38.347973 -243.149994
59.228725 -6.939135 -243.550003
57.270596 -8.210934 -245.550003
48.119617 -18.039400 -245.949997
28.188389 -37.954765 -247.950012
56.540684 -8.828867 -249.149994
54.916065 -11.248364 -250.054993
28.115456 -38.027637 -250.350006
28.384592 -37.285706 -252.750000
56.619637 -8.907884 -253.149994
58.033665 -8.133245 -253.149994
57.648083 -7.240157 -254.750000
29.653429 -35.858562 -255.950012
27.946886 -38.196075 -257.299988
58.094570 -8.072388 -257.149994
58.003601 -8.163284 -259.549988
54.916065 -11.248364 -260.114990
56.366100 -8.654143 -260.750000
55.792961 -9.428973 -261.549988
32.411133 -33.224628 -265.149994
30.408243 -35.736675 -265.549988
56.424217 -9.741413 -268.350006
53.762810 -12.400702 -268.750000
34.001209 -32.146572 -270.750000
32.730602 -32.195900 -270.750000
53.931625 -11.611567 -270.750000
34.436581 -31.206305 -271.549988
33.309814 -32.837414 -272.750000
52.380131 -12.755685 -273.549988
35.174419 -30.596279 -273.950012
51.223354 -14.938133 -275.149994
53.840691 -12.322881 -275.950012
35.224979 -30.923777 -276.750000
38.740784 -26.074726 -277.149994
36.985699 -28.363623 -277.950012
51.099422 -14.170942 -277.950012
49.051693 -16.166996 -279.950012
38.289627 -26.971672 -280.350006
49.688301 -15.455688 -280.350006
35.099567 -30.521368 -281.549988
50.521343 -15.639587 -281.950012
47.175369 -18.334452 -282.350006
41.145649 -24.436138 -282.750000
46.831997 -17.990805 -283.549988
48.503590 -17.655735 -284.350006
37.838444 -28.312389 -285.149994
42.779957 -23.374813 -285.269012
46.890530 -19.267509 -285.549988
61.658859 -3.163444 -2.974000
66.920341 2.093852 -4.750000
54.916531 -9.900406 -6.564400
53.046761 -11.768686 -9.150000
52.532276 -12.282761 -10.350000
56.939236 -7.879311 -11.247299
52.229443 -12.585353 -11.549999
51.759174 -13.055249 -12.750000
72.198944 7.368253 -13.549999
55.590813 -9.226661 -14.607100
51.218304 -13.595689 -15.549999
55.300430 -9.516812 -17.950001
51.140209 -13.673721 -19.150000
56.078770 -8.739093 -22.350000
51.817532 -12.996938 -23.150002
67.052696 2.226098 -24.090302
52.677715 -12.137437 -25.549999
57.609627 -7.209452 -25.549999
53.259258 -11.556356 -26.750000
62.240330 -2.582434 -27.950001
54.292118 -10.524321 -28.349998
61.781876 -3.040526 -29.150002
55.193684 -9.623472 -29.549999
56.939236 -7.879311 -31.038700
66.378487 1.552425 -31.325298
60.836662 -3.984987 -31.549999
61.665226 -3.157083 -31.549999
59.636154 -5.184539 -32.249500
64.355774 -0.468673 -32.318501
61.975132 -2.847421 -32.349998
63.007351 -1.816023 -32.622601
-17.225969 -81.985481 -34.892899
-22.619806 -87.375023 -37.767799
21.205091 -43.585011 -41.722099
27.273140 -37.521790 -42.408699
29.970057 -34.827019 -43.386799
-29.085615 -93.835686 -45.549999
-31.140226 -95.888657 -50.349998
104.332619 39.476349 -50.750000
28.621634 -36.174370 -51.280102
86.372169 21.530199 -51.950001
-8.594702 -73.361084 -54.349998
-32.520058 -97.267395 -55.550003
83.023476 18.184162 -59.150002
-7.174851 -71.817680 -59.949997
109.528885 44.668476 -60.220299
83.234200 18.394724 -60.737503
110.661415 45.800102 -62.349998
82.953651 18.114399 -63.150002
87.967438 24.445393 -64.349998
83.339989 19.637281 -65.949997
90.315491 26.140875 -65.949997
96.389763 32.197868 -65.949997
91.999168 27.152714 -66.489998
-34.032944 -97.528000 -66.750000
87.540047 23.524694 -66.750000
97.007759 32.157318 -66.750000
82.981155 18.647968 -67.949997
111.358894 46.497032 -68.349998
87.833069 22.989935 -68.750000
84.312553 20.012510 -70.349998
111.267647 46.405853 -71.550003
2.103204 -62.671692 -73.150002
104.460022 40.302696 -73.150002
0.246521 -64.526894 -74.349998
-3.741378 -68.511620 -76.620399
111.280380 46.418575 -76.750000
105.243385 40.386387 -77.150002
-8.380076 -73.146629 -81.550003
97.059311 32.876213 -86.349998
-33.835373 -98.581665 -86.750000
90.964195 26.840088 -86.750000
109.840134 44.979481 -87.150002
96.890312 33.045353 -87.550003
88.711906 25.048754 -87.949997
91.364792 27.787594 -87.949997
-12.506342 -77.269608 -88.436203
86.307968 22.060770 -88.349998
91.612183 27.540010 -89.550003
94.021873 29.173809 -89.566498
84.777252 20.895853 -91.150002
81.473625 17.459711 -91.550003
80.215393 16.022097 -93.949997
-15.366102 -80.127090 -96.349998
-7.458775 -72.226059 -96.750000
-6.105682 -70.874046 -98.750000
-13.606063 -77.517578 -101.550003
-12.150347 -76.277473 -105.550003
-31.138596 -95.887032 -106.750000
-6.720248 -70.924217 -107.550003
-9.466363 -73.569756 -109.150002
-7.440687 -71.551628 -109.150002
-27.633043 -91.797035 -111.949997
34.689682 -30.111155 -227.332001
36.038139 -28.763767 -227.783005
48.848480 -15.963623 -228.496002
32.777245 -30.894114 -229.149994
44.422871 -19.625172 -229.149994
46.825848 -17.984650 -229.593994
34.334148 -29.755339 -229.949997
49.053856 -14.820738 -229.949997
51.867546 -12.946964 -229.949997
46.604542 -17.763166 -230.750000
50.722897 -13.794117 -231.149994
44.438488 -19.640804 -231.550003
39.409290 -25.395300 -232.110001
50.871189 -13.942528 -232.320007
30.644304 -34.153309 -232.703003
34.462860 -29.884153 -232.350006
40.365524 -23.655392 -233.550003
41.499397 -22.093237 -233.550003
30.644304 -34.153309 -234.052002
39.724419 -25.080423 -234.350006
41.431976 -23.374226 -234.809006
48.857994 -14.624721 -235.550003
53.399738 -11.079256 -236.750000
28.813477 -35.982681 -238.350006
45.811878 -18.997812 -239.149994
53.568104 -11.247757 -239.537003
28.422434 -36.373413 -241.949997
55.925262 -8.892474 -242.350006
27.975454 -35.527676 -244.750000
27.831221 -36.731892 -246.350006
27.906960 -36.888477 -247.950012
26.827202 -37.075500 -247.950012
27.947351 -36.848118 -248.029999
28.066334 -36.729229 -248.350006
28.314943 -35.867435 -248.350006
57.241501 -7.577284 -249.149994
26.989264 -37.805439 -250.350006
55.600430 -9.217049 -252.750000
27.340553 -37.454430 -253.149994
29.727121 -34.583889 -253.149994
57.613518 -7.205565 -254.950012
57.572632 -7.246420 -255.149994
55.058998 -8.694423 -257.149994
53.659328 -9.990628 -258.750000
29.191799 -35.396568 -260.350006
54.590706 -10.225969 -260.350006
53.359283 -11.456411 -261.950012
48.858917 -14.625641 -262.350006
52.988861 -10.668052 -262.350006
33.127621 -31.244766 -262.750000
48.634640 -16.177298 -263.950012
55.782372 -9.035253 -264.350006
51.764336 -13.050090 -265.149994
53.295273 -10.974707 -265.149994
35.163521 -29.236919 -267.149994
54.256962 -10.559450 -267.149994
48.425606 -16.386164 -267.549988
50.250385 -14.562838 -268.350006
52.938107 -11.877255 -268.350006
52.893894 -11.921432 -268.416992
52.847454 -11.874956 -268.350006
52.906094 -10.585217 -268.350006
51.701084 -12.076097 -268.750000
32.563793 -32.028957 -269.950012
32.666988 -32.132236 -270.639008
37.061249 -27.090771 -270.350006
54.375732 -10.440774 -270.350006
32.731823 -32.067455 -270.750000
33.144302 -31.261461 -271.549988
49.595680 -14.014427 -272.350006
37.844326 -26.526016 -273.149994
50.656029 -13.727198 -273.549988
46.152172 -17.310438 -273.950012
52.991161 -11.824243 -273.950012
38.493256 -25.827002 -275.149994
43.642384 -20.192558 -276.350006
35.221413 -29.294855 -276.750000
47.061684 -16.872252 -278.350006
39.996651 -24.634674 -279.549988
47.361378 -17.172184 -279.549988
45.679474 -18.185930 -279.950012
45.841267 -18.347851 -280.750000
37.800293 -26.481947 -281.549988
40.444195 -23.734125 -281.549988
43.292515 -21.190876 -282.350006
39.020889 -25.006592 -282.750000
37.988449 -26.670256 -284.350006
38.710094 -26.093941 -286.350006
63.007893 -0.468136 -3.248000
57.720970 -4.616254 -3.950000
65.100830 2.831098 -4.750000
55.317448 -8.152457 -5.550000
67.594032 4.114353 -5.950000
53.401699 -10.066682 -7.950001
60.985184 -2.489233 -8.113199
63.682102 0.205538 -8.748400
69.456512 5.975351 -8.350000
53.023609 -9.354402 -8.750000
58.598175 -4.874343 -8.750000
52.581768 -10.885962 -9.150000
70.136032 6.654328 -9.549999
65.116333 1.638626 -9.950001
55.923527 -6.862793 -10.750000
70.860680 7.378399 -11.150000
66.350227 2.871542 -11.549999
55.591351 -7.878775 -12.220600
54.289898 -7.924713 -12.350000
51.314198 -12.152523 -12.750000
67.053230 3.573983 -13.134600
67.308037 3.828583 -14.350000
52.906067 -9.236765 -15.150000
71.759415 8.276421 -15.950001
50.996521 -11.370973 -16.350000
67.839211 4.359338 -17.549999
50.735695 -12.730565 -17.950001
54.083534 -9.066749 -17.950001
67.727516 4.247729 -19.875000
50.968922 -12.497524 -20.750000
52.907761 -9.238461 -21.150000
71.593040 8.110176 -21.549999
54.962551 -8.507072 -21.950001
67.128777 3.649472 -22.350000
51.659565 -10.686120 -23.150002
55.888664 -7.581697 -23.950001
51.776760 -11.690330 -24.349998
55.016346 -7.303315 -24.750000
70.440277 6.958333 -25.150002
65.079971 1.602296 -25.950001
69.750153 6.268754 -26.592899
57.999298 -5.472743 -26.750000
63.507519 0.031094 -27.150002
69.559364 6.078124 -27.150002
59.451778 -4.021419 -27.549999
54.246643 -7.881421 -27.950001
53.785175 -9.683513 -28.349998
60.088146 -3.385559 -28.349998
68.775299 5.294680 -28.349998
59.066494 -3.266002 -28.750000
61.263966 -2.210673 -28.750000
68.156967 4.676844 -29.150002
56.332184 -5.923211 -30.750000
60.136036 -3.337707 -31.150002
58.556900 -4.104427 -31.950001
63.184708 0.703328 -31.950001
-11.831595 -75.248047 -33.985600
-10.333638 -72.701790 -34.349998
-20.596561 -84.006042 -36.124500
10.131905 -52.729927 -40.750000
16.972271 -46.091076 -41.950001
31.004726 -32.445827 -47.549999
30.316683 -32.476963 -48.750000
97.248383 33.745098 -49.950001
23.228336 -40.216026 -51.071098
105.110229 41.600685 -52.349998
17.534851 -45.904980 -52.750000
14.463371 -48.974014 -54.327900
-6.395952 -69.816734 -54.349998
-9.571420 -72.989677 -55.550003
-9.422779 -72.264946 -57.150002
-6.992776 -70.413086 -57.550003
92.673988 29.174343 -63.848198
93.776154 30.768150 -63.550003
96.112526 32.610149 -64.349998
83.909027 20.416359 -66.568199
100.050842 36.545326 -66.349998
101.012947 38.358677 -66.349998
80.631447 18.302563 -68.349998
102.364571 38.857216 -68.349998
79.864143 17.722052 -70.349998
4.572811 -58.856701 -70.750000
105.131660 41.622101 -71.949997
108.512680 45.685490 -71.949997
80.737610 18.196314 -72.750000
80.019226 17.566849 -73.150002
105.910622 42.896347 -73.150002
110.241692 46.728065 -76.349998
108.892578 46.654995 -76.750000
-5.242838 -68.664536 -77.550003
81.218575 19.063532 -79.550003
109.920532 46.407166 -79.949997
80.822006 18.111851 -80.349998
81.316689 18.965345 -81.550003
106.513512 43.641403 -83.550003
108.441933 45.756298 -84.750000
80.838898 18.094946 -85.550003
107.691376 45.159161 -85.550003
-11.985807 -75.402138 -86.349998
82.044823 19.585047 -90.349998
-34.754757 -96.805611 -91.150002
83.473480 20.852251 -93.150002
-33.595100 -96.994232 -95.949997
-7.959215 -71.032692 -97.550003
-16.853554 -80.266014 -97.949997
-11.157382 -74.574371 -98.417999
-33.173428 -96.572891 -98.750000
-12.862263 -75.564987 -99.949997
-8.863357 -71.476395 -100.750000
-18.340061 -81.751335 -101.550003
-12.776169 -75.651154 -102.750000
-10.154460 -72.881111 -105.150002
-8.720225 -71.619637 -105.150002
-31.000969 -94.402168 -109.150002
-24.922653 -87.767326 -109.150002
-29.754517 -92.370720 -111.150002
-28.013102 -91.416679 -111.453003
38.061382 -25.394787 -226.916000
34.573395 -28.646320 -227.550003
41.228401 -21.822023 -227.550003
43.983009 -19.184961 -227.550003
35.937618 -27.314707 -228.350006
37.243595 -25.924807 -228.750000
39.322842 -24.134333 -229.149994
41.829140 -21.630030 -229.149994
40.897537 -21.490896 -229.550003
39.136017 -23.773357 -230.350006
45.183144 -17.689203 -232.350006
48.195770 -13.961968 -232.350006
51.757729 -11.709343 -232.350006
29.304518 -32.812454 -233.149994
26.909803 -35.809742 -233.550003
49.125996 -13.544370 -234.350006
48.181564 -13.947750 -234.750000
50.388821 -12.111354 -235.149994
47.500595 -15.963088 -235.712997
54.040775 -9.023953 -235.949997
55.625599 -6.564628 -236.750000
27.990622 -34.194431 -237.550003
27.458447 -35.989285 -238.750000
57.939240 -5.532752 -239.550003
56.244057 -7.226587 -239.949997
28.071541 -35.376678 -240.750000
27.974930 -34.178726 -240.750000
26.930723 -35.830677 -241.149994
27.947960 -35.500160 -241.528000
54.079094 -9.389826 -241.149994
27.947960 -35.500160 -241.630005
27.960865 -34.164654 -241.550003
47.137211 -16.326183 -241.550003
27.973354 -35.474785 -241.949997
28.063496 -34.267365 -241.949997
42.162514 -20.059977 -241.949997
56.976994 -5.220109 -241.949997
27.733410 -35.714539 -242.750000
26.640432 -35.540157 -243.149994
58.673512 -4.799067 -243.149994
26.972683 -36.474659 -243.550003
26.625942 -35.525654 -243.550003
40.775539 -21.368801 -243.949997
27.923838 -35.524261 -244.350006
26.722496 -35.622284 -244.350006
27.947960 -35.500160 -244.483002
48.365093 -15.099277 -244.350006
26.812389 -36.634827 -245.149994
55.453831 -8.016183 -245.149994
58.044571 -5.427505 -245.949997
47.551952 -14.666060 -246.350006
26.851225 -36.596024 -248.350006
49.043411 -14.421502 -248.350006
44.354561 -18.208384 -249.549988
55.923176 -6.862440 -249.549988
29.849550 -33.357922 -250.350006
56.965332 -5.208438 -251.149994
31.101812 -31.914263 -252.750000
49.136856 -14.328130 -252.750000
48.472000 -14.238416 -253.149994
57.419098 -6.052481 -253.549988
40.257725 -22.199041 -254.350006
56.232880 -7.237755 -254.350006
28.525192 -34.729427 -255.149994
57.333080 -6.138430 -255.149994
46.429855 -16.239918 -255.549988
33.057636 -29.826262 -256.350006
36.116364 -26.145136 -256.350006
42.290661 -20.188223 -256.350006
56.189648 -7.129124 -257.549988
38.944469 -23.581656 -259.549988
30.429138 -32.589508 -260.350006
56.889938 -6.481411 -260.350006
42.320278 -20.217863 -261.549988
47.763367 -14.877643 -261.549988
54.137608 -9.120864 -262.350006
55.728725 -6.667837 -262.350006
35.857113 -27.234137 -262.750000
55.366787 -7.654036 -263.549988
56.069614 -7.400891 -265.950012
32.528019 -30.644688 -266.350006
50.646988 -12.819200 -266.350006
39.233845 -23.871262 -267.149994
47.217934 -15.680202 -267.549988
50.122662 -13.193405 -268.350006
54.530197 -8.939083 -268.350006
33.904541 -29.325388 -269.549988
52.018139 -11.044979 -269.950012
44.573395 -18.427391 -270.350006
54.678749 -8.790650 -271.549988
46.035759 -17.193932 -271.950012
50.706467 -12.429253 -273.549988
35.897682 -27.274740 -274.350006
48.073730 -15.188255 -278.750000
45.028770 -17.534708 -279.149994
37.346371 -26.027662 -279.549988
39.149448 -23.786798 -280.750000
50.635174 -12.831004 -280.750000
46.022400 -17.180561 -281.149994
39.957760 -23.247301 -282.750000
43.368702 -19.918659 -282.750000
43.455219 -20.005245 -285.233002
40.319645 -22.261009 -285.950012
42.780987 -20.678940 -286.993011
59.348560 -2.199725 -3.950000
64.596794 3.335537 -5.950000
66.290710 4.337113 -5.950000
55.423447 -6.362316 -6.350000
61.247360 -0.054628 -6.750000
63.167858 2.068615 -7.950001
66.503433 5.472785 -7.950001
56.719498 -4.962407 -8.350000
63.392132 1.844161 -8.350000
68.346870 6.213948 -8.350000
54.780617 -7.067399 -9.950001
68.515465 7.504419 -11.150000
66.600342 5.375802 -12.350000
69.178162 8.189627 -15.950001
70.936058 8.801071 -15.950001
67.463135 5.860747 -18.350000
67.904655 6.767293 -18.350000
70.111633 8.603974 -21.150000
66.639427 5.336684 -23.549999
68.539215 7.480651 -23.549999
69.399185 7.265423 -25.549999
64.645065 3.287224 -27.150002
66.666077 5.310015 -28.349998
61.500473 -0.307941 -28.750000
58.060711 -3.607841 -29.950001
64.041817 2.542383 -30.750000
61.361935 -0.169294 -31.150002
-15.876403 -77.942284 -34.400002
6.373153 -55.710442 -40.741299
23.228872 -38.868137 -42.647301
29.636854 -32.465256 -44.750000
-8.532237 -70.459213 -47.150002
-31.703859 -93.757141 -47.950001
-9.134143 -71.205391 -48.349998
88.629181 26.480114 -48.591900
92.000305 29.848557 -48.496899
-6.941050 -68.006393 -48.750000
98.742569 36.585449 -49.213501
100.884254 38.725433 -49.950001
-6.790353 -68.863464 -50.349998
85.532516 23.385914 -50.349998
94.697227 32.543327 -50.635700
-9.866075 -71.936737 -51.549999
19.183529 -42.910259 -52.178600
84.311989 22.166357 -51.950001
83.383194 21.238298 -53.950001
106.346138 44.182968 -56.349998
-34.376587 -96.427742 -57.949997
82.322014 20.656063 -58.750000
83.235344 21.090572 -60.134598
85.603302 24.114412 -60.349998
90.254868 28.898407 -60.349998
88.629181 26.480114 -61.230003
94.023018 31.869656 -61.873802
9.087190 -52.998562 -61.949997
81.660599 19.969582 -63.150002
98.215424 36.058723 -63.550003
8.012195 -53.305370 -64.349998
99.722160 37.564259 -64.349998
81.544533 20.085735 -66.349998
104.820198 43.987637 -66.349998
107.634308 46.564560 -66.349998
81.126617 19.155563 -67.949997
104.958107 42.796040 -68.750000
107.507393 45.343296 -69.250000
6.373153 -55.710442 -70.592300
-35.189091 -97.239601 -75.550003
81.025902 19.256365 -75.550003
-4.414518 -66.489525 -76.394897
106.546265 44.382935 -77.949997
107.892235 46.306435 -81.150002
79.703636 17.561674 -81.949997
107.207977 45.642944 -82.349998
-11.801208 -73.870331 -85.150002
80.485840 18.448286 -87.949997
82.486992 20.490957 -88.750000
-14.527976 -76.594933 -90.018303
82.742271 21.584044 -89.949997
81.035797 19.246462 -90.750000
-15.330016 -77.396332 -91.949997
82.415245 20.562757 -94.349998
84.281174 22.740753 -94.349998
86.303314 24.762411 -97.550003
84.193390 22.828609 -98.349998
85.879883 23.837612 -98.349998
-10.635947 -72.399239 -98.750000
89.541702 28.263706 -99.550003
88.251526 26.858070 -101.150002
-30.844315 -92.898285 -109.949997
43.455791 -18.657322 -226.942993
40.615372 -21.208508 -227.550003
38.736168 -23.373188 -228.617004
41.944885 -19.842171 -228.350006
45.065571 -16.222971 -228.350006
43.565392 -17.418585 -232.350006
51.048588 -10.074655 -232.350006
52.869358 -9.251245 -232.750000
47.205395 -14.319228 -233.149994
27.599676 -33.803177 -233.550003
34.405231 -27.129560 -233.550003
31.240404 -30.704514 -233.949997
36.372364 -25.052883 -233.949997
30.117064 -30.928730 -234.350006
32.119751 -28.887629 -234.350006
42.575081 -19.124403 -234.350006
52.331909 -8.662152 -234.350006
28.646746 -32.154160 -234.750000
48.317314 -13.799665 -235.149994
48.085506 -13.851617 -235.149994
48.218006 -12.635656 -235.149994
39.889824 -21.830845 -235.550003
27.997168 -32.852558 -236.350006
38.465454 -23.102259 -236.750000
41.837799 -19.735003 -236.750000
45.251392 -16.408941 -236.750000
49.960629 -11.682817 -236.750000
53.402653 -8.385322 -237.149994
27.948496 -34.152271 -237.850006
45.935963 -16.179121 -237.550003
27.932791 -34.167965 -237.949997
26.881289 -34.432640 -237.949997
32.668655 -28.088520 -239.149994
32.016342 -28.784136 -239.949997
46.016644 -15.826377 -239.949997
57.406406 -4.717810 -239.949997
27.820704 -34.024376 -240.350006
56.650650 -4.893507 -240.350006
27.948496 -34.152271 -241.070007
28.338423 -33.194084 -240.750000
50.429081 -10.803082 -240.750000
27.934418 -34.166336 -241.149994
27.948496 -34.152271 -241.283005
28.950045 -32.457703 -241.550003
44.670979 -17.176628 -241.550003
52.381954 -8.712235 -242.350006
26.928364 -34.479752 -243.149994
36.346779 -25.027273 -243.949997
30.400427 -31.212320 -244.750000
33.602287 -27.674442 -245.550003
56.739075 -4.982004 -245.949997
27.009012 -35.091007 -246.350006
53.082458 -8.064876 -246.350006
38.538395 -23.175261 -247.549988
53.941902 -8.179557 -248.750000
56.048607 -5.639407 -249.549988
53.377617 -8.743390 -250.350006
28.538525 -33.394348 -251.549988
36.502209 -25.182827 -251.549988
51.717636 -9.395814 -251.950012
33.942623 -28.015049 -252.750000
53.417870 -8.703172 -255.950012
56.193153 -5.784070 -256.350006
50.253574 -10.627435 -259.950012
32.541161 -29.309372 -261.549988
52.840328 -9.170976 -261.549988
35.552387 -25.580709 -261.950012
48.946362 -12.016170 -262.350006
52.074303 -9.752763 -263.549988
34.576000 -27.300465 -265.950012
54.851887 -7.270297 -267.549988
45.029381 -16.186752 -267.950012
37.789036 -23.773754 -268.750000
39.823383 -21.764353 -271.149994
47.175285 -14.289095 -271.149994
50.154015 -11.876360 -271.149994
38.331631 -23.777399 -272.750000
52.776081 -9.106676 -272.750000
53.111073 -9.009723 -274.750000
43.222042 -18.423388 -275.149994
48.115192 -13.881327 -275.149994
51.311878 -10.338155 -276.750000
51.546543 -10.573008 -277.928986
43.410484 -18.611979 -278.350006
49.931011 -11.653177 -278.750000
47.890491 -13.656447 -281.549988
47.660137 -13.425908 -282.750000
48.430286 -13.686785 -283.149994
46.273106 -15.842248 -285.149994
43.218014 -18.419355 -285.549988
40.758858 -21.352106 -286.872009
42.781544 -19.331032 -286.863007
-13.178946 -73.899628 -34.442299
-17.898567 -78.615494 -34.959301
-8.459320 -69.183762 -35.416698
-2.391274 -63.120541 -37.421200
-0.660557 -60.807220 -38.349998
-25.732260 -86.442947 -38.750000
3.314947 -56.695213 -39.950001
10.184507 -50.085579 -41.950001
-29.579460 -90.287086 -42.750000
19.858280 -40.888699 -43.134998
15.319643 -44.437134 -43.150002
-8.455745 -67.838913 -43.549999
-9.796466 -69.193977 -44.750000
90.665260 31.184669 -49.150002
27.991831 -32.761623 -49.950001
25.538918 -34.437763 -50.349998
-9.992653 -70.346199 -54.750000
105.019051 44.204288 -55.150002
-9.202662 -69.788254 -55.550003
85.267532 25.799019 -55.949997
9.544295 -50.793423 -57.949997
84.584305 23.785807 -58.055298
87.649597 27.460482 -57.949997
83.397308 22.599752 -58.750000
8.552363 -51.149128 -59.150002
81.088036 20.292320 -59.150002
95.709122 34.901764 -60.750000
82.301346 22.025314 -61.550003
98.611252 37.801586 -61.949997
106.884583 47.314888 -63.550003
108.022614 47.525650 -63.550003
80.006798 20.276278 -66.349998
79.058044 18.263945 -66.750000
79.221260 19.713875 -66.750000
79.397400 19.537594 -68.349998
81.026566 20.230898 -70.750000
-2.391274 -63.120541 -74.689003
78.369972 17.576418 -74.349998
79.570572 19.364283 -78.349998
79.505753 19.429152 -84.349998
80.142082 20.140884 -85.550003
80.600716 21.030312 -87.550003
79.889320 20.393847 -89.150002
80.829933 20.800905 -90.750000
-35.255825 -95.958931 -93.150002
82.090576 22.236256 -93.150002
82.055023 22.271839 -94.349998
-17.618795 -78.335945 -95.550003
84.050301 24.320238 -97.150002
84.697083 25.021357 -98.349998
88.906342 28.899578 -98.349998
92.110588 32.435040 -98.349998
-34.722439 -94.141243 -98.750000
91.850433 31.346973 -99.550003
93.758705 33.482597 -99.550003
85.830521 25.235582 -100.750000
90.926643 30.923079 -101.150002
93.465157 33.776375 -101.150002
-24.494192 -84.150711 -105.150002
-28.850151 -89.230530 -110.750000
44.130539 -16.635759 -227.182007
46.827457 -13.940989 -227.453995
46.974377 -12.739600 -228.350006
47.730789 -12.148053 -229.149994
50.103657 -10.667399 -229.550003
49.708687 -10.082111 -230.350006
51.294460 -8.972300 -232.350006
45.759937 -15.007659 -232.750000
32.371578 -27.791204 -233.149994
35.890099 -24.570230 -233.149994
41.879776 -18.428547 -233.949997
47.501671 -13.267314 -234.483002
39.862324 -20.454857 -234.750000
30.340687 -29.804079 -235.149994
44.547680 -15.704667 -235.550003
47.694363 -13.074775 -235.550003
28.623280 -32.130676 -237.389999
41.776012 -18.324701 -237.149994
48.057064 -12.474585 -237.149994
26.942066 -33.810551 -237.550003
37.664406 -22.300575 -237.550003
44.411049 -15.567927 -239.550003
27.010962 -33.213993 -240.350006
26.797688 -33.954815 -240.750000
47.825508 -12.242846 -240.750000
26.801649 -33.950855 -241.149994
39.791496 -20.383976 -241.949997
36.207169 -23.539093 -242.350006
49.885109 -10.258676 -242.750000
47.882267 -12.299648 -244.750000
42.579964 -17.780798 -245.550003
35.537601 -24.217455 -246.750000
29.102995 -31.262306 -247.549988
32.839199 -26.910746 -248.750000
41.255798 -19.152536 -249.549988
50.001808 -10.375465 -251.149994
37.753185 -22.389425 -252.350006
48.082508 -12.500051 -252.750000
43.392147 -17.245203 -253.149994
31.834263 -28.601913 -253.950012
33.778774 -26.502602 -255.950012
38.487350 -21.775721 -258.350006
45.426796 -15.236062 -260.750000
39.357018 -21.297617 -263.950012
25.926863 -33.477451 -43.630001
-7.629303 -67.006905 -45.950001
-10.565459 -69.940727 -46.750000
90.141853 31.708490 -46.750000
87.955971 28.502279 -48.357498
92.188522 33.705608 -48.349998
97.395149 37.933945 -48.987202
-33.628441 -92.985352 -49.150002
85.609001 26.157177 -49.549999
93.386742 35.203278 -50.750000
102.459198 42.993965 -52.349998
-9.100529 -68.476959 -53.549999
12.693538 -46.700245 -53.549999
82.260643 22.811487 -53.950001
85.938820 27.824049 -53.950001
85.566071 26.848673 -55.150002
82.120232 23.554995 -55.550003
-35.591156 -94.946503 -56.750000
90.652885 31.197050 -57.550003
91.643944 32.902058 -57.550003
81.528221 22.799055 -59.150002
96.805191 37.344452 -59.550003
80.438705 21.192444 -61.150002
103.734444 45.074257 -63.550003
6.557723 -52.831177 -67.550003
-36.414837 -95.769531 -67.949997
79.637932 20.190865 -69.550003
1.254645 -58.130032 -72.750000
78.324104 18.878078 -75.550003
77.521782 18.076397 -77.949997
79.622444 20.175385 -81.150002
80.767426 21.319454 -81.150002
80.780228 21.332247 -81.550003
80.561737 22.417742 -81.550003
77.744186 18.298622 -83.150002
78.857185 19.410740 -84.349998
81.023003 21.574829 -84.349998
81.728905 22.280170 -87.949997
82.780083 23.330513 -91.550003
-18.889013 -78.257652 -96.349998
-35.088840 -94.444588 -97.550003
93.618660 34.971184 -98.349998
86.995850 28.114746 -99.150002
90.711670 32.486649 -99.150002
86.566132 27.196241 -99.949997
90.827873 32.370354 -99.949997
-34.522011 -93.878212 -100.750000
97.156105 38.173183 -100.750000
99.743179 40.977882 -100.750000
87.984573 29.822083 -101.150002
100.814522 42.602669 -101.150002
96.646156 37.335110 -102.349998
-24.100872 -83.195923 -103.150002
-31.279316 -89.496284 -109.949997
29.799683 -29.262646 -234.350006
27.893353 -31.512529 -234.750000
32.517735 -26.589025 -235.149994
34.944664 -24.466829 -236.350006
27.327137 -32.078293 -237.550003
31.002329 -27.769316 -238.350006
34.575554 -24.603098 -238.750000
29.853966 -29.316971 -242.750000
33.973846 -25.349369 -244.350006
-24.639824 -82.656540 -37.380100
-7.598098 -64.651833 -37.549999
5.026269 -53.014061 -42.506001
-31.591751 -89.602936 -43.950001
18.735952 -38.417053 -44.349998
21.909666 -34.850891 -44.349998
26.601612 -31.455893 -44.730202
87.653351 30.153566 -46.750000
-33.782394 -91.791832 -47.950001
87.289337 30.517870 -47.950001
88.835388 31.667433 -47.950001
93.554169 36.384151 -49.549999
85.572685 28.190477 -49.950001
100.092598 41.976597 -50.456799
-11.170730 -69.198166 -50.750000
-9.125952 -67.155014 -50.750000
18.510859 -39.540207 -51.539101
82.744614 24.642420 -51.950001
13.117023 -44.929749 -53.063202
83.989120 25.885939 -55.550003
93.070938 35.519341 -56.750000
104.643654 46.524029 -57.150002
95.373047 37.260803 -57.550003
82.656158 25.715492 -57.949997
97.640991 40.384888 -57.949997
105.605141 47.484745 -60.349998
100.991623 42.874905 -61.150002
78.243149 20.144537 -61.550003
81.483902 23.382713 -62.349998
-36.846588 -94.853592 -65.150002
80.862251 23.465555 -65.550003
77.168839 19.071081 -66.250000
77.552116 20.035917 -66.750000
5.387392 -52.653225 -68.750000
4.828908 -53.211266 -69.550003
76.741844 19.498417 -69.550003
3.360867 -54.678139 -70.349998
80.315407 22.664268 -70.349998
76.494629 18.397408 -71.404503
79.191544 21.092178 -71.949997
-3.606408 -60.556019 -73.550003
77.025139 19.214893 -74.349998
76.101631 18.790716 -75.949997
80.822601 23.505239 -76.750000
79.152992 21.053656 -78.750000
80.321770 22.657900 -78.750000
79.335991 21.236511 -80.750000
80.529922 22.429493 -80.750000
79.221344 22.410780 -80.750000
83.304779 26.414768 -80.750000
76.782631 19.457600 -81.150002
79.332314 21.232838 -81.150002
80.530769 22.430340 -81.150002
79.219009 22.413115 -81.150002
80.539970 22.439529 -81.250000
80.847267 23.480555 -81.150002
80.874344 23.453459 -82.349998
76.537422 18.440168 -83.150002
83.967400 27.100189 -85.949997
81.525719 24.149981 -86.750000
-37.021317 -95.028175 -87.150002
82.155045 24.868576 -89.150002
77.613220 19.515110 -89.550003
77.986504 20.949610 -89.550003
-16.595549 -74.618668 -90.349998
105.510796 48.689766 -90.750000
82.403580 24.301659 -91.150002
82.524124 24.422104 -91.550003
81.234573 24.441353 -91.550003
82.506554 24.516792 -91.550003
82.843895 25.527609 -91.550003
78.282761 20.184118 -91.949997
-17.517698 -75.540085 -92.349998
83.097504 25.273798 -93.150002
103.673843 46.483334 -93.949997
82.313728 24.709766 -94.349998
104.236382 47.268639 -95.150002
79.774216 21.674389 -95.550003
84.406479 26.660759 -95.550003
102.264984 45.196468 -95.550003
80.992165 23.335539 -95.949997
85.465179 28.298071 -96.349998
102.530121 44.931126 -96.750000
-20.926035 -78.945709 -97.550003
87.037308 29.421669 -97.550003
101.223183 43.542110 -97.949997
92.334099 34.908337 -99.150002
81.975677 23.874098 -99.550003
-24.010885 -82.028099 -101.150002
93.692772 36.245434 -101.150002
90.748962 33.797752 -101.550003
96.191711 39.138344 -101.550003
100.888504 43.877060 -101.550003
85.933807 27.829071 -102.386002
96.062004 39.268150 -102.349998
99.344101 41.377274 -102.750000
96.651779 38.677906 -103.550003
-34.108784 -92.117966 -104.349998
-26.755053 -84.584892 -106.349998
-33.023724 -91.033768 -107.949997
-19.245457 -75.919113 -35.599998
-11.569182 -67.419846 -36.750000
-4.315635 -59.846226 -39.150002
-2.465930 -59.000412 -39.549999
-10.620269 -67.300789 -41.150002
-30.309429 -86.974281 -41.549999
3.004171 -53.687195 -42.480801
26.851707 -29.858643 -46.349998
90.762367 35.132908 -46.349998
-11.761498 -68.441109 -46.750000
92.216370 35.453987 -47.549999
90.788025 35.107227 -47.950001
98.070503 41.303463 -48.970200
84.906151 28.149586 -49.549999
91.612144 35.630863 -49.549999
101.089851 45.023979 -49.549999
86.499611 29.741781 -49.950001
23.154047 -33.399418 -50.349998
92.344604 36.246250 -50.750000
100.593544 44.172249 -51.150002
-35.752148 -92.412666 -51.549999
86.255424 29.497786 -52.349998
84.107651 27.351723 -52.750000
103.789528 47.715847 -52.750000
-36.360500 -93.020531 -53.950001
80.196922 23.444113 -53.950001
103.648514 47.856972 -53.950001
101.624138 44.854267 -54.349998
84.101318 28.314594 -54.750000
90.653961 33.892826 -54.863201
95.039963 38.942581 -55.150002
103.562775 47.942780 -55.150002
96.335808 40.342701 -55.550003
79.694321 23.285849 -56.750000
78.345688 21.594351 -58.349998
81.214783 24.461161 -58.715698
82.883156 26.836727 -58.349998
101.655991 45.805954 -59.949997
103.856956 47.648365 -59.949997
78.538452 21.786961 -60.349998
81.889000 25.134836 -61.105598
82.279564 26.092388 -60.750000
80.580124 25.096325 -61.150002
77.317429 20.566908 -63.150002
84.088455 28.327469 -63.150002
106.907112 51.338600 -63.949997
79.760269 23.219849 -64.349998
106.362320 50.535542 -65.949997
82.277939 26.094015 -66.750000
107.116409 51.129143 -69.550003
79.099342 22.532875 -69.949997
107.629242 51.964169 -71.949997
86.749039 31.058598 -72.349998
82.387138 25.984724 -72.750000
-5.922729 -62.283123 -73.949997
107.028687 51.216927 -75.150002
83.058243 26.661507 -76.750000
-37.967331 -94.626083 -77.949997
79.054955 22.577299 -77.949997
84.385109 28.030577 -79.550003
106.271141 50.626793 -79.550003
107.672295 51.921089 -79.550003
-9.436030 -66.117493 -79.949997
79.161453 22.409462 -80.349998
79.192078 22.440065 -80.578598
86.881569 30.925962 -80.349998
79.596779 23.383469 -80.750000
107.198959 51.046520 -80.750000
-37.910034 -94.568832 -81.550003
90.122360 34.424850 -83.949997
79.691353 23.288820 -85.550003
104.909286 49.291752 -85.550003
106.628868 50.268784 -85.949997
106.932419 51.313274 -85.949997
77.127243 20.461130 -86.349998
84.446884 27.968752 -86.750000
89.591988 33.607224 -87.150002
90.226974 34.320160 -88.349998
80.540573 23.787489 -89.038902
105.471779 48.728813 -88.750000
87.738213 31.417063 -89.550003
91.476151 35.766964 -90.750000
86.386536 30.072962 -91.150002
-18.930103 -75.604012 -93.550003
82.274475 26.097483 -93.550003
91.522026 35.721054 -94.349998
87.125916 30.681419 -94.750000
88.975311 32.875965 -96.349998
79.685204 23.294975 -96.750000
90.653961 33.892826 -97.169998
84.931244 28.832430 -97.550003
80.295395 23.542501 -98.349998
86.419548 30.039927 -98.349998
102.472443 45.701897 -99.150002
82.319923 26.051996 -99.550003
99.626068 43.792072 -99.550003
100.177155 44.588974 -99.949997
81.596565 24.842636 -100.750000
90.302177 34.244892 -100.750000
83.943550 28.472481 -101.550003
87.472023 31.683464 -101.550003
83.276474 27.791662 -101.949997
85.315514 29.796419 -102.349998
97.634888 41.739426 -102.349998
93.753883 37.532692 -103.550003
-29.579092 -85.804031 -108.349998
-17.222137 -72.550056 -35.812302
-14.890229 -69.490135 -36.349998
-25.279562 -79.319305 -37.549999
-10.202229 -65.535736 -38.349998
-8.457173 -63.792068 -38.720402
-9.062346 -64.396759 -39.950001
-11.977563 -67.309654 -43.150002
-9.173265 -64.507591 -43.950001
-9.860945 -65.084175 -45.950001
-10.661252 -65.631653 -46.750000
26.255026 -29.107502 -47.549999
82.867569 27.459980 -48.750000
96.048409 40.630325 -48.819401
97.498093 43.224758 -49.150002
93.786369 38.848747 -49.549999
81.575951 26.169390 -50.349998
99.736732 45.029747 -50.349998
93.534737 39.100578 -50.750000
97.614151 43.108604 -50.750000
18.741833 -35.725952 -51.150002
87.283371 31.872267 -51.331001
99.696442 45.070068 -51.150002
81.679466 26.692959 -51.549999
89.189453 34.010078 -51.549999
84.419647 29.344439 -51.950001
85.633911 30.826189 -52.349998
83.630074 28.786209 -53.150002
83.937660 29.826807 -53.150002
100.120697 44.699375 -53.150002
83.943382 29.821077 -53.549999
92.677208 37.261806 -53.792400
96.048409 40.630325 -53.859100
97.029633 42.345161 -53.549999
79.655914 24.672855 -53.950001
101.956352 46.853764 -53.950001
8.321782 -46.872948 -54.349998
99.636787 45.129772 -54.750000
7.355158 -47.253975 -55.150002
82.372833 27.347460 -55.550003
87.495316 33.008568 -56.750000
101.003868 46.458591 -56.750000
105.918571 50.979641 -58.349998
81.020454 26.004074 -60.349998
80.597275 25.191492 -61.150002
80.541107 25.135370 -61.349998
104.730034 49.471149 -61.150002
85.069328 30.042803 -61.550003
89.425148 35.122620 -62.750000
107.173485 52.420292 -64.750000
79.920097 24.514851 -66.750000
87.657532 32.846222 -67.150002
90.241508 35.654182 -67.150002
-38.495995 -93.806984 -67.949997
0.213425 -55.128372 -71.550003
90.300949 35.594692 -71.550003
106.025375 50.872753 -71.949997
-6.965578 -61.239445 -72.750000
-2.389127 -57.728855 -72.996696
79.842163 24.486458 -72.750000
92.888588 38.398678 -74.349998
-8.024839 -62.876328 -75.150002
105.940842 50.957355 -75.949997
80.974014 26.050550 -76.349998
107.769875 53.171711 -76.349998
-8.457173 -63.792068 -77.070000
91.066757 36.176685 -77.150002
-9.131457 -64.465813 -78.575897
90.619087 35.276295 -79.550003
94.255745 39.727428 -79.550003
81.685410 26.687017 -81.949997
107.334991 52.258656 -82.750000
92.462830 37.476360 -84.349998
81.150299 25.874126 -85.150002
86.737984 32.418087 -85.949997
91.948357 36.642815 -85.949997
95.595688 41.083408 -85.949997
-16.547930 -71.876389 -88.797302
96.232643 41.794357 -88.750000
84.267326 29.496881 -89.550003
103.623260 48.199150 -89.550003
82.481682 27.238523 -90.349998
104.146767 50.054886 -90.750000
103.640984 49.212780 -91.150002
87.515251 32.988621 -91.949997
93.191673 38.095352 -93.550003
-37.268040 -92.580002 -94.349998
85.626343 30.833759 -94.349998
101.140007 46.322350 -96.349998
92.854622 37.439079 -96.750000
97.397293 43.325634 -96.750000
103.346596 47.922707 -96.750000
86.455780 31.352093 -97.150002
99.244522 44.173916 -97.150002
101.692780 47.117546 -97.150002
89.652885 34.894699 -97.550003
94.402695 39.580360 -98.750000
95.241592 40.089214 -99.150002
-36.383579 -91.130363 -99.550003
97.403656 43.319267 -99.550003
93.715187 38.919983 -99.949997
90.222702 35.672997 -101.550003
92.302948 37.636368 -102.349998
88.088524 33.763454 -102.750000
-28.620577 -82.717888 -103.150002
88.631866 33.219685 -103.357002
95.414314 41.264927 -103.150002
-35.159382 -90.473022 -104.349998
-31.864479 -86.213806 -108.349998
-23.289721 -77.265312 -36.831001
-8.301450 -61.251076 -39.549999
-29.656004 -83.626534 -40.349998
-11.054702 -63.889465 -43.150002
-12.017773 -66.002342 -44.349998
6.581466 -46.479668 -45.150002
87.958115 33.893967 -45.237000
88.086166 35.114243 -45.950001
84.773666 30.712051 -46.349998
89.694847 36.201275 -46.750000
91.636055 38.303791 -46.750000
85.047173 31.413393 -47.150002
96.290932 43.084454 -47.549999
91.972832 37.905483 -47.950001
92.900154 39.735672 -48.750000
94.026169 39.957188 -49.072601
82.501656 28.567101 -49.150002
93.323875 39.255451 -49.150002
93.448227 39.379707 -49.150002
86.502327 32.653931 -50.349998
88.742569 35.805748 -51.549999
14.467126 -39.538525 -52.618198
97.397293 43.325634 -52.571499
94.026169 39.957188 -52.810398
84.412621 30.700039 -53.150002
104.350845 50.273651 -53.150002
89.249222 35.298691 -53.549999
102.448814 49.057621 -53.549999
84.927505 31.533154 -54.349998
90.972656 37.619293 -54.349998
93.603699 40.379990 -54.349998
102.300240 49.206318 -55.550003
83.676208 30.088470 -56.750000
89.162209 35.385769 -56.750000
103.876762 50.325108 -57.550003
5.033608 -48.964531 -59.150002
104.304222 51.247005 -61.150002
86.048264 33.108356 -61.550003
95.398659 42.629005 -61.949997
91.128578 37.463242 -62.349998
106.567101 52.488136 -62.349998
105.145592 51.753239 -63.150002
3.987100 -50.010208 -63.949997
83.718117 30.046522 -65.550003
95.619331 42.408161 -66.349998
93.090637 39.545033 -66.750000
86.847939 33.656467 -67.150002
2.152842 -51.486767 -68.349998
107.384842 53.305225 -68.349998
98.137711 45.281616 -69.949997
104.165466 51.385868 -70.750000
105.648048 52.598671 -71.150002
-6.795331 -60.061398 -71.550003
83.238495 29.178102 -71.607101
95.669945 42.357510 -71.550003
88.825333 35.722912 -71.949997
-39.252506 -93.215393 -72.750000
88.934898 35.613266 -75.550003
105.201836 51.123962 -76.349998
104.140518 51.410835 -76.349998
98.342613 45.076546 -78.349998
87.069527 33.434700 -79.150002
105.837479 52.409092 -79.550003
90.910522 37.681473 -80.750000
97.113647 43.609509 -81.550003
-39.131542 -93.094528 -81.949997
87.809616 34.042587 -82.349998
105.313461 51.585236 -83.949997
-14.260972 -68.243752 -85.150002
92.863541 39.772312 -85.550003
101.481415 48.677513 -86.349998
103.226151 49.627945 -86.349998
92.187767 39.100052 -86.750000
106.298294 52.219543 -87.150002
97.836418 44.234581 -87.550003
104.784927 50.765911 -87.550003
102.566505 48.939842 -88.349998
92.265373 39.022385 -89.949997
101.940216 48.218346 -90.349998
105.051872 50.974117 -91.550003
-19.194227 -73.173080 -91.949997
99.692879 46.422058 -93.550003
88.619255 34.580730 -93.949997
-22.546398 -76.522583 -95.550003
91.864288 38.075375 -97.550003
-26.719990 -80.692856 -99.550003
94.600784 40.730534 -99.949997
98.774101 45.993137 -101.150002
89.643684 35.578194 -103.550003
97.397293 43.325634 -103.940002
93.241264 39.394287 -103.949997
95.374664 41.304607 -104.322998
-34.369873 -87.751678 -106.750000
-12.884422 -65.520950 -38.349998
-5.922744 -58.237839 -40.750000
-11.152555 -62.443108 -41.150002
-12.546857 -65.183655 -41.549999
-2.091286 -53.981518 -42.750000
89.981361 37.262947 -45.296299
-35.223389 -87.842140 -46.349998
91.088684 38.851593 -46.349998
94.700989 41.978821 -46.397999
90.655571 37.936626 -47.625000
98.746330 46.020939 -47.643299
94.967567 43.060444 -48.349998
100.769035 48.042034 -49.009998
24.182440 -28.483595 -49.150002
92.003998 39.283974 -49.258499
93.159866 40.438927 -49.549999
99.020546 47.094929 -49.549999
21.209925 -31.453745 -50.778599
102.868629 50.139961 -50.750000
101.553696 49.953457 -51.549999
97.397827 44.673515 -52.741001
9.748041 -42.906506 -52.852901
87.802376 35.398258 -52.750000
104.081802 51.352169 -52.750000
7.606444 -44.808617 -53.150002
91.764450 39.523708 -53.549999
98.294662 46.472961 -53.950001
87.105827 34.746937 -54.349998
-38.461605 -91.077774 -54.750000
99.577850 47.885746 -55.150002
94.161530 41.439793 -55.949997
89.560303 37.684341 -56.750000
105.151375 52.420883 -57.150002
100.931931 49.227436 -57.949997
95.836304 43.539448 -60.349998
89.013397 36.883266 -60.750000
104.944107 52.213787 -60.750000
102.541595 50.313049 -61.550003
91.561310 39.727013 -63.150002
101.526344 49.980835 -63.150002
106.409821 53.678333 -63.949997
89.082596 36.814018 -64.750000
97.794754 45.624844 -65.150002
103.029205 51.173336 -65.949997
2.525324 -50.123470 -66.349998
91.055328 38.884983 -67.150002
105.743462 53.012501 -67.150002
1.485103 -50.818497 -67.550003
99.719994 47.743488 -67.949997
104.140518 51.410835 -70.292900
107.066269 54.334263 -69.949997
-2.020038 -54.052822 -70.349998
104.140518 51.410835 -70.483299
-7.781890 -60.422482 -70.813599
102.975693 51.226887 -70.750000
-4.062043 -56.054604 -71.150002
91.098656 38.841618 -71.550003
104.270676 51.540890 -72.349998
-9.681566 -61.218281 -72.750000
105.229889 52.499344 -72.750000
104.153488 52.746128 -72.750000
106.078751 53.515896 -72.750000
104.220451 51.490707 -73.550003
94.837799 43.190319 -73.949997
104.175179 51.445469 -73.949997
105.250412 52.519844 -73.949997
104.175827 52.723774 -73.949997
104.184372 51.454659 -74.349998
105.293564 52.562958 -74.750000
104.163033 52.736580 -74.750000
107.186531 54.454426 -74.750000
104.270676 51.540890 -75.150002
104.153206 52.746414 -75.150002
102.979515 51.223064 -75.550003
104.153252 51.423557 -75.949997
103.053238 51.149284 -76.349998
-39.897881 -92.512909 -76.750000
106.014389 53.283211 -77.150002
100.519028 48.292236 -77.949997
103.156433 51.046005 -79.949997
105.008484 52.278111 -79.949997
105.569489 54.025566 -79.949997
106.724609 53.992870 -80.349998
94.407867 42.272175 -80.750000
103.479813 50.750656 -82.349998
105.809242 53.078232 -82.349998
102.498619 50.356060 -82.750000
96.840073 45.231716 -85.949997
104.899307 53.348007 -87.150002
-39.230247 -91.845802 -88.349998
93.866608 41.465298 -89.150002
101.680428 49.826626 -89.150002
103.935471 51.616051 -89.949997
98.195145 46.572559 -90.349998
93.917290 41.414577 -91.550003
103.987419 51.564060 -92.349998
103.022491 51.180058 -92.750000
98.343788 46.423798 -93.150002
100.676857 48.134277 -93.550003
98.663696 46.103634 -96.349998
-26.660387 -79.285950 -98.287003
95.987564 43.388065 -97.949997
100.625191 48.185989 -98.349998
100.769035 48.042034 -99.528000
-37.348354 -88.816254 -99.949997
98.844017 46.118549 -102.349998
96.639435 44.084095 -103.150002
-18.324421 -68.750053 -37.549999
-15.109502 -65.225273 -38.750000
0.441469 -50.858315 -45.150002
10.083936 -40.545818 -46.750000
94.776436 43.401558 -46.750000
-37.777588 -89.046951 -50.349998
21.949537 -29.367367 -50.349998
11.771282 -39.537521 -52.867199
95.252106 44.124104 -52.750000
102.791992 51.410736 -53.549999
99.137146 48.326801 -53.950001
92.568481 41.416031 -54.349998
99.710419 49.101490 -55.550003
96.855171 46.565174 -56.750000
101.166283 50.341179 -57.550003
104.627388 53.620140 -59.150002
93.100410 42.232105 -59.949997
-39.949409 -91.217041 -60.349998
102.703781 51.499016 -61.150002
97.488815 47.279453 -61.550003
104.730942 53.516506 -61.949997
105.210770 54.384571 -64.349998
103.377007 52.174957 -64.750000
94.475121 43.553280 -65.550003
-8.441103 -58.414314 -65.949997
105.207024 54.388317 -66.750000
106.059784 54.883167 -67.150002
-9.696158 -59.855255 -68.349998
-7.781353 -59.074593 -68.445198
98.931885 48.532230 -69.550003
95.244263 44.131954 -69.949997
103.134071 52.418087 -69.949997
105.826530 55.116608 -71.550003
104.161491 52.779148 -72.349998
104.140984 52.758652 -72.650002
103.110741 52.441433 -72.750000
104.140984 52.758652 -73.150002
100.147705 50.012283 -73.150002
104.140984 52.758652 -73.550003
101.589500 51.265900 -73.949997
103.085655 52.466545 -73.949997
104.016479 52.634247 -74.349998
103.188354 52.363762 -75.150002
-11.055745 -61.191429 -76.349998
104.060341 52.678074 -76.349998
105.994965 54.948036 -76.750000
100.317764 49.842083 -77.949997
-40.733791 -90.821815 -78.349998
102.540367 51.662567 -79.550003
99.747101 49.064777 -81.550003
103.466843 52.085049 -81.629997
-13.596086 -64.884697 -83.150002
105.452484 54.069107 -83.949997
100.524094 49.635597 -86.349998
98.072647 46.695152 -89.220596
100.067863 48.743763 -90.349998
-38.795944 -90.064491 -93.445999
-26.178036 -77.071693 -96.750000
-28.682486 -79.959084 -99.632004
-32.464424 -82.916397 -105.150002
-22.613901 -72.547981 -37.658100
-12.500442 -62.442574 -41.010601
0.022258 -49.354485 -46.750000
6.377983 -43.579178 -46.888699
18.034214 -30.972355 -46.750000
20.970463 -28.517105 -46.750000
13.551590 -35.925407 -47.150002
11.296410 -37.713844 -47.549999
22.080589 -27.889071 -49.549999
19.188362 -30.778997 -50.961601
9.908827 -39.022007 -52.349998
-39.167492 -89.088394 -52.750000
4.401971 -44.298435 -53.150002
3.570501 -46.384426 -56.349998
98.678207 48.786110 -58.349998
2.132876 -47.820904 -60.349998
99.956085 50.204056 -61.550003
101.476723 51.443859 -62.750000
-40.682720 -90.602417 -63.550003
1.349656 -48.603504 -63.949997
-0.082351 -49.249794 -65.150002
-5.521423 -54.594063 -67.949997
100.658783 50.849083 -68.750000
-10.548968 -60.492657 -70.750000
-41.304550 -90.250603 -74.349998
-10.891839 -60.835255 -74.349998
-15.317451 -65.017159 -84.750000
-39.899075 -89.819397 -90.750000
-22.897209 -72.831070 -93.949997
-39.214626 -88.297058 -95.550003
-35.256859 -84.167145 -105.150002
-29.355692 -77.936913 -39.630001
-15.499625 -63.486271 -40.349998
-13.105086 -60.489021 -41.950001
-33.164700 -81.742889 -42.349998
-2.754632 -50.620800 -45.950001
20.198257 -27.744286 -47.549999
-0.525460 -48.806332 -47.950001
1.874167 -45.814034 -48.349998
8.676152 -39.136913 -48.349998
20.072088 -27.618015 -48.750000
9.271836 -38.384506 -50.349998
18.238247 -29.828125 -50.349998
4.437069 -42.985138 -51.549999
5.931170 -41.783443 -51.549999
15.817697 -32.799484 -52.138802
13.404655 -35.210606 -52.349998
-11.125216 -58.425060 -62.349998
-5.377474 -53.389706 -66.750000
-13.829865 -62.423447 -81.550003
-19.742785 -68.331657 -90.750000
-28.007200 -76.589500 -97.108002
-37.184998 -85.759987 -103.150002
-34.050346 -82.627831 -104.750000
-22.280363 -68.836365 -38.750000
-35.172432 -82.401680 -43.950001
