# This PCD file was generated using the MATLAB® pcwrite function
# from Computer Vision Toolbox®.
# .PCD v.7 - Point Cloud Data file format
VERSION .7
FIELDS x y z
SIZE 4 4 4
TYPE F F F
COUNT 1 1 1
WIDTH 1435
HEIGHT 1
VIEWPOINT 0 0 0 1 0 0 0
POINTS 1435
DATA ascii
-4.825021 -99.236969 -203.550003
65.584869 -28.883121 -203.550003
29.419792 -63.942352 -203.949997
58.227165 -36.234974 -203.949997
41.294220 -53.154438 -204.350006
34.264664 -59.351833 -204.750000
56.499603 -37.961159 -205.149994
118.956612 24.446131 -205.496994
49.924316 -44.531212 -205.949997
-6.024343 -99.938431 -206.350006
40.702488 -53.745697 -206.750000
-54.295139 -147.370255 -207.149994
48.819870 -45.634781 -207.949997
43.357460 -51.092842 -209.149994
-50.932163 -145.307404 -209.550003
-11.169728 -105.576622 -210.289993
39.602219 -54.845093 -209.949997
116.634254 22.125626 -209.949997
-19.918816 -113.001648 -210.350006
57.857845 -36.604000 -210.350006
109.877281 15.374030 -210.350006
32.994644 -61.447407 -210.750000
38.049076 -56.396999 -211.464005
36.700581 -57.744419 -211.817001
-50.949142 -145.324371 -213.345001
43.478859 -49.695011 -214.350006
62.321873 -30.796171 -214.350006
110.232460 15.728926 -214.350006
54.439808 -40.019314 -215.149994
-21.799452 -115.165779 -215.550003
-62.815189 -156.372513 -215.949997
106.419708 11.919209 -215.949997
-41.987988 -135.413864 -216.750000
-38.407078 -132.256226 -216.750000
37.063049 -57.382240 -216.750000
42.532715 -51.916927 -216.750000
45.465584 -48.986397 -216.891006
-61.414886 -155.077347 -217.149994
-36.287678 -130.331055 -217.149994
57.636333 -35.546120 -217.550003
-43.211449 -136.887436 -218.750000
-35.601646 -129.989090 -218.750000
-54.286446 -147.378952 -219.550003
-46.988262 -141.197281 -219.550003
102.964401 8.466651 -221.149994
-47.642811 -142.020676 -221.550003
-43.025982 -137.073044 -221.550003
-64.350151 -157.534302 -221.949997
104.165764 10.931153 -221.949997
108.268608 13.766638 -222.350006
-56.753265 -151.123871 -223.149994
104.805695 11.639132 -223.149994
-41.719604 -135.682465 -223.949997
-37.035042 -130.931366 -224.350006
58.947376 -35.515331 -225.149994
45.197342 -48.717941 -225.550003
-61.704254 -154.787750 -225.949997
-54.462032 -148.834473 -225.949997
56.433914 -38.026794 -225.949997
-50.845154 -145.220474 -226.350006
-61.451069 -155.041138 -226.750000
-54.671841 -148.341522 -226.750000
63.735828 -30.730692 -226.750000
-64.056671 -157.828018 -227.149994
48.809517 -45.590691 -227.149994
50.789436 -43.526817 -227.550003
42.094418 -52.354877 -228.214996
-60.289810 -153.506744 -228.350006
48.560505 -45.341480 -228.350006
-51.082836 -145.457962 -228.750000
34.253288 -59.340446 -229.949997
94.746590 1.479329 -230.350006
101.073479 7.283500 -230.350006
-65.681244 -158.898697 -230.750000
32.776981 -61.664894 -230.750000
60.278046 -34.185722 -231.149994
64.142860 -30.323984 -231.149994
99.915680 5.745365 -231.149994
-55.662926 -148.697937 -231.550003
-61.430431 -155.061798 -231.949997
49.139168 -44.572151 -231.949997
-64.657516 -158.574982 -232.350006
-51.131645 -145.506729 -232.750000
61.216381 -32.386650 -232.750000
47.949039 -46.077991 -233.149994
66.322327 -28.146255 -233.149994
38.723289 -55.723324 -233.653000
93.005127 -0.823240 -234.350006
10.405617 -84.018456 -235.302002
12.717667 -80.938370 -235.149994
17.513411 -76.298828 -235.149994
49.092445 -44.525394 -235.149994
58.992310 -35.470436 -235.149994
94.930222 1.295547 -235.149994
-63.238895 -157.296722 -235.550003
12.432460 -80.652931 -235.949997
18.330063 -76.100319 -236.350006
50.545551 -43.910473 -236.350006
-54.294384 -148.666946 -236.750000
4.337570 -90.081673 -236.850006
64.251663 -30.030649 -236.750000
-55.400902 -148.960159 -237.149994
-62.616928 -156.570923 -237.550003
13.886062 -79.410843 -237.550003
63.200760 -31.265333 -237.550003
47.517937 -46.935677 -237.949997
-0.382057 -94.797539 -238.492996
-60.576332 -154.568283 -239.149994
11.517956 -82.434692 -239.550003
-64.477348 -158.755295 -241.149994
-8.472204 -101.533890 -241.149994
7.249886 -87.171669 -241.550003
-59.895264 -153.901611 -241.949997
-55.936089 -149.772842 -242.350006
4.357162 -90.062096 -242.350006
-51.087788 -145.462906 -243.149994
-65.205765 -159.374557 -243.550003
-55.124889 -149.236404 -243.550003
-11.169728 -105.576622 -243.809006
0.292226 -94.123795 -243.889008
-62.508007 -156.679932 -243.949997
-14.269251 -107.868317 -243.949997
-57.158840 -151.245697 -244.350006
-55.747349 -150.118759 -244.350006
-37.259388 -130.706848 -245.550003
-42.473339 -136.277847 -245.949997
42.406162 -52.043381 -245.949997
-57.894394 -151.857819 -246.350006
-8.738151 -102.616150 -246.350006
-30.545233 -124.936707 -246.750000
-18.060844 -112.164536 -246.750000
-14.582841 -108.903046 -246.750000
-44.201183 -137.245178 -247.149994
-65.135010 -159.445374 -247.950012
-34.767635 -129.155746 -248.316986
-22.333288 -115.979797 -247.950012
-16.705002 -110.824615 -247.950012
-13.495101 -107.294670 -247.950012
-53.646416 -148.019501 -248.488007
-30.816090 -125.019325 -248.350006
-52.487625 -146.481216 -248.750000
-18.842566 -112.730476 -249.149994
-23.113522 -116.547218 -249.549988
-61.092216 -155.400284 -249.950012
-28.875376 -122.916740 -249.950012
-25.075159 -118.628868 -249.950012
-53.933609 -148.306458 -250.350006
-66.140442 -159.787430 -250.750000
-58.429649 -152.670425 -250.750000
-53.646416 -148.019501 -251.140015
-52.500557 -146.468277 -250.750000
-29.455368 -123.684570 -251.549988
41.669701 -52.779255 -251.549988
-35.607666 -129.663315 -251.950012
-57.562515 -151.932480 -253.149994
-48.439041 -142.443344 -253.149994
-42.933720 -137.315323 -253.950012
41.915588 -52.533562 -254.750000
-56.390972 -150.665878 -255.950012
-50.843739 -145.219055 -255.950012
-65.898071 -160.029984 -257.149994
44.371075 -50.080032 -266.750000
-66.174255 -160.537369 -269.149994
45.835186 -48.617088 -270.350006
-51.036152 -145.411316 -271.149994
-66.329178 -160.692169 -273.149994
-50.688114 -145.063553 -274.350006
-49.600857 -143.977158 -275.734009
-48.791538 -142.090576 -276.350006
-44.207020 -138.587616 -276.834991
6.360275 -88.060577 -276.881989
-36.122280 -130.509308 -277.149994
0.292226 -94.123795 -277.302002
23.890276 -70.544525 -277.183014
28.609827 -65.828735 -277.532013
33.329453 -61.112865 -277.420990
-35.441772 -129.829346 -277.876007
-8.472735 -102.881775 -277.610992
29.454493 -63.977081 -277.549988
43.442913 -51.007458 -277.799011
-29.554960 -123.584900 -277.950012
48.625816 -45.406845 -277.950012
58.584034 -35.878387 -278.750000
58.486641 -35.975700 -279.149994
61.647125 -32.817734 -279.792999
-64.823853 -159.188034 -280.350006
19.844864 -74.586723 -281.911987
-23.979963 -118.376663 -282.003998
-9.821232 -104.229202 -282.273987
-1.730478 -96.144890 -282.250000
5.011778 -89.407997 -282.045990
-17.329447 -111.548088 -282.350006
29.232189 -65.206863 -282.350006
-29.533119 -123.606758 -282.750000
-28.683567 -121.760414 -282.750000
-23.149921 -116.510796 -282.750000
38.723289 -55.723324 -282.750000
40.876514 -52.484428 -282.750000
42.768631 -51.681202 -282.993011
46.149555 -46.973995 -282.750000
-33.818993 -127.408569 -283.149994
53.127277 -41.330799 -283.549988
56.927486 -37.533615 -283.920013
63.461079 -31.005222 -283.950012
59.392509 -34.606735 -284.350006
61.737000 -31.559258 -284.350006
-59.334526 -153.703079 -285.549988
-49.970116 -144.346130 -302.750000
69.433563 -23.080439 -7.950001
72.882019 -19.789379 -7.950001
70.027618 -22.326544 -11.549999
69.551453 -23.198427 -13.150000
68.890038 -23.885050 -14.350000
66.826691 -25.865328 -15.549999
68.775391 -23.770309 -17.950001
66.840973 -25.879620 -20.750000
66.656487 -25.694990 -23.150002
69.557541 -23.204514 -23.549999
71.999214 -20.254301 -26.750000
80.640984 -11.373019 -26.750000
69.421333 -23.068199 -27.950001
74.138130 -18.349644 -28.750000
77.392281 -14.863980 -28.750000
72.060005 -20.315140 -30.750000
78.726982 -13.502908 -30.750000
74.010124 -18.221537 -31.150002
77.307816 -14.779448 -31.950001
11.328922 -80.897087 -41.150002
20.354568 -72.399986 -42.750000
26.312704 -66.226624 -44.750000
-4.692696 -97.225723 -47.150002
30.315847 -62.142273 -47.150002
-6.707845 -99.254387 -49.549999
34.960831 -57.351707 -50.750000
-11.605797 -103.791641 -56.750000
39.825497 -52.780994 -57.150002
109.159256 16.721359 -59.550003
113.679199 21.636923 -59.949997
108.104584 15.079878 -60.349998
39.773090 -53.327000 -60.750000
112.054291 19.217705 -61.550003
-13.584540 -105.856735 -63.150002
116.858170 23.849255 -63.150002
103.277603 10.471460 -64.349998
118.617020 26.134417 -64.349998
-14.110461 -106.678818 -67.949997
33.745861 -59.349434 -67.949997
31.307281 -61.786072 -69.054604
120.755287 28.039854 -70.349998
101.854340 8.704826 -71.150002
20.479361 -72.605377 -73.949997
17.148479 -75.933601 -76.284401
120.590576 27.426147 -76.349998
121.283958 28.118980 -78.349998
-14.889132 -107.945717 -79.150002
121.156837 27.991961 -81.550003
121.159424 28.983820 -85.150002
93.828804 0.685680 -85.949997
86.690475 -6.446962 -86.750000
90.972725 -2.168125 -89.550003
-3.078368 -96.144348 -90.312599
118.721489 26.029867 -90.750000
2.526553 -90.543892 -91.550003
-2.037023 -95.103836 -91.949997
-0.381450 -93.449577 -92.585999
107.077522 14.759329 -93.150002
115.984634 23.375059 -93.550003
-6.449569 -99.512871 -94.220001
82.424576 -10.709471 -93.949997
89.141716 -3.997673 -94.349998
80.701378 -12.431297 -97.949997
88.021286 -5.117211 -100.349998
128.500259 36.469658 -103.550003
76.315781 -16.813400 -105.150002
-15.100715 -108.157127 -105.550003
127.870514 35.751625 -105.550003
84.595428 -7.239927 -105.949997
77.210907 -14.682465 -106.349998
-11.138489 -104.198059 -106.750000
126.873169 33.703747 -108.349998
82.566620 -10.567541 -109.150002
-14.113357 -106.675919 -109.550003
132.206177 39.032501 -110.349998
129.744461 36.572750 -111.150002
81.929184 -9.965255 -112.750000
132.900116 39.725899 -114.750000
80.247658 -12.884654 -115.550003
79.867790 -13.264221 -117.150002
128.154251 34.983810 -119.550003
73.597427 -19.529591 -120.350006
130.305420 37.133266 -120.750000
11.965462 -80.185562 -121.149994
13.866239 -78.042587 -122.350006
128.490967 35.320255 -122.350006
131.882187 38.708775 -123.550003
-3.404144 -95.818314 -125.550003
-1.800623 -94.726257 -125.949997
134.058121 40.882973 -125.949997
9.455642 -83.067726 -126.750000
17.590811 -75.491623 -127.149994
130.765930 37.593403 -127.149994
78.291092 -14.839662 -129.949997
128.869415 35.698406 -129.949997
10.004991 -83.071411 -130.750000
1.939068 -91.130913 -132.350006
132.280457 39.106720 -133.149994
20.695255 -72.389656 -133.949997
-0.125394 -92.357414 -134.750000
132.353317 39.179523 -135.949997
3.458184 -89.612999 -136.750000
69.621910 -23.501947 -136.750000
12.951830 -80.126915 -137.149994
-0.242091 -92.240623 -137.949997
20.519611 -72.565155 -138.179001
130.650986 38.363491 -137.949997
74.021996 -18.233421 -139.149994
67.310448 -25.811569 -140.350006
128.936630 35.765556 -140.350006
131.278824 39.083427 -140.350006
3.150822 -89.920120 -141.949997
1.736577 -90.175461 -143.149994
57.683613 -34.244972 -143.550003
60.846786 -32.016758 -144.750000
130.776550 37.604012 -144.750000
2.471871 -90.598534 -145.149994
5.872431 -87.200676 -145.149994
130.709930 38.304497 -145.149994
14.884980 -78.195305 -145.550003
25.453787 -67.634911 -146.350006
66.410858 -26.710440 -146.350006
17.030489 -76.051498 -146.750000
66.008713 -27.112268 -147.949997
60.636574 -31.806379 -148.350006
6.785880 -86.287956 -148.750000
62.028183 -30.502249 -148.750000
131.778198 38.604870 -148.750000
130.718765 38.295654 -149.149994
59.552376 -33.563461 -149.550003
61.984997 -30.459030 -149.949997
1.942533 -91.127449 -150.350006
25.335226 -67.753372 -150.750000
19.072224 -74.011391 -151.149994
67.199104 -25.922825 -151.149994
128.033295 34.862938 -151.949997
18.003218 -75.079544 -152.350006
133.547379 40.372646 -152.350006
51.713440 -40.406178 -153.149994
130.040146 36.868206 -153.550003
3.550499 -89.520760 -153.949997
28.684639 -64.406624 -153.949997
7.377453 -85.033150 -154.350006
131.025742 37.988438 -154.350006
20.786123 -71.483315 -155.550003
51.220299 -41.261105 -155.949997
52.208431 -40.901562 -156.612000
4.797580 -87.845062 -156.750000
5.718377 -86.069748 -156.750000
28.022383 -65.068359 -157.149994
71.578896 -21.546515 -157.949997
127.294777 34.125015 -157.949997
129.512054 36.805340 -158.750000
8.005578 -84.313354 -159.149994
30.805672 -62.287281 -159.149994
130.444778 37.272511 -159.149994
7.333416 -84.989075 -160.350006
21.357018 -71.728416 -160.750000
23.179956 -69.906929 -160.750000
128.957657 36.011906 -161.550003
8.982871 -83.943001 -162.350006
32.293453 -60.800686 -162.750000
132.041351 38.867809 -163.149994
129.113464 35.942261 -165.949997
-54.171474 -146.145737 -166.350006
-50.670849 -142.906311 -166.750000
125.364319 32.196091 -168.750000
127.680298 34.510231 -168.750000
34.936256 -58.159988 -169.149994
63.670296 -29.448820 -170.300995
61.966267 -31.151491 -170.350006
127.725578 34.555473 -171.550003
26.331654 -66.757744 -172.750000
27.982273 -65.108437 -172.750000
69.100777 -24.022665 -172.750000
127.722038 34.551941 -173.136993
-49.744514 -142.485107 -173.149994
70.079231 -23.044985 -175.949997
68.507698 -24.615267 -177.149994
38.119854 -54.978924 -177.550003
30.283331 -62.109730 -177.949997
-52.971092 -145.997360 -178.623001
60.511383 -32.605221 -178.350006
128.718750 35.547855 -178.350006
-51.887173 -144.385590 -179.550003
125.013451 31.845505 -179.550003
31.861380 -61.232414 -181.550003
124.980377 31.902655 -181.949997
-54.009327 -146.308014 -183.149994
-51.622818 -144.650162 -183.600006
67.197052 -25.924873 -183.550003
121.028023 29.115328 -183.949997
126.769188 33.599846 -184.750000
33.848362 -59.247017 -186.750000
-41.979538 -134.074051 -187.149994
-38.387878 -130.927155 -187.149994
-36.520527 -128.749725 -187.149994
67.515442 -25.606731 -187.949997
-52.296963 -145.323761 -188.404007
58.420292 -34.694645 -188.350006
-47.741524 -140.443420 -189.149994
40.406204 -52.694393 -189.149994
-43.221020 -135.529572 -189.550003
122.268547 29.222103 -189.550003
-47.709549 -140.740005 -191.550003
120.932144 27.862862 -191.550003
-43.168434 -135.582184 -191.949997
43.443447 -49.659569 -192.714996
34.500149 -58.595745 -193.149994
-41.659283 -134.394577 -193.949997
-36.348278 -128.922119 -194.350006
120.346947 27.182718 -195.550003
66.005875 -27.115097 -195.949997
-54.698387 -146.966690 -197.149994
-51.183529 -144.211212 -197.149994
44.117661 -48.985893 -198.304001
64.104912 -29.014547 -197.949997
-64.977524 -156.906433 -198.750000
58.154491 -34.960232 -199.149994
37.057289 -56.040646 -199.550003
-64.796013 -157.088089 -200.750000
65.180000 -27.940315 -200.750000
116.725929 23.981604 -201.149994
-3.078368 -96.144348 -201.910004
113.917503 20.758387 -201.550003
-4.318985 -97.383980 -201.949997
47.664234 -45.442139 -202.350006
116.714760 23.992781 -202.350006
-60.959949 -152.836075 -203.149994
116.970726 23.809185 -203.550003
30.368788 -62.195255 -203.949997
-8.804482 -101.201347 -204.750000
32.277340 -60.059917 -205.149994
111.820229 18.662788 -205.550003
-14.743480 -107.800179 -205.949997
64.679878 -28.440039 -205.949997
-62.761711 -155.077744 -206.350006
41.564201 -51.537319 -206.750000
-51.385136 -144.412674 -207.149994
-57.005516 -148.702560 -207.550003
112.972076 19.813713 -207.550003
-55.384674 -147.628128 -207.949997
-65.535248 -157.696548 -208.750000
36.266563 -55.961628 -208.750000
-10.795591 -103.254066 -209.149994
57.395046 -35.719074 -209.149994
-58.741951 -151.009583 -209.550003
111.568703 19.703678 -209.949997
32.822205 -59.256790 -210.350006
49.511509 -43.596336 -211.102997
64.076973 -29.042467 -211.550003
112.817223 19.658987 -211.550003
110.496994 17.340603 -211.949997
107.731247 14.577059 -212.350006
-64.563110 -157.321167 -212.750000
-23.055170 -115.257347 -212.750000
-16.039135 -109.094803 -212.750000
-54.678028 -147.702942 -213.149994
113.952156 20.793018 -213.550003
-63.252434 -155.934906 -213.949997
-56.038887 -148.321671 -213.949997
-56.135948 -149.159698 -214.750000
40.072319 -53.028015 -215.087006
51.684353 -41.425220 -214.750000
105.937737 12.784974 -215.149994
108.169472 15.014936 -215.451996
-57.955647 -150.448242 -215.550003
-24.132174 -116.876045 -215.550003
-20.261557 -112.658630 -215.550003
-66.424255 -158.155090 -216.350006
-43.423035 -135.327393 -216.350006
41.554367 -51.547146 -216.350006
46.362095 -46.743244 -216.350006
-36.310463 -128.959961 -216.750000
-31.363268 -123.123428 -216.750000
-25.670799 -118.032753 -216.750000
39.830162 -52.785664 -216.750000
109.517967 16.362360 -217.024002
111.643242 18.485941 -217.149994
-57.752289 -150.651764 -217.550003
-48.357990 -141.174744 -217.550003
-64.448608 -157.435760 -217.949997
-52.971092 -145.997360 -218.302994
-23.706264 -115.954002 -217.949997
40.060291 -53.040031 -217.949997
64.019600 -29.099791 -217.949997
-58.591747 -151.159897 -218.350006
-53.645950 -146.671677 -218.384995
53.719315 -39.391880 -218.350006
55.971733 -37.141254 -218.350006
-35.893398 -128.029083 -218.750000
-65.180420 -158.051651 -219.149994
104.826660 12.966578 -219.149994
-61.844139 -154.647751 -219.550003
-29.663700 -122.127785 -219.949997
44.580292 -48.523628 -219.949997
62.168915 -30.643091 -219.949997
-27.794794 -119.953331 -220.350006
42.008934 -51.092937 -220.350006
48.235294 -44.871532 -220.350006
-52.409275 -145.211365 -220.750000
-35.534546 -128.388229 -220.750000
-53.871853 -146.445602 -221.550003
-52.971092 -145.997360 -221.832993
58.100449 -35.014236 -221.550003
-35.711391 -128.211243 -221.949997
45.434261 -47.606586 -221.949997
108.342430 15.187755 -221.949997
46.233791 -45.709846 -222.750000
-48.408951 -141.123749 -223.149994
-36.075836 -129.115555 -223.149994
41.619091 -51.482471 -223.149994
-44.130466 -135.967682 -223.550003
-65.945595 -158.634140 -224.350006
-57.836124 -150.567871 -224.750000
-56.342510 -149.366089 -225.328003
-49.890419 -142.919144 -225.149994
98.485611 5.338783 -225.550003
101.130127 8.575218 -225.550003
51.856335 -41.253380 -225.949997
59.898396 -32.416176 -226.350006
64.584946 -28.534897 -226.350006
-56.410648 -149.297897 -226.750000
104.473305 11.321706 -226.750000
59.585056 -33.530807 -227.949997
37.375401 -55.722786 -228.658997
62.288647 -30.762920 -228.750000
97.390114 5.575960 -229.149994
98.740379 6.921607 -229.550003
45.160156 -47.332260 -229.949997
48.374096 -43.806473 -230.350006
34.755516 -58.340584 -230.750000
50.773674 -42.335178 -231.149994
61.848488 -31.269178 -231.149994
34.678482 -58.417557 -231.604004
49.995323 -42.732067 -231.949997
52.882660 -40.227871 -233.091003
57.240932 -35.150406 -232.750000
37.424564 -54.423565 -233.149994
40.746529 -52.354340 -233.315002
91.724319 -0.889833 -233.149994
58.615917 -33.829525 -233.550003
-65.997658 -159.013550 -234.350006
-51.273365 -144.300980 -234.750000
51.568157 -41.541325 -234.750000
46.566002 -46.042320 -235.149994
95.470680 3.451511 -235.550003
43.839802 -48.707817 -236.750000
47.488823 -45.617413 -237.020004
89.916130 -3.125621 -236.750000
5.767779 -86.119186 -237.149994
10.629905 -81.545929 -237.550003
45.290833 -47.813652 -237.949997
86.923195 -5.524137 -237.949997
-2.404155 -95.470673 -238.990997
89.051720 -3.608939 -238.750000
8.653494 -83.613365 -239.550003
43.614403 -48.482235 -239.949997
86.201706 -6.150491 -239.949997
-5.943854 -99.007553 -240.350006
41.695881 -50.607597 -240.350006
5.314667 -87.014137 -241.149994
66.696648 -26.424881 -242.350006
-51.303082 -144.330673 -242.750000
41.094120 -51.353783 -243.149994
43.019085 -50.083591 -243.149994
66.813080 -26.308537 -243.949997
-16.308529 -108.524414 -244.350006
-50.461990 -143.490250 -244.750000
-36.115448 -129.155136 -246.044998
-19.565578 -112.006889 -245.949997
-7.123777 -100.186539 -246.220993
-49.393837 -142.422958 -246.350006
-21.670349 -113.946709 -246.350006
-22.215349 -114.749550 -247.149994
-10.494908 -103.554985 -247.273010
-30.247295 -122.892014 -247.950012
-25.677303 -118.026245 -247.950012
-20.401932 -112.518143 -250.350006
-24.040213 -116.968079 -250.750000
-24.964289 -117.391556 -251.549988
-25.824183 -117.879250 -252.350006
-49.600388 -142.629333 -253.536987
-31.559246 -124.275581 -253.149994
-44.305649 -137.140625 -253.549988
68.217316 -24.905418 -253.549988
-66.900986 -159.916168 -253.950012
-37.060520 -130.099457 -255.149994
-51.263470 -144.291092 -257.149994
67.975883 -25.146658 -257.149994
41.673210 -51.428398 -261.950012
-51.361790 -144.389343 -262.750000
-67.026909 -160.041992 -264.750000
64.995445 -28.124725 -269.549988
45.466141 -47.638485 -271.510986
63.750229 -29.368950 -271.950012
-51.399277 -144.426804 -272.750000
45.799461 -47.305431 -273.950012
-41.509289 -134.544678 -275.074005
-49.749645 -142.778473 -275.549988
-36.887920 -129.926987 -275.549988
61.389534 -31.727766 -275.950012
-44.880695 -137.913406 -276.502014
7.709306 -85.365265 -276.834991
15.125775 -77.954697 -276.928986
-36.277313 -128.993134 -277.149994
1.641259 -91.428482 -277.158997
-18.585661 -111.639297 -277.804993
-13.191826 -106.249756 -277.612000
20.890736 -71.588013 -277.549988
30.240992 -62.067356 -277.549988
32.655777 -60.438652 -277.950012
-66.961815 -159.976944 -277.950012
-29.373333 -122.418388 -277.993011
-26.676060 -119.723259 -278.221008
26.831839 -65.397751 -278.350006
32.294163 -60.076748 -278.350006
40.487408 -52.095009 -278.350006
59.483307 -33.349182 -280.350006
57.687641 -34.249004 -281.149994
12.428927 -80.649399 -281.848999
14.526173 -77.354614 -281.549988
24.565023 -68.522964 -281.888000
25.412945 -66.674713 -281.549988
34.797268 -57.188011 -281.549988
35.085445 -57.476418 -281.950012
38.908840 -53.212036 -281.950012
41.539036 -50.450630 -281.950012
62.208847 -30.683056 -281.950012
-11.169122 -104.228668 -282.635986
-63.826679 -156.844299 -282.750000
-15.214531 -108.270851 -282.875000
50.995739 -41.036366 -282.750000
54.408939 -37.709995 -283.149994
-49.059948 -142.089325 -283.549988
61.326195 -31.148123 -283.549988
-42.858276 -135.892593 -285.415985
-51.247192 -144.274826 -286.750000
-57.388741 -150.411499 -288.350006
-57.575485 -150.598083 -290.750000
-58.633739 -151.655502 -291.950012
-58.761776 -151.783432 -297.149994
-58.886272 -151.907837 -301.950012
-54.994225 -148.018875 -303.109985
-55.668369 -148.692490 -303.717987
74.335518 -17.198624 -3.550000
77.678230 -13.801737 -3.950000
71.061005 -20.663769 -5.150000
81.515060 -9.550797 -6.350000
74.430725 -17.293907 -7.150000
77.772308 -13.895892 -7.150000
68.307259 -23.301807 -7.549999
82.378418 -9.066419 -8.350000
79.602547 -11.682173 -9.150000
83.944160 -6.588138 -9.950001
82.404358 -9.092378 -12.350000
81.233459 -9.268974 -13.150000
83.087898 -8.428041 -14.750000
85.010521 -6.306781 -14.750000
65.521004 -26.252232 -15.549999
83.120697 -8.460864 -20.350000
84.997864 -6.294115 -21.950001
65.039719 -25.425360 -22.350000
81.824226 -9.860209 -24.750000
80.366875 -11.098692 -25.549999
83.768967 -7.761231 -25.549999
67.565636 -24.209223 -26.750000
82.352264 -9.040243 -28.349998
80.243324 -10.975038 -30.750000
76.465378 -15.284766 -31.950001
6.607717 -84.262802 -40.349998
10.728402 -80.296089 -40.349998
16.215891 -75.000275 -40.750000
2.064728 -89.155441 -41.150002
-0.743936 -91.738380 -41.950001
21.639273 -69.640297 -41.950001
112.731514 21.236935 -58.750000
114.074997 22.589378 -59.150002
110.561234 19.363539 -59.550003
117.062103 26.342148 -62.349998
38.189926 -53.561554 -62.750000
25.991583 -65.750183 -67.550003
32.923492 -58.823795 -67.949997
29.959394 -61.785534 -68.910500
21.241545 -69.242256 -69.150002
121.450661 29.632904 -71.949997
14.973373 -76.759628 -78.349998
94.126602 3.448227 -78.349998
91.854416 0.328387 -78.750000
89.659180 -1.520032 -79.150002
99.561089 7.760759 -79.550003
9.747826 -81.981010 -81.949997
88.617371 -3.174248 -83.201103
5.012922 -86.712151 -83.908302
-16.299061 -108.007164 -85.150002
83.592155 -8.195464 -86.750000
125.700081 33.878941 -87.410202
4.675780 -87.049019 -87.550003
126.605537 34.783680 -87.949997
123.002808 31.183819 -88.625000
83.897751 -7.890116 -89.480797
122.646286 30.827579 -89.550003
90.149719 -1.643124 -90.750000
102.608589 11.141005 -90.750000
127.999794 36.176826 -92.750000
80.173065 -11.611833 -93.550003
105.083488 14.057968 -93.550003
117.158730 26.245445 -93.550003
123.677658 31.858131 -94.719002
88.809998 -2.981779 -97.150002
79.877258 -10.608683 -97.550003
86.634850 -5.155197 -98.349998
129.449951 37.625820 -98.349998
126.887077 35.064995 -99.550003
77.498291 -14.284478 -100.349998
85.421532 -6.367542 -100.349998
124.646072 32.825771 -100.750000
127.732445 37.238091 -102.349998
130.807419 38.982220 -104.750000
82.685005 -9.101895 -105.949997
74.942993 -16.837744 -107.949997
-12.986572 -104.697319 -108.750000
83.031479 -8.755692 -109.550003
129.524231 37.700043 -109.550003
80.542816 -11.242374 -111.150002
128.617355 36.793888 -112.349998
130.020096 38.195522 -113.150002
72.787651 -18.991369 -115.150002
78.327774 -13.103377 -115.550003
74.458572 -17.321777 -116.694000
80.912430 -10.873059 -116.349998
129.211563 37.387623 -117.550003
129.092957 38.574478 -118.750000
132.847534 41.020706 -118.750000
9.298838 -81.562225 -119.550003
77.594711 -14.188138 -121.149994
-2.638705 -93.887512 -122.350006
131.034500 39.209110 -122.350006
130.017670 38.997314 -122.350006
10.536499 -80.104027 -123.149994
78.917595 -12.866306 -123.149994
72.393494 -19.385212 -123.949997
9.923786 -80.839249 -124.350006
70.221878 -21.555096 -125.550003
14.452099 -77.280487 -126.102997
75.150993 -15.317902 -126.350006
131.233276 39.407730 -127.550003
-0.093926 -91.814934 -127.949997
130.238678 38.413929 -128.350006
18.001915 -73.733498 -128.750000
-4.145066 -95.862846 -129.550003
10.263485 -81.179222 -129.550003
71.040192 -20.737440 -129.550003
-1.674942 -92.155060 -129.949997
68.812408 -22.963444 -131.149994
75.077301 -16.592573 -131.949997
18.528584 -71.920967 -132.350006
131.005844 39.356621 -132.350006
133.623535 41.796093 -132.350006
17.883074 -73.852242 -132.750000
76.592690 -15.189356 -133.550003
-3.505378 -95.223671 -134.350006
0.510467 -91.211021 -135.149994
18.193008 -72.933548 -135.149994
21.194427 -70.543526 -137.843002
75.534225 -16.246979 -137.949997
133.623535 41.796093 -137.949997
0.448702 -90.234970 -138.750000
3.444926 -88.278900 -138.750000
0.293299 -91.428017 -140.742004
-1.947215 -93.666748 -140.750000
13.718749 -78.013252 -140.750000
61.275063 -29.748528 -140.750000
60.049412 -31.218750 -141.149994
68.248695 -23.526714 -141.550003
67.737770 -22.731863 -142.750000
61.449718 -29.923323 -143.149994
-0.784125 -92.504578 -144.350006
21.919502 -69.819023 -144.750000
67.566063 -24.208799 -145.149994
133.306625 41.479435 -145.949997
54.905899 -36.858887 -146.645004
5.067744 -86.657372 -146.750000
14.885870 -76.847061 -146.750000
60.744152 -31.025280 -146.750000
73.962761 -17.817190 -146.750000
52.883217 -38.879959 -150.210007
71.787399 -19.990820 -150.750000
70.443527 -20.045797 -151.149994
5.406100 -85.757217 -151.550003
23.472197 -67.429268 -151.550003
127.675812 35.853104 -151.550003
56.704994 -35.061222 -151.949997
54.355709 -36.308258 -152.750000
3.322181 -87.717056 -153.149994
5.344041 -85.695114 -153.949997
52.549454 -38.545933 -153.949997
18.212999 -73.522575 -154.350006
26.098186 -65.643669 -155.550003
132.230682 40.404350 -156.350006
70.719955 -21.057419 -157.550003
64.923050 -26.849710 -160.350006
23.016590 -68.722809 -160.750000
71.622932 -20.155157 -161.149994
28.826017 -62.918011 -161.550003
131.320282 39.494667 -162.350006
64.345116 -27.427187 -163.867004
125.750305 33.929123 -165.149994
22.934816 -68.804520 -165.550003
62.371853 -29.398874 -165.949997
130.672318 38.847214 -165.949997
30.485949 -60.964085 -166.350006
25.884201 -65.857483 -168.350006
-56.093754 -147.770187 -169.149994
-50.072468 -141.753693 -169.949997
32.174721 -59.571968 -169.949997
124.593018 32.772762 -170.350006
68.501305 -23.274305 -171.149994
129.508652 37.684490 -171.149994
-50.088020 -141.769226 -172.750000
-49.713108 -141.394608 -173.149994
26.317688 -65.424339 -173.550003
34.084103 -57.664108 -173.949997
62.285835 -29.484825 -173.949997
28.607292 -63.136559 -174.350006
29.302822 -61.128441 -175.149994
67.807495 -23.967560 -176.350006
123.132263 31.313166 -176.750000
-49.619740 -141.301315 -177.550003
27.976028 -62.497437 -177.949997
68.602882 -23.172806 -179.550003
36.226570 -55.523346 -179.949997
126.784508 34.962505 -181.550003
31.982565 -58.416481 -183.550003
66.436150 -25.337812 -183.550003
-51.440552 -143.120682 -183.949997
58.577492 -33.190216 -183.949997
60.195572 -31.573423 -183.949997
31.278530 -60.467445 -185.550003
67.263870 -24.510756 -185.949997
-58.707989 -149.695297 -186.750000
-57.502159 -149.177475 -186.750000
-36.881435 -128.388535 -186.750000
-32.060623 -122.425514 -186.750000
-48.925079 -140.607208 -187.348007
-48.782822 -139.401291 -187.550003
119.707085 27.890717 -187.550003
-61.933292 -153.210251 -187.949997
-34.399113 -125.479713 -187.949997
-31.151464 -121.987122 -187.949997
-53.644772 -145.323151 -188.485001
-35.971104 -126.603035 -188.350006
124.646072 32.825771 -188.350006
-64.071289 -155.115402 -189.149994
-58.203892 -149.878647 -189.149994
65.048538 -26.724319 -189.149994
-52.353043 -143.919357 -189.550003
-54.891518 -145.425125 -189.949997
57.321888 -34.444824 -190.350006
-52.423862 -143.848480 -190.750000
-35.567509 -127.006950 -190.750000
-29.018356 -120.077080 -190.750000
-65.543549 -156.339951 -191.149994
-58.543438 -149.859985 -191.149994
118.083702 26.268625 -191.550003
-53.096664 -144.523422 -191.949997
-29.682173 -120.761009 -191.949997
40.804008 -50.949551 -192.350006
-58.653919 -149.749420 -192.750000
-48.432800 -139.751587 -193.149994
35.846138 -55.903477 -193.550003
122.731171 30.912395 -193.550003
-65.976387 -157.255051 -193.949997
-65.133728 -156.750092 -193.949997
-36.310223 -128.002396 -194.350006
-57.149067 -148.558899 -195.149994
58.238373 -33.529068 -195.149994
-63.130600 -154.708557 -195.550003
-55.766232 -147.442917 -195.949997
121.300766 29.483128 -197.149994
-55.813789 -147.198669 -197.550003
37.276970 -54.473782 -197.949997
115.225357 23.412560 -197.949997
-61.760685 -153.382996 -199.550003
63.112206 -28.659113 -199.550003
-5.632424 -96.285248 -201.550003
-4.426253 -96.143806 -202.662994
55.795101 -35.970390 -202.350006
-56.397739 -147.962540 -203.149994
-5.142627 -96.859612 -203.149994
118.639427 26.823906 -203.149994
57.442986 -34.323822 -203.550003
62.421299 -29.349468 -203.550003
-55.635368 -147.312164 -203.949997
111.967552 20.157347 -204.350006
-13.865502 -105.575546 -205.621994
38.828415 -52.923573 -205.550003
46.162907 -45.594921 -205.550003
61.947422 -29.822969 -205.550003
-12.320754 -103.076118 -205.949997
117.285912 25.471468 -205.949997
110.575272 18.766172 -206.750000
-17.204727 -108.912109 -207.149994
-11.622506 -102.426491 -207.550003
33.330593 -58.417019 -208.203003
-19.609497 -111.314972 -208.750000
42.042786 -49.711758 -209.149994
57.169674 -33.730625 -209.149994
108.170013 16.362825 -210.835007
114.755791 22.943367 -210.750000
55.298183 -36.466915 -211.149994
111.546158 19.736288 -211.149994
34.201488 -56.591759 -211.550003
50.860523 -40.901043 -211.850006
36.037380 -54.383701 -212.350006
57.142017 -34.624546 -212.750000
59.637478 -30.806488 -212.750000
49.592735 -42.167820 -213.149994
108.844292 17.036573 -213.612000
-18.585125 -110.291412 -214.261993
-51.483704 -143.163803 -214.350006
35.002361 -56.044846 -214.350006
40.362621 -50.621704 -214.350006
-50.680630 -141.548233 -215.550003
-36.789127 -128.480927 -215.789993
43.272160 -48.483368 -216.350006
43.799332 -47.956612 -216.350006
-49.936806 -140.944397 -216.750000
36.268024 -55.481926 -216.750000
-22.934469 -114.029854 -217.550003
54.409595 -37.354794 -217.550003
59.961060 -31.130325 -217.550003
-29.069883 -120.025513 -217.949997
57.560680 -34.206219 -217.949997
-31.573339 -122.913185 -218.350006
-28.105442 -119.642433 -218.750000
54.905899 -36.858887 -218.875000
105.652664 14.836756 -218.750000
-25.070623 -115.936844 -219.149994
106.701851 15.135302 -219.550003
44.118229 -47.637970 -220.184006
41.768795 -49.332008 -220.350006
58.126583 -33.339802 -220.350006
100.753464 8.952184 -221.278000
55.859386 -35.116211 -221.550003
39.767189 -51.985546 -221.949997
-29.468143 -120.975212 -222.350006
102.055771 10.253451 -222.750000
-36.350006 -127.572113 -223.149994
-49.683403 -141.364929 -223.550003
44.792461 -46.964272 -223.783005
-49.552879 -139.978912 -223.949997
50.183716 -41.577312 -223.949997
59.569298 -32.086819 -223.949997
41.816990 -49.937378 -224.350006
97.852470 6.053495 -224.750000
-37.272270 -128.963684 -225.149994
62.681446 -28.459183 -225.149994
-43.455990 -133.944702 -225.550003
-51.622353 -143.302338 -226.322998
96.883347 5.085148 -225.949997
102.197952 10.395521 -225.949997
-67.003090 -158.670837 -226.750000
41.421276 -50.332775 -227.869995
44.546207 -46.717823 -228.750000
48.871048 -41.606899 -228.750000
45.735268 -45.210926 -229.149994
56.453213 -35.312805 -229.550003
93.906303 2.110472 -229.550003
-67.080200 -158.747894 -230.350006
51.225945 -39.918293 -230.350006
100.492371 8.691298 -230.750000
62.694454 -28.472200 -231.149994
95.810699 4.459782 -231.149994
44.749134 -46.920910 -231.949997
36.818745 -53.817265 -232.350006
39.398640 -52.353802 -233.132004
54.231667 -37.532581 -233.423004
59.205563 -31.722794 -233.149994
52.883217 -38.879959 -233.664001
44.592216 -46.763870 -233.949997
56.254360 -35.511501 -234.145996
58.998253 -31.515318 -235.550003
59.980640 -31.149921 -235.550003
62.832565 -28.610422 -235.949997
63.257858 -28.513577 -237.949997
3.121655 -87.516373 -238.350006
41.650471 -49.213589 -238.350006
-0.262052 -90.872223 -238.750000
7.538581 -84.188499 -238.750000
-52.249092 -142.675095 -239.149994
63.927116 -27.844851 -239.149994
83.400566 -7.392539 -239.149994
-7.797454 -99.512329 -240.552994
88.290466 -2.847080 -240.350006
3.289242 -87.684090 -241.149994
-67.523735 -159.191071 -241.949997
86.129578 -4.729885 -241.949997
-12.649501 -104.360512 -242.350006
0.480654 -90.266953 -242.350006
85.062897 -6.359196 -242.350006
-14.110686 -105.820534 -243.149994
-0.835827 -91.646416 -243.149994
-1.729410 -93.449112 -244.044006
79.441811 -11.521311 -244.350006
-4.311659 -96.029305 -244.750000
-44.561909 -136.247513 -245.949997
-48.925079 -140.607208 -246.544998
-32.744282 -124.439301 -246.449005
-32.057091 -122.429047 -247.149994
67.499001 -24.275806 -247.549988
-28.815285 -120.280312 -248.350006
-16.562420 -108.270317 -249.121002
-36.789127 -128.480927 -253.437012
-67.772728 -159.439865 -253.950012
-43.531956 -135.218384 -255.492004
-40.160538 -131.849655 -255.734985
-67.880257 -159.547302 -259.149994
-67.803856 -159.470963 -260.635986
-51.881966 -143.561752 -263.950012
-68.074783 -159.741684 -265.549988
65.513580 -26.259653 -267.149994
43.817760 -47.938202 -270.750000
-51.935719 -143.615463 -272.750000
-38.812256 -130.502441 -274.752991
-68.122894 -159.789749 -275.549988
-62.977318 -153.513672 -276.750000
-7.123246 -98.838654 -277.487000
2.316004 -89.406921 -277.247009
-19.259338 -110.965088 -277.682007
1.138959 -89.577362 -277.549988
7.908214 -82.867485 -277.549988
-62.284943 -152.858322 -277.950012
18.933453 -72.326164 -278.350006
20.520218 -71.217194 -278.476013
-67.791443 -158.135101 -278.750000
46.912582 -44.845840 -278.750000
31.307888 -60.438114 -279.265991
39.803341 -51.410397 -279.149994
22.878214 -68.183235 -279.549988
-66.874352 -158.542206 -279.950012
33.793396 -57.531765 -279.950012
39.609386 -51.216290 -279.950012
46.421803 -44.549541 -279.950012
12.431977 -77.955605 -280.350006
16.643780 -74.079933 -280.350006
27.075306 -64.292992 -280.350006
33.809582 -57.547962 -280.350006
57.419430 -34.347359 -280.350006
21.194427 -70.543526 -280.872009
34.066063 -57.682133 -280.750000
39.035473 -51.990345 -280.750000
41.747803 -49.310997 -280.750000
9.895864 -80.811302 -281.149994
2.316004 -89.406921 -281.942993
45.816692 -45.292416 -281.549988
48.163605 -43.595814 -281.842010
-2.403618 -94.122787 -282.175995
-3.037427 -93.488472 -281.950012
39.647346 -51.254280 -281.950012
52.883217 -38.879959 -282.230988
-14.446793 -104.993790 -282.350006
-11.168585 -102.880775 -282.378998
-23.979031 -115.681023 -283.105988
-15.888207 -107.596642 -283.000000
-48.925079 -140.607208 -283.549011
-36.789127 -128.480927 -283.484985
-49.599934 -141.281525 -283.806000
-31.395290 -123.091377 -283.618988
-44.720360 -136.405838 -285.149994
-37.659924 -129.351028 -285.149994
-38.812256 -130.502441 -285.750000
-50.803905 -142.484543 -292.350006
-51.036633 -142.717087 -301.149994
-52.937382 -144.616318 -303.950012
79.403397 -11.033393 -4.350000
69.940521 -20.488735 -4.750000
68.601936 -21.826262 -5.950000
67.242760 -23.184355 -7.549999
75.133247 -15.300145 -7.823700
72.436333 -17.994915 -8.738100
66.541168 -23.885384 -8.750000
77.172539 -11.947223 -8.750000
71.087906 -19.342266 -9.941200
65.926521 -24.499544 -9.950001
65.694069 -24.731808 -10.874599
65.301048 -25.124519 -11.549999
65.019859 -25.405483 -13.009501
69.065201 -21.363361 -13.941500
85.039581 -5.401694 -13.549999
64.578735 -25.846258 -14.350000
68.682220 -21.746037 -16.350000
81.982040 -8.456804 -17.150000
64.401176 -26.023672 -17.950001
68.552490 -21.875668 -17.950001
85.388329 -5.053229 -19.150000
64.557228 -25.867746 -20.750000
69.065201 -21.363361 -21.846300
69.739410 -20.689686 -23.462002
84.702370 -5.738638 -23.549999
65.694069 -24.731808 -24.618599
71.087906 -19.342266 -25.499100
65.918808 -24.507250 -25.549999
66.368286 -24.058132 -26.164902
66.551430 -23.875135 -26.750000
72.750343 -17.681156 -26.750000
74.034676 -16.397842 -27.950001
68.634613 -21.793606 -29.549999
70.413696 -20.015942 -31.024300
74.087097 -16.345467 -31.150002
75.807533 -14.626399 -32.303200
11.572227 -78.443588 -39.549999
24.123482 -65.384224 -41.950001
29.034866 -60.860271 -44.750000
-7.619113 -96.993828 -45.549999
-8.003596 -97.957603 -46.750000
35.658451 -54.004467 -49.950001
-11.046730 -101.411522 -51.950001
37.601566 -51.903721 -51.950001
39.830524 -50.089180 -55.949997
107.705528 18.176245 -56.750000
-14.938747 -104.501450 -57.949997
103.820984 13.973049 -58.349998
101.653313 12.097041 -59.949997
116.718872 26.685652 -60.750000
36.498745 -53.903896 -63.949997
98.960991 9.397672 -65.550003
119.760406 30.383955 -65.949997
32.004799 -57.090168 -66.349998
119.639114 30.505342 -66.750000
23.217600 -67.174469 -67.515602
23.252420 -65.860893 -67.550003
120.510437 30.040924 -68.750000
98.839600 8.387334 -69.150002
121.384697 30.914492 -73.550003
-16.986883 -107.346947 -75.550003
14.838183 -74.969887 -76.349998
95.056236 5.214852 -79.550003
87.358116 -3.085005 -80.349998
10.266564 -79.833878 -80.750000
92.728462 3.499060 -80.750000
90.022499 -0.422746 -81.150002
121.510162 31.329365 -82.349998
86.532600 -3.909869 -83.949997
99.405510 8.952796 -84.725800
93.832352 3.384073 -84.750000
120.606789 30.137194 -87.150002
124.168274 33.695847 -87.949997
100.502739 10.049154 -89.550003
123.678055 33.206017 -89.550003
2.618948 -87.756721 -89.949997
80.972885 -9.465159 -90.349998
90.718567 0.272768 -91.550003
81.678780 -8.759820 -92.750000
109.285225 19.292135 -93.550003
86.631226 -2.534937 -94.750000
110.587914 20.685253 -94.750000
128.142380 37.666794 -94.750000
-17.508017 -107.867668 -95.550003
126.967407 36.492752 -98.750000
125.781822 35.308113 -100.349998
126.382011 37.241314 -100.349998
129.356964 38.880409 -100.349998
85.658974 -4.782796 -101.550003
76.248161 -14.186116 -102.750000
126.374619 35.900436 -103.524002
82.584236 -7.855085 -103.550003
-5.931338 -95.986092 -104.349998
78.657097 -10.735970 -105.150002
79.313072 -10.044048 -105.150002
-7.480716 -97.132332 -105.550003
-5.194570 -95.374878 -105.550003
124.712250 34.239391 -105.550003
77.155952 -13.279048 -106.674004
127.289833 37.681057 -107.150002
79.781624 -10.512973 -108.349998
128.224152 38.094273 -108.349998
-17.011427 -107.371475 -109.150002
-15.887671 -106.248611 -110.724998
-9.506742 -99.150101 -110.349998
-8.532413 -98.776787 -110.349998
-15.314747 -105.473572 -110.750000
127.722900 37.247643 -111.093002
-7.159956 -97.453346 -111.150002
73.538231 -16.893894 -111.550003
77.669220 -12.444303 -111.550003
-7.392854 -97.220268 -113.150002
128.249741 38.068661 -113.150002
126.138351 35.664356 -114.349998
129.214783 38.738338 -115.550003
-8.660558 -98.648537 -115.949997
75.089180 -15.344179 -116.349998
-10.687011 -100.665741 -116.750000
-5.367458 -95.201851 -118.750000
12.056725 -77.580048 -119.949997
73.705238 -16.567844 -120.350006
75.694794 -14.513570 -120.350006
-10.889866 -100.462723 -120.750000
71.054520 -19.375628 -121.550003
74.169876 -15.684430 -121.550003
127.256020 36.781136 -123.550003
132.372559 41.893604 -123.550003
7.538975 -82.840614 -123.949997
-1.328847 -91.701378 -124.750000
15.206143 -75.179550 -127.550003
76.098999 -13.569674 -127.550003
7.522492 -82.857079 -128.350006
132.697952 42.218742 -128.750000
68.803253 -21.625099 -129.949997
71.514519 -18.420795 -130.350006
72.850784 -17.061274 -130.350006
-2.704998 -93.076431 -130.750000
8.141316 -82.238747 -131.949997
73.552589 -16.879543 -131.949997
70.288589 -19.890738 -132.750000
-2.344724 -92.716446 -133.550003
8.919656 -81.461029 -134.350006
127.879234 37.403854 -134.350006
-4.121825 -94.492126 -135.550003
70.515739 -18.769638 -136.750000
74.665733 -15.767286 -137.149994
69.010712 -21.308825 -137.550003
132.750305 42.271053 -138.350006
18.575504 -71.812866 -138.750000
66.671471 -23.755186 -138.750000
72.179192 -18.251846 -139.149994
69.118752 -20.068531 -140.350006
70.716827 -18.970890 -140.350006
72.496452 -16.706663 -142.350006
2.760466 -87.154892 -143.149994
19.789078 -70.485474 -143.149994
127.914597 37.439190 -143.550003
67.734703 -21.380228 -143.949997
22.511415 -67.880089 -144.350006
15.714757 -74.671341 -144.750000
-0.001686 -89.784225 -146.750000
0.989790 -88.079651 -146.750000
2.551744 -86.946007 -147.149994
19.253874 -69.949844 -147.949997
1.402009 -88.492195 -149.149994
58.277531 -32.142445 -149.356003
60.087315 -30.334105 -149.550003
132.018860 41.540192 -149.949997
18.413370 -71.805664 -150.350006
66.311836 -24.114536 -150.350006
21.638683 -68.291145 -150.750000
53.159206 -36.459263 -151.550003
26.063282 -64.331055 -152.750000
71.976250 -18.454634 -153.149994
127.094734 36.619984 -154.350006
130.612473 41.098595 -154.750000
69.920013 -20.509233 -155.149994
24.485167 -65.746193 -156.350006
27.582115 -62.813427 -156.350006
21.419632 -68.971008 -156.750000
71.339027 -19.091343 -157.550003
23.615372 -66.224136 -157.949997
63.206116 -27.217781 -157.949997
20.340227 -70.049553 -159.949997
23.101965 -67.058739 -160.350006
69.778191 -19.379927 -160.350006
126.050896 36.224419 -161.550003
30.125671 -60.271896 -162.750000
130.072128 39.595009 -163.149994
26.191139 -63.408119 -163.550003
68.452248 -21.975826 -165.949997
69.916611 -20.512627 -165.949997
128.675354 38.992401 -165.949997
29.926640 -60.404331 -168.350006
26.454008 -63.671196 -169.149994
27.531578 -62.052631 -169.149994
124.726006 34.853790 -169.149994
33.331059 -57.069061 -170.320999
69.362305 -21.066494 -169.949997
127.163803 37.807190 -169.949997
60.748154 -29.673788 -170.350006
29.629139 -60.106590 -171.949997
124.476707 35.103287 -171.949997
25.573204 -64.820740 -172.750000
126.413246 37.210052 -173.149994
127.990288 37.514824 -173.149994
-57.443756 -147.771622 -173.949997
32.579529 -57.819988 -173.949997
35.037281 -55.364197 -173.949997
68.658096 -21.770140 -174.750000
60.989193 -28.114006 -176.350006
59.356297 -31.064537 -177.550003
123.064743 33.819817 -177.550003
-57.457909 -147.785751 -177.949997
32.869221 -56.606853 -178.350006
36.428993 -53.973591 -178.350006
125.206268 35.721432 -179.149994
-56.098309 -146.427246 -179.550003
-51.525047 -141.857620 -179.550003
30.877907 -59.520260 -179.550003
121.950912 32.236553 -180.350006
30.140808 -60.256771 -183.550003
38.548542 -51.855728 -183.550003
-56.243324 -146.572144 -183.949997
-57.464905 -146.894516 -184.350006
-59.884247 -149.866379 -184.750000
-51.095657 -141.428574 -184.750000
-61.723572 -150.723587 -185.550003
123.228935 33.655491 -185.949997
37.660839 -52.742725 -186.350006
119.993729 30.150446 -186.350006
-27.692717 -117.357513 -186.750000
57.345901 -33.073334 -187.550003
-63.884010 -153.954544 -187.949997
-28.791281 -118.956055 -187.949997
-30.909336 -120.881157 -188.750000
-28.820259 -118.927048 -188.750000
-31.394899 -121.743492 -189.598999
40.901031 -49.505112 -189.949997
32.401550 -57.997826 -190.350006
118.466202 28.982351 -190.750000
58.341404 -30.857944 -191.550003
58.261616 -32.158348 -192.750000
-36.163433 -126.410553 -193.149994
-49.686115 -139.845566 -193.550003
-66.905785 -157.226120 -193.949997
33.703640 -56.696774 -194.350006
120.789093 30.702734 -194.350006
-50.585632 -140.918961 -195.149994
116.433098 26.971651 -195.550003
41.421810 -48.984745 -196.300003
62.671898 -27.751577 -195.949997
56.023388 -34.394794 -196.350006
-51.819321 -142.151657 -197.550003
115.310371 25.398291 -197.550003
35.137798 -55.263756 -197.949997
60.974991 -28.099791 -198.350006
118.482315 28.966221 -198.350006
44.387459 -46.021458 -198.750000
118.877144 28.571077 -199.550003
43.515457 -46.892769 -201.149994
63.355659 -27.068359 -201.149994
-51.798801 -142.131149 -203.550003
46.456337 -43.954227 -203.550003
111.937256 22.031824 -203.949997
55.209099 -35.208435 -205.149994
116.453918 25.987633 -205.149994
58.531181 -31.047873 -205.550003
62.680317 -27.743164 -206.350006
60.226940 -30.047995 -206.750000
-16.410364 -105.725502 -207.149994
-14.268703 -103.823601 -207.149994
46.141399 -44.268913 -207.901001
-19.659611 -110.017548 -208.350006
39.499271 -50.905758 -208.350006
-14.337761 -103.754486 -208.750000
-14.945532 -104.494659 -209.949997
49.137417 -41.275284 -209.949997
-67.555168 -157.874985 -210.350006
40.283199 -50.122452 -210.350006
-23.134726 -113.489899 -211.149994
107.496262 17.037109 -211.283005
-51.880157 -142.212448 -211.550003
-15.634851 -105.995995 -211.550003
55.003773 -34.259914 -211.550003
57.440964 -32.653633 -211.550003
112.720253 22.596634 -211.949997
43.303211 -47.104847 -212.750000
61.810509 -28.612278 -213.149994
58.855541 -31.372494 -213.949997
-25.937395 -116.290337 -214.350006
105.312485 14.855066 -214.350006
-38.811153 -129.153839 -215.257004
-37.462872 -127.806641 -215.533997
36.265305 -53.263378 -215.149994
111.189888 20.727795 -215.149994
55.193119 -35.224400 -215.550003
-32.219002 -122.566940 -215.949997
39.484676 -49.743057 -215.949997
44.793495 -44.268402 -215.949997
-44.879845 -135.217712 -216.832001
42.366074 -47.232910 -217.550003
61.655380 -28.767284 -217.550003
-30.867893 -121.216911 -217.949997
-67.668358 -157.988083 -218.350006
37.491375 -51.793438 -218.350006
44.558136 -45.381306 -219.149994
101.445435 12.305082 -219.149994
103.450920 12.994986 -220.712006
107.735008 17.275663 -220.750000
39.144516 -51.260227 -221.550003
44.118717 -46.289989 -221.639008
-32.069038 -122.417099 -223.145004
43.444485 -46.963684 -223.742996
60.567390 -29.040291 -224.350006
102.134689 11.679799 -224.750000
54.956554 -35.460777 -225.149994
99.307190 9.051193 -225.149994
99.629333 10.077215 -225.550003
51.212467 -39.201881 -225.949997
56.592274 -33.152763 -226.750000
-51.929668 -142.261917 -227.149994
46.687206 -43.723541 -227.149994
40.073318 -50.332169 -228.059998
49.304321 -40.692059 -228.350006
96.581833 6.131363 -228.350006
99.438896 8.986156 -228.350006
57.512848 -32.725574 -229.149994
100.994797 10.540818 -229.550003
45.960171 -44.087540 -230.350006
48.838318 -41.574142 -230.492004
59.927032 -29.747849 -230.350006
60.723389 -29.196415 -230.350006
58.115398 -32.304451 -231.949997
90.369545 -0.075977 -231.949997
96.124077 5.673975 -231.949997
56.643463 -33.775211 -232.350006
43.037495 -46.556374 -233.149994
92.493477 2.046265 -233.149994
42.470093 -47.937302 -234.750000
92.675949 3.551621 -234.750000
91.162506 1.020853 -235.550003
61.648659 -28.773998 -236.837997
-68.178375 -158.497696 -237.149994
62.561897 -27.861488 -237.550003
89.307716 0.180278 -237.550003
92.361694 1.914584 -237.949997
85.958992 -3.210594 -238.350006
-0.780722 -90.353134 -239.550003
2.070154 -88.305077 -239.550003
-3.569175 -92.956299 -239.949997
-6.055385 -95.861946 -240.350006
