# This PCD file was generated using the MATLAB® pcwrite function
# from Computer Vision Toolbox®.
# .PCD v.7 - Point Cloud Data file format
VERSION .7
FIELDS x y z
SIZE 4 4 4
TYPE F F F
COUNT 1 1 1
WIDTH 1453
HEIGHT 1
VIEWPOINT 0 0 0 1 0 0 0
POINTS 1453
DATA ascii
-22.170906 206.668167 -63.482368
12.407248 202.453552 -68.070885
94.061127 210.841980 -68.646027
-148.569458 205.995758 -64.183090
-144.887970 208.463837 -65.039474
-149.656479 209.375961 -65.824097
-154.319351 207.977463 -64.991142
-24.585466 209.401917 -66.846558
-11.504142 205.546722 -66.915543
-146.594513 211.486313 -64.222603
-16.707348 210.239807 -66.197090
-161.204926 209.688187 -65.976868
-133.497406 209.383240 -66.621635
16.876307 216.941971 -67.464592
-161.686005 213.784882 -64.555870
-145.267441 216.162552 -67.448120
9.830583 211.688843 -65.521294
-153.262100 212.725555 -64.836617
-23.352186 211.065994 -66.670509
100.158829 209.367935 -66.991661
-156.818878 223.502991 -67.063011
-163.910858 218.365509 -68.409393
-76.894157 219.270325 -65.255844
89.457550 219.489639 -66.228859
-3.104501 227.379166 -65.517876
-152.559723 222.807877 -65.728409
-87.193451 223.854965 -66.311699
-8.249196 221.423355 -68.453819
15.945427 230.933853 -66.842262
-144.769287 229.345871 -67.275497
-2.659684 230.815186 -69.212013
-19.892262 229.280914 -66.782402
-14.001470 229.748123 -64.103432
90.118896 227.709549 -66.743721
-20.571390 227.233841 -65.761459
-29.912016 226.502289 -66.341415
-106.791771 234.121735 -64.034485
-15.215632 232.744965 -65.561226
92.099754 228.980896 -65.091896
79.682617 229.680984 -67.178040
7.048074 229.724564 -67.774986
-10.306249 235.253860 -65.836174
78.999062 232.234711 -67.630112
-122.336708 234.949097 -68.456627
-20.747908 232.868240 -65.330299
-97.530846 233.726074 -65.916580
-102.982643 234.935593 -66.678520
-132.255066 238.155106 -68.142685
82.119705 233.915649 -66.532013
-122.865135 237.104828 -66.841248
5.722594 238.401886 -66.569939
81.442986 234.275024 -65.716461
-14.579988 238.542664 -67.433006
-12.341269 238.727310 -67.312759
-2.445227 239.801544 -70.058578
10.108567 237.165787 -67.835075
88.350471 235.735870 -67.668480
11.049611 241.642990 -65.688232
5.318209 239.223785 -67.076111
-8.344769 240.769180 -67.226776
-6.129991 241.430786 -67.079369
18.534090 242.287659 -65.770729
-11.750771 243.473679 -65.273506
71.793922 249.081787 -67.319031
-8.067789 248.352859 -65.357178
19.447397 245.776779 -67.857315
-163.678452 250.809097 -66.105850
-4.659149 247.888977 -65.410507
-7.988452 250.877670 -66.690224
-167.199127 260.969086 -66.665054
-10.062335 254.725647 -65.982826
16.697159 255.915070 -65.043648
-146.633682 261.740509 -68.447136
-70.937271 259.347931 -65.727440
-60.647667 256.810974 -67.002541
53.617256 256.818451 -65.701561
-75.129120 257.251862 -66.493599
18.064566 259.349396 -67.637543
-72.688217 261.626862 -66.399269
-14.408379 257.939423 -66.037941
-145.052292 262.699768 -68.521187
48.082466 259.436829 -64.901909
-78.861877 264.886078 -67.549286
-101.884178 264.764648 -64.718391
-98.109650 264.673950 -68.140198
-118.354698 263.888794 -65.998657
-105.076469 266.950256 -65.655815
-105.757950 268.496613 -66.891830
22.511032 269.292847 -66.071594
-128.084045 274.899139 -65.070816
-12.323897 285.920990 -67.702232
-146.456375 292.584564 -65.310135
-168.254852 294.581146 -67.799698
-124.474060 294.782867 -67.506523
-113.788857 296.813293 -64.511124
-75.094025 295.533569 -63.448536
-56.876286 296.638000 -66.646530
-41.982357 296.279510 -66.085953
-14.859076 298.932068 -68.446274
-13.537546 300.661346 -64.991951
-37.789745 299.649811 -67.506027
-33.971909 298.782928 -66.357185
-18.460566 298.895721 -64.673904
-70.528633 302.122620 -65.901276
-54.681419 300.840454 -66.197189
-16.498335 301.267517 -64.328430
-13.356536 300.220642 -67.667519
-3.523244 301.674225 -65.867310
2.654665 301.775970 -64.622536
-90.866432 302.445984 -66.897636
-140.546158 303.985626 -67.296181
-116.617599 302.451843 -67.535835
-153.434799 305.632385 -66.721802
-152.742432 309.402832 -67.095673
-146.113678 309.743164 -66.264893
46.075878 30.098476 -64.183922
20.637154 33.311050 -67.039345
50.062298 35.585289 -63.895889
47.913471 44.468079 -66.084045
87.931862 78.978889 -65.474167
96.041634 83.315582 -66.730415
101.784874 88.933838 -64.683830
99.035728 92.771019 -66.523041
58.082939 98.730118 -66.406784
47.463364 102.027962 -69.328003
63.944115 100.555214 -64.567329
-64.294350 102.471443 -62.865765
70.808586 98.007805 -65.822220
102.113152 108.300980 -61.531845
75.273361 110.386932 -66.762100
95.631660 111.832626 -64.925720
-82.408760 112.262856 -66.472557
45.339020 109.424942 -65.205833
-84.845375 113.590324 -66.610420
51.471821 120.374947 -67.150787
39.216164 113.854591 -68.687431
104.486183 113.133583 -64.960770
38.232178 116.816811 -65.123238
41.813721 126.920227 -65.812637
43.619110 122.949059 -64.922920
109.769791 122.923172 -64.602501
-81.197906 131.152817 -67.752182
112.374268 134.808365 -67.227699
39.536663 134.297531 -63.374908
41.533665 130.373306 -64.535172
36.033077 131.475861 -65.641876
-55.664856 139.615417 -68.302628
31.090443 133.565262 -65.031898
-76.482445 147.308212 -65.350121
-55.032822 142.677490 -67.587326
-78.968361 144.808777 -64.156586
35.302132 139.865585 -64.221825
-58.850391 143.707825 -65.883400
35.568489 143.617157 -64.910881
-71.967209 149.571884 -64.261841
-58.720222 149.649200 -64.896538
27.500830 151.345871 -65.862907
110.705528 153.234711 -67.721008
116.011795 146.810959 -62.857155
31.437508 150.611053 -65.268257
-46.605709 150.548157 -65.918030
108.414413 161.900574 -64.188583
-74.479233 153.500931 -65.453438
-58.227745 152.439606 -65.745537
31.965254 158.369186 -63.526447
-76.588654 156.322723 -66.385597
-70.413124 160.580414 -65.886978
116.028999 159.744507 -67.807152
-64.344467 164.742950 -65.781006
-38.783543 162.664825 -64.099472
26.947395 156.945023 -64.183670
-73.518593 157.403305 -65.760223
12.793806 160.419785 -65.738693
32.229855 165.967926 -64.955574
31.168756 159.176727 -64.001190
14.263015 164.505646 -69.010269
-48.945026 163.461777 -66.168839
26.313290 163.194946 -65.737892
-45.245319 159.573929 -64.847733
6.017236 163.957489 -65.813637
21.599115 159.984375 -64.985199
-69.662956 166.714401 -65.386177
-45.813297 164.123520 -63.339031
-67.542397 165.010834 -64.790550
17.107122 168.389313 -64.686897
25.012266 160.123856 -64.860397
2.897696 173.215927 -65.507729
21.313734 164.619110 -66.034515
31.146957 176.118271 -65.779007
-47.060680 172.645676 -67.010918
-35.321144 172.418701 -69.352043
-39.975224 170.652695 -65.787766
28.225880 169.492020 -65.507813
-43.754288 177.168762 -64.847839
-39.808052 174.786621 -64.428154
21.354698 176.088181 -64.776077
-39.724110 184.394333 -65.973145
28.589294 180.152924 -63.480015
112.857048 175.978455 -63.490158
-32.748096 181.904114 -65.301559
104.761307 183.154236 -63.842472
-34.314724 187.088135 -65.180634
-36.795795 190.933167 -67.578232
20.290110 186.164124 -67.737610
105.583939 192.088348 -65.413055
-30.188318 193.622055 -64.472321
-34.355011 186.095001 -64.866951
-23.279287 196.388245 -67.352425
-148.736084 198.420303 -66.445396
14.347809 193.361603 -65.469604
105.822678 200.377380 -64.345467
-157.461121 203.507507 -65.349274
-24.162144 200.469101 -63.840710
-115.409492 206.900131 -66.681419
-131.866837 206.207565 -66.607224
-108.550301 209.510330 -65.658760
-112.646866 210.215927 -65.278854
-12.909778 206.386978 -65.949303
20.508320 206.270859 -65.249374
-15.550250 211.760910 -62.797325
-125.430183 215.077911 -65.777641
-20.951572 214.265091 -63.005203
-130.088135 212.895432 -65.506500
-14.369802 211.332886 -65.946419
-145.152069 213.685852 -64.872826
92.057587 216.852173 -63.021179
-164.569321 211.667419 -62.952702
-3.098861 226.171295 -67.544815
11.159258 219.613556 -66.092941
10.617811 226.866928 -66.478134
83.100479 227.226990 -65.274323
8.075400 222.863770 -66.228989
13.692802 224.581299 -64.892700
-15.628653 226.277252 -68.482140
-90.307205 225.588318 -65.471268
-97.412537 226.486191 -65.804817
-1.352728 229.866730 -64.476158
-166.164673 232.438385 -66.891006
14.605297 230.723892 -64.256927
-144.320587 232.016266 -65.164925
12.719110 235.016388 -65.621315
-133.971146 234.757919 -66.497299
-116.064186 236.356613 -66.481407
16.620859 231.396301 -64.760765
77.861824 232.710541 -65.379250
7.340470 233.370178 -65.007347
-110.375275 240.525345 -65.435341
74.427055 238.107086 -65.949547
83.170029 239.612579 -66.087227
-124.211838 243.864136 -65.646957
-115.600357 240.766357 -65.925781
-10.321054 239.069656 -63.599335
72.187004 240.408249 -66.193153
64.929039 243.925537 -66.066315
74.289543 240.297089 -65.039040
-134.224548 244.279236 -63.452374
71.101631 243.629852 -66.233086
66.701080 245.656815 -64.096581
-166.049698 239.849014 -65.089417
1.222653 250.132874 -70.345390
18.675184 249.870804 -66.385796
-5.747122 250.155746 -63.820030
15.108438 249.398209 -62.293713
65.793739 248.527145 -66.321922
10.108180 252.562347 -64.502731
-10.287037 251.286896 -60.661900
0.515896 248.886719 -63.158020
65.231483 252.784927 -66.235176
4.358026 252.752411 -66.494904
-7.427584 253.225632 -66.248795
14.222264 253.670517 -67.038483
-167.222351 251.109985 -66.486931
57.420383 257.466309 -65.175026
50.991116 259.596161 -61.802433
57.389793 252.724136 -66.238831
-11.907438 257.990540 -64.725494
57.495667 256.326447 -65.814781
-73.255630 259.183228 -65.120827
51.345402 259.160645 -65.907356
-89.392334 262.223297 -65.960320
-123.975410 265.682678 -66.886909
-132.543182 263.384247 -65.486374
45.460804 262.279083 -66.650826
-133.677490 264.158691 -67.573875
-109.552223 265.822876 -64.900169
-114.944031 267.165466 -63.783722
-83.136421 264.866425 -66.189087
-111.149033 269.816803 -65.233818
-123.836998 272.217621 -68.177322
-145.828781 276.927216 -63.667427
-15.190434 274.258270 -64.815720
-169.767136 274.125732 -66.835350
-14.240165 283.084747 -65.583939
-159.130096 277.306152 -63.369534
-152.552261 284.100983 -65.426567
-169.144119 287.352264 -65.751663
-13.467750 287.664215 -65.213684
-131.500748 293.380005 -67.473343
-158.652893 296.082184 -65.462166
-144.441086 291.236603 -65.035049
-134.792603 292.144012 -68.401787
-8.107985 294.779785 -61.536251
-125.582161 293.766693 -68.876274
-141.162476 295.387726 -64.798134
-115.940880 295.833740 -67.373650
-77.580849 297.373169 -64.641830
-61.318893 297.202606 -65.607193
-6.296658 298.014008 -66.156181
-53.404259 297.172913 -64.724129
-57.445229 298.651855 -63.857807
-69.740982 300.367096 -64.169289
-87.387100 302.794373 -65.320183
-96.216270 299.736420 -63.383888
-160.995300 301.315979 -64.557762
-161.623840 303.002167 -66.654213
-124.954712 304.179626 -67.771027
-144.827026 305.335266 -66.221207
-154.061996 312.538361 -67.599586
-149.222595 322.474854 -67.095734
48.130581 25.913826 -63.764416
18.449356 38.702789 -66.416885
42.082264 44.417507 -62.987061
-15.657928 76.601631 -67.900581
82.361404 75.366074 -63.612965
87.888359 76.115807 -61.929970
77.802940 75.883247 -66.493240
73.600410 78.951233 -65.529968
91.775688 84.346024 -67.430305
-94.747353 80.201385 -62.884136
69.358727 85.716965 -65.766823
-36.279808 87.130440 -65.015732
99.785866 96.354782 -65.038071
61.158382 100.432739 -63.346313
107.102295 104.741478 -67.997864
103.243614 108.263992 -66.817726
71.920059 110.208481 -64.449364
-78.722389 110.569214 -65.378937
54.614037 113.252472 -65.374771
106.692940 115.698013 -63.085716
48.106144 121.397026 -66.063324
80.421082 114.969666 -63.908634
42.107883 117.106628 -64.542709
105.643639 113.464401 -64.126160
47.965584 117.804047 -64.029297
108.397041 120.535301 -67.559921
110.027260 122.391670 -66.176765
-78.675499 123.975288 -63.789715
-82.444542 128.490417 -63.994820
44.357452 130.376282 -67.132858
114.211662 130.322067 -65.679184
114.199387 133.806076 -63.850155
-85.830894 137.044556 -64.396019
106.856468 134.989059 -65.515709
-58.873119 141.602341 -67.937370
-85.878487 136.736435 -65.111702
-73.451111 137.341568 -64.641769
-58.297562 136.640015 -61.571453
31.638744 139.730652 -64.132980
41.457855 143.963699 -64.354164
-73.972107 146.746902 -64.613892
28.953642 141.676514 -63.582066
111.222466 151.768127 -64.383186
-41.187576 157.368317 -64.624390
28.731880 158.412033 -64.304955
114.677856 156.945114 -63.082615
35.485939 153.007324 -64.830811
111.032074 151.696014 -63.265182
-52.473629 159.086212 -65.481415
-69.602463 160.458618 -63.200279
-53.302197 163.449829 -65.257957
-41.469082 174.818024 -66.896133
5.721426 165.920837 -64.947868
110.761841 163.938309 -64.101639
109.607109 168.932114 -64.205452
9.703100 167.825134 -63.687813
4.414305 171.793793 -65.215263
18.180042 165.943069 -64.703537
25.668232 165.656250 -63.521626
109.928200 175.892654 -63.695484
108.965790 177.917038 -66.541855
24.106436 183.251465 -62.398357
25.755291 172.963425 -65.549370
112.947655 171.984558 -62.866081
-28.355162 185.966385 -63.851063
110.228256 178.088058 -64.187813
17.575840 179.253952 -65.097832
22.060213 176.767090 -64.278328
109.161797 183.158966 -64.121933
26.532902 180.608795 -63.818214
111.628670 192.927048 -64.135254
-37.806240 186.440659 -63.944881
26.089928 182.177322 -63.854797
107.519669 193.385437 -63.982395
23.697748 189.519302 -65.217804
-151.967255 196.530838 -63.931248
-28.152788 198.809372 -62.234016
25.127171 194.663437 -63.126686
-112.413322 201.407257 -65.545609
-109.955193 200.239517 -63.137840
23.285818 198.974625 -64.742096
12.505226 195.213715 -63.609917
-26.539078 199.936096 -63.047077
-29.810331 199.042862 -67.165634
-27.154659 196.407562 -64.699646
16.276991 189.856812 -63.127598
-150.653030 204.286850 -64.848053
-144.469269 203.021698 -64.753952
-142.785706 207.411057 -66.644714
-22.197702 201.252060 -63.752541
13.397390 209.416061 -63.061928
99.385551 203.928879 -63.852528
-113.592819 208.120056 -64.110733
21.565088 208.692810 -66.469170
-16.091921 205.950775 -63.770775
-17.780100 208.789658 -63.579216
100.838409 209.208755 -63.437981
8.719125 209.931885 -65.462463
-21.580910 206.248260 -63.018017
-121.582069 212.118927 -67.008476
-133.755508 213.171875 -64.634132
-113.713951 214.070282 -61.790749
-141.900253 213.328079 -66.600807
18.229067 207.642380 -64.004250
94.802597 213.194656 -64.760063
-166.017014 212.133652 -61.602020
100.139877 212.741074 -64.164764
-20.309807 216.494034 -66.708702
94.763298 221.494217 -63.293209
88.176773 222.924377 -64.833687
13.342017 217.723236 -65.243004
19.359079 221.415558 -64.254593
12.708129 217.579407 -62.496799
-10.659130 231.593506 -64.859024
-94.623978 227.763779 -65.565575
-9.097603 222.968872 -65.798454
89.995384 225.720322 -64.061928
-92.806961 228.323883 -65.899330
-101.761940 230.575912 -63.480843
-93.140152 229.701462 -65.986794
87.819656 231.792191 -64.919067
-134.777145 234.987411 -64.769615
-133.077744 235.925201 -66.601318
-116.590988 234.777054 -64.317955
-112.771454 234.175064 -62.484631
-133.573456 236.610657 -64.084137
-110.520683 236.921753 -69.368118
-112.636765 237.725784 -64.987831
-6.555871 235.152222 -66.478073
-16.250174 233.201355 -65.791847
-0.912257 240.908463 -63.290283
-10.119379 237.149429 -62.521290
15.344259 243.251999 -64.860985
-17.753710 238.962296 -63.402443
-166.678787 233.124664 -63.406029
-3.132587 243.301331 -63.897011
80.810402 240.725006 -62.500954
10.467763 244.001236 -65.655670
-6.074290 244.453278 -63.812958
-156.565369 246.754532 -62.944782
-141.492172 241.483490 -63.747261
63.761055 245.629395 -63.098572
-5.547833 244.789856 -65.358360
8.349010 241.810303 -65.945084
69.526207 242.325912 -65.569145
77.181656 244.304337 -65.134201
70.794281 250.886414 -65.194237
-1.188258 246.387482 -66.292686
57.853558 248.945755 -63.399330
-18.661932 249.479584 -66.228722
-15.724084 250.837158 -63.210670
8.648515 250.014969 -64.419998
65.454308 248.877029 -66.480377
64.287170 250.342331 -63.391861
50.359135 256.565277 -64.357689
61.403694 253.013657 -66.578941
-15.539287 260.151428 -67.320374
-83.293320 262.541351 -63.037231
-76.688545 262.424072 -63.143055
44.554127 258.466675 -66.347549
-147.250687 261.029694 -65.268806
36.591042 265.857513 -64.710899
-91.712791 261.829254 -66.679001
-155.530899 264.950775 -62.251175
-140.542389 263.972778 -60.982197
46.499756 263.321594 -64.617729
-124.523895 267.332428 -61.482674
-116.240364 265.704346 -64.279945
-92.737160 267.299988 -61.695797
-13.980928 262.041901 -62.658291
31.848602 267.936768 -64.319229
25.026638 269.944855 -62.639282
-158.121262 269.709351 -62.014984
-114.759445 272.552032 -66.924728
-14.110658 271.885895 -64.074135
-133.253693 274.987396 -64.708649
-13.787512 280.418640 -63.475555
-165.641861 283.159821 -63.957649
-8.070688 290.263000 -65.339218
-161.430710 297.759186 -64.615898
-163.176041 287.552948 -65.357071
-142.795105 295.167694 -64.641418
-169.174377 294.575592 -66.028839
13.770318 297.603943 -65.722839
-103.182854 296.587006 -65.307091
-86.889702 296.332825 -62.124649
-167.213898 294.756866 -62.724480
-91.554451 295.425110 -66.416512
-152.380402 297.966461 -64.810913
-74.447723 301.587006 -64.785606
-69.689461 298.701141 -64.045006
-82.037376 300.934143 -64.877930
-3.884967 299.657471 -61.657822
-86.617142 299.542267 -64.575531
-98.891685 301.236938 -65.272217
-115.518684 302.458710 -65.029587
-116.558914 302.631775 -63.006409
-134.235855 302.738525 -63.406494
-143.192627 310.777435 -65.344810
-144.135529 321.445526 -66.145020
24.335588 25.762691 -63.259960
32.351242 26.926691 -63.436829
29.715611 28.632896 -65.512512
44.388569 31.388470 -63.158951
26.194736 41.758709 -64.314056
-74.439362 57.340527 -62.152489
90.311440 75.075668 -60.584259
-16.121218 77.979141 -63.336796
102.161636 82.629837 -62.268505
96.438927 85.759644 -66.885269
69.196915 88.377876 -65.411827
69.667328 93.091530 -66.131218
-44.368217 92.776443 -66.717896
61.970325 93.277596 -65.635452
-94.535889 97.844154 -64.401985
-49.725529 95.797211 -62.152191
-55.107548 99.087151 -70.325081
100.540901 107.108192 -67.732605
59.146992 103.466133 -66.386078
65.456604 101.258736 -63.133919
-95.991531 106.665825 -60.032375
108.200409 104.458862 -64.631302
45.533939 108.869453 -62.868767
101.343414 108.147339 -63.556660
106.883408 115.882408 -62.414593
102.403687 115.252541 -63.994026
74.089157 111.838173 -64.915543
87.959023 115.854103 -65.419731
50.194847 121.336922 -64.372368
111.100853 114.569031 -62.930328
45.793842 116.217178 -65.152481
42.221882 111.391350 -61.979404
112.751884 120.425682 -63.737610
-78.332458 120.105850 -62.291958
46.815453 123.047546 -63.370190
36.105965 124.548149 -64.859154
105.548599 119.931175 -61.834793
40.993282 121.561386 -61.252113
-88.193436 123.861229 -63.305176
-95.431984 125.037926 -61.941975
105.644493 128.801910 -65.254593
-94.312378 128.441299 -65.432297
39.058006 131.580948 -64.569710
37.600517 129.744003 -63.132816
-82.092751 134.375900 -63.215332
32.235065 145.182465 -62.238087
110.452339 141.295792 -64.881653
-51.893192 144.580215 -63.294037
-88.057800 140.676468 -62.977924
38.118935 142.481842 -65.809120
-90.070229 145.397873 -60.339962
-88.991043 148.803574 -64.855782
-48.962395 147.087967 -65.338173
-70.329292 149.841629 -62.492680
-50.308620 144.024979 -62.607479
114.755760 148.248138 -61.667507
-73.626808 148.065460 -64.472870
36.307102 141.807541 -63.462723
-78.394028 149.496872 -63.289719
-73.540855 145.968414 -62.996410
-89.476006 148.900879 -61.961910
-52.686401 157.860077 -62.688335
31.775595 155.737946 -60.936890
28.038647 159.917816 -61.923058
18.870543 154.320129 -60.362576
113.429909 156.539261 -63.065132
-94.502151 162.910614 -62.382755
14.573226 162.459305 -64.997803
-71.699692 162.292007 -63.097115
23.699863 160.209000 -63.158600
-48.645325 165.391861 -62.792263
9.799333 162.909103 -62.435627
14.500937 168.011963 -65.195091
18.633713 173.962982 -66.526031
-47.361458 171.946823 -64.849518
-39.159332 164.462570 -63.041290
-45.357483 170.282562 -63.341122
-103.565704 181.167496 -63.662281
22.051952 183.588104 -63.941574
-35.010445 184.673996 -62.976681
15.782059 188.326202 -65.891304
-143.977402 185.267212 -63.942860
-32.279022 182.987473 -61.335640
-153.857391 187.273438 -66.092766
23.007107 191.975449 -60.811424
-31.858166 182.093231 -63.783562
-107.808556 188.573242 -62.640247
-106.872864 192.891571 -65.994553
-29.292627 194.844452 -60.497478
-22.885422 191.837692 -66.122002
15.208932 199.467010 -62.691811
17.868139 206.294052 -61.873356
14.573874 196.710754 -62.877316
-142.706909 197.590683 -63.282707
20.440094 200.123322 -61.107113
8.941846 206.752747 -63.696609
-137.972778 204.786560 -62.449223
-114.953033 205.272141 -63.353241
15.175564 209.722229 -62.329578
-114.728745 206.514175 -63.009525
-107.542564 201.789276 -60.662579
-164.170807 208.850571 -64.597816
-23.937811 210.052597 -62.976547
14.461674 210.628052 -62.420879
-141.493378 213.544403 -63.451908
-134.342514 215.569031 -64.180946
-18.824286 216.911469 -62.303604
-11.284104 214.047943 -64.518898
-15.039414 215.985580 -63.488045
-141.733917 215.148651 -65.454140
-15.749472 222.906494 -64.098602
-10.967897 224.104034 -65.430779
17.563665 220.919144 -61.773617
-13.256015 221.304535 -65.223381
10.920987 220.656876 -63.019939
-9.626868 225.851730 -63.796482
-19.278444 222.188492 -61.954868
13.576061 231.219925 -65.944275
-0.718690 230.179047 -66.883064
11.564663 231.699051 -61.110302
-5.424036 236.052597 -64.484459
-157.492767 234.210510 -63.605568
81.350807 230.614304 -64.832581
-134.639694 234.450302 -62.313843
-134.531067 233.732239 -64.382996
-8.308923 235.346451 -64.014717
10.017294 243.003601 -63.492252
-155.753082 238.256058 -63.130932
87.519089 230.206818 -62.497349
-2.157561 235.384476 -62.635670
0.915873 234.018234 -64.131165
74.401253 238.622910 -65.168373
1.190960 244.075989 -62.065609
-14.924157 238.493240 -65.392097
-125.545403 244.429077 -63.290981
-3.313204 246.315689 -63.312340
2.762531 243.074966 -61.809231
66.318123 248.633514 -62.494320
-157.990021 248.570328 -63.826698
-11.652457 254.263428 -63.800316
-168.024750 248.394882 -64.985107
9.800127 252.565643 -62.389462
-164.803375 248.849762 -63.532726
-160.826706 255.262192 -64.216339
56.767906 255.682526 -62.911346
63.367111 253.213531 -63.974182
56.882072 253.961990 -63.556217
52.291222 258.904877 -63.279682
-156.457703 254.451950 -63.592239
-156.313690 259.269379 -62.330433
-13.454331 259.480774 -64.840904
-151.409775 256.134735 -63.304852
20.907455 261.458008 -65.377441
-168.509674 260.630066 -66.501640
-166.497879 256.952942 -62.129978
-81.759155 259.838715 -64.216545
-168.395309 270.649750 -63.529758
-85.210068 265.846588 -63.031601
42.623970 263.217896 -62.866238
22.902277 265.926270 -66.438019
-158.768677 270.869446 -63.824043
-100.284004 269.326355 -59.708160
39.235928 266.594086 -63.996971
-103.230156 269.433136 -67.625000
-154.122559 274.163300 -59.187504
-105.614746 269.448547 -62.425049
-166.652649 269.578033 -64.434334
-112.752190 272.887787 -64.547844
-152.782104 275.276398 -65.131905
-157.759979 273.853790 -62.996189
-165.952744 273.537384 -63.129883
-163.014572 272.151367 -62.070145
-165.363464 276.262817 -63.476299
-163.681686 274.136139 -63.883678
25.574253 275.281097 -64.568451
-150.546494 274.121490 -65.387878
-148.499237 293.459656 -62.946510
23.118290 287.126373 -64.898331
-10.964975 284.516541 -64.225418
-125.868950 294.071136 -63.270905
-136.049500 295.741058 -64.938705
-134.720551 297.839539 -62.458706
-125.849472 295.858337 -64.348305
-114.942879 298.641113 -62.695232
-105.808670 296.383514 -61.268372
10.434757 301.179047 -65.483818
-85.162628 299.470184 -63.906155
-149.106918 299.266663 -64.241714
-101.071739 300.496948 -63.297371
-127.161942 301.444885 -61.465721
9.576272 298.760223 -66.063515
-112.441322 300.156860 -60.328468
2.254416 302.908356 -63.757805
-142.959579 299.940125 -63.140789
-153.106049 306.275421 -64.402451
-157.023422 322.504028 -63.836132
-154.637894 322.102417 -63.756523
49.331017 34.615326 -64.794044
23.063944 44.605373 -64.079788
32.559071 46.783321 -64.583992
-45.810448 57.574783 -64.681740
-13.195271 71.744537 -62.174030
94.505890 78.902756 -64.583977
69.403137 80.214088 -60.564957
-23.020433 84.484428 -63.890572
-96.187431 95.042328 -66.530090
-41.847282 90.860878 -63.670387
63.925728 92.313736 -62.281548
61.204388 96.796638 -64.754387
55.048595 97.607582 -61.484875
-58.131489 99.883377 -62.138618
66.878357 99.495697 -60.495872
44.602169 107.566444 -65.431366
68.473946 104.589134 -63.910069
-62.877274 105.536751 -61.589588
49.942646 104.148674 -64.744873
45.516392 108.646698 -63.890839
103.820602 109.548492 -61.215557
-66.869507 109.053978 -63.104275
110.427322 110.914810 -62.488342
-78.581284 110.575233 -64.067619
55.394615 114.056152 -65.164734
48.329826 110.446342 -61.411350
92.792404 113.699883 -62.805531
85.636551 117.123947 -60.470013
54.205597 114.308548 -62.207333
-75.446472 120.114189 -63.511395
-75.490852 123.488014 -62.158817
-79.509689 128.415771 -64.278648
-92.260323 128.750839 -66.433083
106.442741 126.012962 -59.348179
-86.721840 129.118561 -64.537903
-77.119865 130.754807 -60.528938
110.311172 125.749870 -61.536083
-62.201508 128.333755 -57.271263
114.363007 141.459641 -64.759666
110.535156 139.339432 -63.490135
108.873932 134.709473 -62.983963
-92.824455 148.022659 -63.213585
-47.500439 151.529724 -62.780163
-77.510414 154.795990 -61.884117
-68.914627 159.091888 -63.031521
-70.787560 156.738983 -61.495079
-54.844933 153.296616 -62.261002
-47.134403 156.830505 -65.227173
18.451143 155.674759 -62.780834
-93.955956 153.619583 -61.207737
-44.872482 157.624893 -61.849911
-52.395802 158.046326 -59.245930
-41.465992 165.054291 -61.674004
28.335361 172.646927 -64.172050
-49.054192 160.341293 -62.433895
-98.870537 159.859894 -60.489529
-43.625736 167.738098 -60.936474
26.420086 159.502060 -63.551754
-99.652664 172.293671 -65.725578
22.941727 167.348495 -63.945965
-106.930923 180.234802 -61.369385
-100.333061 173.174423 -62.987877
22.718267 174.017746 -62.207005
26.382277 178.035995 -61.323486
-106.429283 183.690002 -64.167274
-141.460358 185.056488 -61.959904
-20.397982 198.469574 -62.965302
-26.884911 192.339096 -62.130295
-113.882729 196.862320 -63.499706
-143.438507 197.365677 -59.068253
-104.121780 191.648163 -61.109367
-156.607834 201.309937 -63.013603
-130.923676 204.847321 -65.747459
-132.991486 205.863144 -64.007591
-19.735243 200.583191 -61.296749
-120.806656 206.997986 -63.196560
-115.614784 207.949844 -60.605885
-25.468344 205.508133 -63.731033
-153.925522 209.099747 -61.155869
-131.518433 214.547104 -64.850952
-124.529236 214.809006 -61.466072
18.231205 211.845581 -63.465328
-161.260437 213.767563 -61.709045
10.426393 224.281876 -62.477852
14.018830 224.232590 -63.132542
-17.608871 218.124603 -60.330956
-4.724642 226.090012 -62.953922
-168.199203 219.750443 -61.046356
-158.550064 223.141525 -60.788315
-94.219872 228.019058 -62.920906
-99.414742 233.512100 -63.590076
-160.607468 233.975082 -62.603355
-104.629875 229.432800 -61.839588
-11.932978 225.699753 -61.543827
-126.559258 232.872086 -63.934372
-141.137177 234.601791 -63.647491
-2.730334 231.321411 -63.254086
-134.002304 235.087311 -61.787827
-123.455208 233.858780 -65.571861
-114.012329 235.313568 -63.700905
1.863127 237.471313 -59.907749
-106.688545 239.885925 -62.172619
-159.329910 233.048096 -59.349865
-146.890518 237.032455 -61.870216
-165.365829 234.587082 -62.256916
-7.371252 237.469650 -63.194366
-8.256521 241.919861 -62.573185
78.818077 235.885559 -63.861946
1.017695 239.887039 -63.754723
-142.435394 244.904297 -62.566555
-13.665019 239.003357 -61.939491
74.520889 238.459351 -62.784157
75.394051 243.145645 -62.925915
-134.336563 242.728516 -61.908710
-157.731064 238.303528 -63.834377
-114.074715 242.932617 -62.177498
-123.962486 245.001923 -59.870506
-163.965668 244.581528 -61.749237
-159.238846 245.784821 -62.792561
-145.590607 244.939590 -60.910763
-11.037265 245.915298 -62.844532
-4.420493 249.502686 -62.608753
-160.623001 249.416107 -61.330666
5.702078 248.920975 -63.670292
4.454140 245.759125 -62.868267
-160.308594 249.638535 -62.517410
16.152515 253.283508 -65.396355
51.032715 254.924545 -64.446815
51.827744 254.935410 -63.872627
-14.903967 256.791962 -63.734596
49.038826 258.844696 -61.598991
-162.152145 260.771149 -60.920578
-160.216446 257.878021 -62.706245
-159.818527 259.642914 -64.711517
54.317707 259.548096 -62.884186
-90.999207 262.775391 -61.995258
-125.032257 264.130035 -62.581783
-105.375229 264.224182 -65.488609
27.833088 267.366516 -65.252060
42.470608 260.994751 -61.497017
-100.767067 265.076660 -60.868893
-93.779984 263.014069 -59.931530
45.490685 263.921448 -65.047768
43.161991 266.496979 -61.720001
-155.132660 268.176636 -66.100555
31.669537 268.774902 -62.650665
-142.336105 273.784821 -65.434563
-113.828293 272.125488 -62.131817
-136.212372 272.753082 -62.867378
30.359671 272.708466 -62.908733
-126.062698 273.876160 -61.715046
-11.005228 269.086151 -61.971573
22.439289 280.961670 -65.287521
-6.665519 276.001160 -64.986275
20.203316 289.563690 -64.205711
-152.514740 292.318573 -63.685196
-10.482205 290.467407 -62.327232
-153.469208 292.941223 -65.780624
-124.679359 294.905365 -63.345264
-158.650787 296.214142 -67.234589
-114.564491 297.064148 -62.914375
-105.032784 298.992889 -62.771461
-6.977032 295.745483 -61.677597
-108.741531 299.626282 -63.412834
-116.225914 296.281403 -60.968510
-118.778000 301.271210 -60.653587
-137.128922 299.455597 -62.190304
-125.694954 301.686310 -61.874310
-157.175552 300.031647 -66.006134
-146.651367 303.472229 -62.225365
-154.678513 310.830994 -61.403446
-154.015106 320.998169 -61.534569
-157.056610 310.765869 -62.330887
-143.211548 320.696686 -63.634453
-150.092056 323.028290 -62.853153
36.406300 19.930470 -63.912266
46.538300 25.742151 -65.746346
25.289965 34.282486 -59.271008
50.900600 38.078609 -63.634224
29.325438 44.293957 -65.163727
34.454117 45.256130 -64.394218
-57.034786 56.269924 -59.690193
82.337372 72.057205 -60.176964
80.971397 76.181404 -63.409626
-89.963371 71.423264 -62.778210
-11.586963 72.194969 -60.635063
-91.624771 78.584396 -64.470810
97.106773 79.476364 -63.861603
-13.951783 78.082863 -59.974796
68.453690 87.033005 -64.444649
-39.804218 87.767395 -66.305130
-26.992599 86.429832 -66.358307
57.309006 95.708534 -60.916996
-43.865314 94.461685 -72.049896
65.544647 96.448738 -57.559032
54.047195 98.538246 -65.458382
53.383350 102.898979 -63.373825
61.256493 100.705872 -65.045303
58.025749 105.520950 -61.239044
101.012527 107.126579 -60.654537
106.042274 107.718575 -59.887653
59.967075 109.115463 -64.592911
107.147377 108.647301 -59.349636
-75.616455 109.008072 -62.272671
-71.480659 110.764221 -61.478214
101.087013 108.347260 -60.178970
53.951511 110.414734 -62.693115
71.255325 109.252098 -63.306179
-72.473129 115.869896 -62.362804
-84.053650 116.078133 -61.262970
91.296867 114.804817 -64.080833
41.717323 114.856270 -62.718540
104.827049 114.600525 -59.842651
46.254311 123.054611 -63.636883
110.320488 114.188873 -62.062126
-78.552750 119.770111 -61.404598
106.160866 118.185585 -59.192062
-84.280884 130.283035 -60.405956
-58.078812 138.256729 -64.076935
-54.581413 134.886047 -60.954380
-72.587624 138.967224 -62.811153
-50.650414 140.203537 -63.328808
-83.545273 141.519470 -63.521935
-76.876770 143.199707 -60.254490
-80.818184 139.234482 -61.770065
-59.027725 150.447220 -65.671242
-71.633171 149.554871 -61.505211
-59.147354 145.755814 -63.547832
-58.947330 150.661087 -62.743927
19.628799 152.386307 -59.736618
-90.284859 152.507507 -62.150784
-46.690914 154.779922 -64.296654
-97.083168 158.986343 -60.362995
-99.853905 159.664154 -60.650990
18.957657 162.722519 -63.296379
14.017305 167.205414 -63.215412
-95.821732 168.552414 -62.912247
-102.663712 165.161469 -61.856533
-100.423477 178.256302 -61.272213
22.745970 179.119644 -61.340008
-109.209106 181.733597 -61.831051
21.782671 177.025803 -62.376877
-147.054901 185.768097 -62.059116
17.994267 186.235779 -62.052200
23.962860 195.398209 -62.409920
-152.367676 196.429489 -61.194328
21.967154 186.912735 -62.031548
19.416241 189.499466 -58.420033
-142.376541 195.494934 -64.803101
-151.555252 198.573898 -60.825066
20.288549 198.366440 -61.639931
18.659647 199.184738 -62.526344
-142.232574 202.966110 -63.447399
-108.416779 207.318130 -62.464607
22.784937 207.557465 -62.570465
-124.196709 204.440247 -61.409645
11.634725 208.840912 -63.191864
-130.784424 204.219238 -58.968277
-157.443176 201.601196 -60.324303
-161.904892 206.571655 -62.204609
-159.789185 205.936951 -62.208824
-19.235004 212.536407 -61.534100
-166.555008 209.528748 -63.787724
-25.335432 202.167343 -60.115536
-15.032369 206.957230 -62.977779
11.953516 205.087219 -59.051624
-158.175339 211.896698 -61.578205
-108.812706 211.539978 -61.329601
-17.761168 212.631927 -59.867104
-159.188477 211.762329 -59.869576
16.551975 210.665100 -61.684280
-167.162018 214.046997 -60.516068
-121.127327 212.728241 -64.032623
-114.821991 215.916382 -59.917610
-122.914986 214.304672 -60.804337
-13.894786 213.926559 -61.489437
-16.012535 214.777176 -61.751701
-164.232941 219.876221 -61.306118
-160.077988 222.702835 -60.743797
-164.688019 229.340256 -62.159744
-142.350189 224.169342 -63.269707
-144.255951 232.974411 -62.731312
-3.926411 230.301468 -60.642097
-9.796434 226.554977 -63.645508
-99.192444 230.849045 -61.217480
-6.085407 239.987762 -61.028652
-165.748016 237.752228 -60.541245
-107.793106 241.000656 -60.270061
1.045534 236.418121 -61.631245
3.529311 239.889236 -60.660294
-111.546356 242.310959 -62.929977
-1.223080 239.478058 -62.070511
-116.976257 244.236450 -60.176479
-7.300357 243.834610 -59.982826
-2.325621 244.558090 -61.006390
-0.783184 246.574631 -61.949379
71.328163 245.977997 -60.081425
-11.339987 247.275131 -64.215889
5.830133 247.740891 -62.263741
11.255436 249.679184 -60.992111
5.842428 248.633774 -61.888935
1.721499 250.462402 -62.729893
65.045311 247.574661 -59.280151
69.255905 249.624054 -60.383472
9.669462 255.506042 -61.991226
55.712288 251.643661 -62.015820
56.010895 250.562241 -64.274124
47.227165 257.939972 -59.899044
40.841904 260.733704 -60.923740
40.863861 264.597504 -61.000217
-132.857437 266.328094 -60.021854
-11.163613 261.211456 -61.769760
27.193367 268.056976 -61.470459
46.113155 259.339142 -61.449333
26.257420 264.288849 -63.390736
-101.977455 267.917023 -62.647732
32.190731 266.088776 -62.161621
-148.286819 270.039093 -63.600422
-116.087250 267.126923 -62.302708
-107.401299 267.221710 -61.600769
-4.571876 268.855438 -62.728172
-149.299713 267.232880 -63.143303
34.282761 270.751190 -61.109890
-110.788879 267.015472 -60.906296
26.579958 269.202423 -63.579262
-135.029785 271.274780 -62.313534
-116.287224 272.274567 -60.855396
-108.479797 270.255310 -61.134022
-115.597908 271.463623 -63.713280
-138.838226 269.352478 -62.826550
28.647871 270.661713 -61.986198
-117.587952 273.118713 -61.200657
-143.996048 273.231262 -63.348236
-5.090119 280.603546 -60.450069
-151.323624 291.575928 -63.992146
-7.959674 294.148560 -62.121872
-5.250720 293.667877 -59.954067
-134.296097 296.400848 -61.976467
-126.398819 299.081848 -62.213379
-135.791168 303.066925 -62.415180
-126.491867 302.747742 -61.979977
-154.207855 304.367249 -62.982277
-155.066284 310.196075 -62.156372
-147.513504 310.345917 -64.307350
-150.145355 312.202728 -61.867290
-145.214035 309.613892 -62.263172
-148.714981 312.854004 -61.150211
-146.724518 323.537323 -60.662735
20.252018 38.203457 -64.944580
49.239079 45.202541 -64.501923
26.787109 48.264839 -66.602386
33.425964 51.476891 -63.743561
-42.499725 57.159939 -58.205688
-77.065071 60.433407 -60.996780
81.150597 71.389290 -60.185940
75.719414 72.522324 -61.685883
71.561371 76.999733 -62.226089
-97.781937 83.093658 -61.314541
100.382187 85.828804 -63.473717
-31.464649 90.670975 -61.585159
64.590111 87.209145 -60.498112
-43.325218 91.656128 -59.281456
-52.220268 93.107658 -59.329987
50.862652 100.263863 -62.775677
102.783981 100.176224 -61.746311
65.216377 104.305504 -59.321182
57.662941 103.681274 -60.130402
49.586475 110.849823 -59.792385
57.334515 109.134377 -58.525326
103.941025 107.848045 -59.625160
70.751488 115.167450 -60.627068
49.499340 115.409607 -60.784081
77.631927 116.415443 -64.439636
94.080498 117.980278 -58.467716
-75.541313 112.938660 -60.277222
-86.508141 119.945572 -62.279198
-81.938873 122.901031 -62.285873
-59.491940 128.195450 -59.930241
-56.673260 135.438797 -64.095818
-94.146851 131.633789 -61.160702
-75.411606 129.474869 -61.739571
-76.127342 141.641510 -64.024635
-60.719902 138.414246 -59.971081
-88.520447 139.943253 -58.467628
-89.359474 139.294159 -61.146576
-47.560780 145.189499 -64.751976
-51.543274 145.825775 -61.131599
-76.640587 148.283859 -61.595020
-53.123154 151.349274 -62.303780
-74.489746 152.716370 -62.799217
22.539089 148.103928 -59.317616
-56.761265 154.880844 -64.107040
-54.171879 154.916504 -59.121685
9.716757 164.793533 -63.186234
16.662266 161.037109 -59.612682
-142.498398 184.336777 -61.317951
-110.165077 188.021011 -61.155090
-108.387688 199.033081 -59.072227
-151.903961 201.892242 -62.604019
-112.562912 195.107803 -60.664772
-152.188171 205.580902 -58.825310
-113.764549 207.891159 -59.904762
-149.539810 209.525314 -59.857597
-150.774063 215.667175 -61.877563
-152.085205 219.133972 -64.010345
-146.736496 233.113098 -61.124020
-150.658661 234.256821 -63.635635
-104.604347 234.294998 -60.152840
-102.745293 233.162994 -61.025852
-123.223747 239.084885 -58.331642
-108.356308 236.185699 -60.395641
-155.698593 240.227966 -62.879845
-2.398363 236.597870 -60.814880
-134.008392 240.925461 -61.869297
-152.977539 244.551361 -63.015755
-135.472031 243.402222 -62.733059
-11.426314 246.976288 -61.023453
9.077900 252.091034 -61.616749
63.175503 250.805923 -58.545948
18.780136 257.740967 -63.029903
57.374390 254.239685 -60.559422
41.956387 259.254913 -61.785885
57.340923 260.671997 -59.875950
-151.655350 260.812500 -61.368961
-150.554749 263.805328 -64.596329
42.472900 266.755524 -60.074051
30.641386 266.298523 -60.491512
47.525871 261.768677 -59.870304
-144.236221 267.163788 -63.846630
-135.302322 265.452484 -59.960255
-125.200653 266.746429 -59.557430
-134.197144 265.797150 -61.904530
-141.127060 267.454956 -61.710968
-123.817955 268.838867 -60.766544
-142.285568 270.027374 -60.235577
-125.384171 270.028625 -62.243549
-123.578827 273.603699 -60.875885
-126.361694 274.125977 -61.965878
-119.090477 273.604858 -59.130219
-5.079270 275.360504 -61.462292
27.330423 272.270050 -59.858688
-146.356155 276.224213 -59.572689
26.396065 277.543365 -60.588863
-3.953264 282.864288 -58.419632
16.977571 293.507416 -65.532249
-141.809036 298.611908 -61.846119
-125.788376 297.078094 -61.476036
-133.037750 299.741913 -58.779861
-157.659500 300.992065 -58.244808
-125.513046 298.881958 -58.131271
-118.023315 299.052887 -59.391373
-126.110603 304.137939 -62.114174
-149.841003 304.307312 -63.309532
28.285444 22.779522 -64.841484
33.394466 26.883041 -65.247948
38.895149 28.805275 -63.290123
48.990192 33.491116 -56.484234
27.138224 37.562866 -65.903641
21.850058 44.749611 -64.885147
-34.206722 56.484516 -60.562916
-82.698181 62.409996 -61.706055
-15.483346 67.751953 -60.493149
72.373116 74.623940 -59.300301
100.895126 78.322609 -59.830620
65.242569 92.118347 -59.942402
61.912758 92.153961 -56.896088
102.151634 94.003784 -59.782814
-63.420345 99.848862 -58.609951
-64.564857 101.810440 -60.255234
49.153023 103.937416 -59.146015
-66.386482 105.590385 -60.823318
-70.216827 109.800095 -60.386585
-97.296494 107.966125 -58.831032
-75.124367 110.204666 -58.392521
47.206585 110.959908 -58.316711
-68.304131 112.990082 -61.842735
50.836391 111.983963 -58.643436
96.993149 114.253433 -60.300625
91.880707 119.446213 -59.639889
-73.319061 123.340675 -60.221413
-82.830811 122.283813 -60.709171
-61.510170 128.917236 -60.368660
-96.174225 129.164124 -58.276623
-76.649956 136.887024 -61.516281
-92.785500 134.097900 -55.853928
-62.509499 128.221771 -58.487942
-59.900520 129.345352 -55.801243
-87.563019 138.618607 -59.969879
-62.653561 137.603149 -63.248768
-83.988441 141.502365 -59.435738
-76.794594 142.880142 -61.128616
-62.402702 142.773560 -62.295681
-60.915493 144.626358 -56.923637
-54.116703 146.184326 -57.296558
-94.285698 142.734268 -58.651989
-96.440941 153.362503 -59.201256
-86.700821 143.803680 -60.670124
21.754477 156.863800 -61.761082
-49.404137 152.369064 -60.678562
17.232798 159.093613 -59.316151
-97.961472 173.508270 -60.638138
-102.360802 181.391037 -62.937805
-102.150848 181.007095 -57.953205
-107.196854 179.244049 -57.574146
-106.284187 189.730530 -60.967934
-110.276596 187.557922 -59.978703
-141.579697 197.016998 -59.719742
-111.836571 196.550751 -59.184723
-133.138046 208.015442 -57.892063
-148.049240 207.989639 -61.713783
-124.728165 207.426178 -60.439796
-155.608978 206.827652 -61.695160
-146.903595 211.413208 -62.550339
-123.934814 209.507935 -57.139046
-134.077530 212.077682 -60.124977
-142.343109 215.991135 -63.565945
-132.511353 233.597809 -62.607803
-111.288155 238.593338 -61.108654
-144.864594 238.590729 -61.454086
-117.507988 240.065140 -58.970860
-114.787155 240.749496 -57.820332
-123.213135 243.317139 -60.710876
-128.803787 244.398376 -60.761826
-115.789986 245.004105 -58.333618
4.148498 244.964874 -59.434780
-151.322662 246.627045 -61.844082
7.155059 243.707306 -61.455212
6.724578 250.369995 -57.832336
1.907547 250.174896 -61.262550
14.911167 250.189819 -57.088070
-144.854202 245.195129 -59.979084
-4.154859 255.953461 -60.298073
19.808912 252.029434 -59.498142
48.864689 258.778046 -58.649288
51.001297 259.090698 -58.602417
-146.543350 262.186737 -61.849388
-5.946594 261.524231 -60.304852
24.203859 266.362640 -60.317883
-132.912262 268.516937 -56.984737
-125.122978 269.488007 -58.840717
-125.258774 267.792908 -60.177887
26.318590 269.173004 -59.864307
-134.172745 274.704132 -59.540562
29.216520 271.059174 -58.504894
31.728453 273.354706 -60.321918
-152.244720 276.187561 -62.413643
-147.188812 297.188721 -65.105240
-150.255920 298.238464 -58.723545
-143.865173 303.113922 -58.219044
10.587067 301.963898 -62.680153
-154.510910 307.430389 -58.717964
45.588795 36.003128 -64.777306
35.485016 50.322643 -65.702087
-62.421432 55.393559 -58.798542
-72.448746 55.918587 -58.278706
-27.063343 60.181831 -58.676655
-21.394737 64.234406 -62.209179
-12.375381 76.386505 -56.736454
-25.297468 79.367126 -57.434528
65.322502 83.202034 -59.121765
-97.303406 88.129105 -56.216053
-46.672825 95.064621 -59.846470
54.826099 95.823624 -60.285896
57.510128 97.016006 -59.265816
63.530437 99.025208 -59.851185
105.722893 100.921051 -58.650944
52.222305 101.944641 -56.799152
99.504631 110.557411 -57.166611
-80.897430 112.546616 -61.226295
-95.440544 112.210014 -60.300274
75.911453 120.892647 -56.823967
-76.701141 113.450897 -58.516918
-77.653404 125.917633 -62.751877
-83.640144 128.499634 -62.150703
-55.264175 136.660431 -60.600258
-78.054489 138.299484 -60.534290
-61.917336 140.318161 -58.062458
-82.314049 144.319641 -60.979111
-75.526939 142.949951 -58.684227
-79.933807 135.371689 -56.177692
-87.878883 140.661850 -58.048321
-64.495659 143.601990 -57.496033
-90.466606 143.458527 -58.861778
-49.654846 143.936432 -60.771854
-55.944294 149.050232 -62.285015
27.799927 148.226181 -59.328663
-57.303696 147.412766 -55.412975
15.252834 154.870117 -61.914978
17.936800 158.563202 -59.081879
18.056324 162.891464 -56.804214
-97.314156 154.991562 -58.395409
-92.068649 160.792969 -59.917816
-95.811485 161.782257 -56.606930
-103.828140 169.728378 -59.660980
-96.904114 168.643036 -58.802029
-151.485062 185.239151 -61.577271
-153.468445 186.099091 -60.069206
-108.563835 191.444778 -58.118172
-142.209259 187.937073 -57.588558
-109.953606 190.679184 -57.202633
-150.548309 197.033829 -55.854542
-111.455902 203.123596 -57.373829
-109.795387 195.355637 -59.071934
-142.759766 207.975510 -59.535416
-131.502823 206.662048 -60.437077
-107.923279 207.698303 -59.541153
-115.727104 209.258514 -56.285065
-112.378464 210.387405 -59.343758
-115.484177 212.642441 -56.974022
-134.043457 208.112732 -57.591717
-136.456131 212.396164 -59.149956
-131.528717 215.801620 -58.507278
-126.493347 211.918198 -55.868740
-125.493454 214.906296 -58.954140
-114.834358 214.371796 -58.323662
-147.101303 224.750778 -59.173630
-151.287201 231.205719 -59.737049
-152.773132 233.176697 -57.749264
-140.953217 235.471695 -63.259865
-132.186447 236.833618 -56.965496
-123.244102 232.181351 -60.834549
-140.945099 238.395950 -60.642120
-150.565643 237.241196 -61.561100
-134.314331 236.654556 -60.154160
-133.384827 238.683258 -57.199291
-147.866959 239.997406 -60.725231
-134.168716 240.811096 -56.046349
-126.690536 239.788818 -57.753765
-9.192490 246.890518 -61.446182
4.754012 249.898010 -58.070778
13.414098 252.653580 -56.259949
9.686321 253.821182 -60.931499
-8.846992 251.516830 -60.552483
-11.585001 256.976715 -59.320183
39.557449 261.089661 -57.688919
48.555286 262.342896 -58.852940
-145.181915 264.300537 -57.728168
41.741261 265.369049 -57.752350
37.461372 263.392517 -59.329227
-157.568787 268.055176 -61.183002
-151.108688 267.912933 -58.237083
-149.637726 269.785889 -62.667427
2.407472 273.886292 -59.417324
-151.076416 276.217438 -59.336422
-0.202442 284.536377 -59.181660
-146.780899 284.424103 -60.726456
-147.839645 291.972839 -59.064552
-151.299469 293.941498 -59.092812
-149.914597 293.896729 -55.587006
-144.948074 297.472717 -58.192150
-155.674881 295.542877 -58.473465
-151.208405 296.085938 -58.558727
-150.959122 297.148743 -57.887798
-147.275757 296.727600 -58.556458
-143.942413 297.386017 -58.358555
12.089683 296.716766 -59.839813
-147.294647 301.790833 -58.865185
-156.511093 300.724243 -56.948608
-154.277786 298.953735 -56.209862
-151.316895 303.488434 -57.643810
-149.625092 300.112335 -55.417526
-146.583954 301.707611 -59.589153
2.473066 302.556458 -59.926758
-144.528580 304.077332 -57.940693
-147.819641 303.754089 -56.799137
29.136255 27.857378 -53.683422
42.198204 30.017597 -63.239323
42.999767 31.833136 -56.551361
19.301411 41.336922 -64.492233
28.209747 45.178417 -52.652290
38.575195 45.688114 -62.332458
-56.946083 53.716499 -57.051960
-50.742779 52.793961 -58.436665
89.692871 73.205048 -58.947357
-95.815582 75.244225 -57.203987
95.965073 74.035797 -64.068916
67.924225 78.900902 -58.879620
101.785240 87.178085 -60.218479
64.405777 85.985130 -60.960430
-41.482498 87.789330 -59.840538
60.541859 91.707870 -55.388527
-55.287174 89.309242 -56.034817
61.124382 94.712288 -57.676567
62.058811 94.593910 -56.887184
-98.023674 92.923050 -58.940399
51.781219 97.592415 -57.636932
52.298321 102.888863 -61.264229
64.643028 102.318138 -59.744320
52.641350 106.098015 -56.977428
-81.180664 116.327522 -57.303738
83.323952 115.670799 -61.295158
-79.319633 125.739868 -60.166943
-76.321609 117.436806 -56.928337
-79.590286 131.500107 -59.532314
-86.306709 123.790932 -58.221031
-92.568558 129.586456 -58.319687
-79.668045 133.874222 -59.206036
-53.753353 136.339432 -56.119213
-77.842064 143.926392 -57.349010
-56.543190 141.437103 -54.514210
-87.848305 146.407318 -56.928226
29.583448 147.686417 -57.554546
19.874344 150.428055 -58.648022
-92.231171 150.684311 -53.395992
20.177620 158.330872 -59.011837
-90.208878 155.559158 -59.719162
-93.760872 157.242889 -55.430855
19.401094 165.932831 -58.320805
-95.750359 155.801285 -57.293335
-97.428696 157.953232 -56.402607
-102.584106 167.133347 -57.246307
-96.871681 170.163940 -57.393795
-104.456001 186.368301 -58.788246
-107.757851 178.209839 -61.085838
-100.510384 174.889862 -57.772324
-105.781746 180.108688 -57.972603
-140.820267 187.310776 -59.583477
-108.935265 188.139389 -57.564980
-141.989548 197.339783 -57.990543
-148.542587 199.245010 -56.689255
-151.605713 200.942902 -56.626926
-123.327087 206.124100 -56.811337
-130.764954 206.639801 -58.958969
-122.386269 209.671280 -57.400719
-142.188751 211.928680 -60.140335
-123.643257 213.721893 -59.799339
-145.805786 214.826233 -59.491680
-150.651779 215.721085 -58.574490
-154.941360 237.994019 -56.908733
-142.087021 241.319931 -61.646763
-126.832367 242.167648 -57.137886
-154.136765 241.023315 -56.364880
-2.809319 248.077927 -61.655125
12.931621 249.382278 -56.085560
-2.992918 253.012680 -60.306091
-148.439011 254.730759 -57.351280
-7.067881 254.417206 -56.628120
