-7.980033397675 -67.956611633301 -283.965209960938 2.160228729248
-5.267833709717 -65.793151855469 -283.483276367188 1.071015715599
-134.314132690430 -67.599990844727 -286.320251464844 0.833425045013
-126.415077209473 -67.851333618164 -288.994720458984 2.094704389572
-135.804534912109 -68.039100646973 -292.987365722656 1.649146914482
-126.504760742188 -67.619377136230 -292.660797119141 1.647805333138
-154.221069335938 -68.575828552246 -294.302337646484 0.443766713142
-155.073364257813 -67.751022338867 -300.132232666016 1.566076993942
-147.524093627930 -69.914749145508 -300.275024414063 1.661998987198
-150.150329589844 -67.471076965332 -302.135009765625 2.225597620010
-145.221801757813 -67.874114990234 -299.542022705078 2.526119947433
-148.718246459961 -66.756690979004 -302.785461425781 1.965850949287
-146.718292236328 -66.277206420898 -313.467346191406 1.770266175270
20.018972396851 -70.715171813965 -27.996183395386 0.827854514122
49.012405395508 -70.324256896973 -34.971893310547 1.291603922844
26.559436798096 -72.388343811035 -38.051521301270 1.787135958672
33.205692291260 -69.542068481445 -41.259414672852 0.999691009521
-42.705921173096 -63.879150390625 -47.006584167480 2.445953130722
-77.273231506348 -66.613609313965 -50.306930541992 2.293568611145
80.952369689941 -66.073287963867 -61.134552001953 1.151557087898
75.519607543945 -67.564605712891 -62.271354675293 1.095719695091
71.364295959473 -68.099777221680 -66.751899719238 0.651874005795
-97.972183227539 -66.906448364258 -72.983871459961 2.920843362808
100.190124511719 -69.399658203125 -75.556991577148 1.797317743301
-31.649330139160 -67.291755676270 -80.507148742676 2.316807985306
64.404243469238 -66.364540100098 -76.967712402344 1.610267043114
-43.505203247070 -64.968566894531 -81.502944946289 1.533326625824
-52.399139404297 -65.002792358398 -82.961685180664 2.408198833466
50.683593750000 -68.624732971191 -90.032592773438 1.900082707405
102.606483459473 -67.682540893555 -89.903190612793 1.055505752563
65.046379089355 -65.196113586426 -94.064064025879 1.063289403915
57.491088867188 -65.992370605469 -93.445617675781 2.258412837982
49.421031951904 -65.643913269043 -100.620872497559 2.011947870255
57.169792175293 -64.389122009277 -98.899681091309 1.230660438538
103.773315429688 -65.566680908203 -97.574996948242 1.963636040688
70.588104248047 -66.516021728516 -104.920936584473 2.211776256561
49.335933685303 -66.637451171875 -105.180297851563 1.141818046570
77.463142395020 -70.340690612793 -106.161674499512 1.658277869225
93.922981262207 -64.397087097168 -107.715728759766 1.563603281975
-75.705619812012 -65.919494628906 -102.811210632324 1.683237791061
-86.670097351074 -67.906097412109 -109.826164245605 1.489807009697
-82.098449707031 -67.921737670898 -112.777900695801 1.684103488922
-59.643302917480 -65.606117248535 -118.055091857910 0.860192418098
-56.825744628906 -69.779579162598 -125.294334411621 2.037870645523
-94.297416687012 -66.779869079590 -121.521064758301 1.258064150810
-75.564941406250 -67.389266967773 -119.346656799316 1.999844193459
-76.274635314941 -69.678421020508 -131.512863159180 1.107547760010
-60.863033294678 -65.649345397949 -128.274856567383 0.541911125183
-88.659744262695 -64.099868774414 -129.827102661133 1.800134301186
-89.503807067871 -66.777122497559 -129.177520751953 1.466528892517
-47.706466674805 -70.455291748047 -135.037322998047 1.613754034042
-51.682353973389 -66.828506469727 -135.678421020508 1.637671828270
-76.778404235840 -67.250846862793 -138.156692504883 1.817188024521
-53.259712219238 -68.000442504883 -141.202682495117 1.567149281502
-74.625984191895 -68.460578918457 -142.586914062500 1.570647239685
22.404756546021 -65.139953613281 -137.897125244141 1.931686758995
-56.897975921631 -69.799125671387 -144.736419677734 1.669717550278
-54.300193786621 -64.818145751953 -144.772140502930 2.189915418625
9.589506149292 -68.994293212891 -154.595458984375 1.497104525566
16.537954330444 -65.430778503418 -150.834945678711 1.096280455589
-142.606338500977 -66.878868103027 -174.263214111328 0.620661735535
-110.269805908203 -66.771919250488 -177.921249389648 1.041202306747
-108.479980468750 -64.696846008301 -188.932769775391 1.519383311272
-151.999786376953 -68.156791687012 -191.825759887695 2.622203350067
-112.661056518555 -66.280662536621 -185.010192871094 2.311521530151
-152.274658203125 -64.379211425781 -195.516281127930 2.111280202866
-113.851036071777 -65.524208068848 -197.794830322266 1.055773735046
-149.624816894531 -65.417671203613 -199.458099365234 1.304911136627
-150.857482910156 -67.438232421875 -205.600082397461 1.026446700096
-152.169372558594 -69.570312500000 -209.067016601563 2.966940879822
-146.804489135742 -66.699073791504 -223.043029785156 1.761771678925
-150.729919433594 -69.204597473145 -224.188842773438 1.199913024902
-104.669815063477 -65.799179077148 -224.191085815430 1.064625740051
-102.813156127930 -66.674812316895 -223.057205200195 1.970837116241
-123.282226562500 -63.948791503906 -228.996902465820 1.455228805542
-108.420639038086 -66.036499023438 -226.084747314453 1.252663493156
-155.763732910156 -68.442939758301 -230.164413452148 1.511008620262
-2.463283300400 -66.633888244629 -226.410614013672 2.368189811707
-134.071304321289 -67.469131469727 -230.844726562500 2.121039390564
-153.039398193359 -68.585304260254 -234.485534667969 0.389019101858
-135.534393310547 -68.331512451172 -233.322296142578 1.697965621948
-11.483137130737 -66.831817626953 -236.796279907227 2.764971733093
9.024192810059 -67.461784362793 -241.894073486328 0.976362884045
63.125801086426 -64.481285095215 -240.566329956055 2.183104276657
18.728626251221 -68.893692016602 -247.535522460938 0.718247711658
57.324108123779 -66.486511230469 -244.003936767578 1.916852474213
41.908149719238 -67.689262390137 -249.031127929688 1.481756329536
57.297016143799 -65.805786132813 -250.436584472656 2.207053899765
-151.701248168945 -66.947822570801 -250.746276855469 2.182519197464
-150.603622436523 -70.178337097168 -253.736816406250 2.045566320419
42.433628082275 -65.981567382813 -256.532104492188 1.110964298248
30.601066589355 -66.378952026367 -256.084533691406 2.497488498688
47.482879638672 -65.784133911133 -251.541229248047 1.423704385757
-144.281127929688 -69.440719604492 -257.090484619141 1.256366848946
-135.342117309570 -65.568611145020 -255.373596191406 2.105768680573
-125.238723754883 -65.183311462402 -256.659515380859 0.908771157265
-134.239913940430 -67.514884948730 -255.716522216797 1.112552165985
-141.168136596680 -67.310409545898 -257.380065917969 2.368986845016
-123.856361389160 -66.395660400391 -258.750305175781 2.005023717880
-142.322082519531 -65.834190368652 -259.954071044922 1.588543772697
-125.424087524414 -67.870552062988 -259.940704345703 1.314894556999
-123.613548278809 -66.507476806641 -263.514862060547 0.913114309311
-126.397811889648 -67.593025207520 -264.038940429688 1.280022621155
-119.122268676758 -64.769355773926 -263.513122558594 1.138555526733
-5.113787174225 -67.293685913086 -265.175079345703 1.268689155579
27.296024322510 -65.743171691895 -262.058990478516 1.521976470947
-146.386520385742 -65.167167663574 -266.154449462891 2.190607309341
26.364723205566 -66.474075317383 -267.332763671875 1.719079256058
-3.976577758789 -64.256187438965 -272.679260253906 3.976570129395
16.950912475586 -71.408592224121 -283.302307128906 1.419108390808
-141.825042724609 -67.457992553711 -288.537475585938 1.013933897018
-125.805038452148 -67.114143371582 -286.990783691406 0.844331324100
-133.047714233398 -64.406959533691 -289.661682128906 1.442419528961
-157.667495727539 -63.831092834473 -290.932067871094 2.733263969421
-125.522621154785 -63.770633697510 -288.795867919922 2.252013921738
-118.034881591797 -65.043388366699 -288.960205078125 1.459676980972
-126.122596740723 -67.754821777344 -294.050598144531 2.259217023849
-149.854827880859 -68.910392761230 -294.238739013672 1.553837776184
28.040027618408 -70.618850708008 -12.565780639648 1.231433749199
33.151687622070 -71.035682678223 -16.664964675903 1.804735898972
38.657207489014 -69.087936401367 -18.583576202393 1.026093721390
48.767475128174 -62.301055908203 -23.264165878296 2.333596467972
26.903032302856 -71.685523986816 -27.349580764771 1.158574461937
21.622425079346 -70.661277770996 -34.541061401367 1.757443428040
-34.417449951172 -66.250015258789 -46.323394775391 1.932006835938
-82.905914306641 -67.314285278320 -52.287788391113 0.199151858687
-15.684841156006 -66.216606140137 -57.575637817383 3.002713680267
72.179031372070 -65.174316406250 -64.376716613770 1.801064729691
100.703086853027 -65.754158020020 -68.051963806152 1.075865507126
65.061630249023 -65.812065124512 -81.876625061035 1.911105275154
61.736968994141 -62.760177612305 -81.916267395020 1.483791947365
101.972419738770 -65.715293884277 -83.732131958008 1.124736070633
-63.592506408691 -64.266876220703 -89.712303161621 1.481264352798
-64.738189697266 -65.911087036133 -91.674087524414 2.162135124207
48.983051300049 -64.993804931641 -93.709106445313 1.408837676048
-66.557693481445 -66.477760314941 -95.455268859863 2.285246372223
-70.383880615234 -66.036430358887 -99.668273925781 0.743249058723
-97.462364196777 -64.434600830078 -97.856994628906 1.889996647835
-75.287727355957 -64.034301757813 -100.077697753906 1.676710963249
47.043716430664 -64.164291381836 -100.733535766602 2.161673545837
-68.471046447754 -67.497184753418 -102.856071472168 3.288374662399
50.673797607422 -64.497558593750 -101.754501342773 0.751446187496
96.829521179199 -66.233261108398 -103.985725402832 1.411254882813
91.722412109375 -65.566207885742 -109.182945251465 1.780049085617
-73.474838256836 -65.871948242188 -113.211441040039 2.204315423965
-82.988243103027 -66.343269348145 -112.162094116211 1.545197129250
-61.661682128906 -66.041458129883 -118.778327941895 1.548454642296
-96.321945190430 -63.891307830811 -119.054298400879 2.252956867218
-76.796897888184 -67.167121887207 -126.759910583496 1.427798986435
-92.925155639648 -61.476459503174 -123.986381530762 1.516758799553
-62.658416748047 -64.158760070801 -118.084495544434 1.560882329941
-60.044013977051 -61.476936340332 -119.207115173340 0.946535110474
-87.705924987793 -65.603149414063 -128.501037597656 2.065203666687
-62.802852630615 -68.923423767090 -127.463905334473 2.949360609055
-84.128120422363 -65.076271057129 -131.382110595703 1.073236703873
-76.936012268066 -66.781829833984 -132.753311157227 1.055376291275
-62.546195983887 -67.973014831543 -132.634506225586 1.012922048569
-61.048461914063 -62.604286193848 -134.488433837891 2.340697526932
-54.249042510986 -62.989303588867 -136.040725708008 2.267905712128
-94.423034667969 -64.275764465332 -132.622726440430 2.786061286926
-96.570564270020 -64.826042175293 -143.252471923828 1.604468464851
-86.840690612793 -66.307098388672 -133.685104370117 2.214099168777
21.623157501221 -67.585914611816 -146.656570434570 1.393041491508
-49.537143707275 -66.381912231445 -142.220138549805 1.467979073524
17.107404708862 -65.134361267090 -148.891113281250 1.384881258011
-98.077140808105 -66.269142150879 -163.398834228516 2.397758483887
-102.473930358887 -68.564849853516 -171.284164428711 0.929513394833
-102.255912780762 -63.580444335938 -170.902221679688 1.270432949066
-107.302703857422 -63.192142486572 -169.143432617188 1.681351900101
-106.387222290039 -66.592025756836 -179.627685546875 2.499797821045
-110.379722595215 -65.595146179199 -177.458755493164 0.879231810570
-141.674652099609 -65.287734985352 -186.943389892578 1.677897930145
-111.931053161621 -64.802467346191 -186.453201293945 1.621085405350
-133.221008300781 -63.479022979736 -197.935745239258 0.912219941616
-148.138626098633 -67.275680541992 -197.920410156250 0.600216567516
-124.815902709961 -66.040618896484 -197.338531494141 1.787823081017
-155.699249267578 -67.243858337402 -196.764572143555 2.146469831467
-146.991592407227 -68.115653991699 -201.342681884766 3.009278297424
-124.015319824219 -62.742118835449 -199.421081542969 1.391952395439
-134.160949707031 -65.712127685547 -201.997772216797 1.890551209450
-142.429122924805 -69.140914916992 -205.916458129883 1.958032727242
-132.581451416016 -68.206962585449 -223.515533447266 1.499605894089
-111.351722717285 -66.745635986328 -228.494445800781 2.886193037033
-144.928695678711 -67.034667968750 -228.518981933594 1.999182820320
-117.566757202148 -64.598037719727 -229.972244262695 1.828963160515
-114.843452453613 -63.452377319336 -230.654891967773 1.168230414391
-123.272171020508 -66.329887390137 -233.228134155273 1.858646512032
-128.862045288086 -66.371917724609 -234.313888549805 1.876966357231
-115.843681335449 -63.965831756592 -234.910079956055 2.164562225342
4.092679023743 -65.268432617188 -234.772888183594 1.675549864769
-151.380874633789 -67.417320251465 -236.560379028320 1.453515887260
7.094818592072 -67.293357849121 -233.511993408203 1.550465106964
6.675836086273 -63.672668457031 -240.176589965820 0.853915512562
1.852893829346 -67.094703674316 -239.983917236328 0.923349440098
14.863512039185 -62.942077636719 -239.990097045898 1.185793519020
-144.910461425781 -65.562568664551 -235.124023437500 2.008142948151
-4.203185558319 -66.122566223145 -245.767822265625 2.093953847885
19.758695602417 -65.361175537109 -241.824676513672 1.676508188248
48.821319580078 -64.564064025879 -248.550018310547 2.070999383926
50.958255767822 -64.520919799805 -248.860992431641 0.827783823013
-146.588958740234 -67.437431335449 -252.116180419922 1.092725157738
-5.990404129028 -66.128761291504 -251.340057373047 1.166710138321
24.163896560669 -66.194541931152 -256.153930664063 1.519168019295
-132.944564819336 -62.598442077637 -258.437408447266 1.828451275826
-125.157623291016 -64.467926025391 -259.401336669922 0.589975118637
-125.297035217285 -65.804122924805 -257.705749511719 1.493905901909
26.281667709351 -65.745742797852 -258.962799072266 1.369021415710
-134.204299926758 -65.154846191406 -264.624481201172 2.722067832947
29.183408737183 -64.392021179199 -260.847198486328 2.148709774017
31.694147109985 -66.214263916016 -263.139862060547 1.440531015396
-152.279876708984 -67.998214721680 -266.121368408203 1.430827617645
-147.211425781250 -70.707450866699 -287.117218017578 2.344212293625
-150.266967773438 -64.321067810059 -288.172241210938 2.544177055359
-143.871429443359 -63.829421997070 -293.042724609375 2.140643835068
10.572079658508 -68.549453735352 -291.765228271484 2.013694047928
-154.514465332031 -64.312347412109 -297.367584228516 4.086027622223
45.354190826416 -70.589500427246 -25.775335311890 1.049093723297
35.260509490967 -71.503547668457 -40.102645874023 1.636581540108
-62.630023956299 -64.437774658203 -45.256141662598 2.170938730240
-72.656021118164 -63.901325225830 -45.789543151855 0.898444235325
-27.267911911011 -64.377365112305 -50.015724182129 1.029552698135
-21.601959228516 -67.921173095703 -54.062149047852 2.092046737671
-12.563559532166 -62.468898773193 -66.209274291992 1.813144803047
-25.484371185303 -63.146564483643 -69.200103759766 1.062236905098
65.135704040527 -64.987678527832 -72.960617065430 1.047519803047
-97.481002807617 -61.810966491699 -78.021133422852 2.837647914886
-46.850986480713 -65.529441833496 -84.913909912109 1.425111532211
54.647609710693 -66.139678955078 -85.590217590332 1.013576626778
57.334316253662 -65.124626159668 -86.780860900879 2.192786693573
63.355262756348 -65.720985412598 -88.784912109375 2.909635782242
105.551185607910 -64.592437744141 -90.646972656250 1.568123698235
52.054649353027 -62.651233673096 -91.714859008789 1.795032024384
99.343261718750 -63.101860046387 -100.289031982422 2.353292226791
-81.063644409180 -66.859397888184 -102.423110961914 1.382668256760
-95.605445861816 -65.908805847168 -102.098724365234 2.412016391754
75.759101867676 -62.724090576172 -110.643577575684 0.841135263443
-76.862075805664 -64.157463073730 -103.325157165527 2.355555772781
-77.811325073242 -68.396247863770 -115.790809631348 1.422380805016
-83.794944763184 -67.786148071289 -118.377952575684 1.520529150963
-55.409801483154 -66.286918640137 -126.516334533691 1.146317481995
-78.198616027832 -66.183387756348 -128.173934936523 0.886646211147
-62.055709838867 -63.739543914795 -130.180557250977 0.867060720921
-82.454032897949 -66.623680114746 -134.197357177734 1.584899187088
-75.664192199707 -64.339599609375 -132.823135375977 0.563832402229
-80.072998046875 -61.822364807129 -125.249580383301 1.466698527336
-88.016906738281 -63.681949615479 -130.545349121094 1.373281836510
-64.630409240723 -63.170223236084 -133.466735839844 2.669778585434
-90.603713989258 -64.492279052734 -133.343780517578 2.445419311523
-49.794864654541 -66.471107482910 -133.787689208984 1.061318278313
-56.082683563232 -67.975936889648 -138.905944824219 2.878494977951
27.665662765503 -65.159889221191 -138.015106201172 1.315679788589
-57.431869506836 -61.100906372070 -137.272567749023 0.824585437775
15.119647979736 -67.728019714355 -144.668090820313 1.146449446678
17.811367034912 -64.901039123535 -148.360229492188 0.851293623447
17.938236236572 -62.625465393066 -152.689392089844 0.854085803032
-97.441093444824 -64.019432067871 -144.882568359375 2.830677509308
-92.193458557129 -65.553184509277 -150.679061889648 1.651212453842
-95.929916381836 -62.236442565918 -151.672821044922 1.327390909195
-103.945220947266 -65.280487060547 -159.624114990234 0.781037151814
-97.020652770996 -64.432693481445 -158.533523559570 1.652275919914
-151.592697143555 -67.123489379883 -175.172790527344 2.385011911392
-153.572845458984 -65.612472534180 -176.034988403320 2.055502414703
-108.660682678223 -63.739185333252 -181.345016479492 2.192959070206
-142.307998657227 -63.151535034180 -177.864898681641 0.762444972992
-110.049537658691 -62.820983886719 -180.580947875977 1.203323364258
-150.636749267578 -61.407478332520 -186.969192504883 1.664204716682
-111.542007446289 -62.995079040527 -193.026504516602 2.197853803635
-109.890655517578 -64.692588806152 -185.256469726563 1.859156012535
-142.845504760742 -65.106201171875 -197.902923583984 1.223236203194
-131.591171264648 -66.026191711426 -196.579910278320 1.859922409058
-108.009315490723 -65.170326232910 -197.597396850586 1.234720587730
-115.806388854980 -61.901813507080 -199.165374755859 2.128849267960
-112.461975097656 -64.966621398926 -200.290206909180 0.636835932732
-115.561874389648 -62.592651367188 -202.548797607422 1.816314578056
-134.125839233398 -63.177200317383 -198.033905029297 1.573961138725
-136.537643432617 -64.733253479004 -202.318618774414 2.651288032532
-131.606414794922 -64.100334167480 -205.720352172852 2.049458265305
-126.569747924805 -61.468563079834 -201.833969116211 2.123339414597
-125.572624206543 -64.556945800781 -204.819931030273 1.737839460373
-114.912918090820 -63.944133758545 -204.277038574219 1.871147155762
-147.172790527344 -64.744430541992 -214.681854248047 3.014380931854
-151.354400634766 -65.303634643555 -221.139953613281 2.696806907654
-152.835388183594 -63.314208984375 -223.112991333008 1.261072874069
-141.022888183594 -68.845657348633 -225.395996093750 1.167246580124
-132.244445800781 -62.566616058350 -226.753524780273 1.812567710876
-123.312400817871 -66.448654174805 -222.092300415039 3.189352512360
-141.007995605469 -66.229202270508 -228.321365356445 1.096483469009
-150.630996704102 -67.131523132324 -227.174041748047 2.881641387939
-134.377838134766 -65.751625061035 -226.574798583984 1.705170869827
-133.441726684570 -62.799201965332 -228.604049682617 1.396418094635
-147.928680419922 -66.301383972168 -229.928421020508 0.557471454144
-134.221939086914 -61.645870208740 -230.733001708984 1.959657073021
-126.747467041016 -63.365398406982 -229.703918457031 1.554501533508
-9.250096321106 -67.258262634277 -236.708511352539 1.305762290955
4.704490661621 -63.907592773438 -239.706115722656 1.656855344772
13.369838714600 -62.112514495850 -242.455413818359 1.961330413818
9.635169982910 -66.778305053711 -243.624023437500 1.942157506943
-8.899340629578 -66.367156982422 -241.334899902344 1.766067624092
-11.630838394165 -65.132644653320 -246.797576904297 1.671886205673
39.517589569092 -63.589069366455 -250.869628906250 1.783545255661
48.514472961426 -64.768753051758 -252.115051269531 2.079134225845
-145.218872070313 -63.319423675537 -254.230651855469 0.698808670044
41.704765319824 -63.658031463623 -255.147216796875 1.365822434425
37.420631408691 -65.226860046387 -253.173461914063 1.490924239159
-157.608459472656 -66.755088806152 -257.993865966797 2.959606170654
-151.143554687500 -63.819957733154 -257.847656250000 1.757133841515
-149.678512573242 -68.253585815430 -259.717498779297 1.435388326645
2.375176906586 -65.260650634766 -263.695678710938 1.844417810440
-151.106384277344 -64.922973632813 -266.151611328125 0.833038270473
-0.225685358047 -65.025245666504 -274.347991943359 2.241774320602
-146.806549072266 -66.323791503906 -274.354217529297 1.793172121048
-147.856353759766 -64.663406372070 -281.904510498047 1.610904216766
-151.314620971680 -64.686706542969 -283.875976562500 1.446639657021
-149.923904418945 -61.183212280273 -283.831604003906 2.530838251114
-144.958862304688 -63.798252105713 -287.402435302734 2.518828153610
-155.687683105469 -64.060714721680 -285.481170654297 1.278280138969
-151.220916748047 -64.153709411621 -286.020568847656 1.701976418495
-150.969650268555 -63.483665466309 -287.083465576172 1.596574068069
-147.287750244141 -64.158325195313 -286.659027099609 1.373766183853
-143.953552246094 -63.966308593750 -287.314819335938 2.353235006332
12.075201988220 -65.709350585938 -286.518096923828 2.006912469864
-147.303039550781 -64.469230651855 -291.722137451172 1.560095310211
-156.517120361328 -62.536708831787 -290.663879394531 2.413053274155
-154.284042358398 -61.800945281982 -288.891876220703 2.035395860672
-151.321853637695 -63.241836547852 -293.423522949219 2.182658672333
-149.629058837891 -61.016929626465 -290.047027587891 2.388556480408
-146.593658447266 -65.194358825684 -291.638031005859 1.125830769539
2.463202238083 -65.782691955566 -292.365570068359 1.204045891762
-144.533584594727 -63.550376892090 -294.006774902344 1.694679498672
-147.822982788086 -62.403156280518 -293.686706542969 1.502292156219
28.913705825806 -59.464447021484 -17.647785186768 1.610245823860
41.961330413818 -69.043212890625 -19.793231964111 1.258041977882
42.775600433350 -62.357398986816 -21.611024856567 0.553275883198
19.071670532227 -70.262596130371 -31.130617141724 1.098280549049
28.003000259399 -58.439304351807 -34.970008850098 2.603193283081
38.352581024170 -68.137100219727 -35.467079162598 1.656383872032
-57.153114318848 -62.699661254883 -43.575393676758 2.282776355743
-50.952896118164 -64.094383239746 -42.647209167480 2.610750436783
89.498191833496 -64.849845886230 -62.943908691406 1.077263951302
-96.005302429199 -62.795783996582 -65.134628295898 1.701216578484
95.762451171875 -69.982292175293 -63.767333984375 3.324341773987
67.734329223633 -64.748031616211 -68.657470703125 0.673866748810
101.599746704102 -66.147369384766 -76.906547546387 2.197248220444
64.218147277832 -66.826011657715 -75.743652343750 1.817805767059
-41.666568756104 -65.529060363770 -77.634414672852 0.682789802551
60.368244171143 -61.250118255615 -81.471954345703 1.771754980087
-55.463588714600 -61.700813293457 -79.167190551758 0.694290876389
60.949363708496 -63.540443420410 -84.474899291992 2.139750003815
61.885017395020 -62.752582550049 -84.356101989746 2.016791820526
-98.201942443848 -64.536186218262 -82.814476013184 2.504045724869
51.608623504639 -63.486370086670 -87.362632751465 3.855989456177
52.123931884766 -67.116844177246 -92.657081604004 1.193947196007
64.470703125000 -65.617424011230 -92.076980590820 1.683665275574
52.476768493652 -62.832023620605 -95.867813110352 1.597941756248
-81.337211608887 -62.938018798828 -106.205940246582 2.531645774841
83.159828186035 -67.205451965332 -105.413772583008 1.031734824181
-79.473358154297 -65.808441162109 -115.615524291992 1.803720593452
-76.476638793945 -62.571262359619 -107.311431884766 1.727074503899
-79.738258361816 -65.175872802734 -121.376258850098 2.118667125702
-86.458724975586 -63.849948883057 -113.673118591309 0.625975847244
-92.716018676758 -63.940612792969 -119.473686218262 2.174645185471
-79.813545227051 -64.850502014160 -123.750572204590 0.791020214558
-53.891712188721 -61.808280944824 -126.196037292480 1.773912906647
-77.976272583008 -63.000923156738 -133.802047729492 1.093417525291
-56.674709320068 -60.200817108154 -131.296676635742 1.786364912987
-87.979774475098 -62.564414978027 -136.291290283203 2.378162145615
29.451726913452 -63.388534545898 -137.474655151367 1.362859249115
19.743030548096 -64.466896057129 -140.223709106445 0.868140816689
-92.353233337402 -59.026687622070 -140.573379516602 3.259288549423
20.052112579346 -64.834663391113 -148.126113891602 1.352886319160
-90.337600708008 -65.355369567871 -145.443832397461 1.338166952133
-93.881019592285 -61.061832427979 -147.132308959961 1.903397321701
19.282924652100 -64.145637512207 -155.729003906250 3.397212266922
-95.874801635742 -62.920341491699 -145.691513061523 2.060788154602
-97.549888610840 -62.027732849121 -147.845199584961 1.443748474121
-102.699249267578 -62.866775512695 -157.029144287109 1.987673521042
-96.984619140625 -63.025177001953 -160.055007934570 1.952972292900
-104.558105468750 -64.413948059082 -176.264907836914 1.564601182938
-107.870437622070 -66.702438354492 -168.108154296875 1.938179373741
-100.620109558105 -63.399650573730 -164.783721923828 4.097787857056
-105.887557983398 -63.593349456787 -170.006759643555 0.562309682369
-140.922866821289 -65.148513793945 -177.236618041992 1.549675703049
-109.033866882324 -63.183933258057 -178.040176391602 1.062224984169
-142.081329345703 -63.557983398438 -187.267257690430 1.672513842583
-148.630615234375 -62.246520996094 -189.178375244141 2.455314874649
-151.692276000977 -62.179790496826 -190.878768920898 3.986745834351
-123.409790039063 -62.413955688477 -196.036911010742 1.698078513145
-130.850830078125 -64.549316406250 -196.557708740234 1.264383673668
-122.467071533203 -63.006462097168 -199.583068847656 0.976683676243
-142.272293090820 -65.713798522949 -201.855377197266 1.312254309654
-123.724807739258 -65.404731750488 -203.633651733398 1.549306392670
-145.885894775391 -65.060333251953 -204.756134033203 1.265926122665
-150.729598999023 -64.135391235352 -205.655319213867 1.633049130440
-154.998275756836 -62.472137451172 -227.932449340820 0.627061545849
-142.149215698242 -67.233200073242 -231.245849609375 1.018579006195
-126.886337280273 -62.750320434570 -232.083114624023 2.684427976608
-154.190322875977 -61.930953979492 -230.961318969727 1.411059379578
-2.866325378418 -67.478439331055 -237.890625000000 1.302620649338
12.884998321533 -61.935890197754 -239.184585571289 3.435090780258
-3.043649435043 -66.131248474121 -242.826095581055 2.099217176437
-148.483093261719 -62.932899475098 -244.663696289063 1.702659845352
-7.111284732819 -62.447052001953 -244.235549926758 1.939361333847
-149.387542724609 -65.632240295410 -253.030731201172 2.390619277954
-6.114510536194 -65.073883056641 -248.704315185547 3.073197364807
-149.991531372070 -64.362190246582 -253.170806884766 2.230104923248
22.902509689331 -66.340339660645 -252.672271728516 1.275731682777
-152.570983886719 -61.160320281982 -255.045196533203 1.666785717010
-148.660430908203 -63.242240905762 -254.872222900391 1.731145381927
-153.148178100586 -63.220485687256 -254.128448486328 1.141123056412
-149.430496215820 -62.212749481201 -257.118957519531 1.553526878357
34.839691162109 -63.653259277344 -256.995239257813 1.214493393898
30.304075241089 -63.041839599609 -262.335083007813 2.229619264603
-146.328109741211 -63.126918792725 -256.817413330078 1.693222641945
-150.980926513672 -60.995811462402 -260.530487060547 2.270848035812
-154.426300048828 -64.678436279297 -259.851440429688 1.194332957268
-147.536941528320 -61.676483154297 -260.318939208984 1.697383165359
26.881481170654 -62.714530944824 -262.141357421875 1.268629431725
28.982482910156 -63.622283935547 -264.674774169922 1.866730809212
-152.372436523438 -64.022773742676 -262.987396240234 1.720308303833
-143.162429809570 -63.044563293457 -262.816192626953 1.091103672981
-150.465301513672 -61.330883026123 -263.497253417969 1.729322552681
-144.559249877930 -62.782592773438 -263.359191894531 1.357015967369
-145.700469970703 -64.979377746582 -264.270904541016 1.465614676476
-148.613983154297 -65.278625488281 -265.547424316406 1.863630890846
-148.504821777344 -61.721210479736 -265.476287841797 0.709806084633
-149.934295654297 -61.332172393799 -284.605346679688 2.726844072342
-149.172958374023 -63.107326507568 -282.244598388672 1.137432456017
-148.288452148438 -63.259235382080 -280.118927001953 1.409750223160
17.795663833618 -64.486534118652 -282.370758056641 1.785125732422
-153.999404907227 -61.930259704590 -284.444641113281 1.815701365471
-146.939498901367 -62.549926757813 -286.360992431641 0.587711930275
-4.186205387115 -67.200042724609 -287.684661865234 1.680297255516
5.183867454529 -64.015869140625 -292.411834716797 1.973233222961
-151.206298828125 -64.419708251953 -295.121429443359 2.211271047592
27.025587081909 -70.751693725586 -21.617736816406 1.066897511482
44.839912414551 -64.261596679688 -28.371900558472 2.777571678162
49.536712646484 -69.966148376465 -32.278625488281 2.081729173660
41.837654113770 -61.366600036621 -33.458511352539 2.559053421021
25.132047653198 -71.007499694824 -36.973052978516 0.926579713821
44.624950408936 -69.499107360840 -39.234497070313 0.297118574381
80.665977478027 -62.333744049072 -61.009010314941 1.506213545799
76.627746582031 -64.128135681152 -61.326965332031 0.991422772408
-14.610478401184 -64.791877746582 -67.756889343262 1.326668739319
66.542533874512 -61.156448364258 -70.538719177246 2.459122896194
-28.141620635986 -66.897003173828 -74.197807312012 1.212104439735
-33.130485534668 -67.245338439941 -78.643981933594 0.855393469334
-56.137855529785 -61.927772521973 -76.951812744141 2.806473493576
-53.507499694824 -61.446231842041 -79.201126098633 1.650175213814
64.660469055176 -66.877113342285 -82.308738708496 2.054011344910
105.694480895996 -67.910675048828 -88.297859191895 2.741012334824
-61.026412963867 -62.012977600098 -86.515571594238 1.391572475433
56.240821838379 -64.090728759766 -95.172309875488 1.933318734169
62.738769531250 -61.647945404053 -92.461181640625 2.185745239258
103.482498168945 -64.306587219238 -94.730865478516 2.262043714523
-66.082717895508 -64.610702514648 -93.917266845703 1.664928078651
55.415599822998 -60.825748443604 -95.599075317383 2.364217758179
-67.602973937988 -66.096939086914 -105.052116394043 2.791998624802
68.005867004395 -65.355789184570 -97.009895324707 1.674787878990
68.203308105469 -63.064735412598 -102.548629760742 0.333737313747
-73.891807556152 -62.550407409668 -107.916511535645 0.568425595760
-97.762809753418 -60.953392028809 -111.165977478027 1.824373126030
-69.749420166016 -59.201725006104 -109.636962890625 2.253559350967
-83.538574218750 -63.939594268799 -111.375381469727 1.227606296539
-63.825225830078 -64.265655517578 -114.062965393066 1.385366201401
-84.224380493164 -61.236003875732 -110.101577758789 2.399201393127
-77.766250610352 -63.618854522705 -115.654159545898 0.733572542667
-76.480644226074 -64.436851501465 -116.806678771973 1.681475162506
-67.293502807617 -65.273124694824 -119.947395324707 1.752592325211
-84.049438476563 -65.106628417969 -125.324882507324 2.010513782501
34.675952911377 -62.689842224121 -127.058998107910 0.607587873936
-50.915760040283 -63.346546173096 -128.479507446289 2.500975131989
30.642644882202 -62.862018585205 -132.642303466797 1.299420356750
30.777746200562 -63.920246124268 -132.541336059570 1.337156891823
31.397415161133 -63.708541870117 -132.791763305664 1.013611793518
-52.851188659668 -62.053993225098 -133.902877807617 1.321872234344
20.436124801636 -62.900226593018 -145.481521606445 0.404143661261
24.072189331055 -63.650516510010 -143.545974731445 0.985064804554
-145.405258178711 -62.857753753662 -176.901443481445 2.344238758087
-149.925003051758 -60.334682464600 -175.277511596680 1.397664546967
-152.021453857422 -62.937889099121 -180.281707763672 1.724204540253
-147.970764160156 -61.305046081543 -185.864624023438 2.211625576019
-147.520523071289 -62.947586059570 -189.905014038086 2.237955331802
-148.218643188477 -64.626472473145 -192.683853149414 1.821677088737
-142.269134521484 -65.075370788574 -192.996276855469 1.734698414803
-144.800872802734 -60.178142547607 -199.014724731445 1.060075044632
-122.938972473145 -63.713188171387 -199.807556152344 0.346824318171
-133.290603637695 -63.347156524658 -202.550155639648 1.017654061317
-146.984497070313 -63.581684112549 -211.784194946289 1.143798351288
-147.562164306641 -59.585231781006 -223.260818481445 2.080607652664
-151.857360839844 -61.725757598877 -225.849929809570 0.850189864635
-146.313049316406 -62.134807586670 -227.975051879883 1.389485955238
-152.884475708008 -61.852359771729 -227.312133789063 1.464238643646
-150.116714477539 -60.506164550781 -229.308181762695 2.018952846527
-148.789764404297 -62.810092926025 -229.414245605469 0.540024757385
-146.158279418945 -62.455085754395 -231.636886596680 1.192575335503
-142.426025390625 -61.718074798584 -235.332916259766 1.585847973824
-147.122070312500 -63.435668945313 -231.169342041016 1.671742916107
-154.075744628906 -62.012359619141 -233.816864013672 1.480420470238
9.143022537231 -63.273910522461 -239.628036499023 1.751329421997
-9.510656356812 -67.182670593262 -240.666702270508 1.311111330986
-145.937576293945 -61.542579650879 -238.685760498047 2.596850156784
-151.345703125000 -62.948703765869 -236.335449218750 0.941158652306
-151.423049926758 -62.966808319092 -237.620803833008 1.731581807137
9.108578681946 -63.886585235596 -243.758682250977 1.189131379128
-150.050491333008 -62.020931243896 -239.198883056641 2.328786849976
-148.418167114258 -63.973083496094 -253.439056396484 1.745287418365
-2.719584465027 -62.955013275146 -249.849182128906 2.342023611069
-148.674530029297 -61.903938293457 -251.819946289063 0.728327512741
-146.306808471680 -61.673847198486 -253.467132568359 0.980820298195
-143.387741088867 -62.750415802002 -256.056304931641 1.008116841316
-142.815994262695 -62.341411590576 -256.188964843750 1.662062168121
27.480112075806 -64.302642822266 -261.002410888672 0.488744229078
-149.441589355469 -64.325325012207 -264.767608642578 1.115973711014
26.727111816406 -64.973747253418 -270.303344726563 2.860050678253
15.209841728210 -64.128662109375 -287.269622802734 2.190768718719
1.354435801506 -62.567260742188 -288.964202880859 1.311378240585
8.379992485046 -60.690135955811 -292.573974609375 1.150765776634
31.835626602173 -61.926132202148 -18.866012573242 1.120154142380
44.566944122314 -71.111679077148 -37.181037902832 1.109245061874
35.194034576416 -70.984947204590 -38.756538391113 1.957002639771
-43.292755126953 -61.711837768555 -46.391410827637 1.959639430046
-89.859138488770 -62.226791381836 -53.575271606445 0.881703674793
-94.099136352539 -62.045032501221 -59.119194030762 1.858134269714
-21.252450942993 -61.729324340820 -66.186370849609 1.175659894943
101.706481933594 -64.066390991211 -69.195365905762 1.206786990166
105.635131835938 -60.463310241699 -75.610473632813 1.885855197906
104.820373535156 -64.999488830566 -77.618377685547 1.839128851891
-50.441093444824 -64.083549499512 -82.882972717285 1.063774943352
-62.058238983154 -61.053348541260 -84.271965026855 1.378538727760
58.660266876221 -60.869796752930 -88.253555297852 0.952369451523
54.311557769775 -63.480010986328 -89.516929626465 0.928828477859
-62.795040130615 -64.818832397461 -96.376243591309 1.803164482117
-97.418350219727 -59.534492492676 -106.097496032715 2.650747299194
79.022621154785 -63.607715606689 -108.123123168945 1.201240777969
-79.495033264160 -62.770362854004 -109.854751586914 1.890021443367
-67.072700500488 -62.249874114990 -109.980117797852 2.274537086487
-80.787315368652 -64.123138427734 -112.856246948242 1.365214109421
-84.730018615723 -58.720680236816 -114.394836425781 1.602924466133
-82.143531799316 -62.962848663330 -116.396507263184 2.168454647064
-69.127830505371 -58.600761413574 -117.047378540039 0.888509273529
-65.280769348145 -62.218502044678 -118.026268005371 2.393381118774
-81.403450012207 -59.752117156982 -118.107749938965 1.559577107430
-78.111053466797 -61.840183258057 -116.878532409668 1.670760750771
-63.974777221680 -61.370880126953 -120.096031188965 1.467692852020
-84.375411987305 -61.731178283691 -117.760070800781 1.380250811577
-75.466400146484 -62.529804229736 -120.690620422363 2.230844020844
-74.568641662598 -62.352741241455 -128.204010009766 3.042496442795
-79.257553100586 -61.935462951660 -128.436721801758 1.123701334000
28.654808044434 -60.204547882080 -125.809410095215 3.346863031387
-56.264339447021 -61.071205139160 -131.911590576172 2.148618221283
27.054367065430 -63.156314849854 -133.308242797852 1.565883517265
22.967893600464 -64.155464172363 -137.489334106445 1.141693830490
-143.634613037109 -62.003543853760 -193.922195434570 1.540781617165
-138.194229125977 -63.694915771484 -198.898376464844 2.395026922226
-153.192749023438 -61.535789489746 -201.285339355469 2.506867647171
-150.020477294922 -60.055732727051 -200.232528686523 1.045971155167
-155.375137329102 -64.616584777832 -202.420669555664 3.597964048386
-148.517562866211 -59.839523315430 -202.862472534180 1.412433505058
-141.916519165039 -61.260932922363 -203.148895263672 1.508534669876
-149.538558959961 -60.498489379883 -206.271179199219 0.909205615520
-149.195953369141 -63.062366485596 -223.033325195313 1.277995586395
-148.473205566406 -60.884033203125 -221.934402465820 0.772652745247
-145.539535522461 -60.557899475098 -223.470260620117 1.585789442062
-145.231552124023 -62.442199707031 -222.256805419922 1.587551712990
-149.343231201172 -61.577518463135 -226.744628906250 1.569187879562
-144.597778320313 -60.920963287354 -224.552978515625 1.129783868790
-145.961608886719 -60.972648620605 -227.059356689453 1.325541615486
-142.644607543945 -60.311851501465 -225.868377685547 1.232152819633
-141.872985839844 -63.188293457031 -228.594390869141 1.480765223503
-143.643142700195 -61.199836730957 -232.762466430664 0.966733157635
-148.264434814453 -60.050445556641 -234.861709594727 0.970702528954
-148.052627563477 -60.208442687988 -234.131072998047 0.230947613716
2.594949007034 -63.606281280518 -238.265243530273 1.915730118752
18.362621307373 -62.738880157471 -241.922241210938 0.693829357624
24.240428924561 -59.404289245605 -253.856506347656 1.822916746140
24.962873458862 -60.627307891846 -257.564605712891 2.070910692215
7.923193454742 -62.829860687256 -263.608917236328 1.872184991837
22.123945236206 -64.696289062500 -277.937133789063 1.134683728218
4.152049064636 -63.638103485107 -280.044342041016 2.372709512711
6.965385437012 -60.597148895264 -290.989501953125 2.199755191803
11.050363540649 -63.563709259033 -289.595306396484 1.530400633812
49.396602630615 -69.680877685547 -20.380050659180 0.557295143604
33.057342529297 -60.299919128418 -37.632324218750 1.179248452187
-29.498392105103 -61.253711700439 -48.960044860840 2.027455091476
-17.434122085571 -61.290855407715 -51.307510375977 1.731204509735
-11.644287109375 -60.332527160645 -58.227798461914 2.529674053192
94.823822021484 -62.855228424072 -61.343360900879 2.215920448303
-97.310691833496 -59.014793395996 -70.247932434082 2.852582931519
102.005500793457 -63.527797698975 -72.484420776367 1.529657483101
56.607021331787 -61.531494140625 -85.592369079590 2.589098215103
66.281661987305 -61.329475402832 -89.345428466797 2.128343105316
-64.398674011230 -61.041561126709 -90.258605957031 2.540236473083
53.816635131836 -63.277492523193 -93.245620727539 0.612820088863
61.454399108887 -58.942035675049 -90.703674316406 2.440515041351
104.009002685547 -61.502914428711 -97.342079162598 1.219347000122
-67.233650207520 -60.262714385986 -95.473693847656 1.243935585022
-69.958427429199 -59.191455841064 -97.681938171387 1.271646022797
77.090316772461 -63.208534240723 -107.447166442871 1.916974425316
-76.343635559082 -61.876701354980 -106.756355285645 1.521404027939
-62.940338134766 -61.778396606445 -109.390251159668 0.586223244667
39.536441802979 -59.564472198486 -119.138328552246 0.980575680733
-82.892669677734 -61.837814331055 -123.845832824707 1.737533330917
40.633167266846 -61.364837646484 -120.305778503418 0.984221756458
-89.696617126465 -63.771007537842 -117.692085266113 2.043720245361
-96.766296386719 -61.092056274414 -124.584602355957 2.558682680130
-67.393295288086 -60.988780975342 -122.665046691895 1.301016330719
36.575901031494 -61.143669128418 -124.918388366699 1.144571423531
-62.870929718018 -62.363288879395 -128.071166992188 1.380816817284
-57.903366088867 -61.368751525879 -133.405349731445 1.975076675415
-56.384510040283 -62.807643890381 -137.952224731445 1.765203237534
-143.648147583008 -59.959205627441 -197.575393676758 0.963060617447
-148.180648803711 -58.887336730957 -192.007980346680 3.154647111893
-147.987228393555 -60.567478179932 -194.636718750000 1.178863286972
-153.474533081055 -61.373779296875 -196.130615234375 1.687916159630
-148.386138916016 -61.807056427002 -196.178756713867 1.392894744873
-143.458450317383 -59.088962554932 -196.195037841797 0.856414914131
-140.307235717773 -59.284114837646 -199.605255126953 2.135565042496
-146.040756225586 -60.842170715332 -200.898406982422 0.794394254684
-146.203277587891 -61.575202941895 -200.072906494141 1.666498780251
-152.823760986328 -59.314933776855 -204.676879882813 2.118690729141
-143.084640502930 -61.257682800293 -203.319259643555 1.661764502525
-146.228515625000 -62.285194396973 -205.694915771484 1.886470794678
-147.099029541016 -58.802688598633 -205.138198852539 1.060338973999
-149.487411499023 -59.384323120117 -205.119491577148 1.489634037018
-146.672790527344 -60.663909912109 -223.827056884766 1.401597261429
-5.491621971130 -64.049972534180 -235.757995605469 1.545494198799
5.793823242188 -60.363910675049 -241.443161010742 1.016914725304
10.974034309387 -59.893947601318 -241.105621337891 2.000537872314
6.080725669861 -61.354774475098 -244.092544555664 1.057218670845
20.432586669922 -61.486953735352 -248.674652099609 1.782635211945
0.810198307037 -64.056678771973 -257.300903320313 1.348792672157
8.597310066223 -62.264678955078 -270.852111816406 2.298922538757
26.515817642212 -63.287971496582 -267.594879150391 1.878834009171
18.650085449219 -61.432754516602 -282.839660644531 1.676432609558
28.746599197388 -62.964408874512 -12.244440078735 3.778163433075
-67.453872680664 -61.856197357178 -41.171272277832 2.928254127502
-36.079605102539 -61.103172302246 -46.296546936035 0.589110136032
69.872512817383 -60.099338531494 -62.770553588867 1.082555651665
-27.765434265137 -63.786926269531 -69.800788879395 2.435344934464
-34.294406890869 -62.344299316406 -77.546585083008 2.594469070435
-43.267200469971 -60.298160552979 -79.677124023438 1.646433472633
67.299201965332 -58.199596405029 -91.222702026367 1.960625171661
105.792602539063 -60.339210510254 -87.236129760742 1.947786688805
66.477233886719 -66.234420776367 -88.939811706543 1.192427515984
-71.759391784668 -58.271450042725 -98.816741943359 2.098500013351
101.946586608887 -61.592891693115 -100.069320678711 1.852407932281
99.566581726074 -61.743709564209 -105.692878723145 1.615466237068
-65.911041259766 -60.638797760010 -106.212646484375 1.712048053741
81.028228759766 -61.192367553711 -107.992607116699 2.039311408997
93.687271118164 -59.755939483643 -108.222167968750 1.975229024887
-58.913619995117 -62.342964172363 -110.795814514160 3.544678688049
47.938198089600 -61.001861572266 -113.668159484863 1.420446991920
-61.187610626221 -65.418670654297 -117.356201171875 1.327496290207
-82.247116088867 -60.632640838623 -111.640281677246 1.093547821045
-55.593006134033 -62.686798095703 -121.264396667480 0.727237164974
-76.875205993652 -60.468898773193 -115.235275268555 1.675776720047
35.955028533936 -62.032569885254 -122.819602966309 1.499414920807
-95.720924377441 -62.087631225586 -125.788368225098 3.224958658218
-53.153324127197 -60.161483764648 -129.577316284180 1.778028011322
22.703741073608 -59.678401947021 -139.304428100586 1.150489687920
9.295486450195 -59.300975799561 -241.272384643555 2.249125480652
0.003542512655 -61.617839813232 -243.334930419922 1.494621396065
4.274755001068 -60.534118652344 -286.249908447266 1.046670317650
22.508174896240 -63.759300231934 -17.780900955200 1.247771143913
38.604816436768 -61.276668548584 -18.856235504150 1.990669250488
19.413846969604 -61.348781585693 -22.122171401978 2.226062536240
44.121837615967 -61.515266418457 -23.218133926392 2.007414817810
-49.023231506348 -56.787006378174 -43.349815368652 3.609084367752
-8.695391654968 -62.292095184326 -63.749725341797 2.721003293991
-100.666809082031 -59.812950134277 -85.965919494629 1.406602263451
67.429214477539 -57.388549804688 -99.796340942383 1.430513143539
84.701812744141 -61.072853088379 -106.926177978516 0.943016290665
-68.403450012207 -60.625514984131 -115.291641235352 0.910911440849
46.452804565430 -59.893795013428 -116.454444885254 1.663311719894
-78.354766845703 -58.900569915771 -119.442115783691 1.167343258858
-59.606964111328 -61.796382904053 -119.701103210449 1.209776043892
-64.828460693359 -61.431919097900 -129.465744018555 0.505066692829
30.290288925171 -59.804862976074 -137.547744750977 1.905510067940
-3.208274364471 -59.616710662842 -241.418273925781 1.508798718452
21.118686676025 -62.776744842529 -246.654113769531 1.039476394653
22.956092834473 -60.512248992920 -271.816711425781 2.208868265152
22.566591262817 -60.149459838867 -278.303558349609 1.933225035667
12.614356040955 -61.787464141846 -285.613677978516 3.615641593933
46.165172576904 -64.745674133301 -18.764675140381 1.388349533081
37.967136383057 -72.548789978027 -40.404800415039 1.325970053673
-53.460266113281 -59.292270660400 -40.621223449707 2.716320276260
-84.366737365723 -62.179809570313 -48.387519836426 1.934193611145
83.540275573730 -60.144046783447 -60.070327758789 2.231476545334
-14.045693397522 -59.666248321533 -62.827514648438 2.081160068512
62.329940795898 -60.519397735596 -80.815994262695 1.872662425041
105.139717102051 -59.645256042480 -95.058929443359 1.439813494682
-75.996315002441 -60.962905883789 -102.433273315430 1.114500880241
88.917335510254 -61.513641357422 -108.546943664551 2.272830486298
-97.839790344238 -59.641952514648 -117.412956237793 1.352967381477
-66.970146179199 -58.260601043701 -123.571266174316 1.607383131981
19.525053024292 -60.785785675049 -243.240737915039 1.927118062973
3.547249317169 -61.450756072998 -259.811431884766 2.134248256683
37.227111816406 -61.207317352295 -11.408353805542 1.978785157204
40.842472076416 -64.926559448242 -12.762424468994 0.996177136898
46.154018402100 -60.922241210938 -16.594758987427 2.084151983261
45.051368713379 -60.367893218994 -33.526733398438 1.923086643219
35.348838806152 -64.806884765625 -37.613845825195 1.236199378967
27.132886886597 -62.048851013184 -38.925941467285 2.059873104095
32.324005126953 -70.405471801758 -43.074287414551 2.647121667862
97.963745117188 -60.331405639648 -63.891555786133 2.232900857925
96.723136901855 -57.889530181885 -63.726371765137 0.966502249241
63.183471679688 -61.868953704834 -79.018005371094 1.506064772606
-69.414802551270 -59.712940216064 -95.681701660156 2.358852863312
-4.792157173157 -60.894618988037 -237.380645751953 2.334292888641
31.766202926636 -63.983097076416 -9.057611465454 4.160312652588
36.668632507324 -62.153217315674 -16.221649169922 3.866254568100
-75.581489562988 -61.854164123535 -43.469718933105 2.765458106995
-62.538555145264 -61.198020935059 -86.406623840332 1.372224926949
-97.685661315918 -64.390998840332 -114.052864074707 1.259333610535
26.146902084351 -59.964286804199 -23.494268417358 1.656065821648
19.360927581787 -59.992980957031 -26.913904190063 3.093899488449
24.721050262451 -60.888397216797 -28.657175064087 1.397919058800
21.229593276978 -62.119438171387 -35.094062805176 2.219536542892
32.957046508789 -64.869918823242 -37.374198913574 1.640396356583
