9.425329208374 -70.393013000488 -183.612380981445 4.912198543549
102.311965942383 -70.107917785645 -192.587966918945 3.035360574722
-162.686737060547 -69.298461914063 -192.429016113281 3.876149177551
-22.622186660767 -66.003158569336 -188.376129150391 1.910398125648
-117.478591918945 -72.621444702148 -198.062957763672 2.122896909714
-130.699340820313 -72.047706604004 -194.672790527344 1.792456269264
-108.389022827148 -71.507217407227 -200.313400268555 2.832678794861
-116.648925781250 -68.793624877930 -200.357315063477 3.943439483643
-12.928874969482 -72.287620544434 -196.513305664063 1.774381160736
18.062042236328 -68.666610717773 -196.163101196289 1.507740259171
-17.647954940796 -66.157920837402 -202.350173950195 2.709842681885
-130.165496826172 -70.062271118164 -206.365203857422 2.497144460678
-22.135240554810 -65.808898925781 -201.405151367188 3.251102447510
-129.743652343750 -67.601112365723 -203.088958740234 2.428730010986
-18.442609786987 -70.586563110352 -198.864852905273 2.446996927261
-148.954193115234 -68.322776794434 -201.601058959961 2.393728733063
90.047843933105 -66.253120422363 -206.314773559570 5.460419654846
-165.902038574219 -62.280639648438 -201.369583129883 4.056418418884
-3.704972982407 -72.278930664063 -220.591156005859 2.294263362885
10.475433349609 -73.188766479492 -210.521636962891 2.040030479431
8.420807838440 -75.059707641602 -217.440399169922 2.157362222672
80.563606262207 -71.941680908203 -216.254837036133 2.098540306091
7.751000881195 -72.590270996094 -213.591308593750 1.708881855011
9.611124992371 -69.991081237793 -215.304733276367 2.417450428009
-17.579601287842 -74.609855651855 -215.509735107422 1.972428560257
-92.135368347168 -71.604591369629 -212.900207519531 2.438776731491
-100.293739318848 -70.432075500488 -216.898742675781 1.851116776466
0.649152994156 -70.218040466309 -218.310409545898 2.349522352219
-168.360534667969 -72.746017456055 -221.313476562500 3.131931304932
14.574695587158 -68.208984375000 -218.290954589844 2.104435205460
-146.504608154297 -69.277969360352 -220.241577148438 2.637920618057
11.944448471069 -71.991256713867 -225.117858886719 2.657666444778
-137.072097778320 -72.345306396484 -225.121917724609 3.108008861542
-117.118110656738 -71.581703186035 -228.570266723633 1.440642356873
15.617362976074 -70.563972473145 -220.411209106445 1.855152964592
77.845771789551 -71.933273315430 -219.676284790039 3.964184761047
4.475951194763 -72.027420043945 -223.891357421875 2.590617656708
-110.517745971680 -69.107940673828 -231.661605834961 0.631926059723
67.903953552246 -73.318687438965 -227.656906127930 3.403257608414
83.915824890137 -73.645652770996 -229.612197875977 2.403810977936
-128.090148925781 -69.964042663574 -237.076049804688 2.463443279266
-120.574882507324 -70.064453125000 -230.139389038086 2.327561616898
-10.944405555725 -66.323883056641 -226.280807495117 1.410766363144
70.339256286621 -72.557556152344 -233.200241088867 1.559482574463
62.882732391357 -72.430839538574 -232.440917968750 4.658399581909
70.441513061523 -71.248184204102 -228.648651123047 2.358770370483
-138.180374145508 -65.538749694824 -234.035049438477 3.751496791840
67.426040649414 -73.427505493164 -230.777877807617 2.196970224380
64.051719665527 -68.597396850586 -235.240921020508 1.893777847290
-167.644775390625 -67.542564392090 -231.727951049805 3.133723497391
0.336988002062 -80.059661865234 -242.356323242188 3.371795654297
19.018823623657 -73.401565551758 -239.234069824219 1.817869663239
-7.787672996521 -67.703948974609 -241.856033325195 1.332330107689
15.417655944824 -64.373023986816 -239.591674804688 1.698389887810
65.520568847656 -73.058959960938 -237.921142578125 1.401776909828
5.777544975281 -68.702476501465 -245.019424438477 3.517256498337
-13.242875099182 -64.047294616699 -240.521575927734 2.910930633545
-3.468211889267 -67.221267700195 -235.747695922852 1.021525502205
63.161560058594 -72.464790344238 -242.308212280273 0.896052420139
-0.266725987196 -71.379295349121 -242.647949218750 1.515343427658
-7.727779865265 -72.281539916992 -243.352157592773 1.316447138786
12.960699081421 -75.230789184570 -242.056076049805 1.346323728561
-169.297836303711 -73.003623962402 -241.261688232422 3.122081995010
52.542102813721 -73.263702392578 -247.335800170898 0.245580285788
47.047504425049 -63.899215698242 -253.240631103516 1.360207200050
58.032825469971 -72.640029907227 -243.340881347656 1.207732558250
-13.932289123535 -68.522506713867 -248.194549560547 0.859918415546
55.352073669434 -71.039779663086 -245.153366088867 0.719082355499
-76.271270751953 -70.545471191406 -251.170104980469 1.442947745323
48.525787353516 -72.341506958008 -248.302841186523 1.149608969688
-89.218070983887 -69.930038452148 -253.157211303711 1.163613200188
-123.538673400879 -71.542457580566 -258.325744628906 2.510624170303
-133.653030395508 -70.697540283203 -252.440032958984 2.091695070267
45.678943634033 -74.109573364258 -251.617141723633 2.890065193176
-132.385574340820 -73.881393432617 -251.846054077148 2.624680519104
-110.118263244629 -67.458404541016 -254.243896484375 2.690258026123
-119.242912292480 -67.945755004883 -258.128234863281 2.305017232895
-86.140266418457 -71.075080871582 -254.634399414063 1.633369803429
-112.235351562500 -67.138244628906 -258.377685546875 0.645906507969
-125.970329284668 -74.893592834473 -262.850128173828 1.115066647530
-149.036499023438 -67.377708435059 -268.829223632813 2.919645071030
-16.965732574463 -69.394783020020 -268.048553466797 3.904869794846
-175.236541748047 -73.497093200684 -265.037353515625 7.903799057007
-16.642904281616 -70.228866577148 -275.194610595703 3.215220689774
-160.324295043945 -65.937133789063 -267.432067871094 3.127983808517
-154.498092651367 -71.446647644043 -272.546020507813 1.837072730064
-172.709381103516 -70.177795410156 -277.892944335938 5.352869510651
-16.978717803955 -72.353057861328 -282.200164794922 5.410457611084
-129.886001586914 -73.796264648438 -282.944458007813 1.451629281044
-158.781967163086 -70.228424072266 -286.551696777344 2.568153619766
-144.884201049805 -69.214698791504 -280.707763671875 1.321595549583
-136.684066772461 -73.475196838379 -278.148956298828 6.801549434662
-9.937612533569 -63.668357849121 -284.466918945313 4.840195178986
-127.987640380859 -74.470909118652 -283.015106201172 2.621186017990
-142.503784179688 -66.966423034668 -286.119293212891 1.669207215309
-117.139877319336 -75.381309509277 -285.681671142578 1.680237412453
-82.797088623047 -67.941589355469 -289.328796386719 2.096631050110
-61.503227233887 -72.871620178223 -287.090606689453 2.218199491501
-9.784641265869 -73.169204711914 -287.913360595703 2.264331340790
-56.403308868408 -69.649719238281 -283.825347900391 3.090368509293
-58.566925048828 -68.208061218262 -288.897827148438 1.766744136810
-73.126548767090 -69.051391601563 -290.525238037109 3.191508769989
-90.805442810059 -69.257843017578 -295.499237060547 3.891552209854
-95.008842468262 -68.783859252930 -288.093872070313 1.149751424789
-161.112304687500 -69.990699768066 -291.790954589844 1.378853440285
-162.079925537109 -71.361572265625 -294.856811523438 1.896955847740
-125.939529418945 -74.465721130371 -293.543487548828 1.511069774628
-146.197784423828 -70.283805847168 -294.575744628906 0.974732100964
-153.417846679688 -73.430267333984 -305.578399658203 2.827573060989
-154.279357910156 -74.430961608887 -311.694122314453 1.213615775108
46.928558349609 -67.037574768066 -13.168924331665 3.209730148315
13.430565834045 -70.796226501465 -31.725639343262 6.480174541473
41.002258300781 -63.695022583008 -35.500328063965 1.322455644608
-16.146947860718 -72.417175292969 -66.248870849609 1.503021001816
80.082649230957 -67.018341064453 -65.282684326172 2.931240320206
88.986984252930 -64.277870178223 -66.311279296875 3.618314266205
77.139831542969 -74.705833435059 -65.261024475098 5.125821590424
70.521682739258 -71.569145202637 -70.076599121094 2.411887168884
89.415138244629 -71.637565612793 -76.295051574707 4.326489448547
-99.114463806152 -64.184738159180 -70.506958007813 2.655781984329
64.581176757813 -69.705665588379 -75.366912841797 3.267800569534
-37.924713134766 -71.557304382324 -77.926567077637 2.031357049942
96.654052734375 -69.164405822754 -85.663894653320 3.808113574982
60.965793609619 -65.384361267090 -90.818077087402 2.390078306198
106.092079162598 -75.846145629883 -92.453651428223 5.858933925629
97.928283691406 -75.253395080566 -99.075714111328 2.549537181854
71.824310302734 -69.783668518066 -101.745918273926 1.701355457306
-83.470039367676 -65.482513427734 -103.108612060547 2.199064731598
52.851627349854 -68.521804809570 -106.127967834473 2.678328037262
106.632064819336 -65.802421569824 -107.102516174316 2.225469827652
44.338058471680 -69.262466430664 -114.292304992676 2.135418653488
77.989547729492 -68.147583007813 -106.566253662109 2.698238849640
39.751125335693 -68.897140502930 -108.344139099121 1.885831713676
101.010314941406 -69.576126098633 -103.407432556152 1.750069737434
45.752517700195 -69.156578063965 -108.156341552734 1.923421621323
104.300544738770 -77.052497863770 -109.393302917480 2.792507410049
109.084754943848 -74.494659423828 -110.201202392578 1.805320024490
-81.818893432617 -65.818580627441 -114.595695495605 1.571379303932
-85.033531188965 -66.037590026855 -120.796623229980 1.392400026321
41.977996826172 -73.190917968750 -119.879646301270 3.210251092911
111.893959045410 -71.990997314453 -123.266937255859 1.877508163452
111.602973937988 -70.084808349609 -123.783226013184 2.052552938461
-90.758460998535 -67.486160278320 -126.961700439453 2.902411937714
103.320579528809 -72.775497436523 -127.420570373535 5.568203449249
-61.496147155762 -74.816238403320 -132.148040771484 4.266682147980
-88.021400451660 -69.401115417480 -128.191680908203 0.682356059551
-72.596115112305 -69.756347656250 -126.941215515137 2.802159070969
-61.942993164063 -64.642776489258 -127.137420654297 1.435491800308
30.224594116211 -69.420654296875 -131.158081054688 2.040811777115
42.380897521973 -66.125068664551 -136.201263427734 5.980960845947
-73.323608398438 -68.557426452637 -136.492370605469 0.720167279243
27.031921386719 -66.321166992188 -130.191833496094 4.163389205933
110.979759216309 -70.000465393066 -145.120864868164 1.632357120514
-40.100597381592 -69.613243103027 -149.788879394531 2.542901515961
31.428588867188 -72.102752685547 -149.765670776367 1.914062261581
111.325462341309 -67.971611022949 -149.346649169922 3.536966085434
34.250057220459 -70.571250915527 -142.638732910156 1.782574534416
108.013725280762 -68.602317810059 -139.982055664063 3.565546035767
-53.554389953613 -68.745803833008 -149.960510253906 0.948532462120
-75.206596374512 -65.292793273926 -151.868545532227 4.440748691559
-59.276569366455 -69.635070800781 -151.297454833984 5.931058883667
-44.482891082764 -74.514877319336 -165.233993530273 1.289684534073
1.730273962021 -72.189849853516 -155.959106445313 3.443568468094
107.037239074707 -70.879272460938 -153.305618286133 3.008796930313
106.606384277344 -69.954216003418 -161.094024658203 3.691978454590
9.124373435974 -69.405967712402 -157.089523315430 1.288747429848
0.211211994290 -68.715744018555 -160.783905029297 3.826800823212
19.391666412354 -67.549354553223 -154.466339111328 2.935795068741
24.219200134277 -67.898895263672 -155.925659179688 1.964520573616
105.517448425293 -69.956924438477 -165.652648925781 3.966718912125
109.031875610352 -74.350379943848 -167.790161132813 1.681887149811
22.232336044312 -66.487823486328 -176.360122680664 0.957114398479
22.389621734619 -73.184745788574 -165.295669555664 1.520350098610
109.736633300781 -67.488761901855 -162.448837280273 3.154191493988
-31.701932907104 -67.862854003906 -179.139221191406 3.002970933914
108.756591796875 -70.814849853516 -167.672912597656 1.334297537804
16.031471252441 -69.996261596680 -165.321716308594 2.972332239151
19.541437149048 -69.751472473145 -169.375732421875 1.764449834824
106.173583984375 -70.835563659668 -172.798278808594 1.442034244537
25.627170562744 -68.624786376953 -170.266159057617 1.445873618126
111.855491638184 -68.781677246094 -185.301528930664 3.856383562088
-40.446063995361 -68.898918151855 -179.700561523438 5.310101985931
22.220308303833 -69.655281066895 -169.713668823242 0.936505734921
106.009338378906 -70.293914794922 -184.964233398438 2.626004457474
20.776657104492 -71.066871643066 -177.325637817383 1.967149615288
-153.159545898438 -66.738410949707 -186.280120849609 2.022722721100
-29.761568069458 -65.785919189453 -190.260986328125 2.799467802048
22.359649658203 -66.703216552734 -185.498062133789 1.487927675247
-117.257759094238 -71.419418334961 -192.467727661133 2.102771759033
-113.662643432617 -65.600975036621 -192.922271728516 1.070748209953
23.071008682251 -70.706207275391 -188.063003540039 0.653413116932
8.994945526123 -66.379295349121 -184.968093872070 6.888221740723
-28.860952377319 -65.479026794434 -190.795272827148 2.806883573532
-30.853847503662 -75.002761840820 -189.496368408203 1.926245212555
-30.738052368164 -70.132575988770 -188.450286865234 1.259790658951
11.181267738342 -66.743659973145 -180.394256591797 5.374945640564
-152.620697021484 -68.747283935547 -196.127487182617 2.084241628647
-148.141220092773 -68.078094482422 -192.472595214844 2.014230012894
-148.288208007813 -73.274246215820 -199.526596069336 0.771311998367
-25.450017929077 -68.371978759766 -191.721038818359 2.328346490860
12.568493843079 -66.511077880859 -200.026412963867 2.010414600372
96.625274658203 -68.724426269531 -192.893386840820 4.064093589783
-115.389915466309 -67.210365295410 -198.654937744141 2.374082565308
19.340150833130 -74.760505676270 -198.021636962891 2.163607597351
-15.614377021790 -68.085838317871 -195.118804931641 1.928099989891
-19.096223831177 -69.405838012695 -198.774490356445 2.283449888229
99.703308105469 -68.587188720703 -200.470397949219 3.135048627853
5.275610923767 -72.797233581543 -198.475646972656 4.005764484406
-24.006057739258 -67.550994873047 -197.012268066406 1.901702523232
-122.486610412598 -72.881118774414 -204.441390991211 2.398008584976
-136.307434082031 -69.478042602539 -203.393127441406 3.355141401291
-116.100746154785 -62.600097656250 -206.280822753906 3.853531122208
-144.083908081055 -72.993003845215 -203.332595825195 1.682151556015
14.975996017456 -69.439346313477 -198.166000366211 1.819036126137
90.858886718750 -72.462631225586 -200.259277343750 2.870301485062
-167.260192871094 -62.530326843262 -200.385498046875 4.000650882721
98.330963134766 -69.453048706055 -201.823013305664 2.494041919708
-25.131023406982 -75.169914245605 -205.522735595703 3.276370763779
92.895446777344 -66.642662048340 -209.651046752930 3.053290128708
86.409126281738 -72.846099853516 -209.874481201172 2.186319589615
8.832496643066 -72.649276733398 -203.606277465820 1.992183208466
18.900035858154 -68.672447204590 -213.201538085938 2.331620216370
11.559361457825 -65.715576171875 -208.617309570313 2.190448045731
-12.700912475586 -70.042495727539 -223.883468627930 3.093648910522
-95.663711547852 -72.668258666992 -219.887863159180 2.011668205261
-13.956744194031 -72.721420288086 -211.500061035156 2.082488536835
86.147727966309 -71.141036987305 -217.723297119141 1.788442969322
-96.187820434570 -72.635513305664 -216.744537353516 1.106697559357
-101.728675842285 -65.482604980469 -222.272506713867 2.455829858780
-97.928207397461 -68.817802429199 -219.279556274414 0.626257300377
87.324119567871 -73.316650390625 -222.763671875000 0.936571776867
-137.621078491211 -70.071502685547 -225.397384643555 2.573364973068
-133.083053588867 -75.928817749023 -227.833862304688 1.532965183258
-118.304374694824 -69.499282836914 -224.928543090820 2.048345088959
-115.161758422852 -66.017913818359 -221.801910400391 3.828715801239
-134.551956176758 -66.603675842285 -228.132247924805 2.229648828506
-115.064361572266 -78.559883117676 -228.336029052734 4.194053649902
-113.117240905762 -68.484497070313 -228.626098632813 2.212209224701
-8.883075714111 -74.795860290527 -224.152114868164 2.016216516495
-17.025123596191 -73.419219970703 -223.395538330078 1.174633145332
-2.600476980209 -66.935119628906 -230.159622192383 0.318795204163
-11.748216629028 -65.905799865723 -227.171035766602 1.376976370811
13.908089637756 -71.369491577148 -234.326507568359 0.984463274479
-22.044157028198 -67.424224853516 -229.747543334961 6.063557624817
-168.636444091797 -67.063781738281 -220.967315673828 3.231698989868
-7.126042842865 -70.861335754395 -234.091186523438 1.588856577873
79.295082092285 -66.361991882324 -232.570236206055 4.750419139862
10.162039756775 -72.720275878906 -233.531021118164 2.537209987640
-7.175689220428 -69.310653686523 -235.660537719727 1.538545012474
-158.883895874023 -66.399177551270 -236.123092651367 1.922951579094
-145.030212402344 -67.119422912598 -228.821792602539 1.931237697601
59.300445556641 -69.269584655762 -236.892013549805 2.816892147064
-7.368690967560 -71.049858093262 -233.486877441406 1.570418715477
9.206402778625 -72.912635803223 -229.491149902344 1.897005677223
67.750335693359 -73.998954772949 -227.768859863281 3.671384572983
75.099281311035 -70.383453369141 -234.936874389648 1.974186420441
69.853881835938 -72.170265197754 -242.693527221680 2.116843938828
-3.711430072784 -74.286445617676 -235.009078979492 1.531693458557
56.797843933105 -67.891960144043 -237.083465576172 3.436089515686
-21.118183135986 -73.779228210449 -240.401931762695 1.974121809006
-16.144777297974 -66.369155883789 -240.110671997070 3.027057886124
6.043406963348 -70.035835266113 -238.794921875000 2.479761362076
62.222080230713 -75.193572998047 -236.971740722656 3.482858896255
65.631813049316 -68.451110839844 -241.761932373047 0.914356708527
46.938041687012 -71.149795532227 -246.011779785156 2.846058368683
59.165859222412 -74.940322875977 -242.851898193359 1.497255444527
-17.116424560547 -76.930992126465 -249.188369750977 5.728473663330
-85.653991699219 -65.890289306641 -256.799835205078 3.902293682098
-78.694183349609 -67.142280578613 -253.884719848633 2.593785047531
42.248527526855 -74.509918212891 -247.241897583008 4.120682239532
-153.560516357422 -71.392517089844 -250.005615234375 2.341255664825
33.549282073975 -70.182609558105 -257.297210693359 2.216670036316
-94.157684326172 -75.314407348633 -252.035919189453 2.132706642151
-158.937835693359 -64.050086975098 -254.254730224609 4.188498020172
-141.592819213867 -60.038963317871 -252.366546630859 4.797665119171
41.596553802490 -69.904014587402 -254.349334716797 0.816299259663
-127.300170898438 -65.021926879883 -258.707244873047 0.992909431458
-119.465858459473 -70.868751525879 -254.803039550781 2.864732265472
-93.421844482422 -64.499183654785 -256.893157958984 2.357706785202
-14.845034599304 -65.143447875977 -248.302795410156 3.536319255829
30.322977066040 -69.992347717285 -256.601776123047 1.376711010933
23.235624313354 -66.972915649414 -259.245544433594 2.105455160141
-161.848739624023 -62.726238250732 -261.145446777344 5.864737033844
-116.383598327637 -72.846679687500 -262.816833496094 1.362733840942
-15.270423889160 -70.184898376465 -262.375793457031 0.995029747486
-133.759460449219 -69.073730468750 -265.913879394531 2.517368793488
-16.323804855347 -68.873832702637 -270.485626220703 2.773858308792
-165.478271484375 -68.727272033691 -271.389251708984 3.426368713379
-7.902660846710 -71.568740844727 -278.637481689453 2.694476842880
-161.869934082031 -70.555404663086 -287.681243896484 1.185874581337
-166.682022094727 -73.054595947266 -278.173278808594 1.254104018211
-144.149856567383 -70.300933837891 -285.154876708984 1.249087572098
-173.515182495117 -72.370620727539 -284.546447753906 4.976897239685
12.592588424683 -74.255355834961 -288.928039550781 1.681434750557
-104.990150451660 -71.423965454102 -286.502746582031 1.215545177460
-89.467819213867 -63.687091827393 -285.667633056641 6.505685806274
-170.467605590820 -65.683105468750 -284.161804199219 5.292898178101
-94.621109008789 -76.749313354492 -281.869537353516 5.946488380432
-157.602127075195 -70.610214233398 -289.091186523438 1.766127347946
-78.937454223633 -72.163345336914 -296.786773681641 6.355589389801
-73.949760437012 -69.280624389648 -288.916534423828 1.812931537628
-85.208030700684 -72.207130432129 -291.986755371094 0.629858851433
-5.341835975647 -68.428886413574 -288.280273437500 1.386840343475
-92.057090759277 -69.967536926270 -287.391876220703 2.166101455688
-101.115020751953 -72.485015869141 -290.510406494141 1.623263716698
-120.344787597656 -70.156700134277 -292.979248046875 3.217692136765
-118.572441101074 -65.816848754883 -293.112792968750 3.051625490189
-136.067062377930 -70.183601379395 -291.344207763672 1.206803083420
-144.257614135742 -69.468238830566 -300.755737304688 1.185976862907
-146.464248657227 -71.444992065430 -312.091156005859 0.594771802425
22.672321319580 -63.929565429688 -14.609698295593 3.488728761673
31.732944488525 -66.726669311523 -15.993326187134 1.813912153244
28.251878738403 -70.203887939453 -18.015226364136 1.485515475273
43.274097442627 -64.046958923340 -19.784702301025 1.069954633713
22.391136169434 -66.923187255859 -31.838415145874 4.361809253693
-76.236968994141 -65.568855285645 -46.649337768555 2.076738834381
88.123214721680 -62.697128295898 -66.671928405762 4.748900890350
-20.531398773193 -63.969776153564 -67.092361450195 3.077657461166
102.669586181641 -68.035621643066 -73.747131347656 1.309618711472
92.379989624023 -73.099670410156 -75.754280090332 1.475893497467
66.809585571289 -69.325103759766 -79.002899169922 1.399134397507
70.434928894043 -72.904541015625 -82.199996948242 1.482613086700
-45.858123779297 -71.470603942871 -81.953323364258 3.042981863022
59.232494354248 -73.739692687988 -81.336280822754 4.961225032806
-95.000511169434 -67.672500610352 -88.954643249512 1.952730417252
-49.167465209961 -64.749839782715 -84.514259338379 1.076084375381
-57.828319549561 -74.492980957031 -85.222755432129 6.454391479492
100.906066894531 -76.106033325195 -98.564971923828 2.007076501846
58.564159393311 -72.240333557129 -90.708267211914 1.841534137726
65.791572570801 -67.680290222168 -90.964561462402 1.755918264389
-96.060829162598 -60.161151885986 -97.301704406738 3.810372352600
106.602256774902 -70.893005371094 -91.381996154785 4.370503902435
41.191955566406 -66.607238769531 -99.329704284668 3.302768230438
100.777877807617 -68.365753173828 -98.425025939941 1.765514254570
105.804428100586 -65.721099853516 -106.558258056641 2.582054138184
98.825614929199 -69.224861145020 -103.816513061523 2.205950260162
72.766410827637 -72.363883972168 -99.265884399414 1.289126038551
85.543571472168 -71.357383728027 -107.863899230957 3.660151243210
48.965190887451 -67.186141967773 -111.242721557617 3.175031900406
109.215034484863 -64.707092285156 -102.546081542969 2.721413850784
46.033454895020 -72.823547363281 -104.415550231934 2.673715829849
37.316726684570 -66.550415039063 -102.075042724609 5.068604946136
111.983619689941 -69.891693115234 -110.594902038574 1.760866999626
-79.621009826660 -63.241214752197 -108.929397583008 1.329617381096
44.251029968262 -67.138603210449 -112.833587646484 1.799790024757
31.926961898804 -71.672668457031 -115.966613769531 2.946021556854
104.586700439453 -66.087600708008 -110.710449218750 2.722939252853
36.262828826904 -65.305480957031 -111.650611877441 5.392002582550
-88.670555114746 -67.128700256348 -111.223159790039 1.841113328934
-96.549491882324 -62.965164184570 -114.320991516113 1.553262710571
100.853439331055 -74.444526672363 -119.882118225098 5.600172042847
-96.278373718262 -68.170494079590 -118.702690124512 1.681232452393
38.020359039307 -72.339050292969 -120.927124023438 2.717402458191
35.219429016113 -68.702407836914 -122.454856872559 1.953465104103
-86.220123291016 -67.359710693359 -123.774757385254 0.491011112928
31.835603713989 -66.463706970215 -134.109634399414 2.073093414307
110.674903869629 -70.702072143555 -131.415863037109 1.513896107674
-54.561050415039 -67.775199890137 -138.119293212891 2.543333053589
-89.324844360352 -65.735763549805 -132.874832153320 1.866685986519
36.850662231445 -73.465942382813 -130.483551025391 1.623236536980
-88.418968200684 -62.134811401367 -136.426986694336 2.790619850159
-89.607131958008 -70.934974670410 -140.534469604492 3.546725749969
-51.518238067627 -68.287132263184 -136.218399047852 1.842965722084
-72.428436279297 -64.919441223145 -138.862869262695 2.448568582535
-52.077579498291 -67.024024963379 -132.474975585938 1.319064497948
115.654159545898 -65.788505554199 -136.899536132813 3.499672412872
-73.443054199219 -69.905395507813 -134.653274536133 0.924324274063
36.051937103271 -69.730903625488 -130.638153076172 1.597692489624
-79.924591064453 -65.472412109375 -140.886581420898 3.392666816711
-73.809822082520 -67.791412353516 -135.213104248047 0.993721067905
-95.034339904785 -64.998168945313 -141.750000000000 1.850490927696
-56.427959442139 -64.049705505371 -145.697509765625 2.856151580811
30.175119400024 -63.224472045898 -146.049484252930 5.367425441742
25.965097427368 -66.942123413086 -149.061767578125 1.635085821152
18.808792114258 -62.065921783447 -144.541137695313 1.821694493294
111.130973815918 -68.613082885742 -146.295761108398 2.033507823944
-92.810096740723 -65.627059936523 -151.576629638672 1.311050653458
9.833402633667 -70.101844787598 -152.345306396484 2.731158494949
-73.076026916504 -67.031387329102 -154.642547607422 2.577036619186
22.347112655640 -66.852684020996 -149.232818603516 2.795527219772
-50.730522155762 -66.493530273438 -155.339736938477 4.286021709442
8.435833930969 -66.804283142090 -153.843994140625 1.857984662056
15.189722061157 -71.874435424805 -159.009674072266 0.825404882431
15.687808990479 -74.479339599609 -163.792999267578 3.398190259933
-52.064388275146 -70.737022399902 -163.285095214844 5.176258563995
-40.005897521973 -66.312736511230 -155.332321166992 2.186112880707
-48.721195220947 -69.071563720703 -162.022781372070 1.932825803757
-104.709457397461 -68.566032409668 -172.756393432617 2.065426111221
20.422332763672 -70.604812622070 -174.820541381836 1.422260522842
-35.251586914063 -68.380119323730 -177.814758300781 2.221868038177
14.047892570496 -74.070610046387 -178.296386718750 2.836122751236
-143.981826782227 -66.602371215820 -175.998458862305 1.774757981300
-33.002712249756 -64.155929565430 -172.553070068359 3.623633623123
-157.680694580078 -74.327209472656 -178.040649414063 6.028879165649
23.221647262573 -62.482643127441 -181.792251586914 5.632269859314
-35.392314910889 -70.115928649902 -170.466827392578 3.318080663681
-108.340026855469 -64.761260986328 -176.069305419922 2.483433008194
-108.430938720703 -73.879028320313 -184.076431274414 5.054139614105
-31.926553726196 -62.109329223633 -185.821975708008 7.037528514862
-25.644168853760 -73.945220947266 -181.567443847656 0.808782160282
11.221596717834 -67.490043640137 -189.139068603516 4.772144794464
14.707134246826 -65.305801391602 -198.795639038086 2.047989606857
11.878742218018 -69.252250671387 -187.453338623047 3.703852176666
-144.012039184570 -65.164016723633 -186.877456665039 1.036324739456
22.375316619873 -63.947666168213 -189.896408081055 4.922084331512
4.524496078491 -67.925849914551 -196.855026245117 4.621598243713
-136.723999023438 -65.415275573730 -193.514877319336 3.214713811874
-114.368591308594 -67.014999389648 -195.309432983398 1.546253800392
13.524854660034 -66.524848937988 -203.570831298828 2.643760204315
-119.754417419434 -65.676795959473 -196.900955200195 3.323755502701
-109.017875671387 -60.408630371094 -192.542205810547 5.295611381531
-168.046768188477 -68.850715637207 -201.456939697266 1.944491982460
-25.819343566895 -66.612388610840 -200.006896972656 2.211208105087
9.622681617737 -66.572090148926 -199.859588623047 2.321890354156
-146.215499877930 -68.175148010254 -204.164962768555 3.299642801285
-138.973068237305 -71.099601745605 -207.132324218750 4.883955955505
-23.006296157837 -66.129699707031 -207.950500488281 3.994694232941
-13.823344230652 -69.555320739746 -205.359634399414 1.379153013229
-15.381910324097 -69.948936462402 -205.943267822266 1.835429310799
-140.457138061523 -72.521736145020 -202.937393188477 1.289814472198
-18.710681915283 -68.376205444336 -212.986297607422 3.318665981293
-10.772034645081 -74.585479736328 -214.587814331055 3.040462255478
16.566925048828 -65.160194396973 -211.379882812500 3.380620241165
-18.292932510376 -74.051460266113 -211.799621582031 0.912493467331
8.852357864380 -70.001228332520 -209.315139770508 1.083046913147
-12.532819747925 -70.312286376953 -215.318908691406 2.185322284698
-24.538415908813 -64.522544860840 -211.802200317383 7.340142726898
10.281933784485 -75.885543823242 -220.786972045898 1.973093390465
-3.885412931442 -75.440826416016 -219.267700195313 1.326159238815
9.704921722412 -64.108558654785 -220.706069946289 3.904417753220
-7.984176158905 -72.189514160156 -228.264282226563 0.813228607178
-161.754058837891 -69.096458435059 -226.640274047852 2.860692501068
79.064735412598 -72.807495117188 -219.773727416992 3.472284793854
-137.157669067383 -65.100677490234 -224.064651489258 3.535867452621
-136.774139404297 -70.600715637207 -222.042922973633 3.769813537598
-9.541954994202 -69.803894042969 -225.239318847656 1.876272797585
5.370995044708 -68.601417541504 -235.330017089844 1.471319556236
-159.615814208984 -67.559242248535 -231.254074096680 2.149266242981
87.878753662109 -67.621070861816 -220.241424560547 2.301003456116
-3.113182067871 -67.280212402344 -226.529846191406 2.062437534332
-0.769189000130 -69.548065185547 -221.645797729492 2.056073904037
72.451545715332 -73.286376953125 -230.893417358398 1.140761256218
-1.191426038742 -65.794471740723 -236.333648681641 1.607145190239
-15.390863418579 -70.558464050293 -225.303512573242 2.255049943924
-128.907775878906 -64.577049255371 -234.078689575195 1.244599223137
-6.677012920380 -68.606483459473 -237.998718261719 0.749342918396
1.061540007591 -66.184700012207 -230.615844726563 1.215458035469
64.644706726074 -66.402290344238 -238.260345458984 1.161517858505
-159.628799438477 -70.451286315918 -237.578598022461 2.285265684128
-14.743076324463 -67.254943847656 -245.611846923828 2.389706373215
-171.701858520508 -71.173210144043 -239.250152587891 4.004630565643
8.986837387085 -64.211914062500 -241.709182739258 2.532283544540
-165.244003295898 -69.673606872559 -239.034759521484 1.864769935608
-161.702209472656 -70.275451660156 -247.214324951172 2.210599422455
56.416358947754 -70.171745300293 -245.060928344727 1.252749681473
59.615131378174 -72.012428283691 -242.316284179688 2.257375955582
54.051689147949 -70.675033569336 -245.754898071289 1.434973835945
49.898925781250 -69.614112854004 -249.472564697266 1.461189627647
-154.948852539063 -69.726623535156 -243.320465087891 1.939937233925
-157.824096679688 -64.087142944336 -247.236526489258 4.330517768860
-14.255664825439 -73.994926452637 -249.549133300781 2.296518087387
-152.385925292969 -67.386238098145 -247.617080688477 1.602751374245
16.720081329346 -69.957939147949 -251.224822998047 3.691471099854
-172.666870117188 -74.741828918457 -251.617752075195 6.587437152863
-170.337646484375 -66.026115417480 -250.399597167969 4.764097690582
-83.775779724121 -70.981704711914 -247.634170532227 2.464370012283
-172.134140014648 -67.105468750000 -258.574249267578 5.527774333954
-86.772377014160 -68.396575927734 -258.233428955078 2.218398809433
41.320396423340 -68.365173339844 -253.757293701172 1.092178940773
20.182508468628 -73.102058410645 -257.213928222656 2.696032047272
-159.697723388672 -69.696060180664 -263.391998291016 2.506213426590
-102.742835998535 -60.911254882813 -260.346313476563 3.893610477448
38.176353454590 -69.288841247559 -255.028381347656 1.421763658524
-108.454528808594 -77.614990234375 -258.574707031250 3.462871789932
-155.230361938477 -64.410316467285 -266.218597412109 2.630556106567
-105.723342895508 -67.593399047852 -257.286102294922 1.510548472404
-170.826019287109 -71.458251953125 -259.770080566406 3.303782701492
-114.831542968750 -69.582542419434 -264.190521240234 2.560646533966
-155.253234863281 -71.036849975586 -266.549865722656 2.765907764435
-160.956146240234 -65.222419738770 -263.261596679688 3.776638507843
-167.388916015625 -67.268661499023 -264.207855224609 1.946360707283
-166.838241577148 -66.263626098633 -262.677490234375 2.252110242844
-167.448989868164 -68.369323730469 -265.009948730469 1.858535408974
-169.963562011719 -69.167366027832 -260.643859863281 2.217527151108
24.921461105347 -71.047393798828 -265.757324218750 1.328293204308
-150.001998901367 -73.587997436523 -263.077667236328 1.704607963562
-153.006820678711 -68.461524963379 -285.483642578125 1.573332071304
25.921255111694 -69.778663635254 -275.915008544922 4.242137432098
-13.963456153870 -72.485115051270 -274.811401367188 2.770694017410
-126.994354248047 -66.135490417480 -285.153137207031 1.633047103882
-138.110137939453 -69.088966369629 -286.800384521484 1.881880164146
-135.393676757813 -68.046859741211 -289.755310058594 1.461189746857
-129.673919677734 -69.071731567383 -286.208618164063 3.046272993088
-114.812713623047 -67.458045959473 -292.073059082031 1.629243850708
-105.894523620605 -64.137550354004 -284.667572021484 4.861517906189
6.239765167236 -73.844062805176 -294.833801269531 2.697898864746
-86.110519409180 -70.410278320313 -290.979736328125 2.423684120178
-150.478469848633 -69.304786682129 -287.132202148438 1.647115230560
-104.045829772949 -69.927040100098 -291.377105712891 2.831845045090
-133.760726928711 -66.017288208008 -292.831115722656 2.900562047958
8.295440673828 -72.157661437988 -287.781066894531 2.179607629776
-112.751632690430 -61.406951904297 -287.869262695313 6.124875545502
2.512506961823 -70.146934509277 -294.073028564453 1.703960657120
-144.933364868164 -68.308547973633 -287.294097900391 2.820933818817
-154.172744750977 -68.896720886230 -295.645019531250 1.166539192200
-160.990798950195 -67.671890258789 -316.777496337891 7.488710880280
-157.578353881836 -66.761077880859 -311.617492675781 3.241534233093
45.377231597900 -70.108596801758 -25.008274078369 0.886072337627
23.388414382935 -66.386581420898 -37.086109161377 2.017421960831
27.897117614746 -67.874168395996 -36.637851715088 3.633159637451
-43.912525177002 -69.512733459473 -47.363475799561 1.497431278229
-12.412577629089 -64.042678833008 -63.136604309082 2.622633457184
93.504379272461 -68.415061950684 -68.138359069824 2.788190126419
67.065406799316 -61.408283233643 -69.163490295410 2.871825695038
-26.535512924194 -65.731224060059 -74.421051025391 2.269604444504
-101.458396911621 -71.037887573242 -88.207443237305 6.051992893219
-44.115493774414 -66.306755065918 -85.161224365234 2.574494361877
57.335010528564 -67.008056640625 -80.539482116699 3.303298473358
63.059673309326 -71.019218444824 -85.051658630371 1.697704792023
50.454875946045 -64.485237121582 -87.918586730957 3.207064628601
-60.765869140625 -65.526870727539 -90.928718566895 2.446189403534
66.043243408203 -62.324043273926 -89.458320617676 1.435616135597
41.522911071777 -71.854881286621 -98.634567260742 2.803708553314
67.738945007324 -70.373016357422 -95.182380676270 2.651873826981
-62.081588745117 -64.592323303223 -96.720283508301 2.338597774506
49.718753814697 -69.555007934570 -92.043487548828 2.624215602875
45.179344177246 -70.290306091309 -98.288040161133 2.038619756699
101.866355895996 -63.929412841797 -102.565383911133 0.579340577126
-66.694046020508 -66.457595825195 -98.514961242676 1.579416155815
110.089111328125 -67.286941528320 -100.031204223633 1.531217336655
-80.479385375977 -70.131637573242 -101.725715637207 1.242296814919
52.368175506592 -70.748519897461 -106.645111083984 2.108834266663
46.753746032715 -65.652214050293 -101.407081604004 1.476720213890
89.642585754395 -63.763317108154 -104.442420959473 3.548783779144
81.988845825195 -67.858314514160 -106.296058654785 0.992291092873
54.914581298828 -68.529907226563 -105.192337036133 1.943032264709
-78.392951965332 -67.448699951172 -112.325828552246 2.126433849335
-79.630775451660 -66.081253051758 -116.916412353516 2.329479694366
-82.526130676270 -67.755386352539 -118.006309509277 2.359710454941
-95.432319641113 -72.973007202148 -117.697708129883 2.724828004837
101.783996582031 -61.053596496582 -117.726074218750 7.874632358551
-91.741630554199 -70.014381408691 -118.553550720215 1.345476984978
-76.839782714844 -61.670703887939 -121.831092834473 1.092811584473
107.586273193359 -67.022361755371 -116.887336730957 2.148015737534
-61.466690063477 -57.321826934814 -117.544830322266 1.481616973877
111.872482299805 -73.451042175293 -131.734313964844 1.716986656189
108.468475341797 -70.517456054688 -129.892456054688 2.132806062698
104.059852600098 -70.341880798340 -127.783561706543 4.623387813568
-95.259490966797 -67.499824523926 -137.074127197266 2.668166875839
-47.212184906006 -67.171829223633 -142.025451660156 2.490260601044
-82.469123840332 -63.530254364014 -143.774169921875 6.460369586945
-70.841171264648 -66.847145080566 -148.557693481445 1.936964154243
-70.365684509277 -65.769378662109 -149.491516113281 3.230299949646
-56.519107818604 -66.399429321289 -143.913253784180 1.505179047585
-47.569221496582 -72.670822143555 -144.496505737305 2.018767833710
12.416293144226 -67.827934265137 -147.488479614258 1.426507115364
-95.284072875977 -62.022457122803 -141.482727050781 1.989494919777
-47.846622467041 -65.251106262207 -146.574554443359 1.221995234489
-52.637786865234 -58.209274291992 -146.972503662109 8.408435821533
-43.940418243408 -64.663948059082 -154.385559082031 2.995787143707
25.381734848022 -70.932655334473 -160.743667602539 2.110740184784
-52.415283203125 -68.601142883301 -151.702804565430 1.159582495689
-103.633064270020 -60.605751037598 -148.564895629883 5.712173461914
-48.783874511719 -63.156219482422 -155.265167236328 6.336328029633
23.756584167480 -71.208900451660 -146.153915405273 1.954237341881
-97.835433959961 -74.500770568848 -163.672927856445 6.660821914673
21.461593627930 -70.931129455566 -158.111312866211 2.769335269928
-109.675827026367 -62.720428466797 -168.924011230469 3.641799449921
-103.116447448730 -67.459495544434 -164.046813964844 2.423364639282
20.492717742920 -68.239517211914 -166.332748413086 2.133040428162
24.981559753418 -65.887756347656 -167.625854492188 2.419991731644
-112.113281250000 -70.196395874023 -173.174819946289 3.319408416748
-143.974868774414 -63.230560302734 -173.510665893555 1.783558130264
-19.931316375732 -68.485565185547 -190.670852661133 1.509068012238
-29.157024383545 -66.645874023438 -180.605026245117 1.893883228302
-118.466529846191 -69.044281005859 -186.803359985352 5.150258064270
-145.241271972656 -61.964797973633 -186.174926757813 1.594162583351
-103.243362426758 -63.251937866211 -181.332321166992 3.118454694748
-161.081665039063 -67.000579833984 -188.940017700195 6.149766445160
-132.688781738281 -72.762985229492 -195.450317382813 0.346102714539
-134.519409179688 -69.982101440430 -196.334838867188 1.940836191177
-20.905963897705 -65.798126220703 -187.647918701172 3.136769056320
-120.557128906250 -68.029731750488 -199.219345092773 2.499668359756
-120.008483886719 -62.551631927490 -200.331665039063 3.198847532272
-30.057907104492 -71.012062072754 -193.071334838867 2.283163309097
-155.861495971680 -63.710174560547 -195.767150878906 1.962305426598
-134.248458862305 -68.568191528320 -205.013580322266 2.070568799973
-126.470558166504 -64.077529907227 -203.873641967773 0.944041311741
16.991809844971 -71.884178161621 -201.854019165039 2.001140594482
-164.051300048828 -67.227279663086 -201.986389160156 2.402007102966
11.450381278992 -66.320945739746 -216.876068115234 2.049100160599
12.812849044800 -70.226448059082 -215.443466186523 1.920423030853
-17.049024581909 -63.183967590332 -210.443740844727 5.011158466339
-6.488792896271 -68.218666076660 -216.875152587891 1.784375429153
-173.720123291016 -63.275806427002 -210.928085327148 8.809024810791
-160.847518920898 -61.870033264160 -212.444976806641 5.724881649017
-96.427673339844 -66.815391540527 -219.057312011719 1.763999819756
-98.455635070801 -70.070678710938 -221.567626953125 1.618332624435
-162.506759643555 -68.564933776855 -226.717559814453 2.968963146210
-110.266090393066 -64.435249328613 -219.065460205078 4.424349784851
-13.253516197205 -66.005607604980 -212.046218872070 2.093665599823
-129.797363281250 -69.532905578613 -221.367004394531 3.197770118713
-144.616683959961 -67.561035156250 -223.125488281250 1.393728613853
-4.735160827637 -70.982398986816 -221.384353637695 2.371028900146
-135.773986816406 -64.948379516602 -224.250686645508 3.051058769226
-125.244285583496 -72.695159912109 -222.106887817383 2.568343877792
-115.893951416016 -71.002281188965 -223.838150024414 1.679822683334
-2.944777965546 -61.138942718506 -229.361267089844 5.919340610504
-109.155616760254 -64.861473083496 -231.905746459961 2.750174999237
-163.111968994141 -59.701992034912 -222.731658935547 6.482155323029
-147.371780395508 -66.388168334961 -226.325927734375 2.326232433319
-166.523986816406 -66.470855712891 -225.886062622070 1.882415890694
-9.816491127014 -66.285247802734 -225.694992065430 2.120351314545
-9.702734947205 -68.945388793945 -233.700164794922 1.520409941673
76.844985961914 -72.447898864746 -225.201904296875 1.250113368034
-2.892610073090 -71.446640014648 -229.058486938477 1.406039834023
-144.877319335938 -67.208549499512 -238.077545166016 2.647243261337
-16.135375976563 -65.611145019531 -229.621643066406 4.408407688141
72.366493225098 -69.502716064453 -227.774230957031 0.492345988750
72.540290832520 -69.618293762207 -233.374267578125 1.530165672302
-136.001510620117 -65.224334716797 -232.071899414063 1.556019902229
-157.967834472656 -71.594207763672 -228.492401123047 2.298611640930
-115.433715820313 -65.139884948730 -233.003051757813 0.342985272408
-126.899337768555 -61.664558410645 -236.704727172852 4.549665451050
-164.367904663086 -65.552658081055 -235.268325805664 2.452282428741
-162.477050781250 -68.022605895996 -235.533905029297 1.499593615532
-149.482437133789 -61.232246398926 -233.060974121094 1.133582115173
-16.386394500732 -65.682342529297 -234.664474487305 5.645732402802
-7.450648784637 -67.033279418945 -242.116806030273 1.620853781700
-161.973526000977 -65.719238281250 -242.561798095703 1.881589770317
4.032563209534 -69.154510498047 -237.273437500000 1.879906892776
-0.654819011688 -69.993652343750 -238.154418945313 0.939110457897
-160.865280151367 -66.791740417480 -237.602661132813 1.304288983345
16.602737426758 -73.830818176270 -240.844802856445 1.801784873009
49.271221160889 -72.025375366211 -246.260772705078 2.437340021133
47.574951171875 -72.716499328613 -243.824066162109 2.977750778198
-18.752304077148 -69.511894226074 -247.310653686523 4.373975753784
45.796386718750 -67.834259033203 -249.939773559570 1.243541479111
-161.739761352539 -62.457763671875 -249.168365478516 5.701692581177
-158.761352539063 -67.888664245605 -246.836303710938 1.148165225983
-162.864852905273 -72.760185241699 -249.322372436523 2.175263166428
54.096092224121 -68.245918273926 -247.781143188477 1.548545241356
-95.396369934082 -66.197517395020 -252.898941040039 2.785061597824
-126.048591613770 -65.894714355469 -254.791442871094 0.892016112804
-108.048675537109 -73.401374816895 -252.780319213867 4.613551616669
23.221035003662 -74.149063110352 -257.733428955078 1.553774118423
38.169269561768 -66.049148559570 -251.733184814453 1.746276259422
-102.305198669434 -64.460411071777 -254.758621215820 3.784794569016
-94.903205871582 -62.218250274658 -249.652389526367 5.169891357422
43.843261718750 -74.721038818359 -255.566894531250 4.182992935181
39.321521759033 -66.717224121094 -257.317810058594 1.988126635551
-156.177078247070 -73.753356933594 -257.457122802734 1.399510860443
27.061792373657 -69.059143066406 -260.188385009766 0.544223964214
-145.410369873047 -70.616096496582 -264.982452392578 1.890683650970
-114.616485595703 -67.590614318848 -262.805999755859 1.865867257118
-139.932632446289 -64.770370483398 -262.155822753906 2.551613807678
30.925083160400 -68.009284973145 -263.083526611328 1.735714912415
-128.113235473633 -66.265121459961 -262.904479980469 1.287583231926
-13.322905540466 -66.781524658203 -256.817169189453 1.440609693527
18.424602508545 -72.820983886719 -271.277282714844 3.264384746552
-6.082376003265 -75.444168090820 -264.349792480469 5.898828506470
17.178449630737 -71.870948791504 -280.506774902344 2.196242332458
-156.403457641602 -70.840187072754 -282.430999755859 3.242624521255
-13.578694343567 -66.521057128906 -280.991149902344 3.845486640930
-154.607925415039 -71.696762084961 -281.643737792969 1.841710925102
-124.506393432617 -71.331817626953 -284.944641113281 1.514355301857
-165.320175170898 -75.209815979004 -286.034484863281 1.817886233330
-117.058128356934 -67.710121154785 -286.903350830078 2.031334161758
-105.652206420898 -68.997444152832 -290.200164794922 1.803834080696
-8.965666770935 -67.025794982910 -284.631317138672 3.116115808487
-109.770210266113 -70.467666625977 -288.350402832031 2.831226825714
-118.939941406250 -65.423362731934 -283.366394042969 5.705006599426
-124.590217590332 -64.092430114746 -291.920013427734 2.341075897217
-141.546188354492 -68.292846679688 -290.074096679688 1.085110783577
-129.119720458984 -63.808685302734 -291.012481689453 2.877399206161
-160.624969482422 -73.863800048828 -289.328277587891 1.769544005394
-149.242645263672 -64.313461303711 -291.482666015625 1.050922036171
-161.390518188477 -64.448745727539 -302.870178222656 8.406695365906
-156.602828979492 -66.046669006348 -310.777770996094 3.802571058273
-162.378860473633 -65.090934753418 -301.193054199219 8.926854133606
-141.797897338867 -69.396163940430 -310.098937988281 3.193096399307
-151.017425537109 -71.247070312500 -314.616333007813 1.919272184372
34.039947509766 -66.524742126465 -7.098444938660 5.697365760803
47.233180999756 -71.602279663086 -17.011280059814 1.384938478470
22.391683578491 -64.115905761719 -21.936840057373 2.298426389694
49.748508453369 -67.075927734375 -25.933063507080 3.220477342606
26.399839401245 -68.898361206055 -33.899074554443 1.878143548965
30.462461471558 -67.261383056641 -33.099464416504 1.352234840393
-58.736808776855 -60.765811920166 -48.474132537842 5.243689060211
76.124267578125 -61.805805206299 -59.595592498779 1.139617443085
81.315940856934 -68.482337951660 -67.512908935547 2.990840911865
-91.033729553223 -67.677726745605 -62.896682739258 2.285246610641
-14.217251777649 -63.098323822021 -59.784130096436 3.805371761322
-93.815658569336 -67.449188232422 -71.486007690430 2.099720239639
95.383232116699 -70.133460998535 -67.182449340820 2.582418203354
-13.432740211487 -63.004013061523 -67.220611572266 1.615444660187
66.309837341309 -70.615356445313 -80.972091674805 2.661065101624
-45.269187927246 -70.728591918945 -80.741310119629 3.557800769806
-27.609973907471 -69.334022521973 -74.099517822266 1.799093842506
54.506576538086 -61.555965423584 -86.541603088379 2.255550622940
-44.538158416748 -76.703796386719 -83.469711303711 1.957630276680
63.774719238281 -56.941097259521 -87.418518066406 1.004729151726
50.992481231689 -72.601104736328 -90.916343688965 1.597165822983
53.941993713379 -66.137321472168 -94.320823669434 1.264203667641
56.857185363770 -74.257217407227 -90.354263305664 2.842948913574
54.916671752930 -62.018135070801 -95.595291137695 1.275291681290
97.661079406738 -63.283981323242 -98.226921081543 2.928523540497
105.715049743652 -61.660232543945 -99.602828979492 1.556199312210
59.294685363770 -70.186775207520 -100.566520690918 2.035017490387
106.377998352051 -62.550254821777 -100.451545715332 2.422710180283
-79.109603881836 -65.277099609375 -98.646018981934 3.560648918152
-74.711044311523 -66.322952270508 -102.921073913574 2.180937767029
98.960693359375 -63.314567565918 -98.276763916016 1.697747349739
51.927913665771 -68.168136596680 -100.851898193359 1.782083988190
68.948745727539 -69.272216796875 -97.232322692871 1.660746693611
-72.781013488770 -66.413459777832 -108.617744445801 1.986919760704
-87.050277709961 -64.489212036133 -107.887725830078 3.614939689636
85.707336425781 -71.626808166504 -103.062698364258 2.399300575256
37.655605316162 -69.310745239258 -102.685630798340 3.680920362473
