-73.707939147949 -75.840431213379 -99.337280273438 2.019507169724
30.391309738159 -79.617790222168 -123.935073852539 2.173768758774
34.195156097412 -77.205703735352 -141.205062866211 2.568239927292
-12.724431037903 -81.100189208984 -182.847106933594 3.132713079453
-18.710477828979 -79.247406005859 -181.983428955078 2.954627752304
-23.007490158081 -83.303359985352 -178.978042602539 2.392779588699
-37.124778747559 -83.345123291016 -188.620773315430 2.323378324509
-52.587326049805 -81.510475158691 -189.819702148438 3.373140811920
-32.578125000000 -81.334877014160 -194.608749389648 2.669795751572
-139.160659790039 -77.277549743652 -185.886520385742 4.111086368561
-152.500717163086 -80.212532043457 -195.585098266602 1.617519497871
-152.574905395508 -80.910896301270 -198.972717285156 1.226941585541
-148.794692993164 -79.863868713379 -199.765945434570 1.691140770912
-70.734603881836 -86.057525634766 -209.421508789063 2.771517276764
-60.133953094482 -79.024169921875 -203.882507324219 2.041141510010
-149.335052490234 -81.441719055176 -213.116577148438 2.686885356903
-72.503173828125 -82.943763732910 -210.856704711914 1.103263497353
-71.293945312500 -83.899475097656 -212.335876464844 2.446458101273
-76.052963256836 -78.454833984375 -209.644470214844 2.145315885544
-142.213531494141 -83.181854248047 -224.205368041992 2.694287300110
-145.174636840820 -83.408401489258 -230.642303466797 1.438724160194
-150.560607910156 -84.942878723145 -251.814407348633 1.264236807823
14.830838203430 -78.214538574219 -245.008743286133 3.843676328659
11.013643264771 -78.368049621582 -246.216384887695 1.018025159836
-135.134490966797 -84.608741760254 -258.699707031250 0.495060801506
14.090881347656 -85.895065307617 -252.592514038086 3.223099470139
9.973357200623 -82.594306945801 -254.535354614258 2.828844547272
-150.280609130859 -85.881248474121 -263.674530029297 1.145114541054
-154.670059204102 -80.511161804199 -274.534729003906 3.580817937851
-6.481085777283 -80.887870788574 -272.463073730469 1.760176658630
11.561646461487 -83.807098388672 -278.718017578125 2.800398349762
-153.921463012695 -87.973670959473 -282.536529541016 4.774785041809
-140.427597045898 -87.066444396973 -274.565124511719 6.541839122772
-143.525985717773 -83.855323791504 -303.628967285156 4.117182731628
-42.386077880859 -81.689636230469 -70.721168518066 1.703368663788
-68.793075561523 -75.702049255371 -69.718368530273 4.645865917206
-41.256839752197 -81.453651428223 -70.304374694824 1.387486457825
-29.365324020386 -80.955528259277 -75.578903198242 1.335343480110
-71.157501220703 -76.239517211914 -68.235847473145 3.088982105255
-32.695289611816 -81.197753906250 -73.429054260254 2.420881271362
-45.465557098389 -72.610328674316 -83.257049560547 1.380772471428
-54.232929229736 -73.900726318359 -89.506721496582 2.424621820450
-63.920272827148 -84.104148864746 -89.136848449707 3.317663192749
-60.921310424805 -79.337982177734 -99.526359558105 3.695573091507
-91.622673034668 -79.198081970215 -110.455345153809 2.513352394104
41.535697937012 -77.059715270996 -119.811805725098 2.063475131989
38.812599182129 -83.199378967285 -119.521087646484 2.961211681366
-41.498477935791 -83.372222900391 -166.190582275391 4.223211288452
-41.845310211182 -79.250984191895 -158.698806762695 2.114123344421
-3.900712013245 -79.913673400879 -171.340621948242 0.923533976078
-61.501132965088 -86.037918090820 -166.690750122070 5.271281242371
-59.852298736572 -80.742424011230 -179.476318359375 2.981265783310
-56.918041229248 -80.152374267578 -173.179458618164 1.112464666367
-32.484859466553 -80.271064758301 -171.247940063477 2.085179090500
-57.192657470703 -79.285675048828 -179.712570190430 1.626627206802
-30.932987213135 -78.131919860840 -179.721725463867 1.103594899178
-145.832366943359 -78.958152770996 -182.968856811523 2.946343898773
-51.312786102295 -80.066741943359 -181.026779174805 0.797937810421
-45.960479736328 -78.686393737793 -194.037857055664 0.911807596684
-29.499879837036 -80.992958068848 -181.356948852539 2.648635864258
-32.482959747314 -83.451911926270 -187.022354125977 1.171598672867
-33.385513305664 -77.163673400879 -191.585250854492 2.485993146896
-21.412817001343 -82.418869018555 -187.417465209961 1.990636348724
-47.282440185547 -80.429420471191 -199.509506225586 2.176325321198
-144.143371582031 -74.339317321777 -191.606369018555 1.858493328094
-39.712577819824 -74.338157653809 -193.127166748047 3.079587697983
-38.587059020996 -77.420265197754 -202.045410156250 1.472784042358
-39.016456604004 -83.098091125488 -201.833587646484 3.186671018600
-44.135238647461 -77.221908569336 -199.956771850586 1.669308543205
-132.340682983398 -79.558097839355 -193.589416503906 3.350831747055
-135.385604858398 -78.728927612305 -198.952270507813 1.968267917633
-48.996353149414 -79.186431884766 -203.032302856445 1.035907864571
-59.845298767090 -85.087730407715 -204.314880371094 2.061821699142
-40.938804626465 -80.359878540039 -202.491485595703 1.404331564903
-141.443435668945 -81.959884643555 -204.199371337891 1.987814426422
-69.033531188965 -74.352043151855 -207.080841064453 2.624712944031
-37.074958801270 -83.779876708984 -208.123519897461 5.023839950562
16.426538467407 -81.823387145996 -205.191146850586 2.257859230042
-72.658233642578 -81.874153137207 -212.295700073242 1.056806325912
-28.613470077515 -77.364448547363 -213.331085205078 2.131636142731
12.737358093262 -79.203865051270 -219.121063232422 1.326879382133
-152.965866088867 -80.793701171875 -216.011199951172 3.684715747833
7.151074886322 -79.131309509277 -226.939941406250 1.407602548599
12.925795555115 -81.429512023926 -224.012283325195 2.724688053131
18.215894699097 -77.495040893555 -224.536499023438 1.765836358070
-138.119720458984 -85.173835754395 -224.937591552734 2.449466228485
-144.485565185547 -79.422142028809 -227.830413818359 0.936837255955
12.179335594177 -81.640907287598 -235.615112304688 1.720139622688
17.488372802734 -78.223953247070 -236.107635498047 2.168154001236
15.582249641418 -79.692428588867 -236.267990112305 1.413926482201
-148.570129394531 -83.898880004883 -240.195480346680 1.486806154251
-145.369567871094 -90.866386413574 -237.132019042969 6.902981758118
11.707511901855 -81.527664184570 -233.982788085938 2.087339401245
-41.706069946289 -81.067352294922 -243.541580200195 1.692201256752
18.177423477173 -80.223106384277 -247.264968872070 1.317940592766
-43.715755462646 -82.881683349609 -242.030685424805 2.554217815399
-144.498062133789 -85.482856750488 -256.571136474609 1.963918566704
18.694503784180 -82.304023742676 -251.977722167969 3.873366117477
-144.016830444336 -83.450714111328 -254.637802124023 1.751094818115
-154.223220825195 -82.585334777832 -257.443023681641 1.853325366974
13.376868247986 -79.685325622559 -254.717269897461 3.845127105713
-8.782695770264 -76.304634094238 -251.044525146484 0.499078482389
-8.791857719421 -79.677490234375 -263.057373046875 2.909219980240
-144.142913818359 -87.533424377441 -258.705383300781 3.280328035355
-155.989135742188 -75.771697998047 -261.010681152344 1.491307735443
-143.841842651367 -84.118194580078 -262.695434570313 1.173460125923
-150.318618774414 -78.224380493164 -270.134033203125 1.346791028976
-147.407485961914 -83.218872070313 -266.994750976563 2.420812606812
-7.491027832031 -83.481765747070 -268.907897949219 3.710483312607
-6.130706787109 -80.740310668945 -271.249450683594 1.978399872780
13.842899322510 -80.566116333008 -265.859710693359 2.357702970505
3.187372922897 -83.506584167480 -277.188873291016 2.179883480072
2.709780931473 -78.690246582031 -286.322845458984 3.092662572861
-139.112701416016 -78.692848205566 -288.724853515625 1.550136566162
-146.314132690430 -81.518798828125 -292.192687988281 1.568767786026
-58.935363769531 -75.681015014648 -62.176662445068 3.257587909698
-43.958126068115 -75.415245056152 -64.341720581055 3.166786670685
-44.140670776367 -71.475601196289 -65.786788940430 6.512679576874
-43.709918975830 -73.314132690430 -64.895942687988 4.872619152069
-65.149566650391 -81.947067260742 -65.728630065918 2.402033090591
-74.903587341309 -74.648384094238 -69.733970642090 4.205299854279
-38.786327362061 -76.427124023438 -75.960762023926 3.172106266022
-40.626953125000 -80.596229553223 -85.311622619629 1.287055492401
-47.416164398193 -83.167678833008 -86.945907592773 2.570809364319
-83.951339721680 -74.836074829102 -86.924461364746 4.652322292328
-71.654998779297 -81.178169250488 -107.051010131836 5.543916702271
44.934047698975 -75.740707397461 -107.389923095703 2.735925674438
-84.074020385742 -76.693168640137 -108.228881835938 2.381034374237
44.852005004883 -77.914894104004 -120.611564636230 0.842847287655
42.020488739014 -75.360412597656 -123.783615112305 1.249756097794
34.946220397949 -75.672386169434 -121.246437072754 1.706252694130
30.020425796509 -81.530731201172 -126.566246032715 4.344578742981
31.253410339355 -75.961936950684 -132.898925781250 2.245909929276
24.486379623413 -73.921524047852 -145.329162597656 1.197149634361
-47.647052764893 -81.694618225098 -155.572372436523 2.200787067413
31.415607452393 -77.193817138672 -141.977096557617 1.389122605324
25.398254394531 -81.097122192383 -155.934326171875 1.869700431824
-41.506580352783 -80.642036437988 -150.494125366211 1.466674208641
27.035020828247 -78.030082702637 -154.627349853516 0.887919127941
-48.029747009277 -75.032089233398 -158.974533081055 1.905859589577
26.110118865967 -78.107505798340 -165.724288940430 2.252352476120
-60.825580596924 -79.935577392578 -169.314407348633 2.039590120316
-3.203916072845 -81.729469299316 -172.624908447266 3.084808588028
-32.120231628418 -77.786170959473 -172.672546386719 3.197439432144
-8.117943763733 -80.030479431152 -171.268630981445 1.368503928185
-57.022430419922 -78.562263488770 -174.898605346680 0.709492504597
24.410326004028 -81.171920776367 -171.836578369141 2.663261890411
-12.965020179749 -76.747611999512 -184.083389282227 3.435249805450
-23.648283004761 -73.230827331543 -186.389007568359 0.802699744701
-51.573947906494 -75.092262268066 -182.364028930664 2.233356714249
-29.123752593994 -79.804328918457 -186.397628784180 0.835569441319
17.347330093384 -81.780197143555 -191.216705322266 2.422021627426
-148.231994628906 -82.339164733887 -186.920120239258 0.855753242970
-29.344566345215 -79.370239257813 -188.496765136719 1.198258876801
-49.004592895508 -75.626266479492 -188.909072875977 1.832324624062
-150.212936401367 -83.525215148926 -188.249954223633 2.081622123718
-141.992202758789 -80.568374633789 -195.161422729492 1.585836410522
-23.960199356079 -78.858367919922 -197.009078979492 1.409204959869
-22.856880187988 -79.427230834961 -194.398818969727 0.740994989872
-45.009647369385 -77.591606140137 -194.289505004883 1.418248414993
-18.285594940186 -81.175331115723 -194.404434204102 2.242530584335
-47.759132385254 -79.094398498535 -197.432662963867 1.347923398018
-46.762321472168 -79.627632141113 -196.325714111328 0.569868922234
-53.468883514404 -81.768310546875 -199.255798339844 2.082160949707
-19.472229003906 -75.047317504883 -205.784790039063 0.695921361446
-144.786804199219 -80.163772583008 -215.008544921875 2.372846603394
-58.464969635010 -77.193473815918 -209.017608642578 1.368468046188
-59.293052673340 -75.706214904785 -209.324066162109 3.059416532516
-33.035232543945 -72.094345092773 -207.671859741211 2.159171104431
-11.632822990417 -75.400405883789 -206.409622192383 0.651999592781
-34.262111663818 -76.809333801270 -209.065307617188 2.301175832748
-80.155189514160 -78.750183105469 -208.727584838867 2.157818317413
-143.639099121094 -86.148590087891 -208.369873046875 4.328600883484
-33.041965484619 -80.406349182129 -208.522460937500 2.297556161880
6.177155971527 -82.507034301758 -208.233322143555 5.390420913696
-67.131652832031 -81.834236145020 -211.231948852539 2.002398252487
-63.888877868652 -78.590988159180 -213.958892822266 4.341358184814
-25.124126434326 -74.036499023438 -213.991729736328 2.431032896042
-9.301923751831 -86.522613525391 -212.327362060547 6.316393375397
-26.982511520386 -81.638076782227 -216.143234252930 2.036081314087
19.445667266846 -78.283515930176 -214.990005493164 2.619994640350
-150.807907104492 -74.988258361816 -217.625091552734 2.607000827789
-11.521443367004 -85.616905212402 -218.595306396484 5.387837886810
-157.335952758789 -82.390548706055 -225.160263061523 4.756836891174
7.587927818298 -80.520072937012 -230.334243774414 2.716107368469
13.063599586487 -74.690544128418 -226.245391845703 3.137177705765
-1.030696988106 -78.838668823242 -222.162612915039 1.992855429649
16.089563369751 -80.148185729980 -228.443466186523 1.434551715851
-139.271423339844 -85.967864990234 -233.293838500977 4.533684730530
11.914347648621 -80.331214904785 -227.040008544922 1.305706739426
-153.795928955078 -77.865036010742 -227.444717407227 2.090155363083
-145.104003906250 -80.978424072266 -233.016967773438 1.066026210785
-0.273373007774 -80.592994689941 -221.008331298828 0.886088371277
18.938972473145 -83.125274658203 -233.166244506836 3.225352764130
-30.791307449341 -76.008979797363 -237.777877807617 1.437882304192
-145.611160278320 -80.359436035156 -238.201446533203 1.728144645691
-36.524955749512 -78.295349121094 -244.046951293945 1.833499312401
-46.388587951660 -77.772811889648 -240.284164428711 1.895246982574
-36.656543731689 -76.994392395020 -239.637374877930 1.190961122513
19.878351211548 -80.096046447754 -243.630233764648 1.548333525658
-49.878074645996 -73.682754516602 -246.033920288086 1.183098912239
17.681621551514 -79.922485351563 -245.204116821289 2.390843629837
13.510813713074 -76.623413085938 -240.133544921875 3.003733634949
9.517791748047 -81.260353088379 -249.281906127930 2.184553384781
-39.440956115723 -83.650901794434 -246.290466308594 3.457669258118
24.624755859375 -82.204002380371 -246.478698730469 4.427922725677
-142.800857543945 -80.707855224609 -246.060760498047 3.156425714493
20.698251724243 -77.070892333984 -250.774948120117 2.950895786285
0.476112008095 -84.454353332520 -249.131912231445 3.104709625244
10.468308448792 -79.216499328613 -241.122619628906 1.562266588211
-150.066299438477 -75.391357421875 -253.359024047852 1.612687706947
-146.506896972656 -84.910202026367 -256.882598876953 0.838165938854
-141.695266723633 -81.341941833496 -256.236755371094 1.845134258270
-151.931472778320 -80.292900085449 -258.831542968750 2.709341287613
15.619363784790 -74.646156311035 -263.326507568359 5.055033206940
-154.737182617188 -75.957046508789 -271.187530517578 3.220606088638
-6.733065128326 -80.533790588379 -273.856597900391 1.953620314598
-151.792449951172 -82.942527770996 -266.451293945313 3.552562713623
-144.197479248047 -78.707351684570 -280.623596191406 3.144584417343
-153.982543945313 -76.763229370117 -274.546569824219 3.645080566406
-153.777679443359 -83.777870178223 -283.170959472656 2.020221710205
-130.806793212891 -84.114837646484 -288.089172363281 4.880332946777
-153.513290405273 -81.740539550781 -288.151519775391 2.349664211273
-146.189300537109 -84.650520324707 -289.832855224609 0.874954700470
-147.041931152344 -81.514190673828 -288.744628906250 1.071015238762
-153.366378784180 -83.567466735840 -295.328948974609 2.804244995117
-145.216552734375 -78.165245056152 -291.149871826172 2.348011970520
-152.673950195313 -81.358177185059 -300.136016845703 0.490094244480
-147.443710327148 -82.703765869141 -302.351623535156 2.288720846176
-147.480621337891 -76.850791931152 -304.867340087891 2.228963851929
-55.248207092285 -67.795448303223 -61.021495819092 8.598452568054
-63.097404479980 -75.253623962402 -63.818626403809 5.197149753571
-45.715827941895 -75.587310791016 -61.009166717529 2.412684679031
-23.251901626587 -77.587020874023 -75.561119079590 1.797841310501
-50.694152832031 -79.979896545410 -87.644470214844 2.138434648514
-87.053649902344 -84.894844055176 -97.015518188477 3.983187437057
42.890926361084 -77.179466247559 -107.063377380371 2.848986387253
-73.420295715332 -79.217056274414 -99.605583190918 2.279407262802
45.379676818848 -79.572982788086 -114.029762268066 2.524343252182
42.534442901611 -76.731719970703 -122.881675720215 1.936622619629
42.132919311523 -77.531562805176 -124.075057983398 1.818295598030
36.691028594971 -77.704200744629 -134.989715576172 0.102642104030
32.872287750244 -75.313713073730 -134.531967163086 3.365477323532
34.751678466797 -84.534965515137 -134.869354248047 2.626019239426
33.097267150879 -74.263313293457 -150.690917968750 1.988881349564
-44.631965637207 -73.334648132324 -149.664794921875 0.874485194683
30.359079360962 -79.430908203125 -139.858581542969 0.986967742443
-65.551643371582 -73.382301330566 -152.647415161133 0.904037535191
-35.006172180176 -80.274276733398 -152.294830322266 3.960768699646
-60.436397552490 -79.830986022949 -162.730377197266 2.305326938629
-38.305934906006 -79.398918151855 -158.016708374023 2.510171175003
32.400489807129 -78.339317321777 -157.320327758789 1.853564381599
-35.045005798340 -84.034309387207 -157.378311157227 4.801741123199
-0.371421009302 -78.647575378418 -173.953491210938 4.251281261444
35.208374023438 -71.609024047852 -165.003585815430 3.947113037109
-9.562602043152 -78.451217651367 -170.826263427734 1.533610105515
-57.776924133301 -77.751670837402 -162.445404052734 3.006812334061
-36.614746093750 -74.357925415039 -169.995269775391 2.899009466171
-31.518411636353 -74.619461059570 -173.791305541992 2.807518482208
24.694400787354 -79.597038269043 -177.246658325195 2.210934162140
-52.654998779297 -79.405891418457 -175.881454467773 1.770666122437
-26.998929977417 -73.202880859375 -174.763931274414 2.676801681519
23.126226425171 -77.386314392090 -185.034469604492 2.293298006058
-50.887031555176 -79.371994018555 -185.208511352539 1.410407781601
-24.183790206909 -72.242431640625 -180.493530273438 2.086179971695
-53.862617492676 -74.913810729980 -184.157806396484 0.870317995548
-40.559417724609 -77.300636291504 -194.852142333984 1.166457772255
-28.559207916260 -76.449035644531 -189.393859863281 1.552554249763
-40.636150360107 -80.109588623047 -195.478454589844 1.310829281807
-22.165628433228 -77.492424011230 -192.084686279297 2.410108804703
-137.222595214844 -80.106475830078 -195.984970092773 2.718784570694
21.474193572998 -77.734176635742 -201.003982543945 1.262027740479
-132.892395019531 -77.053817749023 -198.277618408203 2.125098466873
-20.176998138428 -75.100669860840 -196.015426635742 2.567934274673
-19.973852157593 -75.227935791016 -196.619201660156 2.453925609589
-41.425838470459 -78.885246276855 -194.049987792969 1.022959709167
12.647792816162 -75.149467468262 -198.052597045898 1.598364233971
-15.665151596069 -81.180633544922 -198.184692382813 3.045573234558
-54.984485626221 -80.167304992676 -204.542922973633 1.241657733917
-34.101104736328 -78.491188049316 -203.371871948242 1.053418040276
-60.216464996338 -75.547492980957 -206.490631103516 2.926369667053
-67.981040954590 -77.043464660645 -210.481765747070 1.370462536812
17.378973007202 -76.113113403320 -209.527160644531 1.066105127335
-85.741317749023 -77.473655700684 -211.215026855469 1.256774902344
-27.827533721924 -78.739685058594 -215.049530029297 1.892445683479
-79.774085998535 -79.567161560059 -209.340881347656 1.658806443214
-148.578506469727 -80.453292846680 -212.797836303711 2.202970981598
-6.578435897827 -78.493713378906 -214.638214111328 2.716012716293
-6.022187232971 -76.607261657715 -217.898498535156 1.284611344337
13.221970558167 -79.081069946289 -217.208847045898 1.998307347298
13.019475936890 -72.100570678711 -226.149291992188 1.733377337456
-0.700398981571 -80.234634399414 -228.317016601563 2.241173744202
-141.559478759766 -77.980369567871 -219.036056518555 4.149177551270
-149.128479003906 -84.166877746582 -233.476074218750 0.708292782307
-153.201309204102 -76.527496337891 -231.951629638672 1.985535025597
1.910338044167 -81.302886962891 -236.277786254883 1.826941251755
2.931857109070 -76.917495727539 -237.179519653320 1.474979281425
-23.515567779541 -83.729652404785 -242.105438232422 5.014775753021
-150.150131225586 -77.336158752441 -237.681030273438 1.810986280441
10.546115875244 -80.129745483398 -243.317169189453 1.163173198700
-22.624494552612 -73.155097961426 -241.276062011719 1.523666977882
19.511756896973 -78.243804931641 -236.070968627930 2.834682226181
-52.468814849854 -77.763893127441 -243.053817749023 2.006133079529
-50.073890686035 -79.165542602539 -249.178985595703 3.721109628677
-146.398391723633 -85.353752136230 -244.514099121094 2.289269685745
-61.688774108887 -80.217453002930 -247.791732788086 2.665164709091
-2.306811094284 -78.364776611328 -246.122039794922 2.543555974960
-9.992877960205 -76.213905334473 -254.345687866211 3.021440744400
-146.806777954102 -84.476364135742 -257.852600097656 0.933077812195
-131.679199218750 -78.057647705078 -255.281280517578 4.024099349976
-135.114196777344 -77.724067687988 -256.747131347656 0.821781218052
17.537485122681 -77.763717651367 -258.251281738281 2.897833824158
-145.508682250977 -81.725967407227 -270.967620849609 2.041304111481
18.212770462036 -79.956504821777 -266.355957031250 2.030212402344
-144.267608642578 -78.271598815918 -273.761566162109 3.408448696136
3.071614980698 -81.505676269531 -277.171447753906 1.077825546265
-141.931442260742 -81.062622070313 -280.904693603516 4.374001979828
-0.614350020885 -81.994400024414 -283.121490478516 2.945293664932
-152.910812377930 -78.096336364746 -283.128265380859 2.168311834335
-143.636230468750 -77.267936706543 -282.169036865234 1.779483437538
-136.239303588867 -84.515594482422 -285.120483398438 1.898033738136
-149.327789306641 -83.420532226563 -292.933288574219 2.273837566376
-20.722013473511 -77.287284851074 -289.973785400391 1.347168445587
-151.248092651367 -79.723197937012 -290.835418701172 2.406693696976
-147.047744750977 -84.132598876953 -294.009002685547 1.983972549438
-151.609588623047 -79.730216979980 -306.595062255859 2.829684495926
-54.437885284424 -72.671165466309 -56.451431274414 2.871137619019
-37.758258819580 -80.216667175293 -62.478366851807 3.123009681702
-74.111480712891 -78.449882507324 -67.105834960938 0.862541735172
-29.227756500244 -73.312210083008 -66.575309753418 4.371753692627
-25.434444427490 -76.453483581543 -70.513542175293 2.434115171432
-85.180595397949 -76.702934265137 -78.660934448242 3.811177968979
86.710876464844 -77.023704528809 -84.921882629395 2.281520366669
-33.643230438232 -73.204093933105 -84.997047424316 5.625235080719
83.673904418945 -79.057823181152 -86.323959350586 0.862172007561
80.296363830566 -75.662162780762 -89.124656677246 4.269859790802
86.561080932617 -74.826820373535 -86.648429870605 4.234863281250
87.114486694336 -72.811508178711 -91.403556823730 4.744397163391
91.575569152832 -74.026344299316 -94.746650695801 1.944723367691
-89.603469848633 -72.624176025391 -92.969398498535 4.595064640045
57.184726715088 -75.653129577637 -105.553550720215 2.640984058380
-95.002998352051 -65.808265686035 -111.286178588867 3.439501762390
48.043628692627 -78.147438049316 -107.809219360352 1.210711479187
51.455268859863 -76.409866333008 -113.247131347656 2.893028974533
40.103961944580 -74.675689697266 -114.639106750488 2.510257959366
35.170429229736 -76.375068664551 -137.427230834961 2.524356365204
28.093341827393 -75.289817810059 -140.739837646484 2.159313440323
23.129034042358 -69.054840087891 -143.735961914063 2.210190773010
33.811054229736 -72.046745300293 -142.968399047852 1.343143463135
-45.359020233154 -79.131469726563 -153.207962036133 1.105607986450
-47.863391876221 -77.722053527832 -150.445251464844 1.147964596748
-39.754547119141 -75.573883056641 -157.353713989258 2.286113500595
24.450798034668 -73.865715026855 -154.074554443359 0.454887688160
30.809646606445 -75.038505554199 -167.942687988281 3.172265768051
-32.198120117188 -73.120567321777 -168.407592773438 2.194120883942
-34.302200317383 -71.488151550293 -158.490829467773 2.631012678146
-44.668170928955 -78.833343505859 -158.445190429688 2.230110168457
2.933212995529 -73.457817077637 -163.145935058594 1.489841699600
25.944437026978 -76.750373840332 -151.117477416992 2.499297380447
34.175792694092 -72.224472045898 -159.567718505859 2.259279489517
30.130336761475 -74.150642395020 -170.311889648438 1.710743904114
-5.221735000610 -75.773811340332 -172.149444580078 1.524073839188
-3.494117975235 -77.167030334473 -170.030014038086 1.960219979286
-57.163543701172 -74.745513916016 -166.042434692383 1.823139667511
-59.765716552734 -76.141700744629 -170.264022827148 1.103780865669
-42.716503143311 -77.914596557617 -168.945358276367 2.047059059143
-36.934234619141 -74.636169433594 -166.975036621094 3.003341197968
22.735860824585 -71.307449340820 -171.253860473633 2.624469757080
-21.948106765747 -80.890556335449 -177.646697998047 2.411109447479
-29.449886322021 -73.639488220215 -180.943054199219 3.224103927612
-61.511295318604 -80.282524108887 -178.377426147461 2.943545579910
99.161842346191 -77.183181762695 -182.402008056641 4.210705757141
22.189388275146 -79.704727172852 -174.959793090820 2.028912544250
-24.828163146973 -76.314453125000 -179.312820434570 1.336775302887
-50.534263610840 -76.591598510742 -177.687438964844 2.290988683701
-20.400211334229 -73.091377258301 -180.184097290039 2.229707002640
113.572380065918 -75.761383056641 -182.282714843750 2.248724222183
-54.535877227783 -78.939262390137 -184.158340454102 2.388897180557
13.515221595764 -78.346649169922 -189.864547729492 1.678251743317
18.878944396973 -76.110671997070 -178.498657226563 2.256624698639
-54.943099975586 -82.053276062012 -176.258026123047 0.913382291794
-23.580402374268 -75.084442138672 -182.031188964844 1.692959547043
-54.896060943604 -80.002159118652 -176.376174926758 1.706817388535
-35.383152008057 -78.184143066406 -176.791213989258 1.103659987450
-28.027173995972 -76.561790466309 -186.855133056641 1.847675561905
20.726360321045 -76.753395080566 -188.301757812500 1.231910467148
-47.313377380371 -78.373641967773 -187.704101562500 1.811119914055
104.479446411133 -74.793411254883 -190.681869506836 1.014320969582
-49.972812652588 -73.262527465820 -188.747238159180 1.752153396606
7.817346096039 -75.967056274414 -202.452636718750 1.845193147659
21.730405807495 -75.250930786133 -198.309463500977 2.016569614410
-48.525581359863 -76.830497741699 -190.776412963867 1.050555944443
-15.633344650269 -77.433586120605 -188.751617431641 2.561933279037
100.698722839355 -75.584159851074 -195.341110229492 1.689097881317
97.270378112793 -79.823745727539 -195.604537963867 4.545670986176
-48.905349731445 -75.456329345703 -186.261611938477 2.120098590851
-148.698745727539 -84.065773010254 -198.066207885742 2.528801202774
-44.716053009033 -76.600456237793 -195.551086425781 1.398533463478
-144.143447875977 -78.780746459961 -195.600524902344 1.961795091629
-134.376419067383 -73.547737121582 -196.259826660156 1.645971894264
-45.707080841064 -79.741058349609 -195.391174316406 1.164507985115
10.617132186890 -78.419662475586 -206.842254638672 0.727542877197
-15.250439643860 -74.138839721680 -204.470779418945 2.783867835999
16.793569564819 -73.908508300781 -200.955993652344 0.874827027321
92.344383239746 -80.026229858398 -213.057052612305 3.222565889359
-34.300395965576 -75.121208190918 -201.706832885742 1.791403293610
-13.428487777710 -74.799301147461 -203.481506347656 1.485800862312
-15.436946868896 -74.548126220703 -213.456237792969 1.239806413651
-34.549407958984 -75.807556152344 -203.761352539063 1.824800252914
7.031531810760 -76.790855407715 -205.931915283203 2.336257457733
-78.627449035645 -78.379402160645 -209.650588989258 1.238828063011
16.933692932129 -77.643608093262 -214.429306030273 1.774696826935
-34.434082031250 -75.936035156250 -205.066131591797 1.185010671616
-144.485549926758 -81.771141052246 -205.635528564453 1.128529071808
-141.126342773438 -73.889083862305 -208.804565429688 5.252022266388
-87.588829040527 -78.020263671875 -211.742416381836 1.392612099648
-34.351509094238 -74.707496643066 -208.636138916016 1.591310501099
-14.141725540161 -81.808998107910 -211.782699584961 2.821595907211
-32.601879119873 -77.947250366211 -205.464660644531 1.508908271790
-90.296012878418 -79.950424194336 -215.907760620117 3.119756937027
-86.355583190918 -79.225746154785 -212.547195434570 0.970152378082
6.959278106689 -82.384483337402 -220.234268188477 2.962331533432
-149.042663574219 -72.469131469727 -211.484481811523 2.020212650299
-13.982358932495 -80.704772949219 -212.021026611328 2.270391941071
9.695859909058 -83.406616210938 -218.462692260742 2.457705259323
-143.843490600586 -76.539756774902 -218.459579467773 2.724559545517
-22.488077163696 -78.648735046387 -215.401428222656 1.556140065193
1.454169034958 -72.712547302246 -219.563003540039 2.607357263565
-7.676465034485 -77.989166259766 -219.207534790039 2.218716144562
-152.091964721680 -74.024375915527 -221.802261352539 1.544272661209
-139.540725708008 -68.239791870117 -224.926467895508 1.071532964706
-3.758995056152 -77.293937683105 -225.218139648438 1.670367956161
-147.843093872070 -83.400878906250 -225.231857299805 1.186843156815
1.419181942940 -72.368354797363 -229.082870483398 2.887474060059
18.009229660034 -76.141548156738 -235.237228393555 1.814767956734
-1.640135049820 -79.585678100586 -229.364990234375 1.539546251297
-1.467584967613 -71.472702026367 -232.247695922852 2.065220832825
8.939555168152 -75.565521240234 -231.422973632813 1.608752012253
-151.961853027344 -78.873191833496 -237.746414184570 2.561341285706
-19.358701705933 -74.773117065430 -233.177734375000 4.059117794037
-34.206340789795 -79.593818664551 -238.003768920898 1.476855397224
2.107686042786 -75.530807495117 -234.253280639648 2.255882740021
3.394654989243 -82.226615905762 -242.189376831055 4.726349353790
2.047355890274 -75.355209350586 -232.872482299805 2.203210830688
-57.978603363037 -76.835327148438 -241.404876708984 3.594172716141
-148.600540161133 -74.575042724609 -247.464279174805 2.516974449158
-152.910934448242 -78.256675720215 -245.830017089844 1.513241291046
12.052624702454 -78.933914184570 -246.737243652344 1.730686664581
25.525192260742 -79.125152587891 -246.018463134766 2.824947834015
-61.014915466309 -74.514060974121 -246.473159790039 1.833992838860
-142.117446899414 -82.712287902832 -250.623962402344 4.142887115479
-153.135452270508 -81.724632263184 -252.882675170898 1.998869657516
-153.686859130859 -82.565536499023 -255.292297363281 1.873950362206
-142.848846435547 -75.373329162598 -260.603973388672 1.009568929672
-141.380416870117 -79.050048828125 -254.964401245117 1.954592466354
-6.860105991364 -79.065803527832 -255.657592773438 1.923311352730
-145.290283203125 -79.728729248047 -260.585479736328 2.006985902786
-14.131623268127 -78.503456115723 -267.340393066406 2.901256322861
-147.489196777344 -77.087310791016 -270.307586669922 1.951493859291
-147.965805053711 -78.020416259766 -280.720062255859 2.361987590790
-148.294601440430 -76.733833312988 -282.487152099609 1.473818302155
-3.691287040710 -72.972824096680 -284.724121093750 2.156829357147
-148.261779785156 -74.246116638184 -281.596649169922 2.326975345612
-25.827306747437 -79.216125488281 -285.530853271484 3.694644689560
-26.351556777954 -74.882911682129 -284.594116210938 1.163462162018
-13.834271430969 -75.026741027832 -293.014678955078 1.554475903511
-14.181031227112 -74.639953613281 -292.256713867188 1.677582621574
12.003056526184 -80.045829772949 -290.770935058594 3.120501279831
-125.038246154785 -80.212211608887 -288.650177001953 3.511301279068
-61.540744781494 -78.307701110840 -286.204010009766 3.155195713043
-41.797611236572 -74.758789062500 -289.546356201172 2.251074075699
-33.216552734375 -78.420242309570 -286.961944580078 1.803594350815
-8.729984283447 -75.554656982422 -293.251220703125 1.844651818275
5.539287090302 -78.564575195313 -287.486816406250 2.111894369125
-141.861373901367 -79.281547546387 -296.183715820313 4.126276969910
10.707198143005 -78.026756286621 -295.315795898438 3.681528806686
-153.712387084961 -76.059867858887 -301.052795410156 1.028194785118
-154.026504516602 -82.990661621094 -299.601623535156 2.308020353317
-153.609985351563 -74.731925964355 -310.681152343750 1.015425801277
-143.188537597656 -77.744468688965 -308.033843994141 2.791971206665
-49.191841125488 -74.058845520020 -49.685642242432 3.584192037582
-52.306159973145 -78.195579528809 -55.328182220459 3.228150844574
-65.760437011719 -72.470741271973 -53.774108886719 1.543690681458
-38.819820404053 -72.282135009766 -61.544425964355 3.848858356476
-34.063091278076 -74.513366699219 -58.613243103027 1.638594031334
-17.709444046021 -73.471199035645 -69.632812500000 0.771123111248
-79.961898803711 -71.839599609375 -68.169792175293 4.737842082977
86.702789306641 -74.449119567871 -78.515586853027 1.732483506203
-89.220413208008 -72.998687744141 -72.966011047363 1.253755927086
82.039520263672 -71.860588073730 -77.511184692383 3.903071880341
89.569152832031 -69.429367065430 -84.509857177734 7.596269607544
99.144165039063 -71.016288757324 -89.957038879395 1.798538208008
-59.578060150146 -77.808784484863 -95.346260070801 2.507288694382
83.595603942871 -75.484924316406 -96.506584167480 1.579338669777
78.229660034180 -78.542404174805 -90.981712341309 1.971238732338
87.928146362305 -73.966690063477 -90.537582397461 3.984641313553
-57.775875091553 -75.264671325684 -96.521751403809 5.475536823273
50.294490814209 -72.246673583984 -97.934066772461 2.465704441071
47.118606567383 -73.737068176270 -106.395767211914 2.718618631363
41.080867767334 -75.237434387207 -103.413887023926 2.092612504959
37.505180358887 -74.811759948730 -101.722862243652 4.606282234192
-90.585418701172 -70.889770507813 -102.981697082520 3.961087942123
36.755023956299 -72.814537048340 -117.080253601074 2.310821533203
-83.492866516113 -75.446075439453 -106.158363342285 2.525658607483
41.655170440674 -75.993507385254 -126.934494018555 1.886565923691
34.028759002686 -75.601806640625 -120.511474609375 1.368065357208
35.371768951416 -67.044715881348 -121.286178588867 3.140800476074
45.769760131836 -72.421051025391 -117.323059082031 1.583997845650
42.644466400146 -77.433433532715 -127.951766967773 2.209018468857
-50.177715301514 -68.955711364746 -134.261535644531 1.144280552864
38.810558319092 -78.979606628418 -133.873947143555 2.747543811798
36.845317840576 -74.462493896484 -143.790496826172 2.522407054901
-54.526199340820 -73.080352783203 -142.762756347656 2.613492488861
-43.832923889160 -75.388610839844 -139.280944824219 2.995482683182
36.168369293213 -73.294921875000 -142.260940551758 2.407950878143
111.628387451172 -69.491813659668 -141.002471923828 2.695492982864
113.513046264648 -70.642837524414 -146.592742919922 2.037352323532
27.694131851196 -76.251670837402 -141.193634033203 2.559857606888
-39.103237152100 -77.952911376953 -148.722579956055 2.348289489746
117.810752868652 -81.079338073730 -152.812393188477 4.941473960876
-36.289108276367 -73.159103393555 -151.760375976563 2.489041805267
-66.783401489258 -74.592033386230 -161.126312255859 1.584509253502
111.730339050293 -78.775390625000 -156.158874511719 2.243744373322
23.704582214355 -76.058944702148 -165.727874755859 2.364095926285
1.981647014618 -75.947708129883 -162.173080444336 1.472719550133
112.347251892090 -74.459220886230 -153.013931274414 1.100899696350
-63.164928436279 -75.009529113770 -165.097930908203 1.840792775154
-37.616474151611 -76.460334777832 -164.445053100586 2.947205305099
112.546775817871 -75.322036743164 -165.110565185547 2.753881216049
28.740461349487 -69.800338745117 -158.218444824219 0.783089458942
-60.813323974609 -69.018341064453 -163.536849975586 2.449561357498
113.729293823242 -74.845695495605 -166.139739990234 2.731029033661
-64.400276184082 -77.067909240723 -167.783645629883 1.481482505798
-48.056324005127 -78.463829040527 -181.184127807617 2.051576614380
107.184806823730 -73.877906799316 -171.482955932617 0.947678327560
-58.603668212891 -73.857452392578 -171.163269042969 1.093310236931
113.470146179199 -73.581909179688 -178.014953613281 2.316851139069
-60.293857574463 -74.622566223145 -175.215194702148 1.914288997650
-14.844910621643 -72.742515563965 -176.779815673828 4.466253757477
-9.053962707520 -80.568382263184 -181.578903198242 4.958144187927
108.783554077148 -76.397140502930 -167.004653930664 0.716042876244
22.493490219116 -76.302192687988 -170.899734497070 1.663924098015
31.609626770020 -70.181884765625 -168.908279418945 3.452465295792
-56.958152770996 -74.525993347168 -176.438064575195 0.947092413902
18.440902709961 -73.222343444824 -181.339721679688 2.301357507706
-56.527729034424 -76.120567321777 -173.778381347656 2.017215490341
-51.484016418457 -74.086318969727 -192.670837402344 2.946890830994
11.939586639404 -72.861953735352 -184.264648437500 1.797901272774
-55.128990173340 -70.760368347168 -178.551483154297 3.663999319077
107.171783447266 -72.182296752930 -188.586090087891 1.978070378304
26.771823883057 -77.888389587402 -181.460723876953 1.254178643227
-34.091228485107 -73.025962829590 -187.437454223633 2.329722166061
-42.115894317627 -77.953132629395 -188.977096557617 2.731620788574
12.154870986938 -77.423263549805 -191.126129150391 1.929207205772
-18.791635513306 -76.620361328125 -187.382812500000 0.446098595858
-46.762786865234 -77.096534729004 -194.475051879883 1.022791981697
102.921089172363 -78.699920654297 -182.826538085938 1.725006222725
10.830610275269 -78.743904113770 -189.724105834961 3.748364210129
-131.728775024414 -82.195816040039 -198.379119873047 1.096719026566
-47.522472381592 -77.908119201660 -194.463470458984 1.731461882591
95.501472473145 -74.040794372559 -198.862319946289 1.443542003632
-148.711959838867 -82.374526977539 -200.748092651367 1.383071541786
19.157703399658 -75.821411132813 -199.568664550781 1.533959746361
-42.575889587402 -72.647575378418 -205.098342895508 3.305967807770
-29.451538085938 -78.781311035156 -206.139114379883 0.486136525869
-36.407878875732 -76.796066284180 -200.715652465820 2.252305984497
-44.719238281250 -81.870620727539 -196.943008422852 2.112365245819
101.445945739746 -74.803840637207 -204.636352539063 1.923254847527
-20.253053665161 -79.556213378906 -199.491592407227 1.694167017937
-149.444274902344 -76.478973388672 -199.530242919922 1.704757332802
16.658096313477 -77.931800842285 -201.232360839844 1.988138556480
-76.363899230957 -80.466308593750 -204.558135986328 2.820693969727
-143.423065185547 -74.374084472656 -212.129714965820 2.133970260620
94.713943481445 -77.419319152832 -213.563247680664 2.844321727753
-32.235633850098 -74.311698913574 -206.216629028320 1.878492116928
-28.134004592896 -76.435745239258 -210.330795288086 1.701963543892
10.563675880432 -76.221321105957 -209.455474853516 1.353723049164
-70.947151184082 -80.235435485840 -206.713485717773 2.311713933945
-26.414295196533 -83.499046325684 -205.095413208008 6.084961414337
-7.383923053741 -77.283256530762 -216.205581665039 1.969783902168
-69.660896301270 -77.311790466309 -212.924713134766 1.401969790459
-13.351698875427 -76.366676330566 -216.801788330078 1.167325258255
8.410954475403 -67.612434387207 -211.011962890625 1.649493694305
13.507440567017 -78.655563354492 -220.630599975586 1.281748533249
-150.696823120117 -78.587486267090 -216.082061767578 1.405597329140
-8.287270545959 -75.738273620605 -213.554794311523 1.194307327271
-100.777999877930 -72.725906372070 -218.839172363281 1.558116674423
-21.276260375977 -75.529174804688 -218.713287353516 0.707087576389
89.550727844238 -80.773529052734 -212.053817749023 3.946342706680
9.720266342163 -73.983764648438 -224.170181274414 2.389899730682
21.799375534058 -75.317619323730 -215.905609130859 4.169950485229
80.798210144043 -76.782669067383 -214.206665039063 3.492306947708
1.971730947495 -80.141876220703 -229.137237548828 1.633816957474
86.064140319824 -75.764747619629 -216.747695922852 1.272076725960
-20.286428451538 -71.925613403320 -223.714584350586 2.197942495346
17.093523025513 -72.591606140137 -217.970046997070 2.146763086319
-147.750793457031 -78.311264038086 -217.366012573242 1.817392349243
-25.047924041748 -77.602439880371 -225.349014282227 3.320207118988
2.552424907684 -73.498924255371 -230.168045043945 1.730809688568
-155.649826049805 -82.312835693359 -223.770034790039 4.288506984711
-136.783523559570 -79.812332153320 -226.355117797852 2.151220083237
3.991070032120 -75.575546264648 -222.902099609375 1.848499298096
-3.109255075455 -72.525932312012 -224.781661987305 2.850016593933
-136.536895751953 -73.343841552734 -227.781814575195 1.948914527893
-146.616577148438 -77.534172058105 -240.201583862305 2.099520206451
-148.208251953125 -77.672813415527 -234.131759643555 0.812321066856
-31.113218307495 -77.584106445313 -235.984176635742 2.838009834290
-141.757583618164 -80.326606750488 -241.654296875000 3.004181146622
16.190698623657 -77.517982482910 -240.858474731445 1.739782810211
6.246224880219 -75.820114135742 -244.102432250977 0.840994179249
-150.199584960938 -71.687141418457 -236.590179443359 1.917141795158
-149.065185546875 -76.769874572754 -243.207931518555 1.213268160820
-45.055217742920 -78.523315429688 -244.729949951172 2.083848714828
-31.014385223389 -77.224044799805 -246.054138183594 3.431333065033
4.734728813171 -76.209754943848 -242.118377685547 1.855645656586
-35.686012268066 -78.455368041992 -244.493759155273 2.365008354187
22.545635223389 -76.399780273438 -245.988601684570 1.744997620583
-5.383879184723 -78.813499450684 -251.927444458008 2.170439720154
-144.039230346680 -78.357765197754 -251.419418334961 2.365871667862
-9.283887863159 -81.593246459961 -252.183898925781 3.231265783310
-147.837615966797 -75.060462951660 -245.564712524414 2.378673076630
-64.822471618652 -78.798049926758 -249.112106323242 1.198571562767
-146.427398681641 -84.737663269043 -257.431671142578 0.476061463356
-126.944709777832 -77.271583557129 -256.766235351563 2.268497467041
-152.314727783203 -77.035606384277 -255.681823730469 3.264723777771
-10.149556159973 -74.082511901855 -266.619201660156 4.241615772247
-145.229248046875 -83.746887207031 -270.557891845703 1.818611264229
-148.789093017578 -78.031272888184 -267.680358886719 2.816950798035
-11.304819107056 -77.214385986328 -270.095886230469 1.501129746437
-143.912628173828 -77.896881103516 -268.551849365234 3.084533691406
-5.905821800232 -75.473320007324 -275.978271484375 2.436506271362
-45.265686035156 -76.386222839355 -283.077423095703 4.176232337952
-134.501922607422 -75.190719604492 -286.964660644531 1.397604346275
-135.148498535156 -77.098892211914 -284.362854003906 2.871311187744
-122.854484558105 -74.221496582031 -280.509277343750 4.301802158356
-51.455261230469 -76.289955139160 -285.329772949219 2.580466985703
-111.633132934570 -76.004539489746 -282.564971923828 5.450778484344
16.829631805420 -76.115715026855 -291.891601562500 1.025450587273
-56.584880828857 -75.168350219727 -287.577087402344 2.224189043045
-140.445266723633 -77.504058837891 -291.720703125000 1.804047465324
-62.850257873535 -75.916755676270 -289.454559326172 2.719377517700
-144.242218017578 -83.048751831055 -291.940399169922 1.132937431335
-116.085006713867 -75.020645141602 -289.630157470703 2.229046106339
-45.464630126953 -79.660835266113 -289.358276367188 4.154567241669
-33.057376861572 -77.042694091797 -290.692504882813 1.937857866287
-137.402008056641 -73.435356140137 -294.662231445313 2.162110328674
-13.593084335327 -71.447196960449 -281.909637451172 4.121256351471
5.203587055206 -76.259277343750 -286.777069091797 1.982748627663
7.179306983948 -75.049934387207 -289.837280273438 1.692332983017
15.769064903259 -77.705856323242 -294.913360595703 1.868876576424
-149.275451660156 -82.215347290039 -296.466125488281 1.901412606239
-144.533599853516 -75.448905944824 -291.786560058594 0.882242143154
-64.715850830078 -72.052032470703 -61.159381866455 5.498181343079
90.657356262207 -74.516868591309 -72.384048461914 1.102094531059
80.527587890625 -74.198280334473 -77.168579101563 1.362939834595
-26.139589309692 -76.210578918457 -75.623016357422 0.995025932789
85.397956848145 -71.342903137207 -74.495750427246 2.877773046494
-36.231590270996 -76.357856750488 -78.930809020996 1.849347472191
84.474555969238 -69.317962646484 -81.816993713379 6.277061462402
97.801528930664 -69.142242431641 -79.873107910156 4.315324306488
-62.997379302979 -67.931716918945 -94.931976318359 2.538722515106
74.411277770996 -73.842048645020 -94.005828857422 1.736891865730
81.562232971191 -71.154403686523 -97.481689453125 3.497249126434
98.225280761719 -75.945938110352 -95.024307250977 3.562526464462
56.926158905029 -75.236907958984 -96.651115417480 2.142079353333
-65.620040893555 -71.850349426270 -100.334442138672 3.487135410309
-72.461730957031 -70.344520568848 -100.067100524902 1.072131633759
52.177467346191 -75.604797363281 -103.154884338379 1.871981024742
-86.209266662598 -75.740928649902 -101.133377075195 5.331548213959
48.659805297852 -70.720596313477 -117.652740478516 2.325569391251
112.141807556152 -72.570587158203 -119.793708801270 1.908593654633
114.399475097656 -75.533020019531 -130.306564331055 0.676909923553
22.186025619507 -72.005035400391 -136.519378662109 3.524436712265
111.749816894531 -75.149993896484 -126.705986022949 1.699822425842
30.067302703857 -71.411117553711 -132.901901245117 1.459719777107
114.265754699707 -67.737693786621 -132.222717285156 2.344649314880
38.523204803467 -71.628822326660 -134.178253173828 1.645058155060
-54.858226776123 -74.085617065430 -139.605331420898 1.049511432648
37.572822570801 -77.723396301270 -144.703964233398 2.516224145889
110.221557617188 -71.467506408691 -134.769058227539 1.972812533379
-44.782489776611 -72.740051269531 -142.942245483398 1.097809314728
33.357944488525 -72.775703430176 -149.676574707031 1.224406599998
-55.373752593994 -69.003150939941 -140.282455444336 2.655345916748
-57.675106048584 -74.314956665039 -143.667053222656 2.234328269958
-51.210819244385 -77.653106689453 -149.037429809570 1.851087212563
-63.092136383057 -77.533401489258 -154.704528808594 2.101015567780
113.360984802246 -77.707092285156 -147.086227416992 1.395547270775
-48.512393951416 -80.933349609375 -154.266174316406 2.175087928772
24.368568420410 -79.064926147461 -155.768936157227 1.757923722267
109.084030151367 -74.602218627930 -161.989685058594 2.023654222488
-64.118667602539 -74.609275817871 -153.713012695313 2.019575834274
-42.327838897705 -75.792427062988 -156.307128906250 2.410098314285
10.291701316833 -71.871307373047 -153.820327758789 2.185101032257
-67.006408691406 -75.126312255859 -154.029052734375 1.084958910942
-62.664340972900 -77.364410400391 -157.560699462891 2.629963874817
1.571416020393 -74.565444946289 -161.656585693359 0.995853722095
-42.671394348145 -71.124145507813 -166.957000732422 1.381684184074
30.233600616455 -72.094261169434 -166.831832885742 2.880386590958
-61.992237091064 -70.970062255859 -167.201507568359 1.017960429192
-54.775424957275 -76.824462890625 -165.611740112305 3.962276458740
16.301815032959 -77.457717895508 -159.294158935547 4.566860675812
-29.050556182861 -73.604766845703 -167.639434814453 1.837866306305
-27.425319671631 -77.275985717773 -165.682373046875 2.693890333176
16.307212829590 -75.914474487305 -174.017761230469 2.950784921646
-42.241039276123 -77.716674804688 -171.976470947266 1.815795063972
-9.351801872253 -76.044120788574 -171.568710327148 1.976760149002
-64.288070678711 -71.699935913086 -170.547790527344 1.784059286118
-6.205626964569 -72.129447937012 -173.249923706055 2.033872127533
-20.574155807495 -74.984802246094 -178.970916748047 1.966537714005
23.526046752930 -71.752464294434 -183.371337890625 1.610300302505
-37.643058776855 -76.459152221680 -171.388793945313 0.681493759155
22.047113418579 -70.566841125488 -175.266937255859 2.695007562637
-21.706655502319 -71.134407043457 -184.754943847656 1.743152141571
-30.913297653198 -77.358787536621 -177.088409423828 2.245873928070
-147.128372192383 -73.011734008789 -190.551620483398 2.075506448746
-16.894617080688 -79.173507690430 -183.092559814453 1.649610877037
-139.709030151367 -74.141067504883 -188.054336547852 2.943389177322
-152.542526245117 -76.004745483398 -185.712860107422 4.567324638367
-48.477931976318 -73.301033020020 -187.617904663086 2.182746410370
