-155.503555297852 -66.113922119141 -313.698974609375 3.352593660355
-161.477600097656 -65.231925964355 -304.229278564453 8.641220092773
-140.718765258789 -69.483581542969 -312.739257812500 3.799683809280
-149.843505859375 -71.287864685059 -317.463256835938 4.705123424530
28.758829116821 -69.297271728516 -6.122475147247 6.606766700745
42.151927947998 -74.305549621582 -15.799715995789 2.509888410568
17.424783706665 -66.754020690918 -21.180160522461 4.186806678772
44.856620788574 -69.707916259766 -24.629180908203 0.916651368141
21.677827835083 -71.441154479980 -33.095474243164 0.685788571835
25.724210739136 -69.814880371094 -32.197708129883 1.947867035866
-63.129360198975 -63.103801727295 -49.375637054443 5.834235191345
71.933517456055 -64.185142517090 -57.689147949219 4.481595993042
77.283851623535 -70.800979614258 -65.551605224609 2.609039306641
-95.123847961426 -69.863975524902 -64.525817871094 3.722139596939
-18.385379791260 -65.386596679688 -59.773288726807 2.617251396179
-97.725708007813 -69.561515808105 -73.169120788574 3.678942918777
91.339820861816 -72.468711853027 -64.941436767578 3.983457565308
-17.445749282837 -65.231437683105 -67.190742492676 3.984352588654
62.560199737549 -72.807533264160 -79.338203430176 5.536203861237
-48.999347686768 -72.812179565430 -81.436439514160 3.796174764633
-31.481479644775 -71.490180969238 -74.416290283203 4.083178520203
50.883167266846 -63.690612792969 -85.077331542969 4.502368450165
-48.216415405273 -78.765289306641 -84.198532104492 1.630564093590
60.171360015869 -59.077816009521 -85.722328186035 2.554088830948
47.452125549316 -74.695640563965 -89.616027832031 4.275787830353
50.477329254150 -68.206787109375 -92.904426574707 1.314841151237
53.302459716797 -76.362159729004 -88.945480346680 3.369970083237
51.481758117676 -64.078147888184 -94.124031066895 1.847472190857
94.270721435547 -65.364471435547 -95.873672485352 5.920944213867
102.352973937988 -63.737350463867 -97.067710876465 1.415280103683
55.955902099609 -72.209648132324 -99.070510864258 1.722119450569
103.032768249512 -64.620971679688 -97.909767150879 1.683786392212
-82.454216003418 -67.178993225098 -99.997421264648 3.512585163116
-77.968238830566 -68.193740844727 -104.188316345215 0.930512964725
95.571067810059 -65.395927429199 -95.896644592285 4.845216751099
48.598346710205 -70.181419372559 -99.492752075195 2.088750839233
65.539009094238 -71.332305908203 -95.528121948242 4.272428035736
-75.919799804688 -68.238952636719 -109.844032287598 1.648579716682
-90.199615478516 -66.306686401367 -109.395935058594 4.093975067139
82.413703918457 -73.655090332031 -101.026931762695 1.889649629593
34.366497039795 -71.294647216797 -101.633293151855 6.611927986145
101.435874938965 -65.120414733887 -104.734146118164 2.786222457886
43.593692779541 -72.407119750977 -112.226333618164 2.181001186371
106.193572998047 -70.302963256836 -99.514259338379 0.863711774349
-82.307113647461 -68.037765502930 -113.322906494141 1.830989122391
98.640235900879 -64.101676940918 -106.239799499512 2.125214576721
-87.538444519043 -64.845169067383 -122.999221801758 2.386469602585
-62.491592407227 -70.862625122070 -128.848098754883 2.103633642197
-61.144100189209 -67.558929443359 -124.754257202148 2.109377861023
-75.494392395020 -70.363243103027 -131.566833496094 0.966730654240
-54.612831115723 -69.705757141113 -131.832275390625 1.541324496269
-87.923301696777 -69.746963500977 -135.385742187500 0.659530699253
-81.607551574707 -63.501468658447 -133.091506958008 3.517225742340
-83.427421569824 -68.735633850098 -133.852783203125 2.591853618622
-65.076164245605 -73.671760559082 -143.119323730469 3.447299957275
-74.652740478516 -68.400695800781 -142.483413696289 1.514016628265
-64.586936950684 -73.804237365723 -134.084182739258 4.744472980499
-61.125499725342 -67.970314025879 -143.548171997070 2.687268733978
9.391613006592 -63.958862304688 -144.652313232422 5.913812637329
-95.198760986328 -68.895774841309 -142.323028564453 1.773041725159
-52.202899932861 -73.959335327148 -149.278640747070 0.887285232544
-98.605766296387 -66.104988098145 -151.505203247070 2.094657182693
-105.516769409180 -64.489524841309 -149.397155761719 5.625695705414
16.391004562378 -71.558776855469 -153.877243041992 0.769119441509
11.129044532776 -70.245170593262 -158.174697875977 1.526273846626
-98.824890136719 -70.771148681641 -162.169097900391 2.729990482330
-107.843978881836 -68.548782348633 -153.620086669922 6.995055675507
-103.169578552246 -66.333320617676 -169.373458862305 1.090796351433
18.153438568115 -68.257446289063 -169.544464111328 2.118192434311
-115.288513183594 -67.593818664551 -175.318359375000 5.114182949066
21.068571090698 -68.671699523926 -164.063888549805 2.443523168564
-151.238296508789 -67.938316345215 -179.503784179688 2.016540527344
14.749320030212 -68.234329223633 -175.308547973633 2.631095170975
21.735256195068 -70.091255187988 -185.105575561523 1.246115803719
-154.947540283203 -65.735282897949 -188.821533203125 2.168594121933
17.693906784058 -70.718154907227 -174.169525146484 1.538184642792
15.943641662598 -60.909019470215 -180.422622680664 6.634772300720
-148.393493652344 -72.057678222656 -185.550384521484 1.416632056236
-154.971282958984 -63.779129028320 -192.246963500977 3.784506559372
16.653556823730 -69.570777893066 -186.879013061523 1.519141197205
15.505558967590 -72.216499328613 -189.384368896484 2.189942121506
-144.668533325195 -70.328445434570 -196.824752807617 1.470884561539
-112.513175964355 -68.353912353516 -199.507873535156 2.302423477173
22.984558105469 -69.430053710938 -198.408050537109 2.586702823639
-128.446060180664 -68.412239074707 -196.938690185547 3.720786333084
6.671720981598 -72.146629333496 -200.333541870117 2.521922826767
-131.872467041016 -60.683059692383 -196.305191040039 2.311809301376
-165.105834960938 -64.744476318359 -191.600219726563 7.456654548645
-163.474807739258 -65.859336853027 -199.343536376953 1.805872440338
-159.983016967773 -69.748786926270 -196.087615966797 1.073869824409
-24.089822769165 -69.276687622070 -207.162017822266 3.156320333481
-171.796600341797 -70.200988769531 -202.197265625000 5.274491786957
-30.842075347900 -63.918075561523 -193.115524291992 5.791481494904
-18.846435546875 -70.261611938477 -193.711791992188 1.329082727432
3.923712015152 -62.360614776611 -195.476409912109 8.391410827637
-159.745895385742 -68.288963317871 -209.195251464844 1.533105134964
-109.645072937012 -66.103385925293 -204.575592041016 2.461940288544
-19.718639373779 -64.607055664063 -199.637985229492 3.019576787949
-164.181411743164 -60.824924468994 -204.076599121094 5.248123168945
14.419285774231 -69.738296508789 -201.543380737305 1.330821037292
-173.815582275391 -64.857467651367 -209.182723999023 7.550075531006
-122.764892578125 -70.401710510254 -204.488311767578 1.676941037178
-118.758201599121 -64.663085937500 -210.903839111328 6.287186145782
-125.685783386230 -67.409553527832 -205.901702880859 1.977308034897
-18.810029983521 -67.264282226563 -202.583923339844 2.380725860596
-22.008483886719 -69.497665405273 -203.577438354492 1.385542035103
-166.889999389648 -66.876266479492 -214.651580810547 2.942966699600
-162.559799194336 -64.697608947754 -214.563415527344 2.019836425781
-167.430541992188 -68.199958801270 -222.492813110352 1.158439874649
-142.332015991211 -70.527053833008 -216.210021972656 2.687072753906
-147.820724487305 -66.852569580078 -227.509063720703 1.368551731110
-3.892740011215 -66.682067871094 -218.670318603516 2.839324712753
-11.639893531799 -74.476173400879 -216.835067749023 2.245549678802
-103.517791748047 -65.243896484375 -222.195449829102 2.401109695435
-9.937391281128 -66.573600769043 -234.763320922852 1.719864010811
-171.238586425781 -63.821548461914 -233.707641601563 6.591608047485
-107.370613098145 -65.430366516113 -235.754440307617 6.131746292114
-0.278308987617 -69.206832885742 -226.113250732422 1.444306254387
-0.406585991383 -68.017662048340 -228.999053955078 1.711464762688
-114.290596008301 -67.823532104492 -235.764236450195 3.065932512283
-4.080269813538 -70.146949768066 -226.952316284180 1.951366782188
-120.947029113770 -63.867694854736 -236.116622924805 3.433140039444
-10.518683433533 -64.676567077637 -231.472885131836 3.344501733780
-4.091471195221 -67.351181030273 -234.603057861328 0.364423871040
-4.771677017212 -67.612525939941 -238.551803588867 1.669621229172
70.140762329102 -65.032707214355 -234.757675170898 2.233455657959
-11.911241531372 -72.079627990723 -237.453140258789 1.086790204048
7.615958213806 -69.587829589844 -235.392364501953 1.859620809555
9.000858306885 -67.809722900391 -237.193664550781 1.757721424103
2.847044944763 -70.239051818848 -238.192962646484 2.540709972382
1.912096977234 -70.879501342773 -241.157455444336 2.024244546890
60.953029632568 -63.257160186768 -237.842910766602 4.159296035767
66.629432678223 -64.308120727539 -238.819503784180 3.791728496552
4.583708763123 -67.897560119629 -248.021743774414 4.212731361389
49.652427673340 -71.034400939941 -241.064468383789 2.673842191696
52.964607238770 -74.141151428223 -238.758758544922 5.288612365723
44.907207489014 -64.284362792969 -249.622817993164 1.940175294876
40.315876007080 -65.163085937500 -250.328491210938 1.716960072517
38.882850646973 -67.489372253418 -257.365844726563 1.934414148331
-131.996871948242 -61.331939697266 -262.115753173828 3.271533250809
-11.041374206543 -67.467948913574 -247.556411743164 1.772976875305
28.494573593140 -66.436347961426 -256.480407714844 2.219915151596
41.580081939697 -67.274917602539 -244.374557495117 5.058561801910
27.287157058716 -72.138343811035 -251.717239379883 4.396579265594
-105.965255737305 -70.516708374023 -261.362731933594 1.133620381355
28.117559432983 -70.199645996094 -254.935791015625 1.530589222908
-147.098052978516 -69.703742980957 -264.510681152344 2.626310586929
-118.613670349121 -70.544715881348 -258.029296875000 2.484282016754
-112.739257812500 -67.743499755859 -260.412872314453 1.858492255211
-3.760483980179 -71.991668701172 -258.405456542969 6.231429100037
-153.953125000000 -68.781318664551 -259.888977050781 2.544629573822
35.133808135986 -69.221115112305 -261.752624511719 3.113604307175
-110.021934509277 -66.119750976563 -257.561279296875 1.999031186104
23.795911788940 -74.031936645508 -257.717468261719 1.879708886147
-136.528427124023 -70.926818847656 -267.031890869141 3.760761022568
-118.487342834473 -66.949050903320 -268.304626464844 3.482058286667
-112.887672424316 -67.166206359863 -264.405517578125 3.062676191330
-115.908103942871 -74.953079223633 -263.046112060547 2.284166812897
-143.651718139648 -69.648200988770 -257.771118164063 1.982094764709
27.770250320435 -69.468673706055 -257.908630371094 1.162474870682
-118.800529479980 -65.482368469238 -264.492919921875 1.299727439880
-146.598617553711 -69.047760009766 -266.149688720703 1.624454736710
-6.654263973236 -65.681106567383 -270.166198730469 2.268012762070
-151.439529418945 -70.113616943359 -282.845977783203 2.417921543121
-10.258892059326 -69.591476440430 -288.659301757813 3.409872770309
-7.029909133911 -65.866226196289 -280.970733642578 1.220129370689
-135.730270385742 -66.841453552246 -291.727325439453 2.030246734619
-130.600280761719 -68.018341064453 -294.433319091797 2.331960916519
-136.790237426758 -66.674713134766 -297.417724609375 5.180280208588
-128.088378906250 -64.664772033691 -292.239196777344 2.445289850235
-157.123825073242 -67.153778076172 -297.134857177734 3.705281019211
-158.994201660156 -68.015556335449 -302.733062744141 5.495960712433
-149.587493896484 -71.688613891602 -304.270507812500 4.652058601379
-150.368255615234 -69.471458435059 -307.397399902344 3.215131521225
-146.166839599609 -66.892158508301 -300.623840332031 2.801302671432
-151.748184204102 -66.808891296387 -308.691436767578 1.738168954849
-146.446395874023 -64.280891418457 -319.062316894531 7.405458927155
12.989227294922 -71.093833923340 -25.051218032837 7.139275550842
44.453929901123 -71.717773437500 -34.890861511230 2.242555379868
18.382503509521 -75.082420349121 -35.506530761719 4.218531608582
26.113336563110 -68.416328430176 -42.589824676514 4.119484424591
-47.518344879150 -60.075302124023 -48.990367889404 4.852658748627
-80.581596374512 -63.245674133301 -51.317573547363 3.385233402252
74.591728210449 -68.103462219238 -59.192413330078 4.254743576050
68.186676025391 -69.405746459961 -59.638313293457 5.818591594696
66.981872558594 -71.209693908691 -62.831565856934 6.640625953674
-106.110618591309 -66.843467712402 -73.327743530273 8.315773963928
93.215682983398 -73.515296936035 -72.912094116211 1.647550582886
-33.353744506836 -69.943832397461 -85.205688476563 7.677543163300
56.347278594971 -66.062217712402 -73.413436889648 8.811054229736
-47.363643646240 -63.326076507568 -84.160812377930 2.141085147858
-60.985221862793 -65.037666320801 -82.180152893066 2.650981664658
46.456375122070 -68.682975769043 -88.902275085449 3.297933101654
97.373870849609 -66.730651855469 -87.983360290527 4.917957305908
58.128154754639 -66.117141723633 -90.866134643555 3.995015144348
51.160614013672 -66.496788024902 -89.807151794434 1.487099289894
43.220932006836 -64.523666381836 -100.530265808105 2.853012084961
51.455097198486 -64.065544128418 -100.333099365234 1.641803622246
97.690071105957 -66.426803588867 -95.022254943848 3.360896825790
64.312126159668 -67.682899475098 -105.802665710449 6.711457729340
47.110950469971 -68.301925659180 -104.396644592285 1.522501707077
71.029273986816 -74.640136718750 -105.457382202148 6.205595016479
93.938713073730 -64.492492675781 -104.947029113770 1.980736374855
-78.975486755371 -64.063339233398 -100.197052001953 3.145959138870
-91.265197753906 -67.073074340820 -111.473312377930 3.809474468231
-86.603118896484 -67.559043884277 -113.381271362305 1.521911859512
-65.050781250000 -66.977478027344 -119.682708740234 2.123324871063
-61.701477050781 -71.352302551270 -127.111366271973 3.625261545181
-99.183868408203 -66.154876708984 -122.965965270996 3.948167562485
-78.546920776367 -69.709228515625 -120.023422241211 1.039962291718
-81.268943786621 -71.261329650879 -134.041763305664 2.553623914719
-64.836303710938 -63.583751678467 -128.527557373047 2.361187934875
-92.343566894531 -62.853462219238 -132.002166748047 3.256494045258
-94.097000122070 -65.610458374023 -132.214294433594 1.890213966370
-52.713592529297 -70.737251281738 -135.612304687500 1.830264806747
-54.963443756104 -69.052543640137 -138.015884399414 3.233290433884
-81.833435058594 -70.552864074707 -139.458343505859 3.040510892868
-58.760776519775 -69.846275329590 -142.024398803711 0.728145956993
-77.728446960449 -71.923461914063 -146.076339721680 2.272930622101
15.486984252930 -65.294281005859 -138.484069824219 4.272771358490
-61.986614227295 -72.338951110840 -144.959991455078 4.595828056335
-59.706295013428 -63.577629089355 -146.836868286133 3.955296278000
5.090074062347 -72.243881225586 -154.569763183594 2.054271221161
13.472573280334 -66.255363464355 -149.924484252930 1.752852201462
-144.997879028320 -67.773246765137 -175.841598510742 1.039379239082
-113.453117370605 -65.286842346191 -179.601928710938 3.373459577560
-114.197715759277 -62.839336395264 -192.113830566406 1.360388159752
-156.148956298828 -69.035797119141 -192.969985961914 1.590568423271
-116.436477661133 -66.310241699219 -188.049514770508 3.428898334503
-154.350036621094 -61.607814788818 -199.381729125977 1.419044375420
-117.125381469727 -65.953910827637 -200.942230224609 1.295142650604
-153.797729492188 -63.323810577393 -203.782073974609 2.080396652222
-152.503982543945 -66.317489624023 -209.315902709961 1.017432212830
-156.520339965820 -71.782974243164 -208.356796264648 3.352118730545
-151.428375244141 -66.751007080078 -227.214172363281 3.203970670700
-151.706954956055 -70.228309631348 -228.937515258789 2.227002859116
-107.608276367188 -63.908046722412 -229.910858154297 2.764707088470
-102.655097961426 -67.205001831055 -222.531417846680 1.230980396271
-125.206809997559 -61.470386505127 -234.252761840820 3.623634576797
-109.580802917480 -67.140213012695 -227.340515136719 2.656275987625
-159.460556030273 -67.297874450684 -233.513778686523 3.158469676971
-5.685513973236 -67.382041931152 -224.354492187500 1.614352703094
-135.493835449219 -70.504104614258 -232.350433349609 1.223970055580
-155.799636840820 -67.489036560059 -238.277740478516 2.150313138962
-140.985122680664 -70.636573791504 -234.932373046875 1.586406826973
-12.763651847839 -66.182823181152 -234.023605346680 2.964723825455
6.907331943512 -67.952377319336 -243.414627075195 1.988508939743
60.762828826904 -62.481719970703 -238.487152099609 4.937718868256
15.921938896179 -72.521018981934 -248.604614257813 2.055872917175
52.275283813477 -67.917922973633 -240.770111083984 3.445850610733
38.622798919678 -71.104766845703 -248.462509155273 3.750990629196
59.639724731445 -64.448776245117 -250.796035766602 4.923567771912
-155.210189819336 -66.920600891113 -251.689300537109 2.423323392868
-149.242477416992 -70.885803222656 -257.349182128906 1.894440412521
41.853321075439 -66.776184082031 -255.030899047852 0.778422355652
26.077562332153 -68.158401489258 -253.335266113281 2.460921287537
46.580642700195 -64.564315795898 -252.215805053711 1.716169118881
-146.907241821289 -70.112792968750 -265.138580322266 2.391370296478
-139.462539672852 -65.341232299805 -257.000457763672 3.340445041656
-125.862876892090 -64.350082397461 -261.311187744141 0.834351003170
-135.157791137695 -66.826576232910 -258.235778808594 1.133419871330
-141.814315795898 -68.165611267090 -260.569763183594 1.434927940369
-124.836662292480 -66.182479858398 -262.013214111328 1.144829392433
-144.846359252930 -64.759147644043 -262.685943603516 1.853560566902
-129.039047241211 -69.852104187012 -260.358642578125 4.336740493774
-121.987998962402 -68.139816284180 -267.114227294922 5.039513111115
-130.707748413086 -67.459106445313 -267.564697265625 4.473983287811
-123.765541076660 -63.020759582520 -266.312438964844 3.457901000977
-6.824226856232 -68.436645507813 -266.160888671875 1.537798643112
27.559289932251 -63.887607574463 -260.353698730469 0.808990895748
-147.324035644531 -60.932464599609 -270.000152587891 4.781876087189
24.670038223267 -69.637878417969 -269.978637695313 1.580586194992
-7.417609214783 -61.646232604980 -275.886322021484 3.928462505341
16.082460403442 -74.510818481445 -282.316894531250 1.540795207024
-142.335525512695 -67.601654052734 -291.968475341797 1.919442415237
-126.013710021973 -69.739959716797 -289.224792480469 2.877015829086
-132.034729003906 -61.988258361816 -292.961547851563 5.619746208191
-160.738510131836 -61.942268371582 -295.717102050781 6.574058532715
-127.878662109375 -61.153022766113 -291.648742675781 4.425242900848
-119.263931274414 -65.010116577148 -290.986999511719 1.761414527893
-125.760375976563 -70.217613220215 -299.609039306641 3.710230827332
-153.468322753906 -70.402862548828 -294.743743896484 0.990676999092
22.353351593018 -71.353942871094 -10.363575935364 6.491308212280
22.834312438965 -72.256103515625 -16.607517242432 2.016296386719
30.923175811768 -66.792602539063 -19.782360076904 2.644277572632
41.053569793701 -62.641315460205 -21.805210113525 1.706116795540
22.162380218506 -73.891899108887 -26.901676177979 2.060274839401
12.747739791870 -71.113830566406 -32.705390930176 7.282426357269
-39.817066192627 -68.897186279297 -45.837654113770 3.131014823914
-87.023231506348 -69.225517272949 -54.832229614258 2.935263633728
-22.894672393799 -67.251998901367 -59.267223358154 3.047964572906
68.321350097656 -65.613296508789 -62.615764617920 2.309102058411
98.055961608887 -67.103622436523 -66.126770019531 0.718271195889
59.250774383545 -64.895240783691 -81.963249206543 0.762207686901
55.796585083008 -61.835830688477 -82.404869079590 4.015224933624
92.739524841309 -68.752639770508 -82.063972473145 7.002331256866
-69.647232055664 -63.815242767334 -91.946556091309 2.555619955063
-71.341384887695 -67.036071777344 -90.705917358398 6.368840694427
45.783103942871 -64.409843444824 -90.504371643066 4.327294349670
-72.951347351074 -69.814537048340 -96.919906616211 3.368678331375
-77.944282531738 -66.230804443359 -102.871414184570 1.668783426285
-100.187500000000 -66.365272521973 -103.587936401367 2.824843168259
-81.165092468262 -61.962425231934 -100.598197937012 4.123360633850
41.984729766846 -62.959209442139 -100.768173217773 4.825837612152
-70.703521728516 -69.495597839355 -104.417976379395 2.884093761444
43.090049743652 -64.830307006836 -102.744712829590 3.402850866318
90.617424011230 -66.675369262695 -102.493247985840 3.430016279221
84.952186584473 -67.750221252441 -111.140121459961 4.894186973572
-76.455131530762 -65.983268737793 -116.651229858398 1.806879758835
-91.345581054688 -68.182151794434 -113.526756286621 3.872821569443
-66.624229431152 -66.227516174316 -119.818222045898 1.666107296944
-100.422103881836 -61.274127960205 -120.154594421387 2.887697219849
-80.795936584473 -69.093536376953 -128.425781250000 0.590372145176
-98.439346313477 -58.090641021729 -128.226699829102 6.594062805176
-68.817855834961 -65.027175903320 -117.892707824707 2.758885383606
-64.844184875488 -59.673362731934 -122.425796508789 2.018008232117
-94.364883422852 -68.029495239258 -131.892349243164 2.927170753479
-68.271415710449 -69.703445434570 -127.519409179688 6.043943881989
-88.285598754883 -65.269020080566 -134.788482666016 2.045909881592
-87.564620971680 -66.912910461426 -136.166442871094 1.892040014267
-65.551490783691 -71.882354736328 -137.434082031250 4.330043792725
-64.724777221680 -62.513793945313 -134.921813964844 2.635769367218
-59.465877532959 -59.466190338135 -134.663619995117 1.321125626564
-103.316024780273 -62.695713043213 -132.894042968750 10.653888702393
-101.529228210449 -61.606128692627 -146.392974853516 3.903539419174
-95.083404541016 -66.393127441406 -137.648101806641 2.552284240723
15.295779228210 -69.881439208984 -149.603424072266 1.864023685455
-54.520648956299 -67.290588378906 -141.160507202148 1.556007742882
15.569072723389 -67.439392089844 -150.634735107422 1.543879747391
-101.731674194336 -67.142349243164 -167.151107788086 1.702037811279
-106.879272460938 -72.155029296875 -172.627090454102 2.826009988785
-106.052421569824 -62.042716979980 -173.005950927734 2.155827045441
-111.888755798340 -58.881069183350 -175.858047485352 4.823172092438
-112.301040649414 -66.727027893066 -180.687850952148 1.918777465820
-113.984107971191 -65.724060058594 -180.905380249023 2.416912555695
-145.737380981445 -63.113239288330 -189.202178955078 1.371233940125
-114.855545043945 -64.702789306641 -187.828018188477 2.834999322891
-137.028778076172 -62.673881530762 -204.086608886719 4.034125328064
-153.681884765625 -68.613601684570 -201.252609252930 0.960768520832
-131.572204589844 -66.341339111328 -200.788360595703 1.673513531685
-161.277359008789 -68.034301757813 -198.448883056641 1.672507286072
-150.172103881836 -70.234115600586 -205.121246337891 1.904213547707
-129.589752197266 -59.741233825684 -199.625320434570 3.133762121201
-137.723434448242 -63.642444610596 -202.501861572266 3.015690803528
-142.620727539063 -72.665931701660 -209.237380981445 3.768833637238
-133.483978271484 -68.202690124512 -225.299865722656 0.774900496006
-111.376548767090 -68.821426391602 -232.521072387695 0.778599739075
-144.784454345703 -66.743103027344 -230.167510986328 2.704972982407
-122.379455566406 -64.381813049316 -234.404403686523 2.108331203461
-119.059555053711 -60.279838562012 -232.852905273438 4.279438018799
-123.945335388184 -67.648757934570 -234.674880981445 1.406735777855
-135.369491577148 -65.333206176758 -236.504104614258 2.470537424088
-117.282463073730 -62.289875030518 -240.457015991211 6.921417236328
3.082390069962 -65.769081115723 -236.090835571289 0.063410051167
-154.779464721680 -67.964965820313 -241.795623779297 2.798569917679
3.702789068222 -67.301795959473 -236.108032226563 0.956163704395
2.015724897385 -62.317565917969 -243.959106445313 1.285919785500
0.150848999619 -69.522453308105 -242.142898559570 1.573983192444
10.954484939575 -63.360328674316 -240.508300781250 2.488862514496
-145.714416503906 -62.889991760254 -237.556213378906 1.448388576508
-7.939877986908 -69.353256225586 -248.217681884766 2.863744974136
17.139820098877 -66.764648437500 -238.921463012695 3.622586250305
49.259140014648 -64.830352783203 -249.171051025391 2.141710758209
48.696964263916 -65.269874572754 -250.275558471680 1.890918850899
-148.756820678711 -68.048141479492 -255.222610473633 2.527626514435
-7.282583236694 -68.428909301758 -250.864608764648 3.228445053101
19.244632720947 -67.974037170410 -253.829788208008 4.129643440247
-133.112869262695 -59.215988159180 -260.476715087891 5.516308784485
-124.220390319824 -64.472023010254 -259.279541015625 1.388602495193
-125.693458557129 -68.178359985352 -260.498260498047 1.768141388893
25.194684982300 -66.355484008789 -257.077819824219 0.790050506592
-135.146316528320 -62.057540893555 -269.126953125000 7.551750659943
31.244270324707 -64.153144836426 -258.543029785156 1.639756560326
32.350284576416 -66.703811645508 -262.187622070313 1.342927694321
-155.684463500977 -68.093544006348 -271.032806396484 3.384446144104
-147.226608276367 -71.886390686035 -289.160339355469 2.858534812927
-149.820388793945 -61.005870819092 -290.275573730469 2.206238031387
-145.257675170898 -63.931133270264 -298.517486572266 4.289445400238
13.054711341858 -70.464706420898 -291.679656982422 1.181441545486
-155.482711791992 -63.497165679932 -306.532623291016 4.356893062592
40.125259399414 -71.494262695313 -24.900053024292 4.104640483856
29.552309036255 -73.474029541016 -38.848831176758 2.527364253998
-65.419578552246 -62.386753082275 -47.810195922852 4.338141441345
-77.603157043457 -63.240413665771 -48.643478393555 2.020649433136
-32.710910797119 -62.805995941162 -51.493350982666 5.126533985138
-28.878477096558 -70.215728759766 -55.054428100586 0.959779620171
-15.454188346863 -62.438999176025 -67.159568786621 2.842554569244
-33.480648040771 -61.442783355713 -70.795143127441 1.807402372360
58.850173950195 -66.788749694824 -73.176681518555 6.728081703186
-101.536064147949 -58.828804016113 -81.342971801758 2.969184160233
-51.266212463379 -66.603698730469 -88.686050415039 1.744696378708
49.092750549316 -68.265876770020 -84.695648193359 4.736724376678
55.105976104736 -67.090721130371 -84.308044433594 2.191457986832
55.126026153564 -67.448272705078 -87.070030212402 1.386284351349
101.895278930664 -65.831573486328 -88.290550231934 3.259070158005
47.018203735352 -64.163467407227 -87.996154785156 4.795538425446
93.072280883789 -59.451721191406 -97.802406311035 4.532994747162
-88.568397521973 -67.994194030762 -105.801116943359 2.691606760025
-97.148971557617 -64.992561340332 -102.929557800293 0.692954957485
69.513839721680 -62.398349761963 -112.044761657715 5.697875976563
-83.751159667969 -65.968856811523 -105.668235778809 2.115873813629
-82.673240661621 -70.761245727539 -114.397331237793 3.436095476151
-89.232124328613 -72.593139648438 -121.244812011719 3.495248794556
-59.994281768799 -67.110809326172 -127.518981933594 2.159004688263
-81.106742858887 -65.143066406250 -131.047485351563 2.238071918488
-68.000274658203 -60.903812408447 -129.676086425781 3.677815198898
-90.665084838867 -67.559890747070 -137.635848999023 1.972009062767
-80.936065673828 -64.164894104004 -134.656387329102 2.600333929062
-84.111778259277 -63.560111999512 -126.979202270508 1.368018150330
-94.447738647461 -63.933414459229 -131.600860595703 3.173377275467
-71.700317382813 -62.241466522217 -136.876342773438 4.046689510345
-95.141693115234 -66.009658813477 -133.615829467773 3.050911664963
-55.018867492676 -68.318984985352 -133.764984130859 2.956228494644
-59.603046417236 -71.848907470703 -140.240951538086 2.357509374619
23.573259353638 -66.151039123535 -141.031692504883 1.065704226494
-60.642604827881 -58.972869873047 -137.521179199219 2.929146051407
11.147174835205 -71.454467773438 -142.588424682617 5.453835010529
10.163042068481 -64.081283569336 -147.232254028320 3.739609003067
13.436222076416 -61.701808929443 -153.936233520508 4.433375358582
-103.036109924316 -63.798091888428 -147.539993286133 4.129556179047
-94.245788574219 -65.565132141113 -150.820800781250 1.630111098289
-100.825729370117 -61.780727386475 -152.428512573242 3.464680433273
-110.037658691406 -65.943420410156 -165.765502929688 1.767613530159
-102.408782958984 -63.715061187744 -162.079025268555 0.999452769756
-156.112503051758 -62.516960144043 -179.027832031250 3.773043632507
-157.760360717773 -65.029151916504 -178.695816040039 5.686327457428
-116.518486022949 -62.688102722168 -184.393280029297 5.865498065948
-144.863800048828 -63.198184967041 -180.007553100586 2.379715442657
-113.388519287109 -61.318313598633 -184.488098144531 5.221101760864
-151.765823364258 -56.470417022705 -190.335037231445 6.500669479370
-114.823997497559 -61.270549774170 -193.256118774414 3.193873167038
-114.460693359375 -66.565116882324 -183.915130615234 2.441347360611
-148.892456054688 -64.339546203613 -203.328582763672 2.549910068512
-131.489013671875 -66.920181274414 -199.464218139648 2.843121290207
-109.179977416992 -65.559402465820 -199.976257324219 1.166408777237
-119.407699584961 -58.424942016602 -200.846176147461 5.347476005554
-116.723777770996 -66.941307067871 -202.715698242188 1.051210522652
-119.852584838867 -59.552726745605 -205.094818115234 4.077058315277
-137.612701416016 -62.037742614746 -199.448059082031 3.495979547501
-144.198165893555 -64.958648681641 -206.355697631836 1.535380363464
-133.020278930664 -63.056976318359 -211.573165893555 6.117643356323
-132.014526367188 -59.146053314209 -202.976882934570 4.015233039856
-125.765464782715 -62.724498748779 -207.367935180664 2.470499753952
-115.066093444824 -64.299736022949 -207.466308593750 4.260140895844
-152.237396240234 -63.568347930908 -215.835342407227 3.785413980484
-155.814025878906 -64.012886047363 -221.494659423828 4.064259529114
-156.067520141602 -64.394004821777 -224.778594970703 3.633049488068
-142.035354614258 -70.219345092773 -227.810028076172 2.431655883789
-134.333572387695 -59.684116363525 -230.392547607422 3.734464883804
-123.733932495117 -67.174674987793 -220.360656738281 4.779180049896
-143.118698120117 -67.333106994629 -232.741302490234 1.546701192856
-154.670150756836 -66.520477294922 -227.751968383789 2.796671152115
-136.264846801758 -66.102615356445 -228.628952026367 1.583824634552
-136.168685913086 -61.400146484375 -230.875122070313 3.137733459473
-149.865325927734 -63.668632507324 -231.619308471680 1.850988030434
-138.382583618164 -56.966976165771 -231.120697021484 6.112312793732
-131.578567504883 -63.812824249268 -234.626983642578 2.914079666138
-14.979867935181 -67.633903503418 -237.290725708008 2.852940320969
2.917599916458 -64.061325073242 -241.603927612305 2.382228612900
11.868135452271 -59.540523529053 -243.187484741211 1.587878346443
6.936584949493 -68.688529968262 -243.307052612305 1.714568257332
-10.083938598633 -68.821540832520 -237.896469116211 2.437087297440
-15.671489715576 -66.147018432617 -246.761138916016 3.077002525330
33.553474426270 -63.935775756836 -248.462280273438 5.342930316925
44.740768432617 -65.011085510254 -252.797866821289 1.963610887527
-149.278594970703 -63.699069976807 -256.866546630859 1.935970067978
40.312156677246 -63.284267425537 -253.490356445313 2.510560750961
37.685241699219 -67.312713623047 -252.728408813477 0.647651016712
-161.999923706055 -69.903335571289 -259.445831298828 1.515570282936
-152.612258911133 -64.999229431152 -259.466857910156 1.849150538445
-154.582824707031 -67.364341735840 -261.719970703125 2.589147329330
0.919128000736 -67.470306396484 -262.957122802734 2.105688333511
-152.734085083008 -65.914787292480 -270.323455810547 3.237555027008
-2.593811035156 -66.044151306152 -273.873382568359 2.940235376358
-147.747390747070 -68.303413391113 -278.096618652344 3.084553003311
-149.677124023438 -65.629508972168 -283.851837158203 1.888427376747
-152.527542114258 -64.812263488770 -289.584289550781 1.137119174004
-151.570983886719 -55.416603088379 -285.933197021484 6.945133686066
-147.308654785156 -62.645584106445 -294.978057861328 1.703403353691
-156.624481201172 -63.890933990479 -287.810333251953 1.451685786247
-152.909835815430 -65.544136047363 -289.133728027344 1.467321395874
-154.457122802734 -61.011199951172 -291.037567138672 2.999291181564
-149.718078613281 -64.181724548340 -291.313537597656 1.281616330147
-145.855087280273 -64.685035705566 -289.671081542969 2.223785877228
8.655552864075 -67.483345031738 -282.516052246094 6.246719360352
-147.916992187500 -63.981807708740 -298.279449462891 2.723555564880
-159.596435546875 -59.823677062988 -295.639617919922 6.885013580322
-158.490447998047 -58.232479095459 -291.120666503906 6.439002037048
-151.314743041992 -62.047122955322 -295.809875488281 2.089865922928
-149.401748657227 -56.743629455566 -290.731536865234 6.015803813934
-148.431350708008 -67.205734252930 -294.999084472656 2.069041967392
4.815717220306 -67.792556762695 -292.142425537109 1.760690331459
-145.256042480469 -61.240203857422 -297.537750244141 4.175473213196
-149.613998413086 -60.498088836670 -295.605102539063 2.081118106842
22.479413986206 -59.145015716553 -14.119739532471 1.987207770348
36.136512756348 -70.808166503906 -20.286582946777 3.091803312302
35.987079620361 -62.599166870117 -20.279251098633 2.283967733383
9.668132781982 -69.888763427734 -31.413026809692 10.284518241882
18.436471939087 -55.605777740479 -34.557201385498 3.645851850510
30.158304214478 -65.007545471191 -35.547489166260 2.551032066345
-61.813461303711 -63.314464569092 -46.309276580811 3.778279066086
-56.730606079102 -64.477516174316 -41.911518096924 1.953337550163
84.858573913574 -65.780662536621 -64.183891296387 2.015294075012
-101.043701171875 -62.381450653076 -67.212501525879 3.066492319107
91.307746887207 -76.022254943848 -59.153289794922 9.051180839539
62.752281188965 -67.980354309082 -69.997985839844 4.800788402557
93.531478881836 -68.197204589844 -76.619987487793 5.018972873688
57.234779357910 -71.387756347656 -75.188957214355 9.594510078430
-47.971343994141 -64.974121093750 -78.394638061523 4.446063995361
53.952659606934 -62.788074493408 -80.720222473145 6.261435985565
-56.318496704102 -61.360469818115 -78.044776916504 1.767987847328
50.488368988037 -65.121131896973 -82.064651489258 5.915167331696
57.603897094727 -61.575229644775 -85.058059692383 2.495620250702
-103.785095214844 -63.715892791748 -86.141456604004 4.543875694275
46.091037750244 -63.477691650391 -83.184196472168 8.877720832825
46.492221832275 -71.196289062500 -92.091407775879 2.405312776566
60.224945068359 -66.559539794922 -90.396003723145 3.169993877411
46.950275421143 -64.477073669434 -95.544715881348 2.663787841797
-85.476974487305 -62.436241149902 -108.338401794434 3.010865211487
77.629005432129 -70.234313964844 -104.486953735352 0.401722788811
-87.759254455566 -68.792930603027 -121.255722045898 2.926211357117
-82.355087280273 -62.143474578857 -106.450988769531 2.284596204758
-84.367324829102 -65.493278503418 -125.135688781738 2.256056308746
-89.886291503906 -62.904445648193 -117.894470214844 1.675322175026
-100.044097900391 -59.770771026611 -121.506500244141 2.027570962906
-86.270973205566 -65.463562011719 -122.584472656250 1.804005861282
-55.667106628418 -62.779537200928 -125.463935852051 0.904700279236
-82.734649658203 -61.471908569336 -136.721267700195 5.175476074219
-61.518383026123 -58.879077911377 -130.000747680664 1.461728096008
-92.928176879883 -60.987178802490 -138.882034301758 0.865416347980
25.272912979126 -64.267196655273 -137.337203979492 2.484558582306
15.082276344299 -64.988105773926 -140.584396362305 2.651725292206
-98.550209045410 -53.139789581299 -145.860656738281 10.052807807922
17.855552673340 -67.314445495605 -147.694931030273 1.701059818268
-93.984840393066 -67.350921630859 -148.833450317383 2.134608268738
-98.618087768555 -58.767669677734 -149.425216674805 4.585592746735
14.394475936890 -65.509140014648 -161.387619018555 4.847135066986
-100.441711425781 -62.914173126221 -149.866989135742 2.390656471252
-103.320755004883 -61.390201568604 -148.375976562500 5.019417285919
-108.278167724609 -62.803485870361 -157.351608276367 5.613163948059
-98.318794250488 -63.691867828369 -164.045852661133 2.822223901749
-106.738723754883 -67.004623413086 -182.024215698242 2.094283819199
-113.867141723633 -70.997306823730 -171.585342407227 5.587470054626
-101.297264099121 -65.033668518066 -167.173461914063 1.897771477699
-108.685821533203 -65.004188537598 -169.796127319336 2.954217910767
-143.850982666016 -64.616470336914 -181.527938842773 2.976599216461
-115.023788452148 -63.536201477051 -179.806076049805 4.810117721558
-143.585052490234 -63.625514984131 -190.471420288086 2.628235816956
-151.823974609375 -59.360565185547 -193.902160644531 2.230040311813
-158.029464721680 -57.825862884521 -190.829406738281 7.359156131744
-125.052558898926 -60.741207122803 -198.917465209961 1.814614892006
-131.793640136719 -67.755401611328 -196.279129028320 2.095005750656
-125.277137756348 -60.929298400879 -203.591720581055 1.950550436974
-147.465835571289 -65.996864318848 -204.166168212891 2.682917118073
-126.295227050781 -67.494125366211 -205.853485107422 2.472429275513
-150.097732543945 -63.923320770264 -206.118637084961 1.539538383484
-155.248046875000 -62.842983245850 -208.219039916992 4.378535270691
-157.105895996094 -61.392993927002 -229.732604980469 2.867634296417
-146.066040039063 -69.646148681641 -234.345397949219 1.856003165245
-130.879669189453 -60.594985961914 -233.762405395508 5.344284057617
-155.681838989258 -61.606533050537 -232.677017211914 1.650906920433
-5.148197174072 -69.914840698242 -239.626205444336 1.131318092346
9.450861930847 -61.303180694580 -237.687271118164 3.576209068298
-3.717283964157 -68.833801269531 -243.530334472656 4.217715740204
-153.289627075195 -61.878494262695 -247.782623291016 4.370620250702
-10.918273925781 -62.250240325928 -241.459533691406 4.555574417114
-155.523498535156 -69.067405700684 -256.562866210938 0.666383266449
-9.261196136475 -69.871238708496 -250.115402221680 2.638593435287
-150.608367919922 -65.583480834961 -257.391418457031 1.663135290146
18.563282012939 -65.933784484863 -251.147903442383 4.106731414795
-154.084945678711 -57.950889587402 -258.242919921875 5.248123645782
-151.814971923828 -62.915710449219 -258.341491699219 0.968942999840
-153.703292846680 -62.795036315918 -256.942443847656 0.888237297535
-151.352874755859 -61.707485198975 -261.278625488281 1.542925357819
30.616523742676 -65.301673889160 -258.679962158203 1.585745215416
29.819067001343 -64.630180358887 -263.838531494141 1.654853343964
-147.422409057617 -63.492061614990 -257.249389648438 1.374353051186
-154.231842041016 -57.669822692871 -262.546295166016 4.385998725891
-155.635620117188 -67.229652404785 -262.761505126953 2.203831672668
-148.804397583008 -60.371971130371 -261.523559570313 0.607984721661
25.627677917480 -63.241447448730 -262.104675292969 1.425225019455
27.634309768677 -63.847732543945 -266.456146240234 2.561442613602
-158.108428955078 -64.598922729492 -265.481018066406 4.166295051575
-145.444076538086 -62.502490997314 -266.387817382813 2.091496229172
-150.283950805664 -59.001083374023 -265.441162109375 3.657973527908
-145.414657592773 -62.362609863281 -267.915405273438 3.004955291748
-145.312332153320 -66.206581115723 -265.187042236328 2.477743387222
-146.887634277344 -68.836311340332 -268.527343750000 3.196480512619
-150.059936523438 -60.403522491455 -269.323760986328 4.331074714661
-151.591201782227 -58.553306579590 -289.580322265625 3.592736721039
-147.990798950195 -62.636264801025 -284.962738037109 0.914733707905
-149.341278076172 -63.233512878418 -281.601226806641 1.107210874557
14.981680870056 -63.917743682861 -281.060668945313 4.510506629944
-155.573043823242 -58.670757293701 -288.801483154297 4.715219974518
-148.127731323242 -61.736682891846 -293.164428710938 1.686806917191
-7.404769897461 -71.835784912109 -286.648498535156 1.755069017410
3.640566110611 -63.429988861084 -291.812255859375 0.718358397484
-154.316345214844 -63.246124267578 -297.207672119141 4.189907073975
20.433656692505 -71.357704162598 -20.829689025879 1.690896391869
39.861236572266 -65.945449829102 -26.867313385010 4.069963455200
43.542209625244 -70.761550903320 -31.844768524170 1.057165265083
33.802433013916 -60.502956390381 -35.958377838135 1.262017965317
19.651243209839 -72.457557678223 -36.465686798096 3.307157516479
39.193225860596 -67.921318054199 -39.971775054932 2.766304969788
72.916893005371 -61.293834686279 -61.719005584717 0.962821483612
71.575355529785 -65.046936035156 -61.579750061035 1.828139066696
-24.229320526123 -64.406730651855 -71.265449523926 2.199443578720
62.546432495117 -61.658561706543 -70.011695861816 3.333272933960
-33.191070556641 -66.096267700195 -72.593429565430 4.515532970428
-41.685325622559 -69.678848266602 -81.496047973633 2.344594001770
-63.288887023926 -62.569046020508 -76.275535583496 6.950746059418
-61.342590332031 -59.993415832520 -79.980308532715 2.409939527512
58.006496429443 -70.358215332031 -80.749114990234 4.068189620972
103.451095581055 -69.875679016113 -88.761932373047 1.860262036324
-64.817932128906 -60.093757629395 -86.579429626465 2.624039173126
53.115703582764 -64.746292114258 -95.020553588867 0.662025570869
60.376487731934 -62.796688079834 -93.845062255859 1.515294551849
98.498229980469 -63.499542236328 -91.730400085449 5.876642704010
-70.942138671875 -67.826454162598 -94.304336547852 5.012959003448
50.059764862061 -59.736637115479 -94.871383666992 3.613449573517
-67.880523681641 -67.795204162598 -106.085784912109 3.115301609039
63.362819671631 -64.579231262207 -94.352142333984 2.231111526489
61.961822509766 -64.369117736816 -102.119918823242 5.303331375122
-81.028747558594 -61.217975616455 -110.403907775879 1.241173148155
-101.708992004395 -61.069278717041 -115.260490417480 4.342646121979
-74.620941162109 -56.663288116455 -113.751052856445 1.778306245804
-88.443397521973 -64.582084655762 -112.967483520508 2.016478538513
-66.004257202148 -66.193191528320 -116.912277221680 1.884153485298
-88.658332824707 -60.597251892090 -109.249580383301 5.184811115265
-79.502838134766 -64.308120727539 -115.719360351563 1.187380909920
-81.590705871582 -66.457389831543 -115.873344421387 2.693456411362
-74.371887207031 -67.041786193848 -120.704467773438 2.635460615158
-90.106727600098 -66.181159973145 -128.751098632813 1.938572764397
30.618675231934 -64.143989562988 -128.314208984375 2.866124391556
-52.469383239746 -63.036750793457 -131.337142944336 2.454062700272
28.677440643311 -63.257041931152 -135.394302368164 1.534648060799
26.380496978760 -64.781898498535 -131.286453247070 2.506717920303
25.186866760254 -68.024520874023 -130.325195312500 4.813784122467
-58.698158264160 -60.811737060547 -130.656051635742 2.009508132935
17.863525390625 -64.556411743164 -145.602661132813 1.606814146042
18.213249206543 -64.817321777344 -143.957199096680 2.457656145096
-149.361099243164 -64.882194519043 -180.375091552734 2.500258684158
-154.506210327148 -57.985374450684 -177.649810791016 5.617119789124
-156.001968383789 -62.108253479004 -186.161453247070 4.610500812531
-149.853317260742 -59.574653625488 -187.182022094727 3.045071125031
-153.256744384766 -64.019660949707 -197.776779174805 1.649377703667
-153.968200683594 -65.292091369629 -196.111175537109 2.681324958801
-142.063262939453 -64.561157226563 -195.485916137695 2.121274232864
-146.275650024414 -60.140563964844 -204.007797241211 1.030485391617
-123.787628173828 -66.650497436523 -202.441513061523 1.809238791466
-137.932113647461 -64.463943481445 -207.768478393555 5.826967716217
-151.551528930664 -64.796760559082 -217.914260864258 3.940014123917
-148.815841674805 -54.749324798584 -224.084335327148 6.001060962677
-154.153533935547 -61.853088378906 -230.494674682617 1.317338347435
-148.382369995117 -63.744300842285 -231.564407348633 1.736353516579
-153.172073364258 -61.852565765381 -232.528289794922 1.135864257813
-152.718795776367 -58.110679626465 -229.401168823242 3.362473249435
-148.780532836914 -63.929172515869 -234.594421386719 1.389986395836
-147.492874145508 -63.987396240234 -235.474441528320 1.393329501152
-143.884094238281 -60.373340606689 -241.414199829102 3.705905199051
-148.890548706055 -64.738792419434 -230.564132690430 1.784421563148
-157.821914672852 -61.314990997314 -237.118408203125 5.029254436493
9.572204589844 -62.094757080078 -239.375198364258 2.667405366898
-10.187292098999 -68.571289062500 -241.364349365234 1.327034950256
-147.054138183594 -58.924430847168 -246.369018554688 3.372568845749
-155.136276245117 -63.170734405518 -240.335784912109 4.214107036591
-156.811630249023 -65.149536132813 -243.861755371094 3.733024120331
6.075715065002 -65.437606811523 -242.150177001953 2.523542642593
-151.695663452148 -60.621315002441 -240.037078857422 2.786942243576
-151.266601562500 -66.869895935059 -255.939529418945 2.134268283844
-6.659627914429 -64.993156433105 -248.544509887695 2.918572425842
-148.908843994141 -61.748729705811 -254.201492309570 0.798857569695
-144.130416870117 -61.429016113281 -257.485717773438 0.592109322548
-142.670013427734 -62.838893890381 -259.028533935547 0.804958462715
-144.934936523438 -62.239822387695 -257.541656494141 0.584575295448
27.511339187622 -68.043144226074 -263.048950195313 0.711040258408
-151.117370605469 -67.375663757324 -266.471405029297 1.020132780075
27.475406646729 -65.421485900879 -272.094879150391 2.776187658310
12.535342216492 -62.012001037598 -288.225402832031 1.885461091995
0.844578027725 -63.303573608398 -286.660736083984 2.100224494934
8.864213943481 -60.907142639160 -294.151519775391 2.094307661057
25.623445510864 -64.197853088379 -20.427434921265 3.432161808014
35.611335754395 -74.186515808105 -37.411106109619 1.544128656387
31.064317703247 -72.550529479980 -37.772773742676 2.332251071930
-50.087173461914 -62.532310485840 -48.317035675049 3.382851123810
-97.130851745605 -64.731101989746 -58.507099151611 4.644163131714
-100.316123962402 -63.471664428711 -62.575225830078 4.851624488831
-28.111909866333 -61.456108093262 -67.357864379883 2.367335557938
96.170402526855 -66.194633483887 -65.559326171875 1.519884347916
102.223121643066 -62.926109313965 -72.311363220215 1.281960964203
101.080482482910 -65.463417053223 -74.072669982910 1.764324307442
-54.560798645020 -64.646614074707 -83.875259399414 0.271878778934
-67.525596618652 -61.008949279785 -86.117958068848 4.976651191711
53.192230224609 -63.390430450439 -88.138282775879 2.407088756561
48.974281311035 -68.728454589844 -90.021667480469 1.966193795204
-64.483642578125 -68.167518615723 -98.224884033203 1.598685026169
-99.627891540527 -58.079933166504 -110.554939270020 3.792253494263
70.942352294922 -63.047374725342 -107.317855834961 1.794028520584
-85.560562133789 -61.438293457031 -108.017250061035 3.548315525055
-72.607711791992 -65.198295593262 -108.641807556152 1.887527585030
-84.030006408691 -67.717941284180 -116.055969238281 1.604551672935
-88.633361816406 -54.473613739014 -118.147323608398 2.206576585770
-87.693878173828 -63.714031219482 -117.920318603516 1.433933734894
-74.645286560059 -52.806465148926 -121.778396606445 7.155670642853
-71.628730773926 -61.224933624268 -117.045433044434 3.319176912308
-86.462417602539 -55.863079071045 -119.024543762207 0.741509914398
-80.055030822754 -62.197738647461 -118.020759582520 1.652121901512
-66.188293457031 -60.996070861816 -120.429771423340 1.004278898239
-88.987846374512 -61.474246978760 -118.839035034180 2.397712230682
-78.813095092773 -62.900177001953 -120.987541198730 1.219565749168
-77.572830200195 -60.192157745361 -131.338058471680 3.119378566742
-85.448753356934 -62.201522827148 -130.211425781250 2.020753860474
22.251359939575 -61.455642700195 -121.738357543945 10.568373680115
-62.856971740723 -59.768135070801 -134.292404174805 1.752449154854
23.851905822754 -64.359893798828 -133.595458984375 1.643676757813
17.862817764282 -68.651466369629 -140.054321289063 3.615704059601
-145.895034790039 -63.428230285645 -197.427520751953 2.057097673416
-138.254211425781 -63.024425506592 -200.756378173828 2.192317724228
