-138.335220336914 -71.054756164551 -201.145019531250 1.990982770920
-22.449174880981 -65.848579406738 -205.267120361328 3.426154851913
-13.189411163330 -69.290870666504 -202.990814208984 2.053092718124
-14.763686180115 -69.679634094238 -203.534149169922 0.989121496677
-139.694396972656 -72.536071777344 -196.928314208984 2.375911474228
-18.298414230347 -68.018768310547 -210.455551147461 2.487588405609
-10.400082588196 -74.190475463867 -212.370895385742 2.655112743378
17.005968093872 -64.756004333496 -209.832138061523 2.829073905945
-17.837493896484 -73.708656311035 -209.358261108398 1.839610099792
9.362273216248 -69.639381408691 -207.609542846680 0.912559986115
-12.188034057617 -69.911262512207 -212.992706298828 2.949141502380
-24.095212936401 -64.192741394043 -209.050598144531 6.002091407776
10.466602325439 -75.366035461426 -219.196517944336 1.519898295403
-3.651218891144 -74.969375610352 -217.260131835938 1.055239796638
9.873885154724 -63.592350006104 -218.939834594727 5.057780742645
-8.015062332153 -71.605300903320 -226.089019775391 0.975147426128
-161.677261352539 -68.833679199219 -219.953598022461 2.047875404358
79.244926452637 -72.168022155762 -220.141921997070 2.956619262695
-137.022583007813 -64.825042724609 -218.040420532227 7.584862709045
-136.571838378906 -70.351020812988 -216.105163574219 7.836841106415
-9.487874984741 -69.263633728027 -222.988113403320 2.085874319077
5.123280048370 -67.896484375000 -233.490951538086 1.791098356247
-159.676559448242 -67.230361938477 -224.606430053711 0.917548358440
88.033531188965 -66.958633422852 -220.795562744141 2.915594816208
-3.103301048279 -66.710311889648 -224.430801391602 1.394735455513
-0.614669978619 -69.039100646973 -219.648025512695 2.079167604446
72.311737060547 -72.510139465332 -231.070098876953 1.708932280540
-1.469921946526 -65.089065551758 -234.265365600586 2.497250556946
-15.334996223450 -70.028648376465 -222.892425537109 1.016364574432
-129.068374633789 -64.150680541992 -228.282089233398 1.596710681915
-6.997259140015 -67.889099121094 -235.808074951172 1.604835271835
0.949060976505 -65.551803588867 -228.621276855469 2.831546545029
64.283164978027 -65.542762756348 -238.113311767578 1.219111084938
-159.869064331055 -70.037086486816 -230.966384887695 2.986501693726
-15.283512115479 -66.450958251953 -243.164535522461 4.300905227661
-171.984512329102 -70.759956359863 -232.295837402344 4.514578819275
8.545157432556 -63.414520263672 -239.912673950195 2.077623844147
-165.525451660156 -69.250808715820 -232.248046875000 1.431267499924
-162.222229003906 -69.735671997070 -240.534500122070 2.636770963669
55.866298675537 -69.236396789551 -244.722091674805 0.872688949108
59.146430969238 -71.107612609863 -242.096694946289 1.770791172981
53.483219146729 -69.734909057617 -245.353744506836 1.078655600548
49.222400665283 -68.632148742676 -248.934432983398 1.400069952011
-155.359298706055 -69.226127624512 -236.831573486328 1.244163393974
-158.356018066406 -63.540081024170 -240.585876464844 3.188621520996
-14.900391578674 -73.136398315430 -247.204986572266 2.556878566742
-152.926116943359 -66.823165893555 -241.168899536133 3.277140855789
16.007183074951 -69.016944885254 -249.725845336914 3.375309705734
-173.303421020508 -74.163726806641 -244.677215576172 7.833993911743
-170.953277587891 -65.460678100586 -243.409713745117 5.262906074524
-84.339981079102 -70.284530639648 -243.229202270508 6.513652801514
-172.985183715820 -66.433448791504 -251.542495727539 6.747228145599
-87.647720336914 -67.562873840332 -253.700973510742 1.419831275940
40.520900726318 -67.342376708984 -252.950698852539 0.511325716972
19.298767089844 -72.073463439941 -255.854980468750 3.669972658157
-160.690200805664 -68.934776306152 -256.754333496094 2.541885375977
-103.684516906738 -60.080898284912 -255.247375488281 5.974824428558
37.342639923096 -68.254974365234 -254.142196655273 2.008554220200
-109.316276550293 -76.818046569824 -253.536224365234 5.639271259308
-156.315185546875 -63.602794647217 -259.637969970703 1.343565583229
-106.564331054688 -66.809402465820 -252.192352294922 3.127790689468
-171.705642700195 -70.767189025879 -252.834533691406 3.772813796997
-115.866470336914 -68.723197937012 -258.855285644531 1.793682694435
-156.337402343750 -70.224311828613 -260.057891845703 0.959028601646
-161.951263427734 -64.465751647949 -256.527008056641 4.670077800751
-168.405639648438 -66.511596679688 -257.313385009766 3.894071340561
-167.812240600586 -65.526176452637 -255.786239624023 5.202024459839
-168.487319946289 -67.601478576660 -258.128173828125 2.705280303955
-170.872543334961 -68.463088989258 -253.701995849609 3.368867397308
23.783937454224 -69.894821166992 -264.504028320313 1.588201284409
-150.983398437500 -72.811714172363 -256.774597167969 1.036249518394
-154.646835327148 -67.390113830566 -279.012451171875 3.730308532715
24.485784530640 -68.487602233887 -274.668426513672 2.841268777847
-15.345686912537 -71.286285400391 -272.442382812500 1.883956909180
-128.639404296875 -65.018112182617 -279.406951904297 7.677194595337
-139.793823242188 -67.970787048340 -280.770080566406 5.059823989868
-137.166107177734 -66.883735656738 -283.788391113281 3.194070339203
-131.343978881836 -67.945098876953 -280.423645019531 4.866073131561
-116.662216186523 -66.223747253418 -286.695343017578 3.230133295059
-107.537506103516 -62.985820770264 -279.508087158203 9.758163452148
4.268499851227 -72.336410522461 -293.060211181641 0.778980016708
-87.935798645020 -69.134544372559 -286.476898193359 2.477026462555
-152.166213989258 -68.206207275391 -280.745056152344 1.103482365608
-105.875816345215 -68.680908203125 -286.346099853516 2.052159786224
-135.626495361328 -64.809799194336 -286.882690429688 2.655003070831
6.525889873505 -70.741050720215 -286.048095703125 2.760375499725
-114.489105224609 -60.225749969482 -282.471923828125 9.911838531494
0.559212028980 -68.657112121582 -292.141540527344 1.671864986420
-146.629714965820 -67.197090148926 -281.054656982422 1.421082615852
-156.107254028320 -67.690834045410 -289.140625000000 2.759079933167
-163.539184570313 -66.195083618164 -310.047454833984 7.708513736725
-159.979461669922 -65.347137451172 -304.977020263672 7.283397197723
51.234432220459 -72.155250549316 -24.460706710815 1.823313832283
28.897743225098 -68.313880920410 -35.842800140381 2.589401960373
33.419887542725 -69.798591613770 -35.545940399170 1.901338458061
-38.668819427490 -71.432479858398 -44.200492858887 5.261778831482
-7.649672031403 -65.689407348633 -60.807430267334 2.055355310440
98.083610534668 -69.787940979004 -68.944938659668 2.376527786255
71.615142822266 -62.819477081299 -69.106269836426 3.474542379379
-22.092327117920 -67.253471374512 -71.698295593262 1.430858612061
-97.376312255859 -72.519996643066 -83.371070861816 3.019093513489
-39.976451873779 -67.718673706055 -81.929626464844 3.766837596893
61.566577911377 -68.284622192383 -80.269149780273 3.167462825775
67.163757324219 -72.223564147949 -84.999610900879 2.171946287155
54.470737457275 -65.676155090332 -87.410369873047 0.875015437603
-56.788787841797 -66.893669128418 -87.199562072754 3.303987264633
70.004333496094 -63.464103698730 -89.373321533203 4.371264934540
45.242221832275 -72.918334960938 -97.960700988770 0.859331667423
71.545272827148 -71.432022094727 -95.252441406250 0.823083460331
-58.273910522461 -65.883857727051 -92.937278747559 3.832607507706
53.622791290283 -70.691398620605 -91.580215454102 1.413699984550
48.904754638672 -71.351448059082 -97.699523925781 1.823944091797
105.433380126953 -64.823265075684 -103.536804199219 2.659578323364
-62.933727264404 -67.733787536621 -94.622116088867 2.462498664856
113.731597900391 -68.198570251465 -101.288322448730 4.626743316650
-76.800933837891 -71.391128540039 -97.480064392090 1.590521097183
55.848091125488 -71.683197021484 -106.267478942871 2.471871614456
50.380531311035 -66.668762207031 -100.800094604492 1.554766774178
93.159919738770 -64.655723571777 -105.055252075195 2.510692834854
85.461860656738 -68.740303039551 -106.740722656250 0.826017677784
58.432235717773 -69.479377746582 -104.859519958496 3.069704055786
-75.027976989746 -68.561759948730 -108.099159240723 1.405538797379
-76.400962829590 -67.135093688965 -112.632926940918 1.283971190453
-79.324203491211 -68.800041198730 -113.660705566406 0.678991615772
-92.207824707031 -74.046455383301 -113.047500610352 1.569510340691
104.905464172363 -61.743904113770 -118.648468017578 6.356529235840
-88.548210144043 -71.069404602051 -113.970252990723 1.489727735519
-73.761016845703 -62.653396606445 -117.566665649414 3.157056093216
110.738960266113 -67.712112426758 -118.059448242188 3.243146419525
-58.276489257813 -58.332664489746 -113.670806884766 0.988433659077
114.601356506348 -73.932113647461 -133.110229492188 2.498405218124
111.247825622559 -71.030204772949 -131.130737304688 1.637642621994
106.902160644531 -70.891593933105 -128.892395019531 2.623826265335
-92.607360839844 -68.312759399414 -132.345077514648 2.276633262634
-44.725013732910 -67.824661254883 -138.686279296875 3.505172729492
-80.023536682129 -64.228523254395 -139.359924316406 2.580286979675
-68.534538269043 -67.458114624023 -144.523834228516 2.504185914993
-68.088096618652 -66.366958618164 -145.456451416016 2.710386514664
-54.084117889404 -67.045051574707 -140.292114257813 1.442126154900
-45.145248413086 -73.290603637695 -141.219955444336 2.051826000214
14.720235824585 -68.291152954102 -145.888916015625 1.958915114403
-92.768714904785 -62.776634216309 -136.676727294922 2.385582208633
-45.494525909424 -65.844146728516 -143.188674926758 1.380967855453
-50.306182861328 -58.806934356689 -143.352035522461 6.504092693329
-41.818164825439 -65.144355773926 -151.101303100586 4.495620250702
27.299325942993 -71.192016601563 -159.556152343750 2.370061874390
-50.205253601074 -69.133773803711 -148.226715087891 1.105058550835
-101.322433471680 -61.281024932861 -143.493408203125 5.918000698090
-46.687503814697 -63.634357452393 -151.819274902344 4.954413890839
26.099800109863 -71.667686462402 -144.930389404297 1.214345097542
-95.945251464844 -74.960220336914 -158.949874877930 6.600034713745
23.457439422607 -71.233543395996 -156.811172485352 1.896180391312
-107.951713562012 -63.133365631104 -163.694931030273 3.462780475616
-101.245849609375 -67.924842834473 -159.074935913086 0.694096088409
22.245578765869 -68.433448791504 -164.963867187500 2.007660388947
26.691236495972 -66.055778503418 -166.355056762695 3.451814889908
-110.500198364258 -70.556205749512 -167.973663330078 4.924241065979
-142.368865966797 -63.648502349854 -167.288970947266 7.529806137085
-18.869068145752 -68.430725097656 -188.117568969727 3.417165994644
-27.800844192505 -66.744575500488 -177.763839721680 2.823492288589
-117.249084472656 -69.233200073242 -181.394927978516 5.694035530090
-144.005187988281 -62.214942932129 -179.892807006836 1.870427131653
-101.882186889648 -63.485366821289 -176.291061401367 2.551687955856
-159.911483764648 -67.243888854980 -182.263961791992 7.340641498566
-131.711105346680 -72.862907409668 -189.674194335938 6.026320934296
-133.571014404297 -70.073951721191 -190.467483520508 4.451258659363
-19.759523391724 -65.786094665527 -185.031555175781 5.182336330414
-119.701629638672 -68.055778503418 -193.730056762695 2.518989801407
-119.194091796875 -62.562149047852 -194.783767700195 4.120842456818
-29.057279586792 -70.944396972656 -190.256515502930 1.883064389229
-154.897293090820 -63.851779937744 -189.194915771484 3.616757869720
-133.554901123047 -68.542884826660 -199.130538940430 3.085156679153
-125.754112243652 -64.052833557129 -198.156677246094 1.842208623886
17.718288421631 -71.606697082520 -200.414321899414 2.176493644714
-163.259094238281 -67.300827026367 -195.220352172852 3.227230787277
11.733481407166 -65.852661132813 -215.192428588867 2.759043693542
13.143124580383 -69.774429321289 -213.852905273438 1.280975580215
-16.571554183960 -62.857982635498 -207.892486572266 4.765321731567
-6.195106029510 -67.785140991211 -214.695602416992 2.320202350616
-173.190139770508 -63.248241424561 -203.822998046875 7.746304512024
-160.369308471680 -61.797134399414 -205.694366455078 5.643127918243
-96.161506652832 -66.527687072754 -214.242935180664 3.749250411987
-98.256584167480 -69.752853393555 -216.736968994141 1.408403635025
-162.432723999023 -68.302627563477 -220.001785278320 2.431651115417
-109.997985839844 -64.174591064453 -213.816619873047 9.129877090454
-12.819895744324 -65.650413513184 -209.642593383789 2.007784128189
-129.580017089844 -69.278831481934 -215.617996215820 8.571807861328
-144.447280883789 -67.312324523926 -216.918121337891 1.463485836983
-4.569122791290 -70.484542846680 -219.290786743164 1.356283903122
-135.645141601563 -64.667564392090 -218.264526367188 7.051355838776
-125.045486450195 -72.421974182129 -216.532577514648 7.988602161407
-115.752120971680 -70.687767028809 -218.511917114258 6.602036476135
-3.026895999908 -60.531185150146 -227.182723999023 6.660656452179
-109.260925292969 -64.425865173340 -226.688339233398 1.958103775978
-162.935470581055 -59.495304107666 -215.880645751953 6.698962211609
-147.296157836914 -66.101875305176 -220.020980834961 1.685702085495
-166.427307128906 -66.227745056152 -219.025650024414 2.942605018616
-9.781021118164 -65.739715576172 -223.388061523438 3.899660348892
-9.896098136902 -68.291694641113 -231.428344726563 1.755257368088
76.867614746094 -71.739753723145 -225.497909545898 0.563956320286
-2.949919939041 -70.841903686523 -227.020812988281 1.472849369049
-145.143402099609 -66.759216308594 -231.850158691406 2.696618080139
-16.212524414063 -65.025146484375 -227.119873046875 4.020708560944
72.311599731445 -68.768959045410 -227.898941040039 0.572511136532
72.322563171387 -68.808845520020 -233.502716064453 2.084882259369
-136.099700927734 -64.838714599609 -226.078842163086 1.827122449875
-157.942657470703 -71.298904418945 -221.948577880859 3.161688327789
-115.567848205566 -64.701713562012 -227.606338500977 1.824449181557
-127.141723632813 -61.199218750000 -230.925842285156 3.531795501709
-164.546539306641 -65.179214477539 -228.453369140625 2.206974983215
-162.660400390625 -67.641677856445 -228.807144165039 3.728348016739
-149.609893798828 -60.859924316406 -226.621566772461 1.261542558670
-16.610052108765 -65.028976440430 -232.153793334961 5.098019123077
-7.892831802368 -66.262138366699 -239.880310058594 1.578123211861
-162.365142822266 -65.242996215820 -235.814956665039 1.653910279274
3.729728937149 -68.425987243652 -235.401916503906 1.175925612450
-0.979992985725 -69.262321472168 -236.157516479492 1.583957076073
-161.111404418945 -66.379959106445 -230.905075073242 2.863253355026
16.197925567627 -73.029350280762 -239.400054931641 1.450857639313
48.692157745361 -71.087615966797 -245.738616943359 2.304315567017
47.068580627441 -71.814765930176 -243.263183593750 3.116186141968
-19.336959838867 -68.692649841309 -244.776382446289 3.774708747864
45.105243682861 -66.854164123535 -249.258102416992 1.776957035065
-162.328765869141 -61.892482757568 -242.380889892578 5.669872283936
-159.275329589844 -67.348457336426 -240.209960937500 1.204776048660
-163.441848754883 -72.194068908691 -242.641220092773 3.591502666473
53.464870452881 -67.278663635254 -247.347442626953 1.663247108459
-96.116256713867 -65.452575683594 -248.088821411133 3.989600181580
-126.811012268066 -65.183990478516 -249.085113525391 5.328826427460
-108.748542785645 -72.681983947754 -247.699707031250 8.397856712341
22.322517395020 -73.107467651367 -256.476715087891 0.444064140320
37.426403045654 -65.059928894043 -250.804748535156 1.463010311127
-103.078964233398 -63.704055786133 -249.723220825195 5.969082832336
-95.535026550293 -61.516391754150 -244.804519653320 8.470898628235
42.999919891357 -73.668403625488 -254.918548583984 3.366088867188
38.416713714600 -65.650566101074 -256.429016113281 1.873382568359
-156.992050170898 -73.064689636230 -250.979629516602 2.763885736465
26.082304000854 -67.977508544922 -258.973327636719 1.551500082016
-146.453750610352 -69.805519104004 -258.771759033203 1.032477736473
-115.614311218262 -66.749664306641 -257.450805664063 1.719787716866
-140.905181884766 -63.987705230713 -256.026885986328 1.569595456123
29.858087539673 -66.881278991699 -261.965118408203 0.639475882053
-129.110260009766 -65.449241638184 -257.138946533203 1.473711729050
-14.190711975098 -65.824066162109 -254.399002075195 3.125693559647
17.131980895996 -71.606628417969 -269.856231689453 5.433035850525
-7.158958911896 -74.370475769043 -262.255249023438 5.543912887573
15.616338729858 -70.534942626953 -279.031921386719 3.633571147919
-157.949508666992 -69.816246032715 -275.894775390625 3.222362995148
-15.150165557861 -65.238891601563 -278.549591064453 5.840012073517
-156.130508422852 -70.679832458496 -275.171691894531 2.910564422607
-126.138359069824 -70.211921691895 -279.341094970703 5.503355026245
-166.960510253906 -74.154342651367 -279.296173095703 2.096256017685
-118.755874633789 -66.549720764160 -281.466400146484 7.084547042847
-107.448715209961 -67.770362854004 -285.110534667969 3.016361713409
-10.644225120544 -65.685630798340 -282.328826904297 3.490211009979
-111.508865356445 -69.273353576660 -283.161834716797 4.731657028198
-120.537528991699 -64.314414978027 -277.845703125000 10.297955513000
-126.436355590820 -62.879528045654 -286.212677001953 3.477243900299
-143.324905395508 -67.137390136719 -283.931488037109 2.084453105927
-130.937957763672 -62.616832733154 -285.170074462891 4.278566360474
-162.365219116211 -72.754997253418 -282.706604003906 3.963847160339
-151.065261840820 -63.154403686523 -285.061798095703 1.426973700523
-163.539093017578 -63.160118103027 -296.092132568359 8.800828933716
-158.981033325195 -64.642189025879 -304.156433105469 6.719686508179
-164.477233886719 -63.826728820801 -294.395812988281 7.610265254974
-144.157424926758 -67.971687316895 -303.953613281250 2.452009677887
-153.501617431641 -69.779594421387 -308.225646972656 1.546992301941
40.417495727539 -68.834747314453 -6.182077884674 6.455204486847
53.324600219727 -73.752769470215 -16.541950225830 6.340278625488
28.338691711426 -66.249168395996 -20.641674041748 0.946544170380
55.572235107422 -69.101913452148 -25.471149444580 5.185880184174
32.004524230957 -70.862449645996 -32.778873443604 2.786121606827
36.086143493652 -69.228477478027 -32.075679779053 3.971347093582
-53.532722473145 -62.700275421143 -44.761478424072 0.718947649002
80.949165344238 -63.328052520752 -59.812023162842 0.367478132248
85.918647766113 -69.887351989746 -67.966369628906 2.025887012482
-86.224838256836 -69.480377197266 -58.331005096436 1.743202328682
-9.357504844666 -64.793754577637 -57.391460418701 2.538160324097
-89.255859375000 -69.141716003418 -66.831954956055 2.455075979233
99.992156982422 -71.515388488770 -68.067352294922 4.773518562317
-8.789845466614 -64.597877502441 -64.845649719238 2.201338052750
70.530616760254 -71.868309020996 -81.011177062988 1.276725411415
-40.994178771973 -72.201812744141 -77.538154602051 1.758266806602
-23.151374816895 -70.862350463867 -71.394340515137 2.577607870102
58.556232452393 -62.757789611816 -86.112327575684 2.145080804825
-40.333560943604 -78.138336181641 -80.367103576660 3.203885793686
67.787757873535 -58.113510131836 -87.195922851563 3.472100734711
54.933506011963 -73.749900817871 -90.531822204590 2.447164535522
57.772663116455 -67.235160827637 -93.933006286621 0.963999688625
60.814651489258 -75.402008056641 -90.162895202637 3.153730630875
58.703441619873 -63.097316741943 -95.179527282715 3.010096311569
101.355117797852 -64.244445800781 -99.069587707520 1.085449337959
109.363105773926 -62.586658477783 -100.657012939453 5.103674888611
62.947654724121 -71.189804077148 -100.385803222656 3.949998378754
110.002471923828 -63.463890075684 -101.536582946777 4.386246681213
-75.349670410156 -66.575798034668 -94.376220703125 5.237549304962
-71.075736999512 -67.555480957031 -98.791076660156 1.054929256439
102.652778625488 -64.271827697754 -99.157608032227 2.295762300491
55.572566986084 -69.181854248047 -100.429595947266 1.351374030113
72.693206787109 -70.301399230957 -97.321632385254 0.366389781237
-69.312133789063 -67.565589904785 -104.542152404785 2.695887088776
-83.557098388672 -65.679107666016 -103.371681213379 1.998438000679
89.278709411621 -72.544708251953 -103.668022155762 2.313957214355
41.254734039307 -70.327453613281 -101.862884521484 0.838446915150
108.068214416504 -63.933349609375 -108.275268554688 3.029304742813
49.944564819336 -71.357742309570 -112.909004211426 1.755919456482
113.095031738281 -69.127975463867 -103.326660156250 2.955322027206
-75.865722656250 -67.366088867188 -107.696754455566 2.153881788254
105.198059082031 -62.915454864502 -109.634124755859 3.850055694580
-81.582550048828 -64.140075683594 -117.082977294922 1.255591273308
-56.842308044434 -70.051330566406 -124.206329345703 2.128462314606
-55.301292419434 -66.764488220215 -120.167556762695 2.457403659821
-69.965988159180 -69.577651977539 -126.269958496094 5.232212066650
-49.125625610352 -68.855262756348 -127.573951721191 4.310004711151
-82.571754455566 -68.979721069336 -129.460418701172 1.990172505379
-76.166748046875 -62.726821899414 -127.451538085938 2.715421199799
-78.007766723633 -67.962547302246 -128.148483276367 1.353706598282
-60.128402709961 -72.795433044434 -138.345291137695 2.147514104843
-69.675933837891 -67.556854248047 -137.204483032227 2.807970762253
-59.188282012939 -72.972541809082 -129.346649169922 2.151109457016
-56.219974517822 -67.079872131348 -138.940872192383 2.456169366837
14.142653465271 -62.848209381104 -143.542510986328 2.437079906464
-90.186874389648 -68.115280151367 -136.021316528320 1.712341785431
-47.577980041504 -73.012374877930 -145.140945434570 2.181275129318
-94.055870056152 -65.288040161133 -145.007202148438 1.701833963394
-100.857475280762 -63.704395294189 -142.548370361328 5.527526378632
20.693845748901 -70.379592895508 -153.145080566406 2.324598073959
15.220231056213 -69.060089111328 -157.167572021484 2.149287223816
-94.794181823730 -69.900344848633 -155.671203613281 3.833869695663
-103.381324768066 -67.749114990234 -146.671112060547 5.958619594574
-99.505523681641 -65.439048767090 -162.626312255859 1.152071237564
21.662595748901 -66.992973327637 -168.863204956055 1.935189366341
-111.902633666992 -66.706062316895 -167.965408325195 3.867125034332
24.848888397217 -67.426330566406 -163.537231445313 2.212497949600
-148.015487670898 -67.138610839844 -170.352890014648 4.123639583588
17.974861145020 -66.950798034668 -174.449981689453 1.018633604050
24.468053817749 -68.736419677734 -184.593109130859 2.184651136398
-152.191467285156 -64.899337768555 -179.462173461914 1.781064391136
20.979557037354 -69.431434631348 -173.472412109375 1.934363245964
18.891935348511 -59.595878601074 -179.578765869141 6.992873191833
-145.464675903320 -71.218376159668 -176.555496215820 1.175562381744
-152.391662597656 -62.925804138184 -182.871826171875 1.307099103928
19.302711486816 -68.222358703613 -186.107925415039 2.096246480942
18.038421630859 -70.858741760254 -188.566711425781 2.957302570343
-142.312133789063 -69.420272827148 -187.992507934570 1.287191629410
-110.336463928223 -67.334205627441 -192.266952514648 3.185030937195
25.049741744995 -68.003517150879 -197.937713623047 4.608776092529
-126.120979309082 -67.454139709473 -188.906005859375 5.680277824402
8.668728828430 -70.759872436523 -199.060760498047 1.113755464554
-129.532989501953 -59.738765716553 -188.061691284180 9.519958496094
-162.478561401367 -63.925285339355 -181.725082397461 10.571654319763
-161.233108520508 -64.995635986328 -189.545928955078 6.583703041077
-157.572280883789 -68.891006469727 -186.488830566406 4.935324668884
-22.403295516968 -67.948745727539 -204.330062866211 1.854983925819
-169.674896240234 -69.347969055176 -192.003448486328 8.166850090027
-28.460668563843 -62.682491302490 -189.936080932617 5.453835010529
-16.492134094238 -68.986358642578 -191.163696289063 2.371098756790
6.139423847198 -61.007183074951 -194.021209716797 9.043539047241
-157.994003295898 -67.363571166992 -199.584091186523 2.161331653595
-107.731246948242 -65.049118041992 -197.459640502930 1.251608967781
-17.674898147583 -63.304302215576 -197.009185791016 4.467086791992
-162.189178466797 -59.939296722412 -194.211303710938 7.324796676636
16.339488983154 -68.321815490723 -200.643157958984 1.482233762741
-172.055023193359 -63.975028991699 -198.851257324219 6.597156047821
-120.818328857422 -69.387748718262 -196.740142822266 0.555802583694
-117.152976989746 -63.604286193848 -203.317459106445 1.406744718552
-123.814483642578 -66.397323608398 -197.990249633789 1.710829854012
-16.907119750977 -65.943679809570 -200.010726928711 3.141023874283
-20.144960403442 -68.181694030762 -200.855056762695 0.986532211304
-165.405548095703 -65.944801330566 -204.669540405273 2.748227834702
-161.082427978516 -63.753448486328 -204.786178588867 3.639810085297
-166.333251953125 -67.230087280273 -212.480834960938 2.454035758972
-140.945922851563 -69.512817382813 -207.471023559570 3.003194332123
-147.002182006836 -65.797424316406 -218.462539672852 1.307551860809
-2.813319921494 -65.233955383301 -216.818389892578 3.648201465607
-10.437443733215 -73.060874938965 -214.639678955078 2.975056648254
-102.493812561035 -64.081054687500 -215.358627319336 6.957305908203
-9.654259681702 -65.061737060547 -232.588806152344 2.670101404190
-170.708694458008 -62.806087493896 -223.468460083008 6.130665779114
-107.018318176270 -64.210029602051 -228.709182739258 2.328887224197
0.431986987591 -67.709678649902 -224.445617675781 1.959660887718
0.156466007233 -66.506187438965 -227.315139770508 1.827429294586
-113.923461914063 -66.624168395996 -228.386108398438 2.215813398361
-3.404496908188 -68.657066345215 -225.098785400391 2.072003364563
-120.600181579590 -62.686859130859 -228.385009765625 2.624823570251
-10.075812339783 -63.183300018311 -229.263534545898 3.785207271576
-3.805481910706 -65.822326660156 -232.724639892578 2.597699165344
-4.681275844574 -66.065574645996 -236.635833740234 1.292387723923
70.319747924805 -63.277156829834 -236.572280883789 4.546333789825
-11.744612693787 -70.559944152832 -235.205627441406 1.976230144501
7.854124069214 -68.019271850586 -234.109085083008 1.406674504280
9.142399787903 -66.227790832520 -235.967910766602 1.676595926285
2.953151941299 -68.670700073242 -236.671524047852 1.432004570961
1.873136043549 -69.298851013184 -239.588973999023 1.926409721375
60.984504699707 -61.513854980469 -239.185684204102 5.769753932953
66.607971191406 -62.542537689209 -240.449905395508 4.620142936707
4.190358161926 -66.273788452148 -246.562316894531 3.234522581100
49.558841705322 -69.308906555176 -241.879928588867 1.285043478012
52.990657806396 -72.417297363281 -239.758773803711 3.967762708664
44.373424530029 -62.529743194580 -250.155181884766 2.486216068268
39.755046844482 -63.418827056885 -250.635406494141 1.937484502792
37.978904724121 -65.713508605957 -257.604583740234 1.878210902214
-132.941436767578 -60.052062988281 -253.786468505859 5.121559619904
-11.393147468567 -65.894126892090 -245.315353393555 1.970553517342
27.644901275635 -64.696640014648 -256.196166992188 1.689715266228
41.320838928223 -65.557167053223 -244.763168334961 5.579228401184
26.692705154419 -70.426528930664 -251.408691406250 3.756787061691
-106.879196166992 -69.161277770996 -254.382049560547 0.741622507572
27.355962753296 -68.468902587891 -254.654449462891 2.460700750351
-148.120010375977 -68.457458496094 -255.468551635742 2.833298444748
-119.345275878906 -69.244804382324 -250.421585083008 6.302525520325
-113.605026245117 -66.413581848145 -253.080688476563 4.228368282318
-4.650469779968 -70.340217590332 -256.537902832031 5.353044033051
-154.738311767578 -67.579505920410 -250.505661010742 2.236361742020
34.020339965820 -67.434242248535 -261.807769775391 1.145651340485
-110.753242492676 -64.796150207520 -250.359786987305 6.929160118103
22.911500930786 -72.300086975098 -257.236999511719 1.239176511765
-137.686080932617 -69.635467529297 -258.520599365234 2.714761257172
-119.742179870605 -65.596366882324 -260.671417236328 2.413439989090
-113.954223632813 -65.816368103027 -257.057861328125 2.149608373642
-116.881317138672 -73.619239807129 -255.590301513672 0.737550795078
-144.341613769531 -68.425834655762 -248.909210205078 2.975094318390
26.858613967896 -67.723831176758 -257.602355957031 0.962572336197
-119.868736267090 -64.150115966797 -256.841156005859 4.655511856079
-147.704864501953 -67.791603088379 -257.126983642578 2.055340290070
-8.145436286926 -63.978538513184 -268.106262207031 2.918110370636
-153.370422363281 -68.786941528320 -273.566192626953 3.141539096832
-12.658050537109 -67.805404663086 -286.416625976563 4.681196212769
-9.059579849243 -64.109642028809 -278.879364013672 3.796980381012
-138.133377075195 -65.421684265137 -283.203308105469 4.931361198425
-133.141647338867 -66.569122314453 -286.168121337891 1.286641120911
-139.476608276367 -65.229118347168 -288.832733154297 2.509153127670
-130.532653808594 -63.219169616699 -284.084533691406 4.548811912537
-159.769302368164 -65.771514892578 -287.537750244141 2.933972597122
-161.914474487305 -66.610397338867 -293.040069580078 3.928471088409
-152.586074829102 -70.246910095215 -295.064422607422 0.808322608471
-153.528167724609 -68.016204833984 -298.136749267578 2.037565946579
-149.000961303711 -65.458740234375 -291.567932128906 0.956258833408
-154.978393554688 -65.351272583008 -299.346313476563 2.993644952774
-150.208114624023 -62.754238128662 -309.955474853516 3.972452402115
23.727481842041 -70.582649230957 -24.309232711792 2.024974584579
54.663269042969 -71.060577392578 -35.710346221924 4.388405323029
28.603073120117 -74.501373291016 -35.041519165039 2.658179283142
35.951995849609 -67.775711059570 -42.466777801514 2.736777067184
-37.930423736572 -59.626277923584 -45.140037536621 2.144432067871
-71.059700012207 -62.885353088379 -45.830562591553 2.007453203201
83.539901733398 -67.230537414551 -61.466651916504 0.905140995979
77.124221801758 -68.550018310547 -61.599109649658 2.052675247192
75.766510009766 -70.341300964355 -64.737670898438 2.916931629181
-97.645774841309 -66.448432922363 -66.557563781738 2.115446090698
101.470596313477 -72.515556335449 -76.127090454102 2.486021995544
-25.564332962036 -69.266647338867 -82.068557739258 4.543395519257
64.602508544922 -65.172264099121 -74.748336791992 1.188414216042
-39.522972106934 -62.696987152100 -80.290931701660 1.453231930733
-53.023853302002 -64.460121154785 -77.641822814941 1.933074712753
53.957893371582 -67.744018554688 -89.737686157227 1.369658350945
104.852165222168 -65.641433715820 -91.351295471191 0.652834475040
65.509872436523 -65.132675170898 -92.268211364746 1.039259195328
58.604980468750 -65.538925170898 -90.864768981934 4.072563171387
50.134315490723 -63.535270690918 -101.167678833008 1.025249004364
58.366752624512 -63.053100585938 -101.379379272461 3.722667932510
104.815658569336 -65.300697326660 -98.395500183105 0.720343291759
70.944671630859 -66.603340148926 -107.502815246582 3.273303508759
53.836936950684 -67.281883239746 -105.243202209473 3.132656335831
77.690040588379 -73.541770935059 -107.529792785645 4.714449405670
100.568054199219 -63.327171325684 -108.110359191895 3.877416849136
-71.893943786621 -63.448589324951 -94.732879638672 4.110413074493
-84.722938537598 -66.438117980957 -105.397277832031 1.344055056572
-80.160606384277 -66.900154113770 -107.538085937500 1.488203287125
-58.951477050781 -66.220825195313 -114.904342651367 2.852406978607
-55.965099334717 -70.547462463379 -122.513793945313 2.566891908646
-93.208106994629 -65.485366821289 -116.475349426270 3.558668375015
-72.440139770508 -68.991867065430 -114.585296630859 3.209652185440
-75.854400634766 -70.480667114258 -128.458236694336 1.120512485504
-59.188358306885 -62.781356811523 -123.730934143066 2.768546342850
-86.836746215820 -62.117065429688 -125.824256896973 2.263964891434
-88.590896606445 -64.878265380859 -125.963073730469 1.252727389336
-47.414630889893 -69.861663818359 -131.449432373047 1.328710556030
-49.786376953125 -68.171562194824 -133.728836059570 1.185005903244
-76.690605163574 -69.746276855469 -133.836105346680 1.299619436264
-53.776897430420 -68.956375122070 -137.546905517578 2.674501419067
-72.917381286621 -71.070571899414 -140.657836914063 1.570696234703
20.542108535767 -64.196540832520 -137.693313598633 1.953452587128
-57.138336181641 -71.443840026855 -140.330871582031 1.310191631317
-54.978988647461 -62.666152954102 -142.273193359375 2.141360759735
9.374376296997 -71.095550537109 -153.276245117188 1.831892967224
17.961658477783 -65.105339050293 -149.023803710938 1.126768946648
-141.600463867188 -66.973243713379 -167.005950927734 7.833820819855
-110.289840698242 -64.371665954590 -172.323089599609 2.063397645950
-111.665054321289 -61.862602233887 -184.769195556641 3.811778068542
-153.589340209961 -68.182281494141 -183.562759399414 3.017243146896
-113.688423156738 -65.361007690430 -180.616485595703 2.593973875046
-152.133499145508 -60.716217041016 -190.017211914063 4.517068862915
-115.021202087402 -64.940971374512 -193.456680297852 1.817062497139
-151.796813964844 -62.408039093018 -194.448593139648 1.490220308304
-150.772659301758 -65.369476318359 -200.055740356445 1.902418136597
-154.720886230469 -70.851989746094 -198.926055908203 1.638448119164
-150.590866088867 -65.708343505859 -217.987411499023 3.432070255280
-150.945465087891 -69.177642822266 -219.712936401367 2.722301483154
-106.968139648438 -62.718288421631 -222.853103637695 3.035820484161
-101.643508911133 -66.037780761719 -215.747528076172 5.215881824493
-124.768257141113 -60.312076568604 -226.298278808594 3.823015928268
-108.800857543945 -65.969528198242 -220.204513549805 2.578845739365
-158.926040649414 -66.247489929199 -223.881011962891 1.326776981354
-4.885721206665 -65.910354614258 -222.409591674805 1.385421514511
-134.922271728516 -69.386657714844 -223.932296752930 1.208505988121
-155.507034301758 -66.403190612793 -228.822708129883 3.123867034912
-140.535247802734 -69.522651672363 -226.237579345703 1.423788666725
-12.441140174866 -64.683341979980 -231.706893920898 3.995697736740
6.741267204285 -66.345054626465 -242.077270507813 1.986096501350
60.760215759277 -60.735721588135 -239.815551757813 6.018756866455
15.498183250427 -70.859680175781 -247.734680175781 1.348811507225
52.184432983398 -66.186012268066 -241.700515747070 3.430774211884
38.173809051514 -69.375083923340 -248.718460083008 3.619509220123
59.029396057129 -62.643321990967 -252.063186645508 6.024888515472
-155.589569091797 -65.764503479004 -242.243804931641 3.430567979813
-149.900878906250 -69.682586669922 -248.215255737305 2.305634021759
41.060264587402 -65.003211975098 -255.417098999023 1.513409972191
25.392747879028 -66.442077636719 -252.943389892578 1.843477725983
45.916076660156 -62.791358947754 -252.829910278320 0.713716208935
-147.959655761719 -68.862709045410 -256.107330322266 2.440254449844
-140.131195068359 -64.110115051270 -248.326034545898 6.857207298279
-126.766540527344 -63.055587768555 -253.304962158203 3.528692483902
-135.889389038086 -65.576034545898 -249.782485961914 5.777835369110
-142.650375366211 -66.923393249512 -251.788284301758 2.314331531525
-125.771560668945 -64.881248474121 -254.066970825195 1.734654545784
-145.793777465820 -63.515415191650 -253.732543945313 0.834481954575
-129.875854492188 -68.572044372559 -252.223953247070 2.155204296112
-123.175704956055 -66.803840637207 -259.313995361328 2.491411209106
-131.908950805664 -66.147384643555 -259.325073242188 2.265833854675
-124.925254821777 -61.694374084473 -258.397613525391 3.475452423096
-8.107521057129 -66.754989624023 -264.111968994141 2.131253719330
26.510288238525 -62.131023406982 -260.004516601563 1.321310520172
-148.644226074219 -59.659000396729 -260.893768310547 1.510566234589
23.160079956055 -67.840858459473 -269.503295898438 2.570296525955
-9.204678535461 -59.916858673096 -273.759887695313 3.059965848923
13.980747222900 -72.676856994629 -281.422912597656 2.792713403702
-144.740295410156 -66.200744628906 -283.118438720703 1.396174788475
-128.295928955078 -68.303337097168 -281.204162597656 4.730539798737
-134.517608642578 -60.551021575928 -284.594970703125 5.984691143036
-163.323196411133 -60.578334808350 -285.914001464844 7.425230503082
-130.303512573242 -59.709850311279 -283.486846923828 7.072851657867
-121.655761718750 -63.544033050537 -283.276214599609 6.086576461792
-128.560089111328 -68.727203369141 -291.590454101563 1.642539858818
-155.989944458008 -69.021621704102 -285.349182128906 2.123661041260
33.813995361328 -70.889228820801 -10.108894348145 2.973320722580
33.985095977783 -71.758033752441 -16.373708724976 1.238504886627
41.890106201172 -66.253799438477 -19.919628143311 2.735691547394
51.895267486572 -62.061424255371 -22.423803329468 2.808607578278
32.804561614990 -73.343299865723 -26.629938125610 6.274540901184
23.104169845581 -70.564300537109 -31.941808700562 1.594646453857
-30.056787490845 -68.440658569336 -42.422035217285 6.067788600922
-77.652122497559 -68.866760253906 -49.050640106201 2.732689380646
-13.830694198608 -66.675437927246 -56.670742034912 2.674719810486
77.099502563477 -64.742027282715 -64.559623718262 2.918537616730
106.625770568848 -66.123893737793 -69.558265686035 4.980212688446
67.072219848633 -63.952827453613 -83.426170349121 1.736385345459
63.591777801514 -60.901729583740 -83.678749084473 1.175125598907
100.524810791016 -67.707710266113 -85.218658447266 1.840405702591
-62.166088104248 -63.214225769043 -86.957115173340 0.834412992001
-63.787200927734 -66.446487426758 -85.650390625000 4.055487155914
53.193569183350 -63.464828491211 -91.281723022461 1.636821746826
-65.697685241699 -69.198081970215 -91.790771484375 2.398150444031
-70.991523742676 -65.599227905273 -97.466728210449 1.951906323433
-93.242332458496 -65.797737121582 -97.072753906250 4.300263881683
-74.106697082520 -61.352333068848 -95.013198852539 3.963094711304
48.883419036865 -61.973388671875 -101.335372924805 2.567502737045
-63.827945709229 -68.834030151367 -99.389915466309 2.218157529831
49.893878936768 -63.830993652344 -103.374412536621 1.490820169449
97.379516601563 -65.532646179199 -105.505340576172 1.925170779228
91.292602539063 -66.580581665039 -113.864166259766 5.606292247772
-70.192970275879 -65.276817321777 -111.302207946777 3.214733600616
-84.902671813965 -67.536941528320 -107.449943542480 1.875450968742
-60.531810760498 -65.474975585938 -114.957214355469 2.521934986115
-94.318016052246 -60.622829437256 -113.580085754395 3.479640483856
-75.107604980469 -68.340141296387 -122.861572265625 2.353375673294
-92.749656677246 -57.392154693604 -121.724273681641 1.400939941406
-62.629898071289 -64.291168212891 -112.918327331543 1.616831302643
-58.902450561523 -58.902206420898 -117.615936279297 1.716742515564
-88.835632324219 -67.299720764160 -125.640869140625 2.519350290298
-62.551788330078 -68.916542053223 -122.584716796875 2.099580049515
-82.916252136230 -64.506011962891 -128.822311401367 2.151769399643
-82.260398864746 -66.140640258789 -130.243164062500 1.683748722076
-60.324245452881 -71.036529541016 -132.634094238281 1.496153116226
-59.399223327637 -61.678432464600 -130.117065429688 2.127997398376
-54.142494201660 -58.616191864014 -130.105712890625 2.501644611359
-97.840454101563 -61.988166809082 -126.166481018066 3.617990732193
-96.732948303223 -60.824253082275 -139.731857299805 4.364048480988
-89.845207214355 -65.636192321777 -131.344909667969 1.773374676704
19.808715820313 -68.727439880371 -148.813186645508 2.482409000397
-49.506057739258 -66.392234802246 -136.882339477539 2.655627965927
20.023370742798 -66.279335021973 -149.844024658203 1.343683123589
-97.956207275391 -66.255020141602 -160.482788085938 1.854270339012
-103.356826782227 -71.255332946777 -165.721237182617 2.369643449783
-102.578086853027 -61.138748168945 -166.087799072266 2.250908851624
-108.558334350586 -57.980358123779 -168.628387451172 5.902283191681
-109.189414978027 -65.802780151367 -173.472702026367 2.639181613922
-110.884033203125 -64.803840637207 -173.600677490234 1.886123657227
-143.019149780273 -62.247364044189 -180.288299560547 1.068490028381
-112.102882385254 -63.749904632568 -180.465728759766 2.894304513931
-135.065841674805 -61.705524444580 -195.586364746094 3.217982530594
-151.540084838867 -67.710296630859 -191.955856323242 2.085033893585
-129.441207885742 -65.373146057129 -192.583908081055 3.056348085403
-158.987670898438 -67.168434143066 -188.773498535156 5.521434783936
-148.223342895508 -69.300354003906 -196.003341674805 2.045587778091
-127.421539306641 -58.773059844971 -191.486633300781 7.053130149841
-135.677810668945 -62.684276580811 -193.974029541016 4.227613449097
-140.880157470703 -71.688125610352 -200.503982543945 1.276103496552
-132.569290161133 -67.115158081055 -216.978851318359 7.182318687439
-110.848342895508 -67.629730224609 -225.297729492188 2.249752044678
-144.102752685547 -65.665138244629 -221.268615722656 1.871693372726
-121.943893432617 -63.214073181152 -226.606155395508 2.771203279495
-118.562103271484 -59.109981536865 -225.200790405273 7.674166202545
-123.512229919434 -66.484336853027 -226.815277099609 0.783737301826
-135.019882202148 -64.194267272949 -228.059783935547 0.613255321980
-117.161315917969 -61.075756072998 -232.894561767578 3.708923339844
3.280714988708 -64.210823059082 -234.560317993164 2.150824308395
-154.662475585938 -66.858047485352 -232.389587402344 1.409637451172
3.903748035431 -65.741531372070 -234.616516113281 1.531434416771
1.812896966934 -60.722446441650 -242.347305297852 1.306883335114
0.061106000096 -67.942153930664 -240.478134155273 1.356030344963
10.915687561035 -61.755599975586 -239.352523803711 3.212430238724
-145.411193847656 -61.777214050293 -228.581359863281 1.770111799240
-8.323296546936 -67.766578674316 -246.140518188477 2.106478929520
17.182001113892 -65.149139404297 -238.094314575195 3.224160671234
48.743991851807 -63.064788818359 -249.924087524414 2.451530218124
48.128593444824 -63.500370025635 -251.001449584961 2.551359891891
-149.317550659180 -66.854347229004 -246.100708007813 1.495844125748
-7.801562786102 -66.826736450195 -248.812057495117 1.629830956459
18.543157577515 -66.275993347168 -253.095260620117 4.769195079803
-133.980087280273 -57.947910308838 -252.082702636719 7.755764007568
-125.024330139160 -63.182903289795 -251.358505249023 4.540931701660
-126.546081542969 -66.887428283691 -252.521621704102 1.788352727890
24.319084167480 -64.622779846191 -256.627685546875 0.613717377186
-136.435012817383 -60.751445770264 -260.635437011719 4.628460407257
30.281810760498 -62.394580841064 -258.381469726563 0.799596309662
31.211565017700 -64.923233032227 -262.090057373047 1.691224336624
-157.025817871094 -66.840126037598 -261.545410156250 2.752045392990
-149.473114013672 -70.514625549316 -280.092193603516 2.843498229980
-152.149627685547 -59.636497497559 -281.019409179688 3.682888507843
-147.996017456055 -62.505748748779 -289.494049072266 2.542670249939
10.478019714355 -68.592247009277 -290.601501464844 2.252581834793
-158.609680175781 -62.061996459961 -296.986419677734 5.588804244995
50.838241577148 -70.901245117188 -25.514888763428 0.384200215340
39.587547302246 -72.841949462891 -38.928714752197 2.106809616089
-55.743911743164 -61.998199462891 -43.079929351807 2.269409179688
-67.951484680176 -62.884677886963 -43.308479309082 2.193912267685
-23.258882522583 -62.299076080322 -48.393337249756 4.513866901398
-19.588413238525 -69.678840637207 -52.180126190186 3.841986894608
-6.806995868683 -61.799587249756 -64.899269104004 4.275897979736
-24.995218276978 -60.839694976807 -67.625213623047 2.887707233429
67.116119384766 -65.892379760742 -74.640625000000 1.909174680710
-93.499473571777 -58.379066467285 -74.748947143555 5.168544769287
-43.637485504150 -65.963325500488 -84.632873535156 2.366752147675
56.799858093262 -67.340370178223 -85.665771484375 0.808464229107
62.821643829346 -66.148918151855 -85.572647094727 2.365484714508
62.704753875732 -66.492301940918 -88.334030151367 2.320673465729
109.350074768066 -64.727043151855 -91.879066467285 4.104583263397
54.551677703857 -63.227504730225 -88.837028503418 1.375003695488
100.045402526855 -58.325599670410 -100.905021667480 2.114919662476
-81.743728637695 -67.379966735840 -99.871681213379 3.333371400833
-90.178550720215 -64.419166564941 -96.559669494629 7.229236602783
75.813484191895 -61.271183013916 -113.968948364258 4.008442878723
-76.931518554688 -65.340682983398 -99.968788146973 1.921664953232
-76.277458190918 -70.085151672363 -108.765853881836 0.874123394489
-83.164932250977 -71.902015686035 -115.286926269531 3.188701391220
-54.292205810547 -66.298759460449 -122.983840942383 1.449451565742
-75.559928894043 -64.377304077148 -125.443702697754 2.097814321518
-62.413185119629 -60.105228424072 -124.706008911133 2.478214025497
-85.428550720215 -66.789550781250 -131.559341430664 0.729615271091
-75.572387695313 -63.380207061768 -129.051452636719 2.160718441010
-78.362480163574 -62.824291229248 -121.222244262695 1.254302859306
-88.915245056152 -63.205455780029 -125.324104309082 2.400214910507
-66.464385986328 -61.417366027832 -131.719512939453 3.123837709427
-89.703155517578 -65.273490905762 -127.312789916992 2.922115325928
-49.631519317627 -67.459892272949 -129.476654052734 2.666470527649
-54.523487091064 -70.970642089844 -135.734176635742 2.980195045471
28.493453979492 -65.015663146973 -140.645858764648 2.678555011749
-55.461803436279 -58.111877441406 -132.898330688477 2.223059177399
16.019948959351 -70.348876953125 -141.608200073242 4.352525711060
14.784638404846 -62.955108642578 -146.158340454102 2.001318216324
17.712360382080 -60.531494140625 -153.004776000977 1.573844432831
-98.289115905762 -63.014911651611 -140.813720703125 3.238090038300
-89.668678283691 -64.738410949707 -144.538467407227 2.333648681641
-96.331199645996 -60.965896606445 -145.795837402344 3.045320272446
-106.185951232910 -65.088470458984 -158.678039550781 2.872757673264
-98.388755798340 -62.855751037598 -155.365310668945 2.832800388336
-152.874938964844 -61.734611511230 -169.605773925781 6.605244636536
-154.497146606445 -64.253471374512 -169.205108642578 6.943255424500
-113.597846984863 -61.757846832275 -176.941741943359 4.406702995300
-141.687316894531 -62.376586914063 -171.149322509766 4.938494205475
-110.480346679688 -60.378070831299 -177.185485839844 2.867701530457
-149.115112304688 -55.617225646973 -181.083938598633 6.393245220184
-112.351959228516 -60.289916992188 -185.870559692383 4.564599990845
-111.507957458496 -65.630973815918 -176.587280273438 1.274658799171
-146.872207641602 -63.411144256592 -194.245849609375 0.936364650726
-129.290374755859 -65.958488464355 -191.268630981445 3.994851350784
-107.038604736328 -64.527214050293 -192.886459350586 3.886206626892
-117.316841125488 -57.419567108154 -193.207290649414 7.614819049835
-114.705909729004 -65.918067932129 -195.253143310547 1.825377821922
-117.970169067383 -58.526996612549 -197.434295654297 5.379913806915
-135.419204711914 -61.094856262207 -190.921173095703 6.701961994171
-142.333206176758 -64.000488281250 -197.506729125977 1.340431213379
-131.435104370117 -62.038192749023 -203.265594482422 2.475157260895
-130.012283325195 -58.168163299561 -194.709808349609 5.334201335907
-123.980323791504 -61.705104827881 -199.426040649414 1.137899637222
-113.294853210449 -63.247245788574 -200.066650390625 1.295055031776
-150.839584350586 -62.586292266846 -206.565826416016 0.933033764362
-154.693069458008 -63.012821197510 -212.041809082031 3.471025466919
-155.109161376953 -63.377937316895 -215.310958862305 4.796676158905
-141.229705810547 -69.144996643066 -219.069595336914 3.614634037018
-133.695831298828 -58.573318481445 -221.977981567383 7.501226425171
-122.587677001953 -66.082695007324 -212.527160644531 7.444662094116
-142.565933227539 -66.236930847168 -223.925415039063 2.614033222198
-153.856094360352 -65.484939575195 -218.361495971680 2.872920989990
-135.518753051758 -65.006591796875 -220.153900146484 5.402564525604
-135.547958374023 -60.292442321777 -222.377349853516 6.477602958679
