-130.918655395508 -72.559593200684 -192.421920776367 3.484551191330
-108.614936828613 -72.009338378906 -198.087661743164 2.769494295120
-116.874588012695 -69.294754028320 -198.115966796875 2.876011848450
-13.150455474854 -72.808372497559 -194.401855468750 2.706826210022
17.841259002686 -69.191520690918 -194.080383300781 2.095874071121
-17.875730514526 -66.665557861328 -200.219879150391 1.929654359818
-130.398376464844 -70.548927307129 -204.110641479492 0.466146945953
-22.361860275269 -66.318084716797 -199.268814086914 3.214941978455
-129.972396850586 -68.094909667969 -200.829589843750 2.989389896393
-18.666769027710 -71.101638793945 -196.743209838867 1.526812791824
-149.181243896484 -68.817695617676 -199.320602416992 2.269602060318
89.815315246582 -66.763931274414 -204.311691284180 6.305157661438
-166.128128051758 -62.774219512939 -199.056060791016 4.287448883057
-3.954950094223 -72.748619079590 -218.490493774414 1.595035552979
10.237219810486 -73.681777954102 -208.439697265625 1.198111414909
8.174228668213 -75.537528991699 -215.360061645508 1.716803073883
80.318733215332 -72.429946899414 -214.252853393555 3.996501445770
7.509235858917 -73.076347351074 -211.504852294922 1.474457502365
9.367629051208 -70.473655700684 -213.214843750000 2.101200819016
-17.823837280273 -75.089012145996 -213.397766113281 2.139578104019
-92.376144409180 -72.081268310547 -210.693817138672 3.846103191376
-100.539093017578 -70.899208068848 -214.680175781250 3.625951051712
0.402092993259 -70.693138122559 -216.210433959961 3.680941581726
-168.611312866211 -73.196174621582 -219.019622802734 1.813649773598
14.327874183655 -68.685653686523 -216.203048706055 0.504392683506
-146.753738403320 -69.732833862305 -217.966018676758 2.498841762543
11.689156532288 -72.452865600586 -223.035034179688 2.410994529724
-137.327331542969 -72.790634155273 -222.864089965820 3.600207090378
-117.377342224121 -72.021759033203 -226.334320068359 0.640184938908
15.367777824402 -71.036163330078 -218.329635620117 0.416621714830
77.596855163574 -72.413841247559 -217.671051025391 4.250233173370
4.222105979919 -72.490859985352 -221.799789428711 1.019277215004
-110.780357360840 -69.542037963867 -229.428085327148 2.661160945892
67.645477294922 -73.780906677246 -225.642929077148 5.426476001740
83.654998779297 -74.105392456055 -227.617813110352 1.569071769714
-128.359222412109 -70.384506225586 -234.823638916016 1.312130451202
-120.835800170898 -70.500732421875 -227.896087646484 2.882068872452
-11.200421333313 -66.780494689941 -224.158721923828 3.531069993973
70.074333190918 -73.008056640625 -231.187469482422 1.326227545738
62.618724822998 -72.882171630859 -230.419082641602 6.517796516418
70.182106018066 -71.708541870117 -226.633193969727 2.627331256866
-138.445358276367 -65.964698791504 -231.761169433594 3.821603059769
67.163879394531 -73.882919311523 -228.763580322266 3.234063386917
63.784832000732 -69.042800903320 -233.212173461914 3.692287683487
-167.907241821289 -67.970275878906 -229.423660278320 2.698025941849
0.060474999249 -80.482696533203 -240.277206420898 3.088672637939
18.746725082397 -73.833404541016 -237.162597656250 1.835175037384
-8.062210083008 -68.127204895020 -239.740615844727 1.813857913017
15.146144866943 -64.803718566895 -237.496414184570 3.548258066177
65.250022888184 -73.498725891113 -235.903778076172 1.576635837555
5.499156951904 -69.120368957520 -242.922134399414 2.482459068298
-13.515427589417 -64.472854614258 -238.391815185547 2.572995662689
-3.735496044159 -67.658210754395 -233.636337280273 1.185652136803
62.885913848877 -72.894805908203 -240.286758422852 2.024158477783
-0.542613029480 -71.801651000977 -240.549331665039 1.098120212555
-8.004593849182 -72.701560974121 -241.246704101563 1.346722364426
12.685070991516 -75.655860900879 -239.981399536133 2.185989618301
-169.572158813477 -73.410530090332 -238.967239379883 2.523025989532
52.260444641113 -73.681686401367 -245.303527832031 2.168041467667
46.759933471680 -64.303848266602 -251.181610107422 2.185745716095
57.755943298340 -73.067245483398 -241.313751220703 1.743052363396
-14.214388847351 -68.931381225586 -246.073623657227 1.587539911270
55.073238372803 -71.462791442871 -243.119598388672 1.954372406006
-76.557067871094 -70.941101074219 -248.980026245117 1.689977765083
48.243095397949 -72.756958007813 -246.263839721680 2.714274644852
-89.506126403809 -70.319961547852 -250.950515747070 1.921256422997
-123.832984924316 -71.917449951172 -256.082031250000 1.577497243881
-133.940307617188 -71.084167480469 -250.182601928711 3.860392332077
45.392147064209 -74.517547607422 -249.578598022461 2.930110216141
-132.672500610352 -74.269432067871 -249.597015380859 4.665637969971
-110.407318115234 -67.843696594238 -252.007202148438 4.490422248840
-119.536598205566 -68.321655273438 -255.881820678711 3.367823123932
-86.430198669434 -71.462142944336 -252.433807373047 2.124935150146
-112.529235839844 -67.514373779297 -256.137786865234 1.667805314064
-126.270347595215 -75.258529663086 -260.610809326172 1.761015057564
-149.342712402344 -67.727210998535 -266.546447753906 1.471200346947
-17.271339416504 -69.760383605957 -265.925872802734 3.101085662842
-175.538955688477 -73.851928710938 -262.736907958984 8.476985931396
-16.957031250000 -70.579048156738 -273.074127197266 2.885626316071
-160.628692626953 -66.288429260254 -265.132843017578 2.047236919403
-154.809143066406 -71.787506103516 -270.265563964844 3.893460750580
-173.026580810547 -70.505104064941 -275.588256835938 5.182896614075
-17.301340103149 -72.688041687012 -280.083831787109 6.553005695343
-130.209594726563 -74.117317199707 -280.698089599609 3.065014362335
-159.109390258789 -70.538528442383 -284.263519287109 2.499702930450
-145.204635620117 -69.538963317871 -278.433807373047 2.357516050339
-137.001953125000 -73.805877685547 -275.893890380859 7.624223232269
-10.261942863464 -63.999233245850 -282.340118408203 4.062057018280
-128.311386108398 -74.792015075684 -280.772430419922 3.608738899231
-142.830337524414 -67.279251098633 -283.843261718750 2.412296295166
-117.466880798340 -75.697822570801 -283.453735351563 3.537123203278
-83.127578735352 -68.253990173340 -287.125274658203 2.536289691925
-61.831645965576 -73.191169738770 -284.922882080078 2.506034612656
-10.114096641541 -73.492622375488 -285.807250976563 1.808781266212
-56.727519989014 -69.976890563965 -281.656677246094 5.099876403809
-58.896957397461 -68.524032592773 -286.723480224609 2.674125671387
-73.458580017090 -69.362258911133 -288.335540771484 1.642605423927
-91.143356323242 -69.556015014648 -293.289093017578 2.181083917618
-95.337966918945 -69.097595214844 -285.877777099609 2.905620574951
-161.445877075195 -70.289215087891 -289.499511718750 1.847629904747
-162.417266845703 -71.653350830078 -292.567169189453 1.809768319130
-126.275695800781 -74.764282226563 -291.303192138672 0.728687822819
-146.534683227539 -70.577934265137 -292.302520751953 2.245582580566
-153.768081665039 -73.699798583984 -303.303436279297 2.544974327087
-154.636901855469 -74.687171936035 -309.420288085938 1.197830915451
46.923717498779 -67.961425781250 -11.117239952087 5.096552848816
13.403446197510 -71.676269531250 -29.642522811890 6.709527969360
40.971462249756 -64.569931030273 -33.434360504150 1.147186756134
-16.214939117432 -73.219322204590 -64.134277343750 1.984134316444
80.016342163086 -67.833099365234 -63.269916534424 1.474858522415
88.919761657715 -65.091377258301 -64.303077697754 1.775779008865
77.072692871094 -75.520294189453 -63.261405944824 6.856453895569
70.449218750000 -72.372474670410 -68.062385559082 3.020419359207
89.335327148438 -72.429512023926 -74.303245544434 2.839273452759
-99.186508178711 -64.968635559082 -68.276695251465 3.231106281281
64.502685546875 -70.496910095215 -73.341644287109 4.632625102997
-38.006362915039 -72.331825256348 -75.784393310547 1.996071934700
96.563461303711 -69.936882019043 -83.675247192383 3.542582750320
60.869567871094 -66.141799926758 -88.779151916504 3.033321619034
105.992729187012 -76.604949951172 -90.490570068359 6.955437660217
97.821197509766 -75.996986389160 -97.101707458496 3.104974508286
71.714706420898 -70.518653869629 -99.729278564453 1.464752078056
-83.580673217773 -66.197601318359 -100.899520874023 3.199521064758
52.737003326416 -69.245239257813 -104.086212158203 2.080946207047
106.516563415527 -66.529624938965 -105.118309020996 1.148202300072
44.213729858398 -69.967308044434 -112.242088317871 0.254379987717
77.874435424805 -68.872817993164 -104.553337097168 1.091582894325
39.633857727051 -69.614349365234 -106.287742614746 1.025705099106
100.898750305176 -70.310699462891 -101.424766540527 0.523385703564
45.635433197021 -69.874847412109 -106.107582092285 1.639486432076
104.181083679199 -77.774467468262 -107.430671691895 3.477348089218
108.964630126953 -75.215408325195 -108.238670349121 3.311005830765
-81.943115234375 -66.509010314941 -112.389244079590 0.763534367085
-85.165084838867 -66.714256286621 -118.586830139160 0.952223122120
41.846641540527 -73.883415222168 -117.835128784180 2.417622566223
111.758705139160 -72.683799743652 -121.302268981934 1.448433399200
111.467323303223 -70.776466369629 -121.814094543457 1.101962804794
-90.897445678711 -68.148864746094 -124.748268127441 4.039613723755
103.180343627930 -73.458374023438 -125.447479248047 5.748511314392
-61.642082214355 -75.470901489258 -129.984954833984 4.974620342255
-88.162048339844 -70.061454772949 -125.985610961914 2.260932445526
-72.735336303711 -70.421073913574 -124.754112243652 3.831285953522
-62.081882476807 -65.308250427246 -124.951828002930 2.059233665466
30.080369949341 -70.087478637695 -129.091522216797 2.176333189011
42.231086730957 -66.782325744629 -134.141891479492 4.155625343323
-73.473960876465 -69.201416015625 -134.301788330078 0.825743377209
26.889186859131 -66.989746093750 -128.114807128906 5.572370529175
110.818954467773 -70.645912170410 -143.150756835938 0.686016142368
-40.266765594482 -70.232101440430 -147.639724731445 2.164001703262
31.262125015259 -72.729461669922 -147.706268310547 1.453241705894
111.159904479980 -68.607955932617 -147.372543334961 2.244659662247
34.092163085938 -71.213684082031 -140.579360961914 1.355828523636
107.859138488770 -69.258552551270 -138.005432128906 2.754578113556
-53.720657348633 -69.362815856934 -147.793624877930 1.006618022919
-75.374710083008 -65.903327941895 -149.668640136719 4.438293457031
-59.444507598877 -70.248573303223 -149.125732421875 4.608531475067
-44.667816162109 -75.099838256836 -163.090240478516 0.765949010849
1.556514978409 -72.799919128418 -153.864852905273 5.068367481232
106.866683959961 -71.506576538086 -151.332733154297 3.623978853226
106.426750183105 -70.564636230469 -159.118606567383 4.362506389618
8.949587821960 -70.014411926270 -154.997970581055 1.941803097725
0.032152999192 -69.315223693848 -158.680328369141 4.931778907776
19.220174789429 -68.164596557617 -152.382888793945 2.250435829163
24.045946121216 -68.511497497559 -153.848648071289 0.630272865295
105.332443237305 -70.557365417480 -163.675933837891 3.828426122665
108.843856811523 -74.946571350098 -165.827087402344 1.209318161011
22.035144805908 -67.056022644043 -174.277664184570 2.348375797272
22.204729080200 -73.776878356934 -163.227905273438 1.983407258987
109.555679321289 -68.096595764160 -160.471786499023 3.287415266037
-31.902521133423 -68.419151306152 -176.996109008789 2.241399526596
108.569107055664 -71.411270141602 -165.701873779297 2.102424621582
15.846908569336 -70.587654113770 -163.239547729492 3.550249576569
19.352119445801 -70.334472656250 -167.297164916992 1.814375996590
105.980049133301 -71.420616149902 -170.824234008789 2.130161285400
25.436923980713 -69.206527709961 -168.192337036133 0.905608892441
111.647445678711 -69.340309143066 -183.329711914063 2.183858871460
-40.647422790527 -69.453041076660 -177.549377441406 4.764652252197
22.030601501465 -70.237838745117 -167.638061523438 1.816749811172
105.801521301270 -70.852638244629 -182.988784790039 2.191632032394
20.577816009521 -71.632812500000 -175.251358032227 1.828144431114
-153.368347167969 -67.266006469727 -183.991317749023 3.822843074799
-29.975038528442 -66.318374633789 -188.115646362305 3.206948518753
22.151660919189 -67.251663208008 -183.416183471680 2.214136123657
-117.474403381348 -71.937538146973 -190.231369018555 4.392714977264
-113.879180908203 -66.118522644043 -190.677566528320 2.042054653168
22.859546661377 -71.249176025391 -185.990615844727 2.146026372910
8.787625312805 -66.927429199219 -182.869750976563 7.073497295380
-29.075019836426 -66.010429382324 -188.650314331055 2.706781148911
-31.067443847656 -75.536735534668 -187.369659423828 1.292724132538
-30.949872970581 -70.668838500977 -186.313186645508 2.159792184830
10.979298591614 -67.301925659180 -178.299301147461 5.480256080627
-152.841339111328 -69.253639221191 -193.843627929688 2.024150848389
-148.357482910156 -68.592842102051 -190.192581176758 3.351386308670
-148.513366699219 -73.773712158203 -197.257629394531 2.723593711853
-25.665500640869 -68.901741027832 -189.586364746094 1.254503846169
12.343400001526 -67.027030944824 -197.932540893555 2.128235101700
96.408287048340 -69.264976501465 -190.903457641602 4.595137596130
-115.613388061523 -67.715316772461 -196.411666870117 0.990662515163
19.116495132446 -75.281517028809 -195.953582763672 2.052748680115
-15.833842277527 -68.609329223633 -192.995117187500 2.544365882874
-19.320144653320 -69.921035766602 -196.649520874023 1.120811223984
99.477401733398 -69.111686706543 -198.483764648438 1.731302738190
5.051649093628 -73.315727233887 -196.386764526367 4.357688903809
-24.227689743042 -68.069473266602 -194.877517700195 0.668230950832
-122.717536926270 -73.372772216797 -202.201995849609 1.322395801544
-136.536743164063 -69.970458984375 -201.130081176758 2.238454341888
-116.332695007324 -63.088489532471 -204.026702880859 1.795944809914
-144.313522338867 -73.484695434570 -201.067962646484 1.652703881264
14.752767562866 -69.959579467773 -196.081298828125 1.821635246277
90.632804870605 -72.986618041992 -198.270614624023 4.446660995483
-167.485153198242 -63.025886535645 -198.070922851563 4.831027507782
98.103363037109 -69.974479675293 -199.836639404297 2.668485403061
-25.363540649414 -75.669853210449 -203.403106689453 2.568338394165
92.658935546875 -67.146568298340 -207.652175903320 3.505796909332
86.171669006348 -73.348800659180 -207.881362915039 3.929250717163
8.602498054504 -73.157066345215 -201.521255493164 0.241224601865
18.659160614014 -69.160598754883 -211.119766235352 1.347044110298
11.324227333069 -66.212837219238 -206.520492553711 2.628824949265
-12.954515457153 -70.504081726074 -221.767349243164 2.223672389984
-95.912849426270 -73.129432678223 -217.679595947266 1.643471717834
-14.196043968201 -73.209648132324 -209.388290405273 3.455787420273
85.901199340820 -71.626731872559 -215.726150512695 2.010990619659
-96.433242797852 -73.103424072266 -214.535583496094 2.495314359665
-101.979812622070 -65.937973022461 -220.041534423828 2.339224100113
-98.176185607910 -69.280052185059 -217.060287475586 1.091948628426
87.071411132813 -73.791572570801 -220.772613525391 2.612725019455
-137.876388549805 -70.516181945801 -223.133987426758 3.091970205307
-133.341903686523 -76.368705749512 -225.588485717773 1.812278270721
-118.559082031250 -69.947090148926 -222.686706542969 2.940857648849
-115.412391662598 -66.472831726074 -219.556259155273 5.752240180969
-134.810119628906 -67.042785644531 -225.864974975586 0.753237426281
-115.324104309082 -79.000648498535 -226.117599487305 5.333622932434
-113.376197814941 -68.924873352051 -226.388168334961 0.731913387775
-9.137529373169 -75.257278442383 -222.050781250000 2.789969921112
-17.278526306152 -73.881385803223 -221.281631469727 1.771812319756
-2.861140012741 -67.384246826172 -228.048675537109 1.857135653496
-12.005235671997 -66.360397338867 -225.047088623047 2.939206123352
13.642007827759 -71.811393737793 -232.244613647461 1.632431745529
-22.304376602173 -67.872116088867 -227.614730834961 5.375590324402
-168.886169433594 -67.514663696289 -218.660858154297 3.839500188828
-7.391777992249 -71.301452636719 -231.983383178711 1.789244532585
79.031593322754 -66.814842224121 -230.554641723633 3.144013881683
9.896746635437 -73.163490295410 -231.447631835938 1.483278512955
-7.443100929260 -69.747375488281 -233.549316406250 2.019154310226
-159.151443481445 -66.818351745605 -233.826660156250 2.672991514206
-145.289230346680 -67.555892944336 -226.543273925781 2.460747957230
59.031543731689 -69.710899353027 -234.859100341797 3.208449602127
-7.633734226227 -71.491256713867 -231.379211425781 1.323275566101
8.945853233337 -73.364479064941 -227.407073974609 2.481053113937
67.491653442383 -74.460914611816 -225.756164550781 5.620319366455
74.832550048828 -70.830718994141 -232.925018310547 2.332882881165
69.577812194824 -72.600181579590 -240.679321289063 1.041406035423
-3.978631973267 -74.724937438965 -232.912719726563 2.080971240997
56.528873443604 -68.332595825195 -235.044631958008 5.456942558289
-21.391675949097 -74.204170227051 -238.283920288086 1.545622348785
-16.417100906372 -66.795280456543 -237.982498168945 3.481073617935
5.772209167480 -70.467224121094 -236.700851440430 2.249412298203
61.952419281006 -75.635017395020 -234.955093383789 4.606538295746
65.357261657715 -68.882591247559 -239.734710693359 1.037964344025
46.658184051514 -71.570030212402 -243.968338012695 3.410702466965
58.889297485352 -75.368713378906 -240.831085205078 1.086344003677
-17.400632858276 -77.337356567383 -247.081863403320 4.879399299622
-85.945899963379 -66.272735595703 -254.588592529297 2.359814643860
-78.982803344727 -67.531784057617 -251.684417724609 3.155754327774
41.966846466064 -74.926971435547 -245.200180053711 5.788612365723
-153.844985961914 -71.782234191895 -247.726211547852 1.936368703842
33.256233215332 -70.576972961426 -255.235855102539 1.263214230537
-94.445022583008 -75.706207275391 -249.835052490234 3.541190624237
-159.226486206055 -64.430046081543 -251.953109741211 4.704638004303
-141.878814697266 -60.424903869629 -250.076705932617 5.455459594727
41.307010650635 -70.305633544922 -252.296875000000 1.261522054672
-127.594200134277 -65.395698547363 -256.445007324219 1.450482368469
-119.755943298340 -71.251808166504 -252.562698364258 4.112709045410
-93.713699340820 -64.880584716797 -254.669754028320 1.781735181808
-15.126884460449 -65.552001953125 -246.173492431641 3.405989885330
30.030771255493 -70.387870788574 -254.536193847656 2.103794336319
22.940643310547 -67.361953735352 -257.165069580078 0.997885107994
-162.145370483398 -63.090972900391 -258.837493896484 5.238773822784
-116.683357238770 -73.212738037109 -260.584381103516 2.042762994766
-15.569430351257 -70.562950134277 -260.256866455078 2.335574388504
-134.062438964844 -69.431205749512 -263.652770996094 0.903684198856
-16.632226943970 -69.234237670898 -268.362579345703 3.506052017212
-165.787643432617 -69.069442749023 -269.089965820313 2.024279832840
-8.221001625061 -71.912429809570 -276.530181884766 2.898231267929
-162.198715209961 -70.862731933594 -285.390136718750 2.605884790421
-166.999877929688 -73.381950378418 -275.881896972656 1.665109276772
-144.475646972656 -70.615653991699 -282.884094238281 1.795519113541
-173.840484619141 -72.683448791504 -282.245544433594 5.715185165405
12.261800765991 -74.579017639160 -286.850677490234 2.443799734116
-105.317687988281 -71.740043640137 -284.280609130859 1.168331265450
-89.793518066406 -64.006690979004 -283.447052001953 7.373239994049
-170.791702270508 -65.997116088867 -281.850036621094 6.436628341675
-94.943786621094 -77.076530456543 -279.671173095703 8.109685897827
-157.932601928711 -70.914947509766 -286.805206298828 2.795711755753
-79.277221679688 -72.460021972656 -294.596923828125 4.327075958252
-74.279930114746 -69.594871520996 -286.726348876953 1.068606138229
-85.542137145996 -72.513511657715 -289.789611816406 1.803693890572
-5.671197891235 -68.752006530762 -286.169189453125 1.472636818886
-92.385528564453 -70.283111572266 -285.181823730469 3.929271221161
-101.447410583496 -72.792846679688 -288.295104980469 2.254971504211
-120.679809570313 -70.457099914551 -290.736236572266 2.526776313782
-118.907135009766 -66.117156982422 -290.862487792969 1.533910989761
-136.400146484375 -70.485824584961 -289.082702636719 2.784454584122
-144.601715087891 -69.749206542969 -298.483001708984 2.452624559402
-146.821929931641 -71.701202392578 -309.820068359375 2.694434881210
22.666145324707 -64.847656250000 -12.522679328918 4.586277961731
31.724817276001 -67.642753601074 -13.923037528992 1.741280317307
28.240983963013 -71.115203857422 -15.948347091675 1.261918902397
43.261791229248 -64.956100463867 -17.722221374512 3.247543334961
22.364311218262 -67.803977966309 -29.757490158081 3.520824193954
-76.281044006348 -66.406852722168 -44.449119567871 3.310449600220
88.055747985840 -63.509761810303 -64.659294128418 2.881017446518
-20.599437713623 -64.769638061523 -64.954322814941 3.352019309998
102.593170166016 -68.834533691406 -71.763175964355 1.888374209404
92.300643920898 -73.893104553223 -73.769134521484 0.904299378395
66.726852416992 -70.108726501465 -76.979415893555 1.671144366264
70.348014831543 -73.681640625000 -80.188529968262 1.187401175499
-45.944507598877 -72.235542297363 -79.801597595215 4.462385177612
59.146518707275 -74.517433166504 -79.313407897949 6.934453487396
-95.094696044922 -68.416946411133 -86.736724853516 2.525670528412
-49.256114959717 -65.508895874023 -82.344085693359 2.225137710571
-57.918888092041 -75.249542236328 -83.063438415527 8.224968910217
100.799484252930 -76.851051330566 -96.596321105957 3.131451129913
58.467296600342 -72.997734069824 -88.681335449219 0.621442914009
65.694915771484 -68.437934875488 -88.936294555664 1.484229326248
-96.164009094238 -60.887439727783 -95.066261291504 3.201973199844
106.504722595215 -71.654197692871 -89.408805847168 4.879108905792
41.085571289063 -67.344116210938 -97.270072937012 3.202184200287
100.672325134277 -69.111083984375 -96.439483642578 2.017337083817
105.689575195313 -66.449386596680 -104.572898864746 1.647940397263
98.713607788086 -69.958312988281 -101.830505371094 2.372227430344
72.659439086914 -73.104324340820 -97.255950927734 1.402105212212
85.426559448242 -72.080619812012 -105.866828918457 2.767467498779
48.844688415527 -67.898094177246 -109.193481445313 2.087622404099
109.105026245117 -65.444435119629 -100.562561035156 3.163280963898
45.920375823975 -73.549934387207 -102.375068664551 1.889406561852
37.207111358643 -67.280929565430 -100.010711669922 6.101359367371
111.863540649414 -70.611915588379 -108.625839233398 1.576724052429
-79.738258361816 -63.944145202637 -106.719978332520 1.468637704849
44.128658294678 -67.846603393555 -110.778678894043 2.040554285049
31.800399780273 -72.372535705566 -113.906967163086 1.322039246559
104.466911315918 -66.806777954102 -108.724433898926 2.418454408646
36.142066955566 -66.015167236328 -109.582321166992 4.772953510284
-88.790939331055 -67.825668334961 -109.011459350586 2.853346347809
-96.673057556152 -63.654586791992 -112.090988159180 2.587542295456
100.721908569336 -75.143440246582 -117.909744262695 6.271264553070
-96.407684326172 -68.850456237793 -116.484252929688 1.638988494873
37.887866973877 -73.028854370117 -118.876091003418 2.599343538284
35.085548400879 -69.388603210449 -120.392654418945 1.610727548599
-86.355331420898 -68.029808044434 -121.566421508789 1.596631884575
31.688230514526 -67.124336242676 -132.038558959961 2.962177753448
110.530181884766 -71.377120971680 -129.446945190430 0.611341357231
-54.713245391846 -68.417724609375 -135.949142456055 3.292703866959
-89.470603942871 -66.385841369629 -130.659286499023 1.344533085823
36.706775665283 -74.134948730469 -128.433563232422 3.067697763443
-88.568519592285 -62.777309417725 -134.204711914063 2.463502407074
-89.762504577637 -71.568443298340 -138.329818725586 4.095067024231
-51.668247222900 -68.934097290039 -134.052963256836 2.308516740799
-72.581176757813 -65.558410644531 -136.665481567383 0.847149848938
-52.223033905029 -67.679023742676 -130.306152343750 1.168612599373
115.503517150879 -66.452247619629 -134.925857543945 2.425944328308
-73.591384887695 -70.553344726563 -132.465484619141 1.836315393448
35.908287048340 -70.399490356445 -128.579132080078 2.288730621338
-80.079772949219 -66.106185913086 -138.681533813477 1.964490413666
-73.958572387695 -68.438117980957 -133.020294189453 1.830849647522
-95.190475463867 -65.628425598145 -139.526107788086 1.205017447472
-56.588672637939 -64.675643920898 -143.517089843750 2.277732372284
30.014028549194 -63.859100341797 -143.969421386719 4.512516498566
25.800041198730 -67.569770812988 -146.984756469727 2.499726057053
18.649618148804 -62.702575683594 -142.445159912109 2.578468322754
110.968940734863 -69.256004333496 -144.322830200195 1.301285386086
-92.977890014648 -66.236305236816 -149.356689453125 1.803275823593
9.664134025574 -70.720619201660 -150.256103515625 0.887115418911
-73.247604370117 -67.636154174805 -152.448913574219 1.534690976143
22.181869506836 -67.479568481445 -147.151351928711 1.990872383118
-50.902881622314 -67.099227905273 -153.171279907227 2.812759160995
8.265166282654 -67.419677734375 -151.746002197266 2.416174888611
15.012392997742 -72.479377746582 -156.930603027344 0.372417032719
15.504548072815 -75.073989868164 -161.720138549805 4.349910259247
-52.246585845947 -71.325378417969 -161.124237060547 4.250534534454
-40.178234100342 -66.919616699219 -153.176132202148 3.376756668091
-48.901725769043 -69.663017272949 -159.862258911133 2.082075119019
-104.902549743652 -69.128166198730 -170.528717041016 1.088093280792
20.226497650146 -71.176132202148 -172.744842529297 1.800582289696
-35.450668334961 -68.938888549805 -175.668579101563 1.327099919319
13.847576141357 -74.633705139160 -176.220672607422 3.528974771500
-144.178497314453 -67.153205871582 -173.720199584961 1.645407915115
-33.195121765137 -64.726341247559 -170.400421142578 3.733423471451
-157.880630493164 -74.872116088867 -175.762939453125 6.694690227509
23.018497467041 -63.039207458496 -179.702270507813 4.016329765320
-35.582923889160 -70.690574645996 -168.324264526367 3.118453025818
-108.536598205566 -65.315841674805 -173.829116821289 2.094932556152
-108.637977600098 -74.416252136230 -181.855819702148 5.110821247101
-32.134376525879 -62.651161193848 -183.666137695313 6.511041164398
-25.848302841187 -74.496910095215 -179.444625854492 1.708343625069
11.009231567383 -68.029396057129 -187.045761108398 5.053395748138
14.483625411987 -65.824653625488 -196.701675415039 2.174408435822
11.668169021606 -69.795318603516 -185.364608764648 3.136420488358
-144.221389770508 -65.691322326660 -184.596038818359 2.901373624802
22.162448883057 -64.486610412598 -187.808578491211 3.935249805450
4.302989006042 -68.447784423828 -194.754714965820 5.552426338196
-136.941192626953 -65.929023742676 -191.242568969727 4.017132759094
-114.588096618652 -67.527305603027 -193.066940307617 1.225203275681
13.295578956604 -67.033248901367 -201.478103637695 2.354890584946
-119.975646972656 -66.185066223145 -194.649215698242 3.876243591309
-109.233383178711 -60.927516937256 -190.291748046875 3.771287202835
-168.273696899414 -69.343864440918 -199.155105590820 4.107921600342
-26.044401168823 -67.124191284180 -197.867965698242 1.211519241333
9.397779464722 -67.088081359863 -197.762359619141 1.501993775368
-146.445571899414 -68.664817810059 -201.887405395508 3.041939496994
-139.206954956055 -71.583641052246 -204.869613647461 2.967658519745
-23.240667343140 -66.624633789063 -205.813812255859 3.396128177643
-14.055049896240 -70.056854248047 -203.241195678711 1.596609950066
-15.614347457886 -70.449035644531 -203.823837280273 1.630647063255
-140.686248779297 -73.014678955078 -200.676025390625 1.880199909210
-18.951246261597 -68.860710144043 -210.859527587891 2.289991855621
-11.015185356140 -75.067375183105 -212.483825683594 2.873324394226
16.328592300415 -65.652038574219 -209.287765502930 1.962295889854
-18.532732009888 -74.538566589355 -209.685607910156 1.704787731171
8.615923881531 -70.496681213379 -207.224395751953 1.763921976089
-12.776353836060 -70.792419433594 -213.203598022461 3.007136583328
-24.777149200439 -65.008987426758 -209.660232543945 6.547410964966
10.031313896179 -76.356323242188 -218.710601806641 1.058409214020
-4.134181976318 -75.913352966309 -217.173660278320 0.328948855400
9.455713272095 -64.579475402832 -218.603561401367 4.110537052155
-8.243187904358 -72.642135620117 -226.158355712891 0.744187355042
-162.010711669922 -69.535820007324 -224.346313476563 2.062640905380
78.815612792969 -73.287979125977 -217.771835327148 3.739158868790
-137.410858154297 -65.548301696777 -221.791061401367 4.868764400482
-137.025558471680 -71.052742004395 -219.781692504883 5.632476806641
-9.797131538391 -70.262893676758 -223.126419067383 1.304094910622
5.104043006897 -69.040229797363 -233.232070922852 2.008516311646
-159.877731323242 -67.988861083984 -228.959289550781 1.264263272285
87.629646301270 -68.101524353027 -218.238708496094 2.291260480881
-3.369604110718 -67.737129211426 -224.419052124023 1.570585966110
-1.020105957985 -70.015800476074 -219.542694091797 1.089878082275
72.189254760742 -73.742095947266 -228.884735107422 1.627712488174
-1.459243059158 -66.230400085449 -234.221893310547 2.574123382568
-15.646197319031 -71.016685485840 -223.185348510742 1.490501642227
-129.172714233398 -65.003921508789 -231.813674926758 2.269906520844
-6.947103977203 -69.038208007813 -235.886566162109 1.760496497154
0.800420999527 -66.633239746094 -228.507614135742 2.399845838547
64.374504089355 -66.841232299805 -236.227539062500 1.824745893478
-159.898498535156 -70.867218017578 -235.290039062500 1.566785931587
-15.021988868713 -67.669326782227 -243.487228393555 3.590334415436
-171.973602294922 -71.584213256836 -236.948913574219 3.944762706757
8.712851524353 -64.637329101563 -239.605987548828 1.311889886856
-165.515319824219 -70.085777282715 -236.737884521484 2.077822923660
-161.983245849609 -70.670318603516 -244.922912597656 1.680456757545
56.137725830078 -70.595069885254 -243.026565551758 1.211661577225
59.339527130127 -72.442039489746 -240.289657592773 1.528702139854
53.772182464600 -71.096603393555 -243.718826293945 2.691572666168
49.615158081055 -70.027191162109 -247.429275512695 1.690493345261
-155.225250244141 -70.130645751953 -241.035842895508 1.840418100357
-158.104476928711 -64.482398986816 -244.936309814453 4.397214412689
-14.539972305298 -74.400825500488 -247.439651489258 3.264935493469
-152.667129516602 -67.781257629395 -245.330413818359 1.204039335251
16.434228897095 -70.363601684570 -249.143142700195 2.528584957123
-172.953598022461 -75.125961303711 -249.323059082031 6.705893516541
-170.621963500977 -66.413162231445 -248.088806152344 4.992732048035
-84.057449340820 -71.384162902832 -245.436187744141 4.224849700928
-172.428207397461 -67.474632263184 -256.263641357422 5.645228385925
-87.066253662109 -68.775794982910 -256.026275634766 1.323117494583
41.031719207764 -68.768051147461 -251.701171875000 1.621883511543
19.889240264893 -73.495140075684 -255.143112182617 3.026297569275
-159.997772216797 -70.056159973145 -261.101654052734 2.842048168182
-103.038360595703 -61.284172058105 -258.104156494141 3.453926801682
37.886074066162 -69.688621520996 -252.970550537109 2.112867593765
-108.749824523926 -77.991081237793 -256.361938476563 4.221257686615
-155.533157348633 -64.764793395996 -263.922088623047 1.937940716743
-106.015998840332 -67.972595214844 -255.054901123047 1.116451382637
-171.121994018555 -71.824958801270 -257.470428466797 4.529354572296
-115.132560729980 -69.945808410645 -261.952850341797 2.272618770599
-155.557174682617 -71.390594482422 -264.267669677734 2.803237199783
-161.255554199219 -65.582672119141 -260.960113525391 3.162294626236
-167.689651489258 -67.626159667969 -261.903198242188 1.470359802246
-167.137069702148 -66.624496459961 -260.371307373047 2.927233695984
-167.750808715820 -68.725074768066 -262.707580566406 0.332237601280
-170.260314941406 -69.532287597656 -258.340270996094 3.065991640091
24.618347167969 -71.422523498535 -263.687622070313 1.366265296936
-150.302124023438 -73.949821472168 -260.807189941406 1.926363348961
-153.332794189453 -68.774566650391 -283.198455810547 2.157726764679
25.606302261353 -70.131935119629 -273.843719482422 3.422966003418
-14.277382850647 -72.836410522461 -272.698944091797 2.364381790161
-127.319694519043 -66.452095031738 -282.893585205078 3.820224761963
-138.437744140625 -69.400787353516 -284.534118652344 2.145806312561
-135.724655151367 -68.352592468262 -287.489990234375 0.762007832527
-130.000839233398 -69.385757446289 -283.952270507813 3.428212881088
-115.146369934082 -67.761016845703 -289.830718994141 1.202245712280
-106.219078063965 -64.457511901855 -282.428588867188 6.398188591003
5.902062892914 -74.154258728027 -292.748046875000 2.045547962189
-86.443237304688 -70.718734741211 -288.777648925781 1.054509282112
-150.806488037109 -69.614547729492 -284.851806640625 3.175930976868
-104.378952026367 -70.232681274414 -289.152801513672 2.906201124191
-134.095108032227 -66.316551208496 -290.563323974609 1.088648557663
7.966242790222 -72.483337402344 -285.694091796875 3.362226486206
-113.079658508301 -61.719253540039 -285.616302490234 7.157613754272
2.176117897034 -70.458374023438 -291.974884033203 1.653111934662
-145.261459350586 -68.618560791016 -285.018096923828 1.609639406204
-154.510742187500 -69.187660217285 -293.359375000000 1.034547924995
-161.353576660156 -67.916381835938 -314.481079101563 6.065149307251
-157.934951782227 -67.017112731934 -309.323150634766 3.450289487839
45.358089447021 -71.006660461426 -22.961368560791 1.873754858971
23.355461120605 -67.256126403809 -35.005184173584 2.890394687653
27.864522933960 -68.745178222656 -34.565460205078 2.384075641632
-43.957904815674 -70.352706909180 -45.209907531738 2.693638801575
-12.475964546204 -64.851982116699 -61.008312225342 2.980793237686
93.434532165527 -69.225097656250 -66.144432067871 2.454422235489
66.995162963867 -62.213233947754 -67.123222351074 2.372384071350
-26.612386703491 -66.514579772949 -72.279724121094 2.766925811768
-101.552070617676 -71.783233642578 -85.989189147949 5.764708042145
-44.205085754395 -67.064956665039 -83.000373840332 1.636749148369
57.250728607178 -67.787322998047 -78.499809265137 5.181622982025
62.969615936279 -71.789344787598 -83.027404785156 3.004650831223
50.362178802490 -65.247802734375 -85.865325927734 3.936283111572
-60.862163543701 -66.270782470703 -88.746536254883 1.550991058350
65.948959350586 -63.084987640381 -87.418769836426 1.194967150688
41.416759490967 -72.593284606934 -96.586685180664 3.592144966125
67.637008666992 -71.121742248535 -93.162223815918 2.681487560272
-62.184604644775 -65.323570251465 -94.534507751465 1.146478772163
49.620624542236 -70.308563232422 -90.000312805176 0.820034325123
45.073772430420 -71.029861450195 -96.241088867188 0.613887131214
101.756416320801 -64.665916442871 -100.571517944336 1.605453252792
-66.799385070801 -67.184448242188 -96.327766418457 2.516314029694
109.981781005859 -68.029815673828 -98.054306030273 1.910975694656
-80.588912963867 -70.850036621094 -99.530204772949 1.722291469574
52.252693176270 -71.470779418945 -104.607597351074 2.096708536148
46.645015716553 -66.385208129883 -99.351943969727 1.344899892807
89.530464172363 -64.494422912598 -102.433769226074 4.343289852142
81.874084472656 -68.584571838379 -104.287231445313 1.249842047691
54.801059722900 -69.255592346191 -103.153038024902 2.068699836731
-78.514678955078 -68.144401550293 -110.126945495605 1.151283383369
-79.757759094238 -66.766906738281 -114.713096618652 2.613215684891
-82.654586791992 -68.438354492188 -115.803199768066 2.523132085800
-95.560981750488 -73.655227661133 -115.490661621094 4.482740402222
101.656501770020 -61.757305145264 -115.725852966309 6.999665260315
-91.870979309082 -70.695152282715 -116.344459533691 1.924804329872
-76.972076416016 -62.346035003662 -119.621520996094 1.526242971420
107.459098815918 -67.728507995605 -114.906860351563 1.369809865952
-61.593452453613 -58.008117675781 -115.343994140625 1.409058570862
111.727081298828 -74.125526428223 -129.772750854492 1.935074210167
108.325576782227 -71.195564270020 -127.920539855957 1.122582912445
103.919464111328 -71.024063110352 -125.806076049805 4.216316699982
-95.410392761230 -68.140167236328 -134.855392456055 3.963484525681
-47.368923187256 -67.806701660156 -139.862655639648 2.250724554062
-82.627494812012 -64.157508850098 -141.561920166016 5.428587436676
-71.005554199219 -67.465309143066 -146.366317749023 0.593879580498
-70.531051635742 -66.385581970215 -147.298370361328 1.618562579155
-56.677978515625 -67.029212951660 -141.737808227539 2.052080154419
-47.729488372803 -73.300308227539 -142.345184326172 2.987043619156
12.253003120422 -68.457504272461 -145.397415161133 3.250233650208
-95.439559936523 -62.653274536133 -139.252105712891 2.936372756958
-48.008506774902 -65.876075744629 -144.406845092773 2.384823799133
-52.799354553223 -58.832878112793 -144.783920288086 6.312197685242
-44.111454010010 -65.272453308105 -152.221176147461 3.299562931061
25.202459335327 -71.534957885742 -158.674575805664 0.912522554398
-52.583587646484 -69.214515686035 -149.536941528320 1.491602540016
-103.796745300293 -61.220340728760 -146.321350097656 5.845375061035
-48.955776214600 -63.762298583984 -153.091796875000 4.510920047760
23.594482421875 -71.842582702637 -144.083541870117 1.878841400146
-98.018486022949 -75.083282470703 -161.466217041016 6.282014369965
21.285425186157 -71.538703918457 -156.037612915039 1.893490433693
-109.863739013672 -63.290321350098 -166.677841186523 2.858779191971
-103.299148559570 -68.040641784668 -161.818649291992 1.823713779449
20.307155609131 -68.829208374023 -164.252044677734 2.579240560532
24.794733047485 -66.475151062012 -165.545364379883 2.267029047012
-112.307044982910 -70.756813049316 -170.941940307617 4.621220588684
-144.168228149414 -63.786785125732 -171.225143432617 3.315965175629
-20.145578384399 -69.018203735352 -188.542953491211 2.629847526550
-29.359205245972 -67.199279785156 -178.462280273438 2.161842823029
-118.676231384277 -69.574523925781 -184.560455322266 5.984245300293
-145.449417114258 -62.493499755859 -183.885131835938 1.733607292175
-103.445976257324 -63.795692443848 -179.094863891602 3.123370647430
-161.293624877930 -67.521560668945 -186.642425537109 8.130380630493
-132.909088134766 -73.272964477539 -193.198654174805 2.494688034058
-134.740447998047 -70.489982604980 -194.074996948242 3.134283542633
-21.116361618042 -66.337196350098 -185.513046264648 3.799160718918
-120.781356811523 -68.532897949219 -196.971740722656 1.063906073570
-120.233413696289 -63.052467346191 -198.072860717773 2.870496273041
-30.275274276733 -71.538398742676 -190.936935424805 1.978750586510
-156.081146240234 -64.216964721680 -193.468582153320 3.166501283646
-134.479568481445 -69.057334899902 -202.750976562500 1.789566874504
-126.699821472168 -64.569992065430 -201.610504150391 2.214205026627
16.763957977295 -72.396652221680 -199.776962280273 1.957581996918
-164.278671264648 -67.719711303711 -199.685745239258 1.853810191154
11.205441474915 -66.800338745117 -214.780410766602 2.163097858429
12.569161415100 -70.709075927734 -213.357864379883 1.284876942635
-17.286010742188 -63.674167633057 -208.307708740234 4.217301845551
-6.733932018280 -68.696098327637 -214.762435913086 1.379265069962
-173.957595825195 -63.747859954834 -208.607467651367 8.019943237305
-161.086624145508 -62.340213775635 -210.136505126953 5.000867843628
-96.675170898438 -67.278289794922 -216.835479736328 1.346099257469
-98.706451416016 -70.527915954590 -219.350448608398 1.358564853668
-162.763442993164 -69.004043579102 -224.421554565430 2.109280109406
-110.513328552246 -64.896621704102 -216.822158813477 6.380817413330
-13.492710113525 -66.492744445801 -209.920761108398 1.665350198746
-130.047866821289 -69.987159729004 -219.111694335938 5.244046688080
-144.869033813477 -68.009872436523 -220.848434448242 0.684847950935
-4.985927104950 -71.450263977051 -219.279678344727 2.386128902435
-136.027374267578 -65.395759582520 -221.978408813477 4.261489391327
-125.496017456055 -73.148300170898 -219.863784790039 4.805742263794
-116.147544860840 -71.452705383301 -221.602401733398 3.499249219894
-3.203851938248 -61.589771270752 -227.237380981445 5.679650783539
-109.418045043945 -65.295196533203 -229.664642333984 1.557129740715
-163.362960815430 -60.149681091309 -220.415786743164 6.761507034302
-147.627777099609 -66.829788208008 -224.043075561523 2.607023715973
-166.779449462891 -66.911331176758 -223.580795288086 1.277972102165
-10.071812629700 -66.743247985840 -223.574157714844 3.598263740540
-9.967793464661 -69.386077880859 -231.585189819336 1.863877534866
76.589500427246 -72.916404724121 -223.196594238281 1.492882251740
-3.152477979660 -71.898101806641 -226.956954956055 1.908836364746
-145.147262573242 -67.625015258789 -235.799377441406 0.888172626495
-16.395248413086 -66.059967041016 -227.491867065430 3.065594196320
72.108306884766 -69.965179443359 -225.757263183594 1.917636752129
72.275489807129 -70.068664550781 -231.357757568359 1.930059909821
-136.264160156250 -65.654769897461 -229.799926757813 1.445034742355
-158.226959228516 -72.029968261719 -226.208297729492 1.375573754311
-115.697456359863 -65.570549011230 -230.755157470703 1.418499350548
-127.167053222656 -62.085975646973 -234.435775756836 3.064272642136
-164.634323120117 -65.973083496094 -232.963592529297 2.248093128204
-162.744079589844 -68.442657470703 -233.236755371094 2.106403112411
-149.745788574219 -61.659076690674 -230.764450073242 0.705368757248
-16.652221679688 -66.120223999023 -232.534561157227 4.340581893921
-7.725419998169 -67.456016540527 -240.000320434570 1.925835609436
-162.248580932617 -66.124145507813 -240.260223388672 1.773162007332
3.763258934021 -69.588966369629 -235.175094604492 0.605505108833
-0.925252974033 -70.425689697266 -236.052368164063 1.272670865059
-161.134597778320 -67.207496643066 -235.304733276367 1.834524631500
16.328691482544 -74.258911132813 -238.771392822266 2.421500682831
48.990970611572 -72.445327758789 -244.221969604492 1.795901894569
47.297496795654 -73.141540527344 -241.784774780273 4.027755260468
-19.033470153809 -69.922157287598 -245.186187744141 3.396603107452
45.512268066406 -68.245887756348 -247.887802124023 2.322481632233
-162.022232055664 -62.848415374756 -246.860000610352 5.717103481293
-159.041687011719 -68.284675598145 -244.543212890625 1.841914176941
-163.148666381836 -73.150360107422 -247.034957885742 0.853246152401
53.814468383789 -68.663116455078 -245.739852905273 0.324083149433
-95.683708190918 -66.587333679199 -250.676910400391 2.483732700348
-126.338104248047 -66.277091979980 -252.532592773438 1.736675024033
-108.336662292480 -73.790046691895 -250.558944702148 6.751652717590
22.927036285400 -74.541358947754 -255.668472290039 0.772149264812
37.883239746094 -66.456069946289 -249.668350219727 1.807099580765
-102.594528198242 -64.845458984375 -252.524673461914 4.917396068573
-95.186264038086 -62.615154266357 -247.422317504883 6.008815765381
43.551738739014 -75.120262145996 -253.527496337891 3.755542516708
39.028831481934 -67.112182617188 -255.255767822266 1.494507908821
-156.470581054688 -74.126663208008 -255.179718017578 1.859247684479
26.765464782715 -69.446548461914 -258.116943359375 0.860855281353
-145.712402343750 -70.974311828613 -262.710968017578 3.006620168686
-114.915649414063 -67.956901550293 -260.564270019531 2.242569923401
-140.230697631836 -65.135307312012 -259.878143310547 2.877658367157
30.625455856323 -68.390853881836 -261.014373779297 1.691631436348
-128.412353515625 -66.629730224609 -260.643951416016 2.310145616531
-13.614978790283 -67.171821594238 -254.693176269531 2.281895637512
18.114784240723 -73.183456420898 -269.203765869141 4.385963439941
-6.384303092957 -75.818946838379 -262.253051757813 5.383617877960
16.857854843140 -72.213333129883 -278.429687500000 2.261764049530
-156.726089477539 -71.159461975098 -280.146972656250 3.407680034637
-13.899243354797 -66.859046936035 -278.866210937500 3.984764814377
-154.929733276367 -72.017929077148 -279.363677978516 2.417410850525
-124.832069396973 -71.649131774902 -282.699279785156 2.104621648788
-165.647552490234 -75.520317077637 -283.749389648438 1.433438181877
-117.385719299316 -68.024024963379 -284.658905029297 3.360798120499
-105.983833312988 -69.305458068848 -287.971984863281 2.073971033096
-9.290567398071 -67.356414794922 -282.512908935547 2.210208654404
-110.099815368652 -70.779228210449 -286.120513916016 3.584787368774
-119.263099670410 -65.744712829590 -281.114837646484 7.866018772125
-124.923309326172 -64.394668579102 -289.658874511719 1.233742237091
-141.877563476563 -68.597221374512 -287.802062988281 0.890466630459
-129.451705932617 -64.112396240234 -288.745391845703 1.483363628387
-160.956069946289 -74.167686462402 -287.045776367188 2.323175668716
-149.575241088867 -64.613960266113 -289.192932128906 1.682457208633
-161.736541748047 -64.723281860352 -300.566375732422 8.436704635620
-156.958358764648 -66.304618835449 -308.483032226563 4.252600669861
-162.722976684570 -65.368988037109 -298.889495849609 8.166377067566
-142.153015136719 -69.657188415527 -307.828918457031 4.398537158966
-151.378067016602 -71.497314453125 -312.339447021484 0.604009389877
34.042331695557 -67.460311889648 -5.030467987061 7.248314380646
47.223300933838 -72.517837524414 -14.969815254211 3.077688217163
22.376848220825 -65.018119812012 -19.849872589111 2.066948413849
49.728610992432 -67.972480773926 -23.884752273560 1.841394901276
26.370361328125 -69.775123596191 -31.827142715454 1.569973587990
30.434104919434 -68.140327453613 -31.028787612915 3.456880807877
-58.782512664795 -61.601783752441 -46.284160614014 2.948621034622
76.065254211426 -62.632438659668 -57.566894531250 1.603869915009
81.246841430664 -69.292396545410 -65.504753112793 2.407241106033
-91.097190856934 -68.478958129883 -60.683525085449 2.219034910202
-14.276579856873 -63.914688110352 -57.651676177979 2.289034605026
-93.889221191406 -68.231544494629 -69.269050598145 2.393703222275
95.314323425293 -70.945770263672 -65.194458007813 3.354847431183
-13.500826835632 -63.804378509521 -65.088859558105 1.217169523239
66.224632263184 -71.394668579102 -78.950813293457 2.824399948120
-45.354057312012 -71.496223449707 -78.588676452637 4.405899524689
-27.686868667603 -70.117942810059 -71.964714050293 3.741152524948
54.415828704834 -62.321960449219 -84.486785888672 4.091288089752
-44.626914978027 -77.465591430664 -81.330856323242 2.878807544708
63.683444976807 -57.706214904785 -85.364654541016 0.853556036949
50.895343780518 -73.357231140137 -88.881263732910 2.484556674957
53.841556549072 -66.886413574219 -92.275230407715 2.254913330078
56.760517120361 -75.015197753906 -88.329681396484 2.970294952393
54.815193176270 -62.764591217041 -93.541938781738 1.254879832268
97.556335449219 -64.029411315918 -96.226707458496 3.676439285278
105.608848571777 -62.403568267822 -97.608604431152 1.925881862640
59.186431884766 -70.922943115234 -98.535980224609 0.524390339851
106.270706176758 -63.291824340820 -98.460021972656 1.838299512863
-79.214958190918 -66.002319335938 -96.441635131836 4.008343696594
-74.821556091309 -67.039405822754 -100.724128723145 0.813513278961
98.855880737305 -64.060028076172 -96.278152465820 2.718359708786
51.819553375244 -68.902885437012 -98.808303833008 2.704028844833
68.844520568848 -70.016647338867 -95.211204528809 2.437100648880
-72.898254394531 -67.117805480957 -106.423248291016 2.245731830597
-87.166435241699 -65.193580627441 -105.672241210938 2.412143945694
85.595962524414 -72.360450744629 -101.066413879395 2.438482999802
37.544963836670 -70.039962768555 -100.627670288086 4.698325157166
104.524200439453 -63.834369659424 -105.244338989258 3.421393156052
46.537391662598 -71.210510253906 -111.414573669434 2.367731332779
109.400421142578 -68.981178283691 -100.098991394043 0.489327639341
-79.360885620117 -66.942794799805 -109.761611938477 1.927999377251
101.695152282715 -62.827007293701 -106.694190979004 3.409688711166
