-10.395365715027 -67.482452392578 -211.959823608398 2.317362308502
-126.868324279785 -71.342117309570 -222.007339477539 2.587147235870
-141.683364868164 -69.409011840820 -223.843276977539 1.224612951279
-1.804044961929 -72.372795104980 -221.276763916016 1.130074024200
-132.842941284180 -66.759857177734 -224.898788452148 1.018363475800
-122.300186157227 -74.484466552734 -222.739151000977 3.213400840759
-112.945358276367 -72.749610900879 -224.403305053711 2.771835088730
0.001084999996 -62.474201202393 -229.181793212891 5.049757957458
-106.179313659668 -66.536445617676 -232.391921997070 3.448452711105
-160.207183837891 -61.614517211914 -223.512893676758 4.041998386383
-144.423065185547 -68.225585937500 -227.053024291992 2.004956722260
-163.577194213867 -68.375106811523 -226.729598999023 3.555260419846
-6.875157833099 -67.666084289551 -225.589004516602 2.090280532837
-6.704120159149 -70.276214599609 -233.609603881836 1.285752534866
79.802169799805 -73.541519165039 -224.609497070313 1.647895693779
0.086318001151 -72.783340454102 -228.942321777344 2.784257888794
-141.855010986328 -68.964836120605 -238.794174194336 2.604026079178
-13.172494888306 -66.988838195801 -229.549591064453 2.107089757919
75.329322814941 -70.595474243164 -227.190658569336 1.487466812134
75.537284851074 -70.675796508789 -232.790145874023 2.595472812653
-133.022354125977 -66.988143920898 -232.722793579102 1.185795783997
-154.988174438477 -73.453552246094 -229.315673828125 2.216104269028
-112.449699401855 -66.829071044922 -233.528915405273 2.433786392212
-123.904495239258 -63.369297027588 -237.278396606445 3.001333475113
-161.367675781250 -67.391624450684 -236.092788696289 1.368862867355
-159.466918945313 -69.853538513184 -236.362167358398 2.167323112488
-146.510498046875 -63.035152435303 -233.768768310547 1.426030874252
-13.392852783203 -67.029647827148 -234.594192504883 3.258490562439
-4.407797813416 -68.304496765137 -242.000503540039 3.659542560577
-158.928817749023 -67.505027770996 -243.372528076172 2.432433605194
7.053113937378 -70.417221069336 -237.100906372070 2.550368309021
2.373996019363 -71.266578674316 -238.015411376953 2.540344238281
-157.846862792969 -68.604499816895 -238.413482666016 2.050342559814
19.660360336304 -75.029220581055 -240.624923706055 1.524792075157
52.354629516602 -73.080924987793 -245.831848144531 1.538990497589
50.646041870117 -73.792808532715 -243.409759521484 2.257442235947
-15.669473648071 -70.788734436035 -247.277847290039 2.489873409271
48.887882232666 -68.878776550293 -249.505859375000 1.390649557114
-158.666244506836 -64.201950073242 -249.957321166992 3.908694028854
-155.683593750000 -69.637184143066 -247.640823364258 2.335511922836
-159.755508422852 -74.506927490234 -250.181686401367 1.383139371872
57.175762176514 -69.276000976563 -247.299636840820 1.518593549728
-92.289253234863 -67.696418762207 -253.309326171875 1.638553380966
-122.930366516113 -67.484512329102 -255.385375976563 2.670523881912
-104.917587280273 -74.943183898926 -253.311737060547 4.092405796051
26.381439208984 -75.220748901367 -257.474822998047 3.838059902191
41.265716552734 -67.108139038086 -251.334365844727 1.570901513100
-99.192581176758 -65.970970153809 -255.200027465820 2.740087985992
-91.829147338867 -63.735698699951 -250.035339355469 6.335169792175
46.992050170898 -75.737083435059 -255.187103271484 5.201474189758
42.453884124756 -67.737754821777 -256.915924072266 1.188712596893
-153.015457153320 -75.427322387695 -258.281799316406 2.461642503738
30.219682693481 -70.102890014648 -259.875030517578 1.892636418343
-142.214233398438 -72.207504272461 -265.722320556641 2.822624444962
-111.444450378418 -69.092483520508 -263.340911865234 3.127174377441
-136.773483276367 -66.361083984375 -262.826568603516 2.280913114548
34.096790313721 -69.022193908691 -262.740234375000 2.893384695053
-124.944778442383 -67.811599731445 -263.512878417969 1.058004021645
-10.192110061646 -67.981391906738 -256.734313964844 2.070767402649
21.662305831909 -73.824897766113 -271.039031982422 1.655468463898
-2.876996040344 -76.572952270508 -264.276275634766 7.333882808685
20.468631744385 -72.821914672852 -280.269836425781 2.063720703125
-153.101074218750 -72.360359191895 -283.238128662109 2.077680587769
-10.302979469299 -67.572120666504 -280.907318115234 1.170155882835
-151.307434082031 -73.215774536133 -282.445312500000 1.840694785118
-121.187942504883 -72.729629516602 -285.561676025391 3.487507820129
-161.981063842773 -76.737426757813 -286.922424316406 2.092978000641
-113.740303039551 -69.070968627930 -287.452880859375 1.334350943565
-102.310401916504 -70.299659729004 -290.688507080078 2.431719779968
-5.666396141052 -68.038864135742 -284.522521972656 1.966145157814
-106.434494018555 -71.795089721680 -288.872772216797 1.820301771164
-115.651138305664 -66.812461853027 -283.913360595703 4.642558574677
-121.254196166992 -65.447525024414 -292.492614746094 2.405769109726
-138.206695556641 -69.716026306152 -290.775299072266 2.586757183075
-125.790023803711 -65.184562683105 -291.610778808594 1.651240944862
-157.270660400391 -75.355323791504 -290.179351806641 1.411187767982
-145.907943725586 -65.753784179688 -292.205841064453 0.982307016850
-157.986389160156 -65.859222412109 -303.667297363281 5.236791133881
-153.145721435547 -67.392120361328 -311.555450439453 1.427481174469
-158.982650756836 -66.515090942383 -302.000183105469 5.377981662750
-138.333892822266 -70.696174621582 -310.807739257813 5.341179370880
-147.519683837891 -72.549934387207 -315.392181396484 3.022908926010
35.662685394287 -69.112159729004 -6.736701965332 4.673066139221
48.932579040527 -74.084030151367 -16.600654602051 3.648898124695
24.096031188965 -66.650505065918 -21.630170822144 2.998904705048
51.486335754395 -69.494132995605 -25.478950500488 1.763761878014
28.192426681519 -71.345367431641 -33.597213745117 1.455557823181
32.244590759277 -69.699775695801 -32.762947082520 3.118702411652
-56.881847381592 -63.407787322998 -48.636779785156 4.868144989014
78.046661376953 -63.927425384521 -58.948074340820 2.448862552643
83.308563232422 -70.537399291992 -66.874877929688 2.156666755676
-89.067626953125 -70.338356018066 -63.296901702881 1.410565137863
-12.287228584290 -65.521179199219 -59.691318511963 1.615123748779
-91.798461914063 -70.065963745117 -71.901329040527 2.036409139633
97.379112243652 -72.143432617188 -66.469482421875 4.833277702332
-11.458204269409 -65.378204345703 -67.122192382813 2.267709016800
68.391204833984 -72.637268066406 -80.437530517578 2.315502166748
-43.186210632324 -73.125457763672 -80.882728576660 2.489582777023
-25.572189331055 -71.712928771973 -74.125701904297 1.976312160492
56.591144561768 -63.583126068115 -86.022354125977 2.508946895599
-42.418518066406 -79.081176757813 -83.643470764160 1.936354041100
65.848731994629 -58.931915283203 -86.814674377441 2.665482521057
53.140903472900 -74.612678527832 -90.486366271973 1.227686762810
56.088996887207 -68.118095397949 -93.832977294922 1.989203572273
59.007682800293 -76.252601623535 -89.899032592773 3.282648324966
57.057392120361 -63.987861633301 -95.076080322266 2.247434377670
99.820960998535 -65.094284057617 -97.456733703613 1.584485054016
107.877532958984 -63.435096740723 -98.773834228516 3.002133607864
61.492938995361 -72.110870361328 -100.071037292480 3.036359310150
108.548606872559 -64.317626953125 -99.623992919922 3.520349025726
-76.936302185059 -67.676528930664 -98.957923889160 2.128129243851
-72.508522033691 -68.681167602539 -103.212654113770 1.531857967377
101.120941162109 -65.120216369629 -97.498901367188 1.515235066414
54.121231079102 -70.115173339844 -100.388526916504 1.544611692429
71.123573303223 -71.184654235840 -96.672897338867 1.751768231392
-70.543869018555 -68.729942321777 -108.897987365723 2.222686052322
-84.823715209961 -66.858032226563 -108.242477416992 2.446892023087
87.924903869629 -73.446983337402 -102.416160583496 1.355637550354
39.864181518555 -71.294174194336 -102.315620422363 1.899699687958
106.853019714355 -64.838836669922 -106.422882080078 2.679175376892
48.938259124756 -72.390167236328 -113.041816711426 1.121289372444
111.709861755371 -69.989486694336 -101.263076782227 3.086759805679
-76.982803344727 -68.563781738281 -112.282264709473 1.603482961655
104.031013488770 -63.835403442383 -107.889106750488 3.998903036118
-82.370590209961 -65.414833068848 -121.886764526367 1.185312747955
-57.387275695801 -71.337471008301 -128.093292236328 1.344401955605
-55.993618011475 -68.019081115723 -124.026885986328 1.827051281929
-70.430953979492 -70.899856567383 -130.620132446289 2.624130487442
-49.558631896973 -70.153305053711 -131.196319580078 1.686402082443
-82.917594909668 -70.345291137695 -134.255783081055 2.773221015930
-76.595642089844 -64.067733764648 -132.068634033203 1.380110979080
-78.403930664063 -69.311317443848 -132.791748046875 1.560202002525
-60.170692443848 -74.188858032227 -142.318664550781 1.915917396545
-69.759521484375 -68.957572937012 -141.552124023438 2.119411706924
-59.547172546387 -74.299484252930 -133.291503906250 2.700658559799
-56.251506805420 -68.471450805664 -142.818084716797 2.273601770401
14.223576545715 -64.159706115723 -144.975357055664 2.638371706009
-90.298591613770 -69.540512084961 -141.086318969727 2.399979829788
-47.388900756836 -74.434623718262 -148.667404174805 3.049245119095
-93.853225708008 -66.784446716309 -150.222900390625 1.356845021248
-100.739189147949 -65.194061279297 -148.016128540039 2.210461139679
21.118427276611 -71.749649047852 -154.286819458008 0.603371322155
15.787778854370 -70.468040466309 -158.508621215820 1.209706068039
-94.210029602051 -71.474800109863 -160.872436523438 4.666961193085
-103.111083984375 -69.272499084473 -152.195480346680 3.453908681870
-98.680068969727 -67.071418762207 -168.021041870117 3.293213367462
22.634403228760 -68.475021362305 -169.985397338867 0.385204762220
-110.880142211914 -68.396926879883 -173.783050537109 1.555960774422
25.632127761841 -68.864784240723 -164.547744750977 0.959302961826
-146.886154174805 -68.904907226563 -177.434661865234 1.998183727264
19.145242691040 -68.479118347168 -175.698455810547 1.498478174210
25.993328094482 -70.327445983887 -185.593933105469 2.142162322998
-150.742446899414 -66.738189697266 -186.701095581055 1.769491672516
22.117088317871 -70.947792053223 -174.597900390625 2.940571546555
20.232019424438 -61.159942626953 -180.845184326172 5.461013317108
-144.113388061523 -73.025222778320 -183.513992309570 1.161547541618
-150.825363159180 -64.789642333984 -190.129928588867 3.088336229324
20.883722305298 -69.832664489746 -187.292984008789 2.574786901474
19.710206985474 -72.488761901855 -189.775436401367 3.236116647720
-140.563293457031 -71.304656982422 -194.845947265625 2.289535045624
-108.459999084473 -69.197959899902 -198.009353637695 2.700050592422
27.042663574219 -69.689956665039 -198.914825439453 5.415443897247
-124.352706909180 -69.319076538086 -195.204284667969 0.764898061752
10.714996337891 -72.480751037598 -200.592651367188 1.474838256836
-127.802749633789 -61.603313446045 -194.536483764648 3.538287401199
-160.944976806641 -65.797080993652 -189.331054687500 6.198860645294
-159.423965454102 -66.921844482422 -197.095321655273 2.666864633560
-155.867553710938 -70.789146423340 -193.883239746094 0.858415186405
-20.156429290771 -69.757827758789 -206.970718383789 1.110759258270
-167.768249511719 -71.305412292480 -199.816207885742 2.642796039581
-26.723087310791 -64.397567749023 -192.837112426758 4.298448085785
-14.710254669189 -70.690834045410 -193.597595214844 2.777315139771
7.996901035309 -62.696025848389 -195.716125488281 6.362535476685
-155.830841064453 -69.356964111328 -206.996002197266 2.805551528931
-105.676994323730 -66.946220397949 -203.123779296875 4.508489131927
-15.694557189941 -65.053031921387 -199.522186279297 4.064233303070
-160.222335815430 -61.900867462158 -201.828063964844 4.102391242981
18.433315277100 -70.041824340820 -201.922256469727 2.056612730026
-169.913513183594 -65.985885620117 -206.782302856445 3.263507604599
-118.775382995605 -71.300636291504 -202.833007812500 2.700034379959
-114.888977050781 -65.558898925781 -209.319351196289 5.236803054810
-121.729804992676 -68.324142456055 -204.209320068359 1.590995430946
-14.818180084229 -67.712768554688 -202.475616455078 2.427801847458
-18.021305084229 -69.962036132813 -203.416900634766 0.988039076328
-163.061004638672 -67.986885070801 -212.348892211914 2.171895265579
-158.739425659180 -65.789466857910 -212.329498291016 1.835369944572
-163.711853027344 -69.330017089844 -220.178405761719 1.270292162895
-138.513214111328 -71.535598754883 -214.263244628906 6.887318611145
-144.184463500977 -67.909416198730 -225.487472534180 1.550150513649
-0.143347993493 -67.101676940918 -218.782440185547 4.175870895386
-7.828703880310 -74.924942016602 -216.816101074219 2.740363597870
-99.815040588379 -66.098945617676 -220.834259033203 2.322040557861
-6.426030158997 -67.054336547852 -234.784317016602 0.969022989273
-167.704437255859 -64.992515563965 -231.344863891602 4.510712146759
-103.867362976074 -66.331588745117 -234.334243774414 6.455109596252
3.371375083923 -69.627159118652 -226.272735595703 0.856159150600
3.195241928101 -68.444862365723 -229.158843994141 1.120537161827
-110.776313781738 -68.754455566406 -234.236434936523 2.239292144775
-0.438495010138 -70.585418701172 -227.053390502930 1.267662644386
-117.454284667969 -64.828010559082 -234.498550415039 1.905410885811
-6.966739177704 -65.152626037598 -231.489654541016 2.645836114883
-0.575064003468 -67.806457519531 -234.709030151367 1.668642401695
-1.312525987625 -68.079345703125 -238.646697998047 1.524013161659
73.636077880859 -65.169647216797 -235.968322753906 3.113155603409
-8.415657997131 -72.574645996094 -237.432907104492 0.614268779755
11.128968238831 -69.994537353516 -235.666961669922 1.382403850555
12.479344367981 -68.214447021484 -237.492340087891 2.503096818924
6.321969985962 -70.672348022461 -238.395202636719 3.092249631882
5.346010208130 -71.323287963867 -241.344161987305 1.812170505524
64.396072387695 -63.440307617188 -238.920867919922 3.342985391617
70.061889648438 -64.469024658203 -239.979202270508 4.470314025879
7.902774810791 -68.344909667969 -248.253570556641 3.819825410843
53.082744598389 -71.273017883301 -241.958129882813 2.299701929092
56.442108154297 -74.360473632813 -239.695159912109 2.874667882919
48.182174682617 -64.562126159668 -250.459533691406 2.030109643936
43.584739685059 -65.462097167969 -251.095245361328 2.092092514038
42.057746887207 -67.809890747070 -258.105651855469 0.888086616993
-128.898742675781 -62.396541595459 -260.336425781250 3.592736244202
-7.715429782867 -67.981369018555 -247.557708740234 2.132205963135
31.679254531860 -66.799545288086 -257.068634033203 2.107495069504
44.946083068848 -67.555465698242 -245.156234741211 2.317512512207
30.567167282104 -72.496246337891 -252.276016235352 3.675224781036
-102.819320678711 -71.467796325684 -259.949676513672 1.559119820595
31.341430664063 -70.561035156250 -255.510620117188 0.769338071346
-143.997390747070 -70.838317871094 -262.489593505859 2.040746212006
-115.416770935059 -71.542831420898 -256.429168701172 1.420960664749
-109.590454101563 -68.721626281738 -258.905456542969 1.889809846878
-0.576466977596 -72.497482299805 -258.503814697266 7.603124141693
-150.787216186523 -69.935234069824 -257.768798828125 2.045541524887
38.251686096191 -69.567298889160 -262.432708740234 3.722856998444
-106.838256835938 -67.080001831055 -256.097869873047 0.390220612288
26.995683670044 -74.417922973633 -258.219818115234 4.394482612610
-133.461059570313 -72.021514892578 -265.164520263672 1.297577738762
-115.458145141602 -67.969116210938 -266.712860107422 2.741989374161
-109.800468444824 -68.153701782227 -262.896667480469 2.511852264404
-112.766738891602 -75.950485229492 -261.476165771484 3.048950910568
-140.451904296875 -70.753250122070 -255.801956176758 0.265155613422
30.946985244751 -69.838066101074 -258.479522705078 1.624836564064
-115.721199035645 -66.495468139648 -262.900024414063 1.014668464661
-143.525115966797 -70.183784484863 -264.137207031250 1.380284309387
-3.671329975128 -66.225128173828 -270.233734130859 1.841260552406
-148.608047485352 -71.306900024414 -280.757659912109 3.440432071686
-7.532431125641 -70.191337585449 -288.663055419922 1.690160751343
-4.206102848053 -66.435470581055 -281.031097412109 0.390451312065
-133.046295166016 -67.986740112305 -289.877685546875 0.893338918686
-127.951896667480 -69.147499084473 -292.656860351563 2.023504972458
-134.191116333008 -67.836982727051 -295.552093505859 3.132813692093
-125.422302246094 -65.778396606445 -290.507324218750 0.629785299301
-154.516036987305 -68.402725219727 -294.966979980469 0.849887251854
-156.465362548828 -69.284759521484 -300.535003662109 2.649940729141
-147.066635131836 -72.920745849609 -302.203857421875 1.908599138260
-147.903198242188 -70.713806152344 -305.323516845703 3.354033470154
-143.613128662109 -68.101692199707 -298.618469238281 3.400412797928
-149.313644409180 -68.060012817383 -306.602630615234 3.213961601257
-144.176971435547 -65.531944274902 -317.056274414063 5.606193542480
19.622455596924 -71.017768859863 -25.425872802734 1.703860282898
50.940452575684 -71.528121948242 -35.729248046875 0.965474247932
24.877542495728 -75.006011962891 -35.951450347900 3.777413129807
32.473751068115 -68.322280883789 -43.162628173828 2.838232040405
-41.280067443848 -60.311458587646 -48.489261627197 3.375750541687
-74.360160827637 -63.628829956055 -50.319637298584 3.622952699661
80.699241638184 -67.837570190430 -60.482234954834 2.374735593796
74.293975830078 -69.168312072754 -60.830432891846 3.197946310043
73.049842834473 -70.984390258789 -64.001647949219 4.372034549713
-100.196487426758 -67.384292602539 -71.941474914551 4.828260898590
99.141265869141 -73.199371337891 -74.464813232422 2.735457658768
-27.610668182373 -70.198211669922 -84.889427185059 6.972541332245
62.237564086914 -65.905761718750 -74.435691833496 3.044803857803
-41.632064819336 -63.638397216797 -83.651145935059 3.664613008499
-55.215305328369 -65.404121398926 -81.465270996094 2.779248714447
52.129833221436 -68.602798461914 -89.770690917969 1.528305411339
103.046478271484 -66.429885864258 -89.610382080078 1.919689893723
63.760059356689 -65.991180419922 -91.912696838379 1.991543889046
56.810661315918 -66.398414611816 -90.749801635742 3.124608755112
48.704620361328 -64.482841491699 -101.358261108398 1.451236724854
56.938747406006 -63.988945007324 -101.284088134766 2.617622137070
103.257102966309 -66.140068054199 -96.653816223145 1.524575233459
69.728919982910 -67.563011169434 -106.935844421387 3.845101118088
52.553272247314 -68.252807617188 -105.273826599121 2.781465530396
76.480476379395 -74.490577697754 -106.675361633301 5.161368370056
99.350875854492 -64.243576049805 -106.526008605957 2.432556152344
-73.474418640137 -64.546409606934 -99.215675354004 2.428858518600
-85.916618347168 -67.633522033691 -110.302207946777 1.561159014702
-81.281242370605 -68.103645324707 -112.277992248535 2.037355422974
-59.827262878418 -67.443321228027 -118.899261474609 2.761209726334
-56.569423675537 -71.819953918457 -126.367424011230 1.253101587296
-94.008483886719 -66.774444580078 -121.678199768066 1.112575769424
-73.315032958984 -70.233726501465 -119.034194946289 5.135139942169
-76.237586975098 -71.828132629395 -133.007339477539 2.195516586304
-59.758445739746 -64.068046569824 -127.753494262695 1.902355074883
-87.317062377930 -63.463447570801 -130.821731567383 0.618958830833
-89.061500549316 -66.228408813477 -131.001998901367 1.043533563614
-47.711124420166 -71.184898376465 -135.001861572266 1.225560545921
-50.003585815430 -69.515121459961 -137.375427246094 2.247539043427
-76.885269165039 -71.133934020996 -138.416442871094 1.908715844154
-53.856384277344 -70.333908081055 -141.325546264648 2.517308235168
-72.872825622559 -72.501358032227 -145.091598510742 1.732858061790
20.415330886841 -65.455459594727 -138.895278930664 1.671556949615
-57.114524841309 -72.846817016602 -144.207733154297 1.664512395859
-54.900161743164 -64.079910278320 -146.136764526367 3.521259546280
9.811540603638 -72.484779357910 -154.810379028320 1.520311474800
18.235927581787 -66.450187683105 -150.302520751953 1.852336883545
-140.592971801758 -68.705047607422 -173.865692138672 2.494178533554
-109.118362426758 -66.091453552246 -178.098220825195 0.623980045319
-110.058708190918 -63.674522399902 -190.602890014648 1.360993623734
-151.990875244141 -70.052894592285 -190.824279785156 2.202702045441
-112.222023010254 -67.146118164063 -186.498504638672 1.347386002541
-150.319229125977 -62.631278991699 -197.277709960938 1.540257573128
-113.103271484375 -66.820930480957 -199.380310058594 1.900182008743
-149.824707031250 -64.354507446289 -201.682098388672 2.030576705933
-148.600097656250 -67.354682922363 -207.228118896484 2.866764068604
-152.578155517578 -72.835258483887 -206.198028564453 1.250435590744
-147.787750244141 -67.822700500488 -225.139404296875 3.405501127243
-148.076766967773 -71.304924011230 -226.851043701172 2.279161214828
-104.025054931641 -64.797531127930 -228.491012573242 3.995595216751
-98.948944091797 -68.057060241699 -221.178802490234 1.669583678246
-121.696342468262 -62.444946289063 -232.576873779297 3.631556272507
-105.945312500000 -68.032516479492 -225.884887695313 1.371058821678
-155.909896850586 -68.417808532715 -231.318130493164 1.368513584137
-2.017044067383 -67.821762084961 -224.437942504883 0.976747274399
-131.914901733398 -71.518569946289 -230.503189086914 2.721054792404
-152.319122314453 -68.603668212891 -236.135391235352 0.911319494247
-137.443206787109 -71.680252075195 -233.003204345703 2.213721275330
-9.242694854736 -66.674072265625 -234.003631591797 1.451895952225
10.294573783875 -68.379684448242 -243.681289672852 1.266931891441
64.193000793457 -62.667102813721 -239.563858032227 4.013201713562
19.251031875610 -72.920906066895 -248.994552612305 1.970852017403
55.696170806885 -68.144676208496 -241.709274291992 1.664096832275
41.945190429688 -71.406906127930 -249.191787719727 0.541139423847
62.896293640137 -64.665855407715 -251.850540161133 6.023001194000
-151.930770874023 -68.062011718750 -249.555374145508 1.808884620667
-146.030410766602 -72.013923645020 -255.294631958008 2.521576166153
45.059356689453 -67.078857421875 -255.816482543945 1.789380311966
29.316543579102 -68.525077819824 -253.884384155273 2.850173950195
49.818233489990 -64.840560913086 -253.076431274414 1.332993745804
-143.814132690430 -71.247917175293 -263.119384765625 1.777717947960
-136.270446777344 -66.426658630371 -255.102600097656 2.134043931961
-122.740501403809 -65.386558532715 -259.616424560547 2.799438714981
-131.978073120117 -67.896209716797 -256.398406982422 2.865809202194
-138.662567138672 -69.268905639648 -258.630676269531 3.158961772919
-121.716880798340 -67.216064453125 -260.329711914063 3.901764869690
-141.740325927734 -65.880126953125 -260.708892822266 1.232654094696
-125.878402709961 -70.900070190430 -258.605255126953 3.318220615387
-118.935615539551 -69.172294616699 -265.468170166016 2.793884754181
-127.663948059082 -68.530014038086 -265.790863037109 2.102016925812
-120.723213195801 -64.059173583984 -264.651000976563 2.944650173187
-3.770051002502 -68.972602844238 -266.220520019531 2.944799184799
30.675708770752 -64.263313293457 -260.933013916016 1.416254043579
-144.342559814453 -62.080108642578 -267.993713378906 3.889447927475
27.669160842896 -70.046958923340 -270.501892089844 3.955428123474
-4.536728858948 -62.206073760986 -275.950469970703 5.452725410461
18.920991897583 -74.983673095703 -282.701202392578 2.085091114044
-139.651046752930 -68.775817871094 -290.019317626953 2.239495515823
-123.281295776367 -70.838027954102 -287.513214111328 1.625747084618
-129.390472412109 -63.120429992676 -291.176818847656 3.507476091385
-158.131851196289 -63.203693389893 -293.506866455078 3.242741107941
-125.219062805176 -62.264488220215 -289.927490234375 3.286186933517
-116.578865051270 -66.083106994629 -289.385253906250 0.834589779377
-123.179679870605 -71.337280273438 -297.899047851563 2.511096000671
-150.811508178711 -71.630851745605 -292.623413085938 3.399296760559
29.204065322876 -71.205581665039 -10.878064155579 1.964933633804
29.596422195435 -72.119308471680 -17.126514434814 0.872480332851
37.613693237305 -66.628082275391 -20.432430267334 3.288265228271
47.694984436035 -62.437767028809 -22.613945007324 2.419894456863
28.779228210449 -73.780464172363 -27.406091690063 3.463079452515
19.267753601074 -71.055526733398 -33.075565338135 1.378890275955
-33.494865417480 -69.093284606934 -45.432285308838 4.881093502045
-80.827209472656 -69.643943786621 -53.725772857666 3.127042293549
-16.780426025391 -67.404815673828 -59.114547729492 1.205320715904
74.368148803711 -65.381835937500 -63.817588806152 2.320399045944
104.053710937500 -66.752159118652 -67.765571594238 3.952651023865
65.009078979492 -64.745018005371 -83.030036926270 1.018460988998
61.535526275635 -61.701431274414 -83.426918029785 1.479257225990
98.509063720703 -68.458816528320 -83.618713378906 1.312483310699
-64.026184082031 -64.240242004395 -91.104835510254 2.458161115646
-65.687835693359 -67.465591430664 -89.832412719727 3.019880771637
51.414440155029 -64.336105346680 -91.371696472168 0.830914616585
-67.377593994141 -70.264526367188 -96.015953063965 2.734519720078
-72.473556518555 -66.715270996094 -101.900421142578 0.999396204948
-94.724174499512 -66.946800231934 -102.287033081055 2.894251585007
-75.678794860840 -62.455799102783 -99.588798522949 3.084750413895
47.458271026611 -62.924228668213 -101.581153869629 2.872988462448
-65.242431640625 -69.952323913574 -103.547157287598 4.436407089233
48.542289733887 -64.794876098633 -103.569877624512 2.273041486740
96.075752258301 -66.435325622559 -104.018661499023 2.001217126846
90.287803649902 -67.553382873535 -112.578346252441 4.908619880676
-71.189682006836 -66.491455078125 -115.701271057129 3.693483352661
-86.022598266602 -68.747421264648 -112.351882934570 1.621204853058
-61.405769348145 -66.700416564941 -119.013038635254 1.841447472572
-95.226058959961 -61.892925262451 -118.859146118164 3.421736478806
-75.690856933594 -69.646057128906 -127.403594970703 0.593661129475
-93.376823425293 -58.718601226807 -126.966484069824 3.704303503036
-63.575828552246 -65.505302429199 -117.057792663574 1.430294036865
-59.692897796631 -60.144397735596 -121.660598754883 2.229415893555
-89.314125061035 -68.647865295410 -130.671005249023 1.595213770866
-63.151756286621 -70.200210571289 -126.681579589844 4.158921241760
-83.290382385254 -65.867652893066 -133.662734985352 2.328712940216
-82.582778930664 -67.511436462402 -135.047729492188 2.032990455627
-60.569522857666 -72.389091491699 -136.630813598633 2.544605970383
-59.746234893799 -63.011589050293 -134.150939941406 1.423051834106
-54.497314453125 -59.940879821777 -133.977172851563 1.047920465469
-98.302108764648 -63.354759216309 -131.551269531250 6.667507648468
-96.720108032227 -62.287017822266 -145.077468872070 3.086091279984
-90.124855041504 -67.027183532715 -136.418930053711 1.972147583961
20.079355239868 -70.067687988281 -150.000823974609 2.764647006989
-49.615020751953 -67.758155822754 -140.529983520508 1.276420474052
20.326784133911 -67.626747131348 -151.041244506836 2.458876848221
-97.205932617188 -67.869407653809 -165.818527221680 3.829939603806
-102.412315368652 -72.916107177734 -171.207000732422 4.092438220978
-101.634910583496 -62.801181793213 -171.619522094727 2.292183637619
-107.526458740234 -59.670860290527 -174.391540527344 4.017059803009
-107.976272583008 -67.529052734375 -179.198043823242 2.441334009171
-109.666702270508 -66.533798217773 -179.392745971680 1.684444546700
-141.550354003906 -64.077468872070 -187.223693847656 2.303960561752
-110.644943237305 -65.531410217285 -186.303863525391 2.126094341278
-133.065048217773 -63.633255004883 -202.236404418945 0.889196574688
-149.648559570313 -69.638214111328 -199.143402099609 1.783860087395
-127.544441223145 -67.270034790039 -199.011596679688 3.100406885147
-157.204116821289 -69.085395812988 -196.228698730469 2.401084899902
-146.189453125000 -71.252098083496 -203.060180664063 2.193989753723
-125.573547363281 -60.658954620361 -197.892059326172 2.820526838303
-133.731994628906 -64.601325988770 -200.639511108398 1.215447902679
-138.689392089844 -73.660453796387 -207.282562255859 5.600371360779
-129.810852050781 -69.193145751953 -223.488082885742 2.066951274872
-107.810279846191 -69.732742309570 -231.034683227539 3.342174530029
-141.188385009766 -67.792716979980 -228.190841674805 2.100241184235
-118.858970642090 -65.344535827637 -232.764205932617 0.904715478420
-115.534233093262 -61.224956512451 -231.270782470703 2.818435430527
-120.414543151855 -68.618751525879 -233.004531860352 3.452028036118
-131.874450683594 -66.356269836426 -234.669204711914 2.010239362717
-113.861244201660 -63.243961334229 -238.896087646484 6.296078681946
6.569077968597 -66.196823120117 -236.306274414063 0.959270000458
-151.349090576172 -69.082893371582 -239.666992187500 3.961943387985
7.195777893066 -67.726898193359 -236.329421997070 2.077810049057
5.371111869812 -62.767124176025 -244.165191650391 2.116139888763
3.564510107040 -69.975967407227 -242.306259155273 1.838784217834
14.364418983459 -63.763957977295 -240.844985961914 1.250293374062
-142.244293212891 -63.959796905518 -235.573120117188 2.250023126602
-4.615937232971 -69.854782104492 -248.260864257813 3.853041648865
20.587242126465 -67.138221740723 -239.342742919922 4.218451976776
52.542644500732 -65.088447570801 -250.071136474609 2.140965938568
51.966079711914 -65.532783508301 -251.166259765625 1.953301548958
-145.525604248047 -69.169563293457 -253.181503295898 1.799362421036
-4.001907825470 -68.933410644531 -250.919189453125 4.216650962830
22.476303100586 -68.371131896973 -254.278015136719 1.746123671532
-129.999481201172 -60.281822204590 -258.685516357422 5.160687446594
-121.067604064941 -65.497009277344 -257.609069824219 4.282445430756
-122.542510986328 -69.212287902832 -258.797973632813 2.808289527893
28.370561599731 -66.734153747559 -257.617248535156 1.695391416550
-132.148483276367 -63.150978088379 -267.298645019531 5.258791446686
34.388210296631 -64.509063720703 -259.176605224609 2.598686933517
35.451164245605 -67.062927246094 -262.831756591797 2.551332712173
-152.686309814453 -69.279251098633 -268.887176513672 2.130981445313
-144.481460571289 -73.075363159180 -287.129974365234 2.096199035645
-147.138488769531 -62.208538055420 -288.229705810547 2.458111524582
-142.685699462891 -65.132194519043 -296.532104492188 3.156663417816
15.737474441528 -70.971069335938 -292.026641845703 2.381072998047
-153.030075073242 -64.759643554688 -304.395782470703 2.908911943436
46.759250640869 -71.301368713379 -25.675905227661 0.914441347122
35.989585876465 -73.356986999512 -39.462272644043 1.545099854469
-59.151721954346 -62.697158813477 -47.039108276367 3.691445350647
-71.342506408691 -63.604938507080 -47.689979553223 2.771408557892
-26.499635696411 -62.984020233154 -51.205551147461 1.329632878304
-22.688331604004 -70.385002136230 -54.807285308838 2.175456523895
-9.478494644165 -62.577178955078 -67.126449584961 2.516938924789
-27.560962677002 -61.666309356689 -70.496658325195 1.750014424324
64.746810913086 -66.621017456055 -74.234504699707 1.609777092934
-95.775810241699 -59.367591857910 -80.040580749512 3.557953834534
-45.586997985840 -66.942619323730 -88.111106872559 4.448722839355
54.826377868652 -68.165191650391 -85.604484558105 1.567798376083
60.839550018311 -66.963386535645 -85.308502197266 0.873414218426
60.820247650146 -67.326889038086 -88.069717407227 2.461207628250
107.558906555176 -65.512077331543 -89.986434936523 2.646010875702
52.685462951660 -64.078956604004 -88.882591247559 2.268563270569
98.568527221680 -59.190967559814 -99.380035400391 3.627187252045
-83.132171630859 -68.530654907227 -104.668655395508 1.504393458366
-91.682197570801 -65.559616088867 -101.676658630371 6.131487846375
74.814743041992 -62.269832611084 -113.265518188477 3.395968914032
-78.322288513184 -66.484367370605 -104.611450195313 1.984864592552
-77.353019714355 -71.291152954102 -113.345367431641 1.122633576393
-84.004585266113 -73.166145324707 -120.091018676758 2.858221054077
-54.886810302734 -67.572067260742 -126.809288024902 1.666103720665
-76.057525634766 -65.702705383301 -130.028778076172 1.862428307533
-62.950641632080 -61.404224395752 -128.860702514648 1.514072775841
-85.701835632324 -68.174934387207 -136.469650268555 2.577738523483
-75.944534301758 -64.731697082520 -133.641876220703 0.684435129166
-79.008819580078 -64.123771667480 -125.919784545898 1.268795132637
-89.410377502441 -64.551551818848 -130.387008666992 1.627136111259
-66.751068115234 -62.773487091064 -136.002502441406 4.413012027740
-90.125099182129 -66.635147094727 -132.387054443359 2.243406534195
-49.999233245850 -68.772521972656 -133.125732421875 1.913096666336
-54.663486480713 -72.336235046387 -139.525573730469 1.083413720131
28.466636657715 -66.283058166504 -141.560592651367 2.778330087662
-55.718345642090 -59.458862304688 -136.818008422852 1.546604871750
16.041908264160 -71.643180847168 -142.921798706055 4.967186450958
14.957244873047 -64.284454345703 -147.566177368164 0.362059921026
18.120487213135 -61.905605316162 -154.322952270508 2.338057279587
-98.234313964844 -64.487937927246 -146.197387695313 1.944490313530
-89.485961914063 -66.224380493164 -149.604309082031 3.432789325714
-96.105293273926 -62.471782684326 -151.122390747070 1.287575721741
-105.495597839355 -66.703125000000 -164.312561035156 1.739979267120
-97.822685241699 -64.433982849121 -160.744247436523 1.929960727692
-151.776199340820 -63.503501892090 -176.898056030273 1.324064612389
-153.408065795898 -66.022010803223 -176.536331176758 2.430223464966
-112.265548706055 -63.516380310059 -182.849136352539 2.968770503998
-140.540374755859 -64.138565063477 -178.042877197266 2.169969797134
-109.143280029297 -62.133377075195 -182.993225097656 1.330496549606
-147.623596191406 -57.463077545166 -188.281219482422 4.921418666840
-110.708610534668 -62.110939025879 -191.739105224609 3.241958141327
-110.184150695801 -67.383468627930 -182.393310546875 2.418599128723
-144.908905029297 -65.348182678223 -201.299163818359 2.181702613831
-127.439140319824 -67.845619201660 -197.687606811523 4.064910888672
-105.146217346191 -66.390197753906 -198.533004760742 3.934604644775
-115.416465759277 -59.301628112793 -199.266433715820 4.256252288818
-112.723709106445 -67.810455322266 -201.157424926758 2.865540742874
-115.919326782227 -60.440593719482 -203.505615234375 3.574000120163
-133.582992553711 -62.989494323730 -197.591079711914 1.033244490623
-140.257308959961 -65.953735351563 -204.394195556641 2.094215869904
-129.166229248047 -64.015495300293 -209.780715942383 4.846145153046
-128.050231933594 -60.081512451172 -201.208587646484 3.911141633987
-121.851440429688 -63.642684936523 -205.684127807617 1.403597593307
-111.147979736328 -65.172180175781 -205.937683105469 2.486790657043
-148.441970825195 -64.618682861328 -213.756607055664 2.821758031845
-152.100036621094 -65.090942382813 -219.361358642578 3.579056978226
-152.400482177734 -65.480316162109 -222.640365600586 2.747632741928
-138.389663696289 -71.251976013184 -225.866989135742 2.761112689972
-130.772598266602 -60.689437866211 -228.585678100586 4.068047523499
-119.993270874023 -68.112487792969 -218.696060180664 6.892332077026
-139.558364868164 -68.381195068359 -230.787780761719 3.235350847244
-151.038101196289 -67.607261657715 -225.629577636719 2.615323305130
-132.649765014648 -67.112304687500 -226.780044555664 1.541843533516
-132.607208251953 -62.414382934570 -229.037368774414 1.712997198105
-146.303436279297 -64.743270874023 -229.573745727539 2.470254421234
-134.843658447266 -57.991306304932 -229.259506225586 5.478732109070
-128.062759399414 -64.815528869629 -232.851684570313 0.833763539791
-11.500745773315 -68.141792297363 -237.234466552734 1.555098891258
6.315292835236 -64.501846313477 -241.819931030273 2.085541725159
15.221771240234 -59.946125030518 -243.545501708984 1.481975555420
10.328599929810 -69.115463256836 -243.572586059570 1.308502554893
-6.609227180481 -69.309722900391 -237.910171508789 1.331652164459
-12.338936805725 -66.678588867188 -246.696731567383 2.044156074524
36.845458984375 -64.259757995605 -249.131668090820 2.025894403458
47.971889495850 -65.296501159668 -253.630218505859 2.616756439209
-146.090469360352 -64.826370239258 -254.826766967773 1.152952671051
43.526077270508 -63.590229034424 -254.260681152344 1.288184285164
40.928176879883 -67.628234863281 -253.451354980469 1.157711505890
-158.821640014648 -71.090820312500 -257.204101562500 2.539403438568
-149.456604003906 -66.146507263184 -257.374603271484 0.804280459881
-151.450073242188 -68.524978637695 -259.593292236328 1.936921477318
4.015644073486 -67.966033935547 -263.133911132813 4.747594833374
-149.735198974609 -67.086303710938 -268.226257324219 2.301284551620
0.335323989391 -66.578834533691 -273.999908447266 1.833905935287
-144.853866577148 -69.470481872559 -276.067382812500 1.580425381660
-146.880142211914 -66.817466735840 -281.799011230469 1.688989877701
-149.818634033203 -66.025001525879 -287.490325927734 1.293142557144
-148.848770141602 -56.617359161377 -283.873748779297 5.795144557953
-144.689590454102 -63.847728729248 -292.965393066406 1.391495943069
-153.892807006836 -65.117393493652 -285.657836914063 1.235498070717
-150.191040039063 -66.757522583008 -287.032592773438 1.089041709900
-151.785949707031 -62.235439300537 -288.922912597656 0.508978843689
-147.037826538086 -65.386184692383 -289.262359619141 1.027010321617
-143.148803710938 -65.869316101074 -287.676239013672 1.805175781250
11.461619377136 -67.988601684570 -282.805206298828 4.690874099731
-145.340957641602 -65.193763732910 -296.254577636719 2.134891748428
-156.997924804688 -61.080055236816 -293.450805664063 3.964902877808
-155.832046508789 -59.474250793457 -288.952148437500 3.932895898819
-148.710113525391 -63.268291473389 -293.739044189453 1.379258990288
-146.745101928711 -57.945545196533 -288.700866699219 5.435074329376
-145.792739868164 -68.412689208984 -292.960144042969 2.095896720886
7.481044769287 -68.335334777832 -292.372955322266 1.458466768265
-142.681213378906 -62.439144134521 -295.558197021484 3.936187982559
-147.013244628906 -61.711524963379 -293.562774658203 2.302705287933
29.221691131592 -59.004455566406 -14.661573410034 3.615969896317
42.836315155029 -70.622322082520 -21.005315780640 1.276061773300
42.651500701904 -62.414035797119 -21.013185501099 0.689045965672
16.202346801758 -69.840873718262 -31.740320205688 3.882783412933
24.861320495605 -55.527278900146 -35.044345855713 2.726386070251
36.607769012451 -64.880783081055 -36.188243865967 2.384145259857
-55.519790649414 -63.606098175049 -45.589813232422 1.839093089104
-50.367393493652 -64.737701416016 -41.265388488770 4.021928787231
90.880920410156 -65.481628417969 -65.630187988281 2.965897321701
-95.058921813965 -62.887203216553 -65.911453247070 1.262861251831
97.448120117188 -75.684425354004 -60.673973083496 9.888025283813
68.700675964355 -67.788909912109 -71.111450195313 2.302630424500
99.379127502441 -67.888084411621 -78.188255310059 3.048115968704
63.121704101563 -71.231307983398 -76.212867736816 4.506581783295
-42.147190093994 -65.276428222656 -77.873123168945 1.187539458275
59.720882415771 -62.657901763916 -81.713119506836 2.678728103638
-50.503807067871 -61.697887420654 -77.407302856445 2.693114280701
56.247184753418 -65.008743286133 -83.001129150391 3.161506891251
63.302215576172 -61.438873291016 -86.107139587402 2.218951463699
-98.074493408203 -64.274765014648 -84.794830322266 0.896725416183
51.826686859131 -63.386646270752 -84.058883666992 4.438549995422
52.129329681396 -71.122901916504 -92.954666137695 0.602795481682
65.865470886230 -66.423538208008 -91.472740173340 2.119174242020
52.507137298584 -64.409339904785 -96.428627014160 1.870725393295
-80.102722167969 -62.965038299561 -107.263244628906 1.500123858452
83.074737548828 -70.054344177246 -105.812164306641 2.459132909775
-82.548484802246 -69.359680175781 -120.131813049316 2.261572122574
-76.954513549805 -62.654747009277 -105.422912597656 0.900653123856
-79.228675842285 -66.053985595703 -124.068595886230 1.390037655830
-84.650978088379 -63.473052978516 -116.751914978027 1.795048117638
-94.874610900879 -60.390918731689 -120.219696044922 2.599380016327
-81.094459533691 -66.026870727539 -121.489524841309 2.058995723724
-50.548450469971 -63.217777252197 -124.827766418457 4.289286136627
-77.785133361816 -62.050971984863 -135.685592651367 2.955578327179
-56.483078002930 -59.352397918701 -129.285659790039 1.896521210670
-88.011543273926 -61.614734649658 -137.696121215820 2.908398151398
30.212640762329 -64.383865356445 -137.895706176758 1.706140041351
19.978248596191 -65.155616760254 -140.990020751953 0.817352473736
-93.770172119141 -53.806823730469 -144.607315063477 9.071327209473
22.655981063843 -67.485565185547 -148.135910034180 2.944162845612
-89.187896728516 -68.004684448242 -147.617263793945 3.571877956390
-93.866485595703 -59.442718505859 -148.158538818359 3.713943004608
18.984767913818 -65.725059509277 -161.779617309570 5.075387477875
-95.678497314453 -63.597969055176 -148.564437866211 1.201611638069
-98.541717529297 -62.083118438721 -147.034179687500 2.223185777664
-103.625320434570 -63.537284851074 -155.932357788086 2.651655197144
-93.762397766113 -64.397529602051 -162.771514892578 4.855286598206
-102.433197021484 -67.785690307617 -180.616073608398 3.898374080658
-109.388946533203 -71.786109924316 -170.064300537109 3.785286903381
-96.781021118164 -65.758934020996 -165.851791381836 4.866877079010
-104.207664489746 -65.766914367676 -168.364761352539 2.117876052856
-139.544052124023 -65.555809020996 -179.575088500977 4.231744766235
-110.699440002441 -64.348030090332 -178.282791137695 1.444046616554
-139.414855957031 -64.583267211914 -188.523605346680 3.961126089096
-147.722045898438 -60.361236572266 -191.840942382813 2.134253025055
-153.887954711914 -58.846477508545 -188.679870605469 6.063091278076
-121.022079467773 -61.637886047363 -197.249389648438 1.433225274086
-127.692970275879 -68.675178527832 -194.496597290039 1.715260505676
-121.315025329590 -61.837154388428 -201.919387817383 2.764833211899
-143.487686157227 -67.001182556152 -202.154281616211 1.966255307198
-122.338088989258 -68.411216735840 -204.151885986328 1.070428609848
-146.157150268555 -64.943229675293 -204.071945190430 2.001044273376
-151.342636108398 -63.889602661133 -206.098098754883 1.516634225845
-153.525054931641 -62.494625091553 -227.584793090820 1.421037793159
-142.519104003906 -70.710365295410 -232.343109130859 0.904710352421
-127.365058898926 -61.592834472656 -232.004379272461 3.655382156372
-152.143844604492 -62.708484649658 -230.549514770508 0.837892591953
-1.694949984550 -70.385597229004 -239.710525512695 1.304593086243
12.893844604492 -61.707122802734 -238.006362915039 4.090719223022
-0.326687991619 -69.306961059570 -243.637695312500 2.531780719757
-149.974411010742 -63.003181457520 -245.688293457031 2.038188934326
-7.524641036987 -62.749866485596 -241.474411010742 2.608813047409
-152.306915283203 -70.220794677734 -254.419189453125 0.248187258840
-5.962955951691 -70.382575988770 -250.137680053711 4.850391864777
-147.419692993164 -66.717613220215 -255.327865600586 2.568299770355
21.825916290283 -66.327964782715 -251.590652465820 2.659481048584
-150.941497802734 -59.101898193359 -256.143981933594 2.674492120743
-148.651763916016 -64.057128906250 -256.265594482422 1.642951846123
-150.519668579102 -63.941505432129 -254.839004516602 1.408025383949
-148.238433837891 -62.853355407715 -259.211853027344 1.298446416855
33.763477325439 -65.660575866699 -259.301788330078 2.292020082474
32.886833190918 -65.003791809082 -264.449371337891 3.481952667236
-144.241058349609 -64.612228393555 -255.237487792969 1.401517868042
-151.153289794922 -58.830867767334 -260.445281982422 3.032083988190
-152.518737792969 -68.397087097168 -260.619384765625 1.994435191154
-145.699676513672 -61.507450103760 -259.497314453125 1.765834450722
28.715604782104 -63.629280090332 -262.656585693359 0.821439802647
30.660194396973 -64.236450195313 -267.036010742188 3.835669517517
-155.042907714844 -65.782951354980 -263.307525634766 2.300698757172
-142.402542114258 -63.634147644043 -264.406311035156 1.270987033844
-147.242980957031 -60.151489257813 -263.395477294922 2.514782190323
-142.396362304688 -63.497482299805 -265.934448242188 2.249262094498
-142.237014770508 -67.335006713867 -263.199768066406 2.126981973648
-143.850219726563 -69.978767395020 -266.510772705078 1.634950876236
-147.070419311523 -61.561439514160 -267.277984619141 2.113028287888
-148.909423828125 -59.762088775635 -287.513519287109 3.628572940826
-145.223419189453 -63.819450378418 -282.941131591797 1.297304272652
-146.521377563477 -64.415138244629 -279.558715820313 1.380112409592
17.793127059937 -64.392700195313 -281.451293945313 1.944059729576
-152.878753662109 -59.894927978516 -286.675506591797 2.363520860672
-145.485656738281 -62.938388824463 -291.141754150391 1.087224841118
-4.639165878296 -72.418968200684 -286.690032958984 0.871766209602
6.292053222656 -63.977138519287 -292.034667968750 2.939159631729
-151.726882934570 -64.483222961426 -295.089691162109 2.285818338394
27.129650115967 -71.240447998047 -21.314550399780 1.515289187431
46.442131042480 -65.758049011230 -27.650804519653 3.820780754089
50.069801330566 -70.569168090820 -32.672016143799 2.343808412552
40.225898742676 -60.361495971680 -36.662628173828 1.455298900604
26.120576858521 -72.377822875977 -36.934867858887 1.987814903259
45.588718414307 -67.765403747559 -40.739704132080 2.307256221771
78.957740783691 -61.040733337402 -62.998180389404 4.203647613525
77.634666442871 -64.799247741699 -62.831100463867 2.030423164368
-18.304870605469 -64.591529846191 -71.097686767578 3.736790180206
68.467308044434 -61.468101501465 -71.135513305664 3.588354349136
-27.277917861938 -66.322425842285 -72.289154052734 2.927379131317
-35.887489318848 -69.960891723633 -81.057327270508 3.502640962601
-57.441951751709 -62.932510375977 -75.532424926758 4.699188232422
-55.561878204346 -60.356651306152 -79.271080017090 0.819314360619
63.806552886963 -70.210617065430 -81.786018371582 2.823943614960
109.125053405762 -69.550491333008 -90.472236633301 5.300244331360
-59.134078979492 -60.486331939697 -85.817764282227 1.229091882706
58.680759429932 -64.650939941406 -95.995292663574 1.910933852196
65.949653625488 -62.667621612549 -94.931640625000 1.818358421326
104.101249694824 -63.202178955078 -93.380516052246 2.158434629440
-65.338493347168 -68.262115478516 -93.434661865234 2.061346054077
55.605724334717 -59.654136657715 -95.811492919922 3.164383649826
-62.451816558838 -68.243469238281 -105.260200500488 7.049180507660
68.935836791992 -64.438430786133 -95.479133605957 2.631304979324
67.419090270996 -64.251304626465 -103.225723266602 1.434979319572
-75.690864562988 -61.732204437256 -109.397003173828 1.390822768211
-96.441215515137 -61.682907104492 -113.946968078613 1.172822475433
-69.353080749512 -57.157371520996 -112.848365783691 1.655443072319
-83.128044128418 -65.133705139160 -111.843299865723 2.160099983215
-60.742996215820 -66.657081604004 -116.116683959961 2.144838333130
-83.305137634277 -61.141719818115 -108.131088256836 3.292012691498
-74.230476379395 -64.827377319336 -114.727905273438 2.014160156250
-76.311073303223 -66.985923767090 -114.846382141113 1.575869083405
-69.162117004395 -67.549880981445 -119.782669067383 4.430570125580
-85.017959594727 -66.774398803711 -127.597099304199 3.043308973312
35.690834045410 -64.217994689941 -128.953186035156 2.351846694946
-47.436954498291 -63.474094390869 -130.747146606445 4.383983612061
33.641162872314 -63.354862213135 -136.005599975586 3.263235569000
31.411909103394 -64.880592346191 -131.860946655273 1.630241394043
30.246677398682 -68.126190185547 -130.875244140625 3.226992130280
-53.664527893066 -61.274356842041 -129.978561401367 2.079235076904
22.683000564575 -64.722953796387 -146.049835205078 2.845890760422
