# This PCD file was generated using the MATLAB® pcwrite function
# from Computer Vision Toolbox®.
# .PCD v.7 - Point Cloud Data file format
VERSION .7
FIELDS x y z
SIZE 4 4 4
TYPE F F F
COUNT 1 1 1
WIDTH 1411
HEIGHT 1
VIEWPOINT 0 0 0 1 0 0 0
POINTS 1411
DATA ascii
74.597313 -72.845032 -115.376778
94.298996 -74.449867 -113.938782
86.790962 -72.110115 -111.754608
83.767235 -75.006973 -113.947678
-84.907883 -77.091026 -102.753510
46.440113 -69.770454 -116.655342
106.705688 -72.784309 -127.806435
108.712257 -72.190430 -127.886200
50.909237 -75.896553 -132.427002
114.020409 -74.736252 -137.395996
116.970085 -74.781868 -153.155228
-50.048512 -71.290840 -132.735718
27.633837 -72.208809 -145.010529
41.089943 -76.252579 -145.112167
23.824678 -69.819519 -151.876999
112.247185 -75.196426 -154.745316
111.478889 -72.782921 -147.850006
-74.478317 -74.153069 -149.553116
-43.959557 -72.772980 -144.536942
-72.668404 -72.161674 -153.957596
17.365677 -70.524727 -157.470413
110.402481 -67.898315 -165.652725
-55.374352 -75.833992 -155.057419
-73.562355 -73.114174 -153.573746
-40.502048 -77.050095 -155.744904
29.799034 -66.542839 -164.270828
106.923744 -66.910088 -167.643448
113.875183 -69.544899 -179.705887
-69.962265 -70.718857 -157.698624
-76.724960 -76.817017 -161.412979
19.376526 -77.210678 -173.090790
-62.992008 -71.258759 -169.438004
-34.947392 -70.998604 -168.223419
5.944408 -74.498062 -172.453552
104.553871 -67.872040 -178.568558
6.951996 -76.672356 -176.825729
-35.074635 -73.668869 -170.700928
-6.128462 -67.075287 -172.097198
103.350822 -66.641693 -183.853348
-44.212395 -70.938545 -167.722046
26.690702 -69.354912 -183.645447
110.717247 -75.305923 -190.081894
-60.615520 -70.138550 -178.281967
-31.312807 -76.685738 -180.812714
97.821739 -71.501678 -190.976425
26.239756 -69.583626 -178.112686
100.695145 -72.554497 -192.650085
-40.742100 -68.784698 -183.559616
105.241982 -74.599503 -198.056824
-66.840721 -70.217880 -179.633255
-29.384178 -77.731544 -183.227432
-151.353180 -68.630257 -179.099442
-57.748871 -72.475021 -181.957245
-151.320679 -75.696640 -180.598999
-39.176403 -70.651703 -188.040924
25.103401 -77.574509 -189.086136
101.112396 -71.787666 -200.415024
-40.354782 -72.481964 -186.457962
5.522786 -72.811760 -199.408020
9.914000 -71.530930 -214.319107
-153.335587 -75.786880 -182.610977
100.755302 -73.859108 -212.818375
-28.354906 -70.551727 -198.356888
95.644447 -72.239456 -203.564560
6.966154 -69.115166 -198.977631
-145.564209 -74.655869 -200.881439
-142.895020 -73.911598 -194.862350
96.008698 -74.551201 -218.072037
-17.387699 -77.170609 -206.454453
-23.278334 -73.194817 -210.248871
4.991260 -74.649689 -215.972855
-155.628525 -74.031006 -200.530701
-152.428360 -76.187340 -204.097458
94.328552 -64.366875 -221.886322
-90.581253 -73.435570 -207.565735
-40.878757 -74.285149 -204.980637
13.036324 -75.590294 -224.284180
-31.142166 -73.340141 -216.145676
-80.998550 -71.524139 -206.697418
84.163292 -70.800514 -224.467422
-85.746170 -70.598663 -212.631683
-154.768463 -74.604042 -213.635223
-86.819931 -71.682014 -212.922897
-18.187433 -66.223640 -214.032730
-27.901579 -69.413704 -225.624344
11.352246 -72.452133 -223.608551
-12.727207 -73.915634 -228.850784
-95.329979 -79.482361 -218.907745
85.736221 -69.526581 -229.364594
-106.674583 -72.232018 -214.042160
-161.093506 -72.812096 -219.135361
-36.503731 -71.696426 -229.359299
11.777281 -73.056870 -224.802567
-109.210541 -74.664085 -218.463089
-0.001676 -67.116539 -225.558365
-33.958622 -72.509438 -219.716827
74.213173 -68.225876 -239.379364
-151.225098 -72.967224 -212.178299
5.935648 -70.898544 -234.421738
-17.461691 -75.987419 -234.328781
9.779129 -63.789650 -232.310883
75.951401 -71.981430 -237.460327
-22.504803 -75.983147 -235.311020
-137.935822 -76.425034 -222.946274
-22.648819 -72.032967 -230.257690
8.395690 -71.418022 -238.188141
-135.174728 -77.328621 -223.291183
-161.155930 -71.004654 -224.892548
-150.749435 -73.267479 -223.958923
-136.155777 -71.851219 -222.566254
-19.367723 -69.035255 -230.556488
63.572075 -70.381187 -240.853577
-153.004440 -69.656448 -233.849976
60.362896 -71.719795 -241.619461
-29.378155 -76.464958 -236.656754
-150.067307 -77.513565 -223.144897
68.206543 -78.382950 -243.350449
1.740389 -76.955040 -240.380707
-148.403290 -78.242409 -231.206833
-157.622070 -73.575203 -227.434692
9.136571 -67.185310 -239.535965
-11.477465 -75.688278 -246.172180
-38.278065 -71.336990 -241.544540
-10.452266 -66.934700 -243.483521
-168.861282 -78.046371 -231.209579
-3.508214 -69.322655 -250.532135
-173.382538 -76.041649 -233.655746
-20.855146 -73.237434 -243.737564
49.686527 -71.773117 -251.620102
-22.369295 -70.482758 -242.764526
-34.702934 -71.765144 -252.148636
-33.655148 -71.691635 -246.876984
-20.033283 -75.993080 -246.404251
-153.964584 -75.351784 -223.025238
-1.489139 -70.353416 -249.455780
54.287556 -70.223328 -257.550476
5.848574 -68.336411 -253.790207
-177.485443 -72.688072 -235.276840
-60.409077 -71.504227 -241.728027
-4.832080 -78.866646 -256.626038
7.766836 -71.825668 -252.090347
-63.444866 -72.221550 -249.985031
-12.159702 -66.190674 -257.003357
10.780249 -78.530106 -257.853546
-181.030273 -72.040977 -241.374405
-75.136848 -77.177002 -250.632706
-62.007851 -70.559708 -250.379364
-92.579559 -71.174698 -252.813797
-170.958405 -76.184067 -239.626846
-160.132141 -65.174049 -242.093414
-70.318024 -74.936012 -251.842712
-78.359497 -72.362129 -250.239960
-163.349594 -71.578636 -246.045715
-161.728439 -75.659340 -246.193054
-85.082703 -67.895920 -255.644730
-103.849846 -69.582664 -255.617691
-173.196548 -67.503059 -246.483261
-167.760010 -74.700623 -254.718002
-145.751450 -76.040054 -255.577286
-93.044609 -72.441452 -249.987534
-171.592316 -70.130211 -246.766296
-151.863327 -71.101295 -252.154633
-94.524490 -71.874054 -248.766327
-108.158562 -70.988113 -260.464630
-153.233795 -75.273758 -250.112579
-102.759613 -72.799103 -255.015335
-164.416016 -71.830032 -249.251572
-113.790932 -72.725899 -252.983429
-181.078262 -73.181343 -251.064117
-172.926117 -76.410934 -259.224396
-137.853561 -78.132462 -252.368073
-162.755936 -74.600128 -253.616104
-120.827095 -69.207680 -260.453674
-25.082634 -69.387131 -268.090759
-151.314056 -73.427200 -255.667465
-137.322769 -72.533615 -256.366089
-164.106003 -71.661278 -257.237183
12.565060 -71.989464 -281.561035
-161.560059 -76.644653 -273.609467
-181.264191 -74.515350 -274.589203
-21.511074 -70.258606 -286.186066
-157.168900 -72.952515 -274.146973
-23.623545 -69.339233 -289.883026
-0.444355 -72.120338 -295.065094
-149.781479 -70.790039 -281.166626
-79.317902 -74.991272 -288.914612
-46.581203 -75.095337 -293.590088
-124.884377 -73.292976 -280.271240
-109.987251 -78.068268 -288.853210
-101.951668 -73.274895 -291.100555
-64.371544 -73.737854 -295.406464
-128.724304 -79.258125 -284.488922
-128.534515 -74.835403 -287.491608
-46.962540 -68.352806 -292.275757
-129.900970 -74.542145 -290.932526
-141.370453 -67.754906 -285.082336
-158.148148 -76.562454 -289.090363
-6.615936 -71.402084 -298.720123
4.272933 -73.057808 -301.721252
-174.602158 -73.507507 -285.440613
-174.161407 -78.297752 -294.065704
-163.055679 -75.242104 -304.253235
-167.683319 -72.733429 -304.151245
-167.763443 -74.167252 -308.295135
38.946266 -77.115883 -24.711449
44.388996 -69.518684 -30.666096
30.929634 -72.815414 -35.511330
37.673279 -69.155602 -49.971146
-51.053825 -72.858925 -53.312672
-57.038860 -73.644272 -53.197495
-31.252991 -77.916420 -53.844257
-80.029449 -67.536514 -66.178055
85.498360 -74.930206 -90.557343
-7.457500 -68.956245 -78.342964
95.415718 -72.091103 -79.398087
105.503448 -70.912445 -92.684753
-86.350517 -71.254654 -75.022118
70.698395 -71.649017 -94.454483
-35.344551 -77.159264 -91.313873
106.035370 -70.847267 -97.937424
-52.867470 -70.572281 -91.358994
53.786751 -72.518143 -103.215851
74.031891 -79.102921 -104.364861
57.425663 -70.300156 -108.537552
55.823257 -73.468140 -111.571106
78.662674 -75.471115 -110.856728
49.424271 -71.010216 -120.330208
100.821648 -71.856079 -118.676041
107.462975 -76.559532 -124.941216
80.341400 -68.968399 -118.724205
96.103088 -72.628670 -121.149307
103.558014 -71.604042 -110.495949
112.388229 -72.379807 -121.992683
42.221577 -71.119499 -118.080528
114.611511 -67.892296 -135.789886
115.503563 -72.573921 -137.541656
31.036665 -69.665634 -135.121414
45.996807 -73.531471 -130.165222
115.272354 -71.735466 -150.196442
34.866344 -71.127533 -137.765625
117.078674 -76.534286 -145.322891
108.710442 -72.672043 -140.124664
27.205070 -74.177498 -144.334579
-46.535275 -73.685783 -137.212311
-51.746582 -71.092453 -138.049927
111.160164 -70.550087 -153.199936
-67.682487 -78.719223 -141.551529
-71.600471 -73.986809 -142.085968
-59.970047 -73.676247 -142.109100
29.982510 -72.794678 -155.538284
117.602310 -73.768837 -165.384598
-70.922134 -69.103218 -149.489975
-49.425003 -73.541695 -144.985397
31.282316 -72.347473 -163.410950
-68.991386 -74.819847 -149.661133
113.507828 -69.558411 -157.772324
109.035545 -68.389809 -175.453156
114.412270 -72.164093 -172.360916
-39.716999 -76.530411 -156.989517
-66.199203 -72.854546 -167.619995
-68.839378 -68.249428 -159.650131
28.260902 -73.337181 -154.751709
-4.193113 -74.725609 -169.559448
107.267517 -69.488991 -180.080276
110.358612 -68.483650 -170.078033
110.301636 -74.865471 -177.206833
-64.528458 -70.387955 -160.569717
-47.335945 -75.395668 -171.333939
-5.939573 -71.798851 -172.633636
-34.071102 -73.579353 -180.137085
102.554115 -69.454155 -184.961731
-34.551708 -77.359680 -164.848663
105.744095 -68.720238 -184.848770
-44.843388 -73.222908 -178.414230
104.725800 -67.779694 -187.121948
-156.135849 -75.743034 -173.354706
-29.238644 -67.536545 -182.928986
-23.488304 -72.975800 -190.005829
21.241539 -76.204170 -186.870163
10.235940 -70.731880 -192.912064
24.581104 -72.466454 -193.096069
98.322487 -77.019226 -201.413437
-155.740799 -70.145844 -178.019043
-22.987131 -75.111465 -188.496994
97.350220 -72.810501 -195.255798
98.000389 -66.065933 -205.850174
105.383286 -72.793198 -193.951828
94.979767 -72.763550 -209.682343
-155.579453 -73.095619 -192.458313
93.292397 -71.428665 -222.800323
-33.415604 -70.097862 -203.892822
91.127403 -70.657776 -210.777817
-124.417267 -78.632446 -198.790817
-34.335438 -77.943207 -193.640442
-147.357300 -68.260414 -193.462891
90.358063 -70.784508 -213.852264
2.923049 -72.230553 -208.073441
19.699686 -69.463142 -201.454132
-154.012817 -75.943207 -198.893402
-142.828110 -73.330559 -198.175293
-15.682287 -71.693497 -215.352051
-129.760086 -73.200623 -202.179153
-149.030212 -75.808487 -192.266220
-3.774566 -72.650589 -206.537888
-31.112095 -74.925041 -205.650970
15.500203 -75.894196 -210.921219
-0.986831 -73.890678 -221.127289
76.282333 -66.491302 -223.911774
-24.344589 -69.044289 -218.056992
84.017632 -67.640907 -224.637650
91.697464 -73.832039 -223.273529
-154.232910 -75.873932 -208.448700
88.366241 -73.491119 -227.591156
-1.819546 -69.962013 -214.115555
-4.160176 -74.323189 -222.300034
-37.866013 -71.978966 -210.675964
-95.664726 -72.544456 -212.642776
-31.219585 -74.868492 -215.400085
78.154213 -69.173378 -232.966263
83.357399 -69.504578 -231.176376
-37.754261 -71.135521 -216.444229
-90.687874 -68.817848 -219.802338
-7.238599 -74.092293 -227.010895
71.955185 -65.638542 -226.251587
-159.184204 -80.269180 -215.725143
-172.448959 -72.196991 -207.428970
-170.081268 -78.481293 -215.171921
-29.345510 -74.068993 -232.639053
-161.470428 -79.089340 -216.524994
-12.031920 -72.541222 -231.061142
-1.173051 -73.861916 -226.602127
-176.257629 -74.260277 -219.077591
-164.466324 -74.351746 -222.138626
70.282341 -75.094879 -246.553970
-9.059293 -71.183716 -233.341125
-166.555145 -67.193489 -220.131744
-149.698044 -76.767426 -218.401108
-26.271877 -70.193581 -229.609970
-9.176422 -76.572777 -228.156525
71.634125 -67.037086 -241.260818
-168.373642 -71.701920 -221.436951
-149.905655 -70.382065 -227.872665
-133.610931 -71.236633 -228.312088
70.040176 -73.508171 -240.490814
-123.460320 -73.694939 -226.932770
-151.690720 -73.740860 -224.539139
-158.903152 -72.214386 -226.437500
-157.570511 -74.958481 -226.548889
-163.207626 -75.119087 -223.250504
-172.243195 -75.006714 -221.796936
-140.959137 -74.727676 -232.998245
-141.128357 -74.941025 -229.584351
-159.834839 -80.010658 -228.037567
-153.855789 -69.348885 -232.809952
-159.034317 -74.910362 -230.190491
66.940254 -73.998543 -247.510712
58.286835 -63.775372 -248.133347
-163.445496 -71.861076 -229.467773
64.041656 -64.529991 -246.911591
-29.119074 -69.463799 -242.178635
3.658760 -73.619789 -246.811203
-0.867990 -72.429199 -244.119949
-164.212723 -74.147423 -235.462418
6.657562 -70.711288 -250.205902
50.247963 -68.870026 -251.203156
4.312711 -68.076477 -246.924759
-4.383522 -71.710884 -249.275146
-15.599820 -68.212524 -246.591248
-30.947901 -69.891769 -248.562912
-11.435048 -71.829903 -248.112839
-4.727397 -75.175385 -254.094360
48.217445 -72.479263 -253.451233
-63.835892 -77.997650 -247.666031
10.599843 -70.068687 -257.322845
-67.048859 -73.346336 -242.805222
-20.188654 -72.165443 -254.755707
-76.577934 -68.062042 -252.322403
-95.686722 -69.662338 -254.193481
-92.176414 -74.583267 -254.200531
-18.632778 -70.874565 -263.177460
-133.857849 -73.498283 -258.246063
-23.909151 -72.594299 -257.935883
-126.750000 -73.120361 -252.251633
-127.895058 -71.327263 -256.269440
-113.664467 -73.014679 -253.450089
-153.497467 -72.094292 -255.581253
-155.502426 -73.261002 -263.264893
-179.461288 -74.167305 -256.156677
8.647249 -75.635582 -289.872711
-72.890625 -69.479073 -287.317902
-80.582222 -71.118919 -283.895203
-54.687336 -74.070999 -286.403748
-39.880825 -72.386452 -292.381927
-108.763771 -75.806053 -289.886353
-44.472725 -69.324806 -289.396484
-16.591318 -70.912842 -292.701660
-179.990601 -74.138924 -282.755646
-31.275007 -74.457672 -291.185059
-7.654513 -72.610474 -295.730591
1.539553 -77.226677 -289.163574
-69.735283 -75.994255 -288.207550
-48.458973 -73.125648 -296.388733
0.562810 -68.662758 -302.397614
-85.108246 -70.116394 -295.192627
-55.336143 -68.243416 -291.841492
-31.369009 -69.061058 -295.246277
0.831856 -74.016136 -300.199799
-25.895166 -74.109871 -301.962738
-9.376388 -70.019913 -302.589478
1.184053 -74.396896 -297.492981
-148.180359 -72.308838 -290.042084
-158.610184 -76.215851 -292.924774
-168.149994 -73.017990 -307.570648
55.293182 -71.508156 -26.332073
40.716656 -72.366188 -22.583643
50.692993 -72.572670 -26.795567
33.158558 -67.789146 -28.329947
55.395512 -69.017807 -35.411144
35.911335 -69.205032 -35.507504
33.241711 -72.578888 -36.926636
34.906906 -73.231750 -51.232460
46.788326 -75.740860 -42.455276
34.758995 -77.539505 -47.945877
52.213078 -70.086304 -51.525757
40.502934 -72.827820 -51.994408
49.278961 -74.147690 -47.172298
39.140942 -70.567490 -50.946804
53.257847 -72.040611 -54.142578
41.220871 -71.338608 -48.687031
-34.200085 -72.101524 -52.046707
-21.789894 -67.090286 -55.778233
-82.512894 -74.010841 -54.031609
-83.422295 -74.493477 -66.459641
83.301712 -74.403786 -79.386848
89.782631 -69.737373 -88.131531
-15.212125 -70.301033 -81.168816
-81.962555 -72.173058 -72.584335
-19.596930 -71.164215 -82.610947
-44.614319 -74.427689 -88.442329
70.220543 -67.285271 -100.110161
55.755184 -69.574654 -106.321373
103.150200 -68.016678 -108.127838
72.391594 -73.569359 -110.878426
-65.329475 -73.566345 -91.248062
-56.329651 -69.129433 -101.515701
48.005726 -70.957603 -109.316887
80.595734 -68.533348 -112.810829
57.971485 -80.488121 -118.091370
105.107437 -70.014053 -112.305199
-91.613792 -76.297935 -107.227028
43.719234 -70.705063 -121.052429
109.613777 -71.603722 -126.750664
51.394619 -71.193230 -123.654610
102.595192 -71.911697 -127.490044
-82.606194 -72.288971 -117.639244
37.729317 -75.266296 -123.742584
108.775055 -68.020920 -133.867767
106.228889 -66.777969 -133.102341
105.696846 -70.679619 -132.017014
112.810806 -68.365578 -131.449005
43.607441 -74.508072 -119.748466
34.168091 -66.621941 -126.370773
41.421700 -70.679619 -123.819626
106.393288 -72.208916 -137.925705
42.361828 -68.760132 -132.947968
109.810425 -68.444305 -149.865997
110.238319 -68.206650 -148.396164
35.166302 -67.971291 -129.359436
-76.809891 -73.457893 -124.193146
112.484909 -65.872902 -151.118332
-52.957947 -72.489685 -141.193481
35.114487 -71.976799 -144.887756
-72.928650 -73.033485 -135.077530
26.293627 -74.708099 -139.961334
-81.018715 -73.728745 -144.388412
-45.546101 -75.664917 -145.632172
-75.116547 -74.974846 -139.706879
108.950195 -68.740906 -153.291611
118.890816 -66.965790 -159.247879
117.774681 -73.416740 -165.552750
-80.490028 -72.608032 -143.902893
5.502800 -66.582069 -158.798248
-51.476612 -72.828278 -151.043701
-53.150837 -73.571014 -157.887009
103.385017 -70.394943 -179.920410
-41.563862 -74.866440 -152.294373
12.541821 -67.929535 -167.044312
20.683565 -73.516762 -166.727600
111.560547 -67.666840 -182.526611
27.528601 -69.657547 -177.208405
-3.092716 -73.144722 -171.171432
29.811049 -71.626831 -170.543732
-69.085152 -70.886124 -157.812073
-68.170097 -72.469826 -160.731995
-71.990311 -69.994789 -167.580032
111.831345 -64.909782 -179.115356
-46.825840 -72.569992 -166.557877
13.816393 -71.059853 -173.890030
-66.552498 -70.497360 -171.691254
-67.395493 -69.459404 -173.302536
-44.856731 -73.764786 -164.473236
-37.167439 -75.440651 -172.126007
112.343636 -72.391579 -188.966507
-41.240803 -64.816544 -185.721909
9.288000 -72.203934 -180.832870
105.880302 -72.783920 -202.929184
-150.049118 -75.661041 -170.552307
-148.874634 -72.797401 -166.598221
-150.413544 -70.950630 -175.893585
-145.675049 -75.939323 -179.002487
-36.845009 -69.720711 -189.272919
-27.483368 -72.106644 -190.660339
18.557873 -65.212463 -201.540512
-144.580811 -72.350159 -181.522385
-151.857101 -73.918396 -183.146179
-26.240198 -68.987534 -190.771469
5.580660 -70.702583 -190.735245
-154.745361 -73.109848 -189.526398
-36.090927 -71.584045 -193.722610
94.920158 -69.860565 -204.239288
100.223724 -67.329018 -206.194931
19.737780 -64.617638 -202.757751
-15.101441 -71.124947 -194.767380
-33.368942 -73.740234 -197.542007
-161.277100 -75.522758 -194.689117
-137.612808 -74.202187 -192.379913
-130.335617 -69.250801 -190.868546
-130.942841 -71.239624 -193.612076
-27.054962 -66.268028 -200.365967
9.237753 -73.787933 -200.585175
85.652107 -75.439163 -216.508789
-155.838943 -68.244644 -188.285507
-149.273865 -69.716415 -193.448868
-156.801376 -73.160667 -194.970016
-159.530533 -70.376335 -190.090530
-29.462780 -70.072685 -204.783829
-13.647237 -67.342415 -201.338547
-150.355774 -67.381531 -197.336670
-25.753771 -70.231216 -207.772003
-165.818375 -72.634636 -194.979614
-139.577698 -72.532616 -194.602753
8.865102 -74.106262 -215.440430
-165.089630 -68.594719 -197.527832
-151.912659 -75.379395 -201.117996
0.880253 -68.084686 -212.106293
-159.606369 -69.723038 -195.994156
-31.117323 -70.026329 -207.750336
88.444565 -70.786827 -214.472244
-165.753281 -74.870323 -203.914490
-169.755234 -78.093460 -199.256516
-81.702049 -69.236588 -207.244965
83.436920 -68.694191 -223.223648
-11.179019 -69.775887 -226.610428
-162.574890 -71.636726 -206.276001
-93.538269 -72.848747 -212.282944
-16.312325 -74.799423 -217.333527
8.800803 -69.932755 -226.816391
-150.986710 -73.573349 -215.491974
-11.272224 -76.680260 -227.745453
-24.521185 -73.441460 -222.212189
-22.019787 -67.302391 -227.276581
83.694542 -69.505028 -236.280411
-26.929174 -69.444618 -221.528992
-40.509300 -70.489822 -222.232819
-115.292747 -65.791367 -223.306152
-24.155365 -68.827431 -229.586044
86.292862 -67.065552 -234.341751
67.501808 -71.034248 -235.403564
1.211613 -72.092827 -226.622757
-19.340586 -67.068733 -231.727890
71.312302 -69.759743 -235.832840
-128.721176 -77.557877 -221.991745
-25.594305 -68.473938 -229.274353
-102.861450 -71.596535 -222.218735
-108.023514 -72.321724 -221.320984
-137.203430 -75.067383 -225.224655
73.205803 -70.199318 -237.572723
-130.212265 -73.547508 -223.932053
-3.960232 -69.472061 -236.890564
73.829865 -67.766670 -239.113953
-24.893229 -72.434601 -239.306198
-22.107822 -71.920921 -231.457001
-8.107562 -77.978645 -237.342331
3.530629 -73.478615 -236.075012
82.375458 -71.158661 -242.846832
0.941497 -68.603111 -239.136444
-1.343014 -69.433044 -237.636505
-17.371588 -71.503586 -238.438828
-14.693749 -72.438461 -234.889938
11.432720 -68.953735 -242.467972
-21.014225 -67.141930 -239.028061
61.448669 -70.239738 -254.323837
-18.776247 -69.292152 -245.944687
10.573485 -71.330643 -244.701340
-169.197769 -70.491798 -232.784302
-14.727247 -67.659035 -242.633331
-16.243944 -72.853394 -245.859344
-176.786163 -74.304993 -242.792160
-20.500744 -68.155891 -250.240234
5.186074 -66.789734 -253.484634
-157.778091 -74.684784 -245.897934
-85.745941 -71.644814 -252.481766
-71.668663 -73.161995 -249.066910
41.375214 -66.294746 -258.634155
-82.468506 -70.958672 -246.899261
5.984432 -70.757637 -258.483582
-82.555641 -73.015381 -251.578552
-25.233330 -67.983772 -248.814941
-154.911331 -76.427345 -247.030991
34.968819 -64.852493 -262.117157
-91.195175 -75.743530 -256.977417
-113.362289 -67.899033 -253.355667
-110.341652 -73.707520 -252.695801
-131.098389 -68.644897 -248.033432
-116.477364 -67.680344 -255.090591
-115.431923 -70.991890 -255.333466
10.171136 -65.360054 -266.516937
-141.434036 -69.059395 -260.802643
-27.630068 -71.488945 -280.849731
-161.487991 -68.642319 -278.119843
-181.493835 -75.102364 -278.903931
-137.660690 -73.371132 -279.012878
-127.282021 -67.878548 -283.741913
-88.653046 -66.218147 -283.292114
-71.175934 -72.824516 -288.714691
-54.551945 -69.276466 -289.181824
-29.377251 -75.300606 -296.880249
-27.898413 -67.269241 -299.229004
-52.583977 -74.203934 -294.658417
-48.190243 -70.811363 -292.815338
-33.116142 -66.234619 -293.950470
-87.360031 -70.054146 -294.854858
-70.274628 -70.143044 -293.473236
-33.064655 -65.680664 -297.264099
-27.666424 -72.837387 -294.884888
-17.872053 -69.553520 -300.270752
-11.723002 -65.295967 -300.212250
-107.649117 -71.514236 -292.406494
-152.221100 -75.363914 -291.183838
-129.261612 -72.980347 -289.633545
-167.194214 -69.578705 -287.114868
-164.764633 -73.487663 -293.202271
-161.777084 -69.122482 -294.253784
53.339737 -67.079933 -34.494499
30.191309 -75.316803 -33.255531
59.776173 -66.135033 -36.395119
55.971195 -71.662384 -47.843842
93.687149 -69.168999 -87.329254
101.180504 -71.626923 -90.847298
106.415009 -69.547127 -93.410233
102.567078 -69.109062 -100.710510
59.622551 -71.014061 -102.838104
47.874599 -77.081314 -101.324188
67.228638 -68.623444 -104.215759
-61.554733 -69.803497 -96.032822
75.949547 -67.921783 -101.409767
102.718941 -60.085255 -116.104805
77.239700 -69.597176 -116.265259
95.874222 -67.634575 -119.388802
-83.650139 -72.938171 -105.273613
49.260895 -68.131920 -107.787544
-84.365318 -73.846237 -100.249969
53.843914 -70.903976 -122.425140
39.549789 -77.986282 -114.131195
102.187180 -67.775940 -119.822578
39.304985 -70.216888 -115.500992
45.948174 -72.123894 -132.514130
44.296143 -70.420670 -124.536957
113.269432 -67.187256 -128.950714
-78.912331 -78.277901 -122.699097
113.767494 -74.098816 -140.310135
42.357609 -64.741196 -136.644226
41.232727 -69.741989 -131.145996
35.652260 -70.933662 -130.630692
-54.125713 -77.407875 -132.315872
30.678875 -68.746063 -133.532410
-77.992340 -68.009911 -139.299561
-54.434784 -76.359070 -135.330765
-79.212448 -68.898376 -135.609177
36.930714 -67.445686 -142.892838
-59.545864 -73.682449 -135.849838
35.368240 -69.192474 -143.733612
-71.403915 -69.171547 -141.058212
-59.787312 -66.678986 -144.790314
22.809355 -71.448196 -154.269989
110.851456 -71.790878 -160.438873
114.152534 -63.219921 -155.379944
29.577671 -70.499008 -153.156174
-50.040215 -74.021858 -143.015106
103.026894 -65.735672 -169.570999
-76.878044 -71.513359 -143.359070
-58.959053 -71.237747 -144.629745
30.495903 -63.541069 -156.435486
-78.984131 -73.641243 -146.714752
-71.417107 -70.895523 -151.229828
112.230751 -74.024155 -167.053955
-66.164886 -69.533478 -157.607513
-41.010761 -66.789505 -155.740326
23.468632 -68.361305 -154.355881
-72.639709 -72.337166 -145.349930
11.069808 -68.851265 -157.545425
29.602081 -69.314423 -168.843887
29.610296 -66.671524 -162.227936
15.569282 -75.355034 -162.831497
-52.185081 -73.824013 -156.154587
21.309832 -72.916847 -162.849731
-48.380383 -70.049736 -154.619980
1.562360 -70.411186 -162.189621
17.834414 -68.961266 -159.341263
-69.151817 -70.072060 -160.182922
-49.040257 -67.557938 -157.579651
-69.952744 -71.379951 -153.542465
17.885794 -68.414345 -168.062515
22.039587 -68.947838 -159.845093
-0.476243 -70.287872 -174.352402
20.148087 -68.763474 -161.647812
27.342804 -68.594498 -179.087250
-49.771072 -72.014969 -167.576218
-41.030365 -80.047806 -168.760834
-43.990749 -72.432907 -165.105515
25.461565 -70.593292 -167.637833
-47.475067 -67.958603 -169.902771
-42.384556 -68.935654 -172.933594
18.787022 -67.770683 -174.848190
-43.410526 -71.431816 -180.512253
23.801947 -64.346962 -180.045227
107.112045 -63.797714 -180.750412
-37.706291 -70.838120 -176.764038
96.045769 -65.247269 -189.899094
-38.538918 -70.250168 -182.422821
-42.223747 -74.712021 -186.361267
18.689047 -73.124290 -187.927979
101.695053 -69.198936 -198.955292
-37.453377 -68.407829 -186.440170
-40.165470 -70.317039 -183.991455
-27.516214 -76.027382 -193.056000
-153.718475 -72.774963 -183.894562
6.533567 -69.244804 -191.924591
98.235435 -66.469109 -209.001938
-165.665283 -72.225357 -185.586426
-25.900978 -65.549637 -193.755905
-121.066498 -74.307434 -195.239075
-133.946243 -74.133400 -190.690155
-112.238693 -72.920914 -198.251312
-120.529968 -70.412361 -197.507370
-16.822617 -71.417847 -202.856232
13.987723 -67.038811 -205.140625
-22.176752 -65.284264 -208.112106
-134.491425 -71.887390 -202.334793
-26.569952 -65.066620 -206.769348
-133.838409 -69.486710 -199.051620
-22.559654 -69.804276 -204.674866
-152.821304 -70.715286 -195.902084
84.723427 -62.628418 -221.506668
-169.815964 -65.100945 -194.044342
-9.761518 -70.669228 -227.643387
5.269008 -71.441368 -218.880173
2.655183 -73.215202 -225.633881
74.531380 -68.337624 -230.706802
2.271447 -70.845436 -221.684296
3.913415 -68.165169 -223.493103
-23.076988 -73.450432 -221.420654
-97.160881 -72.348358 -212.213776
-105.664810 -71.293526 -215.453018
-5.271271 -68.550072 -225.705780
-173.785172 -75.197922 -213.934616
8.552257 -66.197678 -226.860672
-152.004669 -71.213287 -214.702789
5.416881 -69.898026 -233.517044
-142.972031 -73.941742 -220.461746
-123.422684 -72.611183 -225.627869
9.457215 -68.480545 -229.118591
71.522797 -68.323830 -233.875595
-1.911517 -70.145157 -231.641510
-117.178909 -69.909630 -229.227493
60.949844 -69.785133 -240.983810
76.730057 -69.673897 -244.342789
-135.136368 -71.085373 -233.098633
-127.038109 -71.147003 -226.851974
-17.608551 -64.775734 -232.535736
62.868614 -68.846336 -246.700058
55.507214 -68.920456 -245.287048
63.342155 -67.631828 -242.145660
-145.017212 -66.976891 -229.082047
60.201061 -69.839417 -244.052551
56.336918 -65.000618 -248.088516
-174.109818 -69.758247 -224.247437
-7.479197 -77.883316 -249.854828
11.248594 -70.832497 -248.228302
-15.807591 -65.745995 -248.355743
7.425037 -61.890339 -248.057892
57.664906 -69.366501 -250.990646
-2.555127 -66.340881 -252.718933
-21.205729 -62.254723 -246.463043
-10.978204 -65.286385 -242.640106
54.915127 -68.737846 -255.138870
-8.304011 -69.216324 -249.889694
-15.775587 -70.287880 -249.957779
5.008404 -72.750809 -250.550110
-176.472610 -75.054787 -233.724350
43.914509 -69.692482 -259.233124
37.708344 -60.343590 -264.413177
49.720615 -69.018051 -255.721619
-22.467192 -66.581604 -254.148361
46.854637 -67.446533 -257.254181
-84.763237 -70.083916 -251.692215
39.808563 -68.849686 -259.822449
-97.845512 -69.747185 -252.521423
-132.442566 -72.098778 -254.696609
-142.014862 -71.629814 -247.928513
36.721470 -70.616890 -262.914703
-140.627686 -74.793205 -247.522461
-118.810974 -67.771301 -251.713150
-128.229248 -68.401825 -254.792664
-94.884735 -70.784012 -254.289139
-121.291252 -67.415916 -255.636749
-135.186874 -75.412224 -259.067322
-158.855927 -68.344475 -262.823608
-27.219721 -67.106728 -273.674805
-184.472931 -75.189934 -256.892670
-27.509674 -67.780556 -280.839172
-170.006332 -67.213860 -260.408722
-164.529953 -72.467529 -266.141083
-183.166107 -71.536697 -269.839325
-28.413717 -69.763092 -287.835938
-140.884064 -73.985527 -278.709747
-170.059402 -71.058472 -279.684875
-155.726990 -69.825310 -275.060150
-147.238083 -73.934853 -273.330414
-21.799870 -60.860512 -290.508087
-138.984451 -74.611305 -278.962341
-153.885147 -67.404320 -280.605591
-128.396317 -75.195953 -282.590393
-94.687759 -66.832321 -289.060425
-73.172630 -71.279999 -288.813873
-21.735001 -70.279289 -294.175476
-67.879311 -68.002899 -285.934082
-70.514305 -66.507820 -290.762268
-85.137703 -67.676651 -291.125885
-103.177170 -68.215080 -294.533875
-106.720558 -68.002769 -286.779388
-172.847687 -70.767265 -284.692627
-174.050507 -72.096237 -287.692993
-137.873825 -74.331734 -289.626740
-158.234222 -70.631744 -288.780670
-166.323212 -73.721558 -299.178223
-167.697876 -74.613121 -305.216522
58.841412 -68.583618 -25.394796
23.931320 -72.775497 -41.025166
50.893410 -64.915154 -47.036350
-8.531959 -74.394531 -72.850075
87.259483 -66.636261 -80.200455
95.973557 -63.654907 -81.941673
84.506065 -74.392990 -80.100250
77.419098 -71.319542 -84.242386
95.686905 -70.787971 -92.093590
-91.717667 -68.130455 -69.622833
70.994087 -69.491760 -88.946442
-31.268978 -73.826286 -82.549782
102.012764 -67.937836 -102.000847
65.932076 -64.934013 -103.915947
110.964836 -74.238068 -109.746193
102.237267 -73.707092 -115.611198
75.881622 -68.829941 -115.853592
-78.984970 -68.347519 -103.492165
56.572498 -67.945442 -118.524353
109.981239 -63.875099 -124.147537
47.390945 -68.723076 -125.925713
81.558647 -66.939651 -121.156494
43.339535 -68.597893 -119.591331
104.794899 -67.864502 -120.062798
49.338444 -68.712578 -119.936638
107.713776 -75.128250 -126.487007
112.348503 -72.436142 -127.651405
-78.346458 -68.398476 -115.084488
-82.089798 -68.565224 -120.983040
44.637321 -72.589172 -131.374741
113.936241 -69.586670 -140.851135
113.557457 -67.677727 -141.295288
-88.301796 -70.023811 -126.654457
105.049957 -70.494797 -144.254120
-59.451668 -76.515205 -134.556580
-85.640976 -71.843834 -128.164078
-70.161438 -71.843491 -128.279739
-59.686523 -66.464676 -129.289978
31.851843 -68.872337 -141.487961
43.437519 -65.170349 -147.499420
-71.755882 -70.460304 -137.699707
28.687040 -65.874092 -140.173386
111.052429 -67.155540 -162.488266
-39.820072 -70.410400 -153.879410
31.470345 -71.127869 -160.186951
110.977631 -65.029419 -166.679581
34.873924 -69.678734 -153.301102
108.520226 -65.940758 -157.077927
-53.252819 -69.872917 -152.850296
-75.061996 -66.917366 -152.771118
-59.048866 -70.875000 -153.700684
-45.435020 -75.089798 -168.990921
1.351155 -71.818726 -163.752563
106.424255 -67.957611 -170.314041
105.286987 -66.878250 -178.010925
8.551302 -68.829224 -165.461746
-0.666446 -68.281586 -168.343155
18.964983 -66.775093 -163.706406
23.651657 -66.973900 -165.591202
103.800468 -66.811073 -182.455322
107.211853 -71.069756 -184.994751
19.838089 -65.178642 -185.734192
21.123535 -72.103172 -174.885498
108.228485 -64.307816 -179.577118
-34.085644 -67.829414 -183.804306
106.867455 -67.545418 -184.771317
14.716850 -69.073273 -174.279449
17.848974 -68.655571 -178.618820
103.843491 -67.521187 -189.649521
23.805149 -67.359871 -180.012939
108.351860 -65.062057 -202.551498
-42.819302 -69.069527 -183.620697
20.484694 -68.485916 -179.188034
102.594254 -66.725426 -201.738235
18.407671 -69.770782 -186.674957
-155.693604 -69.561394 -180.238602
-33.181900 -65.469254 -195.001846
19.163603 -65.196625 -194.850616
-120.380363 -73.219452 -189.658249
-116.972946 -67.305428 -190.290359
19.736969 -69.125381 -197.560791
5.893868 -65.215073 -193.143295
-32.339165 -65.128876 -195.605743
-33.992062 -74.724480 -194.359726
-33.895485 -69.876251 -193.214447
8.482922 -65.622284 -188.788559
-155.979980 -71.346649 -190.139465
-151.211945 -70.644539 -186.876862
-151.862198 -75.691704 -194.010162
-28.958143 -67.916161 -196.894333
8.127055 -64.938377 -208.455933
92.513908 -65.220680 -208.775131
-119.162102 -68.834938 -195.885483
15.235473 -73.058334 -207.245789
-19.469707 -67.314430 -201.133911
-23.229494 -68.642281 -204.499985
94.907539 -64.846321 -216.587585
1.144630 -71.434723 -206.418762
-28.005718 -66.947441 -202.271194
-126.610497 -74.555466 -201.158096
-140.358932 -71.518700 -198.822754
-120.647850 -64.082718 -203.309952
-148.017578 -75.225647 -198.162567
10.755430 -67.845001 -206.882660
86.206886 -68.943192 -215.692215
-171.075958 -65.405037 -192.951035
93.441307 -65.716972 -217.834488
-29.703138 -74.409355 -210.825729
87.273720 -62.876366 -225.087982
80.936096 -69.232368 -224.886475
4.230704 -71.089767 -211.836670
13.319174 -66.661911 -222.182373
6.346068 -63.985775 -216.904327
-19.061474 -68.586792 -230.081039
-101.266785 -73.350372 -218.888031
-19.158504 -71.558472 -217.701141
79.944458 -67.367928 -232.640198
-101.512138 -73.397392 -215.710938
-107.680702 -66.268059 -220.563263
-103.555962 -69.570953 -217.993774
80.720879 -69.406174 -237.813721
-143.594864 -71.676895 -220.634872
-139.157150 -77.366951 -223.595963
-124.330208 -70.636620 -221.848541
-121.004181 -67.145714 -218.929123
-140.858856 -68.076813 -223.546631
-121.197739 -79.539772 -225.737564
-119.513992 -69.415375 -225.962021
-15.174862 -73.237381 -230.794327
-23.247673 -72.079163 -229.294754
-9.627602 -65.097626 -237.144501
-18.497087 -64.358864 -233.342041
6.545760 -69.032326 -242.845383
-28.942892 -66.076683 -235.040497
-174.158936 -69.532890 -213.433060
-14.391692 -69.050285 -240.754639
71.701530 -62.445686 -246.713409
2.916267 -70.492050 -241.756210
-14.614937 -67.468315 -242.276962
-165.799210 -68.305161 -229.366028
-151.342590 -68.837097 -223.326508
51.475071 -65.755020 -249.331848
-14.575720 -69.257553 -240.135941
2.325403 -70.793793 -237.653702
60.802498 -70.466469 -241.097702
67.406059 -66.518623 -248.796204
61.538902 -68.269577 -256.102570
-10.994184 -72.369514 -242.048126
48.934586 -64.436035 -249.270889
-28.815863 -72.179024 -245.880447
-24.006374 -64.655930 -245.853561
-1.710828 -67.799194 -246.574554
54.512566 -71.601814 -249.805725
57.331802 -64.676750 -254.717789
38.402378 -67.746597 -257.373779
50.944515 -71.299454 -255.387711
-25.534071 -75.043350 -255.055115
-94.709717 -65.543938 -256.367249
-87.493149 -66.684860 -254.103729
33.700451 -71.194923 -258.266022
-161.608917 -72.869087 -243.774628
24.051626 -66.871696 -267.415985
-102.542915 -75.274818 -251.097275
-167.506119 -65.573448 -247.363297
-150.158112 -61.175072 -246.910294
32.319145 -66.456612 -265.179443
-136.370728 -65.666756 -254.594482
-128.091263 -71.399422 -251.529877
-102.485207 -64.343948 -255.746552
-23.462721 -63.224651 -254.097260
20.895761 -66.776207 -266.436066
13.535816 -63.877705 -268.376953
-171.042999 -64.175987 -253.939423
-125.683754 -73.129715 -259.827057
-25.012983 -67.974960 -268.192566
-143.346558 -69.723244 -261.299561
-26.807348 -66.518387 -276.145966
-175.424377 -70.046066 -263.962738
-19.078987 -68.830147 -285.065552
-173.226715 -71.437752 -280.546600
-177.122971 -74.256760 -270.714203
-155.363266 -70.798302 -279.578644
-184.505585 -73.606956 -276.445923
0.484380 -70.789200 -297.173615
-116.459785 -70.922424 -284.381165
-101.104729 -62.823051 -284.730103
-181.589203 -66.855713 -276.174011
-105.603729 -76.086617 -280.800659
-169.099808 -71.356888 -282.326263
-91.405914 -70.797806 -296.924652
-85.810341 -67.960320 -289.456970
-97.225922 -71.098824 -291.595551
-17.451115 -65.423691 -294.819855
-103.692177 -69.127632 -286.366760
-112.930161 -71.801811 -288.736847
-132.350815 -69.898453 -289.454865
-130.696564 -65.514183 -289.641998
-147.862823 -70.349388 -286.448486
-156.865921 -69.637276 -295.086243
-160.018372 -71.426788 -306.227539
34.488121 -66.047287 -24.629995
43.452747 -68.589149 -26.867750
39.887054 -72.107758 -28.657207
54.550308 -65.544525 -31.593006
32.756371 -68.680244 -41.832848
-66.798981 -69.454201 -47.902126
95.045525 -62.088734 -82.188194
-13.165159 -66.042274 -73.108429
109.028877 -66.913872 -90.634415
98.720451 -72.187370 -91.849167
72.883774 -68.978973 -92.753952
76.293571 -72.398811 -96.339325
-39.526615 -73.850525 -85.862198
65.232986 -73.529259 -94.516304
-89.168839 -71.122566 -88.436569
-43.201336 -67.160881 -87.965492
-51.666553 -77.098244 -88.138992
105.267159 -74.496391 -115.383591
63.706417 -71.848137 -103.756012
70.777199 -67.106110 -104.538597
-91.132378 -63.464130 -96.480881
111.454521 -69.297699 -108.608078
45.517452 -66.465050 -110.686981
104.975395 -66.766388 -115.052315
109.203201 -63.825874 -123.531044
102.575188 -67.558830 -120.270401
77.097420 -71.438133 -113.526634
89.039932 -69.933113 -123.186142
52.220539 -66.598068 -123.246017
112.930481 -62.813198 -119.810837
50.031834 -72.450119 -116.321510
41.414845 -66.445892 -113.079842
115.095634 -67.755478 -128.190247
-75.716576 -65.888443 -109.574142
47.384556 -66.633492 -124.415810
34.938713 -71.403748 -126.561020
107.632576 -64.134117 -127.567871
39.492165 -65.024277 -122.494431
-84.842216 -69.949203 -111.155602
-93.056595 -65.917175 -113.452545
103.296204 -72.384186 -136.569382
-93.054504 -71.019928 -117.961449
40.584316 -71.813499 -132.050964
37.577354 -68.215691 -133.241882
-83.504051 -69.852760 -123.875694
33.128345 -65.814369 -144.499588
111.973946 -68.155487 -148.829453
-53.232742 -69.179329 -140.946991
-87.435722 -68.113220 -132.628052
38.602074 -72.765732 -141.491699
-86.929092 -64.416283 -136.160934
-88.274071 -73.153923 -140.352692
-50.023212 -69.656029 -139.332733
-71.156502 -66.751724 -140.054016
-50.278763 -68.486969 -135.526215
116.336685 -63.004738 -154.612457
-71.681847 -71.849579 -135.889206
37.707886 -69.049171 -141.488434
-78.787399 -67.447021 -141.424927
-72.144669 -69.733917 -136.365204
-93.921280 -67.328842 -140.948715
-55.845390 -65.341049 -148.243271
30.347549 -62.364307 -156.168961
25.974037 -66.120232 -158.886398
19.135168 -61.519871 -153.643051
111.067741 -65.740189 -163.639206
-92.558891 -67.693550 -150.944519
9.691797 -69.607964 -160.815521
-73.145386 -68.543343 -155.761093
22.353973 -66.116798 -158.737381
-50.966614 -67.437637 -158.402374
8.092649 -66.314926 -162.108490
14.478290 -71.105392 -167.963470
14.611685 -73.594955 -172.831543
-52.899158 -71.543098 -166.297043
-40.290073 -66.991531 -159.331238
-49.496479 -69.822556 -165.294235
-106.210312 -70.475639 -171.062027
18.265297 -69.370964 -184.138321
-37.491890 -68.462440 -182.186096
11.689733 -72.918915 -187.121750
-145.650101 -69.416603 -170.800995
-34.884464 -64.296600 -177.044724
-159.296036 -77.433159 -171.813782
20.252739 -61.035690 -191.137161
-36.944202 -70.356918 -174.896652
-110.204781 -66.692413 -173.954086
-110.793884 -75.637459 -182.133026
-35.030067 -61.942539 -190.305481
-28.128649 -73.706955 -186.895691
7.768599 -66.181480 -197.518250
10.337907 -63.706940 -207.389648
8.611905 -67.962296 -195.938232
-146.672760 -67.748634 -181.598892
18.728350 -62.348717 -199.167862
0.428566 -66.618965 -204.625244
-139.994873 -67.678284 -188.853882
-117.854324 -68.685463 -192.638763
8.767051 -64.853165 -212.069916
-123.388657 -67.447525 -193.720200
-112.432335 -62.008911 -190.197983
-171.809708 -71.718781 -194.096603
-30.097054 -65.990608 -205.072556
5.209608 -65.075851 -208.032883
-150.323578 -70.445450 -198.692123
-143.306381 -73.125969 -202.350601
-28.007524 -65.269760 -213.218796
-18.556107 -68.521210 -211.523834
-20.150705 -68.940811 -211.977585
-144.381775 -74.673210 -198.076035
-24.122845 -67.301712 -218.662933
-16.216963 -73.277084 -221.098938
11.076414 -63.248005 -220.081665
-23.472763 -72.988815 -217.650253
3.686459 -68.321350 -217.461929
-18.132336 -69.034233 -221.572861
-29.909719 -63.619572 -216.882736
4.232145 -73.923409 -229.149139
-9.752365 -73.862022 -226.383377
3.396194 -62.168705 -228.743073
-14.701907 -70.522797 -234.907516
-167.759323 -71.273544 -219.733597
72.748032 -69.165329 -234.099945
-143.129120 -66.725548 -219.232239
-142.443451 -72.256111 -217.380875
-16.040718 -68.241287 -231.702759
-2.107457 -66.455795 -243.031509
-166.072067 -69.586174 -224.479980
81.365883 -63.753479 -235.217575
-9.810076 -65.532341 -233.492798
-6.993246 -67.844711 -228.887390
65.192245 -69.571472 -244.605011
-8.795111 -63.791519 -243.389999
-21.853756 -69.138924 -231.271393
-135.808975 -65.785172 -229.916199
-14.340672 -66.702499 -244.632797
-6.038177 -64.247238 -237.902466
56.611012 -62.727848 -251.096252
-166.577042 -72.342636 -230.844772
-23.075647 -65.389671 -251.475632
-178.730896 -73.327614 -231.467575
0.830485 -61.843567 -249.598969
-172.315079 -71.673470 -231.784363
-169.495926 -72.013527 -240.254822
47.902859 -66.554565 -257.235199
51.372425 -68.373375 -254.825348
45.498272 -67.101402 -257.730682
41.010616 -66.064888 -261.044098
-162.439667 -71.380486 -236.956436
-165.776993 -65.732010 -240.472580
-22.783974 -72.030334 -255.596741
-160.319809 -68.886604 -241.405457
7.823044 -67.192879 -259.887634
-180.701660 -76.655472 -243.782822
-178.473328 -67.912605 -242.570511
-91.914627 -70.780861 -247.522964
-180.958939 -68.862198 -250.579071
-95.892799 -68.046135 -257.755371
32.061287 -64.938011 -264.529724
10.814364 -70.122353 -266.229034
-168.940247 -71.041107 -256.528015
-112.153862 -60.915363 -258.284332
28.839239 -65.912033 -265.541412
-117.304710 -77.789276 -256.409058
-164.861343 -65.587502 -259.611298
-114.699661 -67.732773 -255.131363
-179.662537 -73.154861 -251.986298
-124.333755 -69.799706 -261.255005
-164.762283 -72.204033 -260.093903
-170.283920 -66.603775 -256.183380
-176.726761 -68.788116 -256.609375
-176.066284 -67.802490 -255.110168
-176.832260 -69.872635 -257.428589
-178.932983 -70.825279 -252.878632
14.733035 -67.769928 -275.104767
-159.168396 -74.697556 -257.156067
-164.254318 -69.172195 -279.086426
14.803598 -66.261307 -285.278625
-24.756126 -69.977394 -280.745148
-138.373947 -66.210304 -280.984070
-149.521484 -69.402458 -281.718719
-147.100769 -68.230865 -284.875336
-141.068542 -69.188911 -281.868774
-126.823326 -67.083504 -288.974548
-117.364594 -63.701271 -282.304169
-6.372420 -70.409966 -302.488342
-98.076782 -69.346664 -290.471619
-161.862717 -69.917389 -280.969574
-115.983551 -69.299355 -289.283264
-145.792252 -66.096596 -288.034271
-3.741523 -68.823395 -295.605591
-124.537895 -61.073906 -284.827606
-10.101337 -66.823265 -301.317566
-156.377670 -68.780930 -281.593811
-166.301956 -69.420151 -289.113800
-174.983948 -67.915840 -309.532593
-171.151230 -67.030640 -304.671875
56.322037 -71.439888 -37.120941
33.274296 -68.007744 -47.133820
37.837704 -69.392418 -47.117508
-34.582104 -72.580391 -51.539978
-4.729460 -65.998146 -69.882652
100.405273 -67.639214 -84.253929
73.826126 -61.269073 -82.792786
-19.750704 -67.795761 -79.921486
-95.457214 -74.661942 -87.204697
-38.191967 -68.578125 -89.089149
63.260231 -66.865120 -93.399261
68.654442 -70.636528 -98.488457
55.700195 -64.357239 -100.085701
-55.299683 -68.088417 -93.354538
71.038605 -61.778488 -102.935616
46.027992 -71.716469 -110.146225
72.405746 -69.659576 -108.972641
-57.142185 -67.063904 -98.985016
54.718796 -69.354904 -104.247368
49.664116 -70.069550 -110.085251
105.592934 -62.217487 -119.167488
-61.851261 -69.004265 -100.411339
114.081596 -65.423454 -117.443207
-75.778763 -72.949493 -102.485741
56.096195 -70.171967 -119.048943
50.851063 -65.328682 -113.221230
93.250633 -62.314285 -119.960968
85.558556 -66.557243 -121.231369
58.709602 -67.922340 -117.773674
-74.697350 -69.991112 -113.162460
-76.366196 -68.557526 -117.593636
-79.307495 -70.279297 -118.464211
-92.013824 -75.820282 -117.146896
104.107826 -59.023148 -134.191284
-88.481445 -72.753662 -118.253799
-74.120949 -63.975796 -122.629837
110.096031 -64.862885 -134.004135
-58.532806 -59.339630 -119.607857
113.201111 -70.866577 -149.315765
109.906891 -68.057968 -147.114532
105.698654 -68.036453 -144.623642
-93.675941 -69.934082 -136.330780
-46.272816 -68.311317 -145.467392
-81.620377 -65.507561 -144.032135
-70.387199 -68.433128 -149.893036
-70.020645 -67.324326 -150.839539
-55.725182 -67.729683 -146.513229
-46.721016 -73.763733 -148.025299
12.640592 -67.374489 -156.152145
-94.214226 -64.366577 -140.591187
-47.349739 -66.310677 -149.897263
-52.316612 -59.382782 -149.709061
-44.162289 -65.461166 -158.004883
24.453453 -69.874901 -170.562088
-52.275455 -69.663109 -154.681915
-103.185600 -63.006897 -146.878922
-49.097569 -64.055481 -158.420929
24.128521 -70.501205 -155.896469
-98.428207 -76.429977 -162.757355
20.781822 -70.026375 -167.596802
-110.951164 -64.837547 -166.673492
-103.880760 -69.515282 -162.502243
19.030293 -67.185509 -175.636520
23.332764 -64.696381 -177.263031
-113.583076 -72.279579 -170.867523
-145.500534 -66.099274 -168.245377
-23.367161 -67.915344 -196.335083
-31.708384 -66.518929 -185.458817
-121.138519 -70.995850 -183.855804
-147.907822 -64.596489 -180.716782
-105.628052 -64.945869 -179.607101
-163.811462 -69.963081 -182.198929
-135.979691 -74.881042 -191.306702
-137.944138 -72.128181 -191.962143
-24.132324 -65.317688 -193.176407
-124.338936 -69.769829 -196.013550
-124.015587 -64.257431 -197.041519
-33.605804 -70.640244 -197.896606
-159.290344 -66.400124 -189.378860
-138.472229 -70.523933 -200.595825
-130.728470 -65.867279 -200.037842
12.493222 -70.160263 -210.789307
-167.914566 -69.986015 -194.936340
5.522724 -64.418060 -225.133575
7.094947 -68.318184 -223.917526
-22.362152 -62.125114 -216.155396
-12.298479 -66.759003 -223.603836
-178.422134 -66.086105 -202.901047
-165.768951 -64.330101 -205.507690
-102.087715 -67.537178 -217.857285
-104.254494 -70.787621 -220.255402
-168.527832 -70.759293 -219.732147
-115.923546 -65.500801 -216.596329
-18.659485 -64.817223 -218.149948
-135.460403 -71.030479 -217.294617
-150.418167 -69.389252 -217.700287
-10.886956 -69.382042 -228.312729
-141.771088 -66.535126 -219.535294
-130.919449 -74.062584 -218.504547
-121.799347 -72.102295 -221.009079
-10.032171 -59.330021 -236.183960
-115.940788 -65.626503 -229.490967
-168.980927 -62.000740 -215.502747
-153.470901 -68.217239 -220.618546
-172.502731 -68.783470 -218.502930
-16.434526 -64.721634 -232.050354
-16.966846 -67.207466 -240.094559
70.050423 -68.745567 -239.302673
-9.718526 -69.637367 -236.127609
-152.004883 -68.725746 -232.559570
-23.088915 -64.120941 -235.390930
65.296478 -65.858200 -241.402908
64.978134 -65.850441 -246.997787
-142.681396 -66.650398 -227.310730
-164.095322 -73.636856 -221.968399
-122.283226 -66.036911 -230.039703
-134.106964 -62.768703 -232.639542
-171.204285 -67.613045 -228.014114
-169.288437 -70.029213 -228.502075
-156.284500 -62.973236 -227.020355
-23.782164 -64.091171 -240.392624
-15.510265 -65.061798 -248.629333
-169.459534 -67.565300 -235.491348
-3.599167 -67.000450 -244.862442
-8.325644 -67.936493 -245.348343
-167.893936 -68.715141 -230.674896
8.710239 -71.287132 -249.630539
40.723846 -68.558647 -257.846802
39.265362 -69.343178 -255.287521
-27.166620 -67.708603 -252.868530
36.843349 -64.377647 -261.108063
-169.883942 -64.159409 -242.015045
-166.588379 -69.563217 -240.080551
-170.783081 -74.480934 -242.310211
45.308353 -64.629425 -259.695770
-104.060417 -66.175125 -251.635315
-134.758987 -66.591278 -250.824966
-116.485397 -73.690956 -250.575821
13.818286 -71.082520 -267.037292
29.049046 -62.744247 -262.183563
-111.144173 -64.570511 -252.840927
-103.373596 -62.254738 -248.352509
34.558903 -71.189575 -266.701447
29.719038 -63.264786 -267.861786
-164.818161 -75.135147 -251.021042
17.310446 -65.848045 -269.700104
-154.831665 -71.573074 -259.386261
-124.042854 -67.832932 -259.848541
-149.260620 -65.654877 -256.915192
20.878313 -64.641579 -272.897583
-137.522354 -66.840256 -258.732117
-22.660749 -64.643272 -262.748199
7.816643 -69.586174 -280.073669
-15.917416 -72.961983 -271.086914
5.739760 -68.471420 -289.133606
-167.313293 -71.698563 -275.804047
-25.054127 -63.875694 -286.793945
-165.436249 -72.526939 -275.197479
-135.759476 -71.346687 -281.115906
-176.411224 -76.210098 -278.712738
-128.597565 -67.500877 -283.635132
-117.500603 -68.435036 -287.948639
-20.769930 -64.188599 -290.835388
-121.404770 -70.045746 -285.779694
-130.211639 -65.337074 -279.894409
-136.623383 -63.965042 -287.886169
-153.250214 -68.622299 -284.659027
