41.682266235352 -78.409866333008 -131.404632568359 1.654551982880
36.920490264893 -71.472358703613 -132.380966186523 1.639297485352
-42.288196563721 -74.276397705078 -140.427246093750 3.166892766953
-68.033035278320 -78.584541320801 -141.024673461914 5.396106243134
-50.940406799316 -74.474822998047 -146.889663696289 2.773989915848
-72.368728637695 -79.938377380371 -143.501388549805 4.664799690247
-36.506469726563 -75.206542968750 -146.203781127930 5.538118362427
108.114593505859 -76.624580383301 -157.718734741211 2.326197385788
-69.798309326172 -77.947074890137 -154.004669189453 1.394528388977
25.591745376587 -80.728073120117 -146.116546630859 2.694303274155
30.761491775513 -78.510284423828 -149.556915283203 1.517155528069
113.090797424316 -79.534294128418 -164.013702392578 3.769031047821
11.538126945496 -79.183639526367 -158.649826049805 4.083903312683
35.076820373535 -73.471458435059 -155.401077270508 2.145575046539
-61.192661285400 -78.205635070801 -157.221038818359 3.608736038208
-38.929637908936 -78.260551452637 -171.794158935547 1.937032461166
23.172838211060 -75.965156555176 -162.899490356445 1.831391811371
-63.299598693848 -74.730895996094 -154.810653686523 1.448821902275
-68.352233886719 -75.987495422363 -163.362731933594 1.519372582436
115.513191223145 -78.491394042969 -167.704849243164 2.037289857864
-6.534146785736 -77.557128906250 -164.256729125977 2.353182315826
-63.870761871338 -74.550392150879 -169.923324584961 1.384941935539
-32.907150268555 -78.026016235352 -165.523559570313 1.652948737144
-52.805259704590 -74.842216491699 -169.877792358398 4.368121623993
31.917875289917 -75.574104309082 -174.730392456055 3.777684688568
112.859573364258 -73.837547302246 -174.360900878906 1.143090248108
103.529724121094 -75.131538391113 -184.773757934570 2.010162353516
106.034759521484 -76.314598083496 -190.676269531250 2.007142066956
108.059219360352 -73.921684265137 -177.664505004883 1.533073782921
-50.244041442871 -75.078460693359 -190.065643310547 1.581150412560
-46.587398529053 -72.854499816895 -181.426910400391 4.446244716644
28.603971481323 -76.331001281738 -183.415725708008 2.172817945480
-46.781852722168 -74.949958801270 -183.979446411133 2.237382650375
-19.480970382690 -76.680206298828 -182.579681396484 2.474413156509
-49.942607879639 -79.409675598145 -189.478332519531 2.902515172958
-150.820449829102 -75.273185729980 -188.584014892578 2.847651720047
102.126579284668 -78.987205505371 -193.725219726563 2.494527578354
-43.361118316650 -73.551719665527 -192.994430541992 2.133527278900
-11.739741325378 -78.306396484375 -197.967315673828 3.392034769058
-138.506240844727 -75.836311340332 -189.211410522461 5.178971767426
-40.757770538330 -73.984306335449 -196.999710083008 1.823411345482
102.176513671875 -75.468200683594 -197.844940185547 1.773097515106
108.839241027832 -74.524147033691 -186.448242187500 2.533268213272
-42.229740142822 -76.215484619141 -193.873184204102 1.922193408012
-21.585197448730 -83.941627502441 -197.673294067383 5.094615459442
-146.344573974609 -79.775115966797 -196.161163330078 0.175466433167
-24.100238800049 -76.325683593750 -194.246353149414 1.063828468323
-158.504333496094 -76.911460876465 -192.743530273438 6.037604808807
-151.925064086914 -83.875328063965 -200.866271972656 0.941666662693
-143.674468994141 -78.731597900391 -197.886001586914 1.270566940308
-37.666652679443 -77.421104431152 -199.074432373047 1.800397396088
102.504570007324 -78.078460693359 -204.274276733398 2.981771469116
-41.110229492188 -74.468551635742 -198.139495849609 1.716789603233
-141.711883544922 -80.406425476074 -200.922210693359 1.214355707169
-36.669578552246 -72.569595336914 -203.826095581055 2.715430974960
-21.319368362427 -82.331901550293 -208.466064453125 5.593172073364
98.429580688477 -79.785667419434 -206.804901123047 3.426147699356
90.937248229980 -78.749717712402 -215.551223754883 1.708959937096
-36.232799530029 -74.929168701172 -215.561691284180 3.918769359589
-87.510917663574 -78.247047424316 -207.412979125977 4.855809211731
-75.112380981445 -77.934959411621 -209.183975219727 2.016833066940
-18.588508605957 -76.932052612305 -209.167221069336 1.445018291473
-149.148727416992 -78.749343872070 -198.369598388672 2.096503019333
91.961151123047 -76.486442565918 -214.948181152344 1.280609250069
89.010597229004 -73.774276733398 -218.996749877930 1.702907562256
90.280082702637 -77.676933288574 -221.670516967773 1.802482604980
-102.245056152344 -77.861282348633 -215.708450317383 6.831460952759
-154.012313842773 -79.443237304688 -216.909149169922 4.176979541779
-19.936218261719 -75.096054077148 -222.435180664063 1.321726679802
80.856086730957 -73.662254333496 -228.085433959961 1.543011903763
-149.811248779297 -81.110145568848 -217.935577392578 0.916376829147
-28.571800231934 -78.505630493164 -215.915710449219 1.794087529182
-134.012023925781 -75.237274169922 -229.028076171875 1.900387763977
-11.148672103882 -80.070228576660 -230.235305786133 2.862827062607
17.418130874634 -76.000396728516 -228.111740112305 2.370209932327
20.201864242554 -78.227081298828 -232.840698242188 2.315419912338
-155.339401245117 -80.279182434082 -231.044601440430 2.731938362122
-126.337692260742 -73.078094482422 -229.204620361328 1.818219900131
-8.244074821472 -76.829162597656 -234.521652221680 1.931010246277
0.137752994895 -76.343475341797 -236.816940307617 1.565371513367
69.230361938477 -76.987098693848 -231.968536376953 3.071548700333
69.375991821289 -73.806831359863 -239.688995361328 2.256942510605
-0.357692003250 -74.944473266602 -239.415176391602 2.074771165848
15.975354194641 -72.914207458496 -239.577835083008 1.524752497673
-31.341825485229 -69.111679077148 -239.962677001953 6.467358589172
-32.720870971680 -86.235542297363 -240.484466552734 6.141151905060
-48.565517425537 -77.103515625000 -234.422714233398 6.257589340210
-40.463626861572 -74.944702148438 -238.322372436523 3.931887626648
-16.686676025391 -78.693702697754 -241.734222412109 2.762916088104
-52.143051147461 -75.270126342773 -242.325210571289 2.285139560699
1.526453018188 -78.006294250488 -244.449386596680 1.981976628304
-68.548233032227 -79.523117065430 -240.591979980469 7.076931476593
21.164976119995 -78.793281555176 -246.797668457031 0.721790969372
-142.720474243164 -79.960838317871 -240.120620727539 2.520191431046
-73.395217895508 -80.307640075684 -250.940780639648 3.480884552002
16.005189895630 -78.566841125488 -249.406417846680 1.743646383286
-161.433105468750 -76.161369323730 -245.016326904297 3.821829080582
12.901451110840 -81.893722534180 -253.033294677734 2.044172763824
-80.708702087402 -71.325370788574 -248.388290405273 1.333201408386
-76.074798583984 -77.910278320313 -247.983657836914 3.949470758438
18.184507369995 -79.594612121582 -253.800048828125 2.210444450378
-89.833305358887 -76.730163574219 -248.284729003906 4.861181259155
-126.236450195313 -73.697532653809 -251.059173583984 3.204362630844
-133.047653198242 -81.555152893066 -256.610687255859 2.618789672852
-136.481872558594 -80.698394775391 -248.887573242188 7.011307716370
-147.463882446289 -79.595054626465 -257.469116210938 2.560675859451
-146.332427978516 -73.982139587402 -248.653869628906 3.162720203400
-134.843139648438 -75.833648681641 -257.996673583984 0.884688019753
-162.309280395508 -73.845230102539 -256.089965820313 1.584631919861
-128.697555541992 -77.591148376465 -263.554107666016 3.247168302536
-136.949417114258 -72.042388916016 -259.211334228516 2.706834316254
-163.296173095703 -74.357719421387 -265.542663574219 1.240122795105
-156.352554321289 -74.741432189941 -260.348327636719 1.737909555435
-148.863754272461 -75.681678771973 -261.681488037109 1.729853868484
-149.430526733398 -78.428848266602 -261.584197998047 2.143571376801
16.209766387939 -80.491508483887 -278.462066650391 2.734261989594
-167.112091064453 -77.694915771484 -261.398071289063 3.645213365555
-152.352401733398 -79.459281921387 -269.258270263672 2.382678031921
-5.969968795776 -86.098022460938 -271.561065673828 4.522058486938
-156.102767944336 -75.105102539063 -270.735595703125 2.100581169128
10.896913528442 -81.680915832520 -282.629455566406 3.480114698410
-153.729431152344 -77.330451965332 -277.304840087891 3.086221218109
-167.072418212891 -79.361587524414 -284.059814453125 4.975053310394
-156.344589233398 -80.799964904785 -273.840515136719 3.849697113037
-165.770874023438 -75.499374389648 -284.608459472656 1.090653538704
-0.586691975594 -81.803489685059 -286.218536376953 5.741609096527
6.233817100525 -83.436576843262 -280.866149902344 3.170741081238
-106.264129638672 -75.899497985840 -289.454101562500 2.839159965515
-157.159942626953 -84.506027221680 -283.369995117188 4.364104747772
-149.164001464844 -75.346702575684 -281.089691162109 2.784690856934
-107.324462890625 -76.808685302734 -288.694335937500 2.972597360611
-154.452270507813 -81.391204833984 -288.694000244141 2.257732152939
-149.512649536133 -82.437881469727 -284.538238525391 1.623577237129
-76.120635986328 -81.759330749512 -290.811492919922 4.763339519501
-168.965194702148 -80.436866760254 -284.352478027344 5.966743469238
-123.840110778809 -74.162628173828 -288.037841796875 0.868205666542
-44.025051116943 -82.777969360352 -284.069396972656 5.779907703400
-152.662673950195 -77.588684082031 -283.558502197266 2.215919017792
-132.846069335938 -72.803161621094 -290.057861328125 2.796402454376
-21.291475296021 -75.632186889648 -293.520996093750 2.156271934509
-130.306106567383 -73.893547058105 -289.480255126953 3.927526473999
4.886915206909 -79.454376220703 -294.318328857422 3.586743354797
13.896504402161 -75.435302734375 -292.003601074219 0.961075305939
-134.563644409180 -73.597358703613 -287.235198974609 1.442923069000
-146.880355834961 -80.129814147949 -294.442321777344 1.465755701065
-158.040618896484 -81.982177734375 -310.896575927734 6.914111614227
-67.594131469727 -68.349617004395 -50.624355316162 3.229413747787
-17.921442031860 -67.250167846680 -64.816368103027 4.249305248260
-15.651614189148 -76.609619140625 -63.954319000244 4.926061630249
74.851119995117 -71.426620483398 -79.493461608887 3.587348461151
93.995796203613 -73.132087707520 -77.237831115723 1.918686985970
-32.753387451172 -73.711868286133 -78.472625732422 2.747025251389
79.558868408203 -72.912376403809 -81.817436218262 3.761782407761
93.579467773438 -77.904220581055 -84.174400329590 2.855754375458
69.824440002441 -74.271995544434 -85.067436218262 0.693744778633
76.526535034180 -72.680854797363 -91.585990905762 3.220443248749
-46.635173797607 -74.529937744141 -83.435806274414 2.394135236740
-88.452194213867 -76.656784057617 -86.807037353516 3.769670963287
62.522296905518 -77.212539672852 -94.617851257324 4.822386741638
53.450702667236 -76.671684265137 -100.539924621582 1.525922417641
95.953964233398 -70.347496032715 -102.797668457031 1.708042621613
-87.828941345215 -68.501159667969 -99.191146850586 6.660437107086
83.328155517578 -69.071670532227 -101.571388244629 0.650436758995
74.890960693359 -75.028831481934 -102.274200439453 3.543182134628
94.419296264648 -76.960594177246 -99.497169494629 3.606186628342
86.833854675293 -74.421096801758 -97.876136779785 1.351972818375
83.901504516602 -77.320968627930 -100.186180114746 3.212974309921
-85.151847839355 -75.942176818848 -100.095130920410 5.105731010437
46.946651458740 -71.465820312500 -105.489212036133 2.554991245270
107.738533020020 -75.914070129395 -112.555290222168 1.404366135597
109.757751464844 -75.360214233398 -112.518234252930 1.408572673798
52.312175750732 -78.111404418945 -120.763214111328 6.440162181854
115.623748779297 -78.268714904785 -121.586013793945 5.083078861237
119.597023010254 -78.808525085449 -137.109481811523 4.964384555817
-48.293437957764 -71.631652832031 -127.855316162109 4.818542957306
29.990659713745 -74.341743469238 -134.948715209961 2.113942623138
43.338981628418 -78.637336730957 -134.054702758789 4.226780414581
26.688791275024 -72.073997497559 -142.112625122070 1.705969691277
114.980827331543 -79.178955078125 -138.996154785156 2.400905370712
113.812423706055 -76.560333251953 -132.233169555664 0.873688399792
-71.623565673828 -74.504699707031 -146.166061401367 1.452893137932
-41.476730346680 -73.555496215820 -139.185470581055 4.637455463409
-69.488876342773 -72.670951843262 -150.492889404297 1.951025724411
20.596664428711 -72.814056396484 -148.099334716797 2.142753124237
114.003738403320 -72.154441833496 -150.191619873047 1.898816227913
-52.238708496094 -76.694786071777 -150.351150512695 1.770869731903
-70.425338745117 -73.595527648926 -150.143676757813 1.929161310196
-37.381305694580 -78.207077026367 -150.023223876953 3.733083963394
33.527339935303 -69.256072998047 -154.167922973633 2.467896461487
110.683715820313 -71.157279968262 -152.433120727539 0.966601550579
118.354377746582 -74.256538391113 -163.936264038086 2.410449504852
-66.514724731445 -71.383720397949 -154.084197998047 2.063870191574
-73.143180847168 -77.455665588379 -158.073318481445 3.566285848618
23.488342285156 -79.969055175781 -163.369766235352 1.574731111526
-58.803558349609 -72.380592346191 -165.319549560547 2.723028898239
-30.899135589600 -72.610435485840 -162.264419555664 1.927130460739
10.101650238037 -76.989387512207 -163.692565917969 4.343034267426
109.014808654785 -72.378868103027 -163.461364746094 1.306295990944
11.348538398743 -79.303092956543 -167.929382324219 7.458312988281
-30.918565750122 -75.345848083496 -164.673080444336 2.200170278549
-1.814214944839 -69.335418701172 -164.331024169922 3.230170249939
108.185668945313 -71.274002075195 -168.844833374023 0.545335531235
-40.173912048340 -72.363426208496 -162.377273559570 2.268151521683
31.636892318726 -72.548393249512 -173.623840332031 3.246401071548
115.765113830566 -80.244476318359 -174.341262817383 4.720142364502
-55.830879211426 -71.551834106445 -174.014083862305 3.381625175476
-26.565496444702 -78.713035583496 -174.430847167969 2.090940952301
103.036361694336 -76.226493835449 -176.185546875000 3.257287502289
30.820194244385 -72.614387512207 -168.128753662109 3.288304567337
105.991004943848 -77.379005432129 -177.637390136719 3.117617368698
-35.631107330322 -70.716903686523 -178.002975463867 1.483405590057
110.839172363281 -79.658432006836 -182.676055908203 4.642647266388
-61.954605102539 -71.552520751953 -175.770614624023 3.281583070755
-24.504762649536 -79.861557006836 -176.684387207031 2.478951215744
-146.270553588867 -68.372772216797 -180.856964111328 1.257978916168
-52.778240203857 -74.042930603027 -177.428787231445 1.578204631805
-146.284591674805 -75.477577209473 -182.162765502930 1.187548279762
-33.813991546631 -72.736961364746 -182.319992065430 2.126154422760
30.241220474243 -80.885330200195 -178.937026977539 5.202243804932
106.931198120117 -76.836769104004 -185.375503540039 3.194294452667
-35.130664825439 -74.500083923340 -180.770156860352 1.781638026237
11.479761123657 -76.047241210938 -190.651382446289 1.721990466118
16.862813949585 -75.264625549316 -205.268981933594 1.042636752129
-148.164901733398 -75.586204528809 -184.300201416016 1.992046594620
107.344383239746 -79.245994567871 -197.715942382813 3.350418329239
-22.340721130371 -73.126579284668 -191.898422241211 2.765454053879
101.673027038574 -77.273956298828 -188.865844726563 1.667437434196
12.967210769653 -72.367691040039 -190.225082397461 0.961000740528
-139.192840576172 -75.110046386719 -202.041641235352 1.659936189651
-136.908676147461 -74.248321533203 -195.881454467773 1.868782758713
102.938659667969 -79.995460510254 -203.251113891602 3.664672613144
-11.004785537720 -80.172164916992 -199.075881958008 4.216853618622
-16.551836013794 -76.194343566895 -203.355041503906 1.862386584282
11.996080398560 -78.335784912109 -207.160476684570 1.784722685814
-149.243637084961 -74.287826538086 -202.372497558594 3.031203269958
-145.861679077148 -76.602096557617 -205.661743164063 0.464180141687
101.720535278320 -69.891769409180 -207.437255859375 3.873698234558
-83.876853942871 -75.103416442871 -205.113342285156 6.339604377747
-34.477951049805 -76.808601379395 -199.232559204102 1.335225224495
20.546949386597 -79.657684326172 -214.894897460938 4.214026927948
-24.014169692993 -76.357048034668 -209.751953125000 2.474152565002
-74.334426879883 -73.347808837891 -203.665695190430 6.341896533966
91.616485595703 -76.203887939453 -210.511611938477 0.881443440914
-78.663513183594 -72.499549865723 -209.922805786133 0.550382077694
-147.539611816406 -75.241752624512 -215.371841430664 0.955344736576
-79.737861633301 -73.570358276367 -210.255340576172 0.338285058737
-11.082593917847 -69.427589416504 -206.978668212891 2.575121164322
-20.080455780029 -72.757453918457 -219.097137451172 1.454635024071
18.886837005615 -76.471015930176 -214.415512084961 1.043203592300
-4.822762012482 -77.630119323730 -221.194458007813 1.321812033653
-87.995780944824 -81.374168395996 -216.579254150391 3.748081207275
93.532310485840 -75.096504211426 -215.326431274414 1.793435692787
-99.483764648438 -73.780487060547 -212.667282104492 4.530251502991
-153.453094482422 -73.485969543457 -221.323028564453 0.575990438461
-28.464609146118 -74.982337951660 -223.329574584961 2.285887718201
19.376646041870 -77.116615295410 -215.562377929688 1.954845070839
-101.774162292480 -76.287017822266 -217.179702758789 4.675781250000
7.796455860138 -70.980735778809 -217.251373291016 2.336210012436
-26.573255538940 -75.573730468750 -213.521987915039 1.284088373184
82.718498229980 -73.860420227051 -226.110763549805 1.644178390503
-144.066436767578 -73.631431579590 -213.728286743164 2.895676851273
14.222532272339 -75.118461608887 -225.600006103516 3.099915504456
-9.229951858521 -79.764968872070 -226.915924072266 2.467265844345
18.064285278320 -68.026519775391 -223.429809570313 2.407568931580
84.250167846680 -77.592842102051 -223.982070922852 1.867349743843
-14.196812629700 -79.693901062012 -228.228561401367 3.113885402679
-130.174423217773 -77.635498046875 -223.500183105469 3.536068201065
-14.590402603149 -75.602439880371 -223.302520751953 1.193661928177
16.912672042847 -75.788536071777 -229.180740356445 2.051995277405
-127.415748596191 -78.599746704102 -223.638031005859 4.899492263794
-153.101562500000 -71.838806152344 -227.117782592773 1.729497313499
-142.826980590820 -74.268661499023 -225.439712524414 1.799306869507
-128.329833984375 -73.086906433105 -223.125228881836 2.582188367844
-11.236126899719 -72.676017761230 -223.463729858398 1.447091341019
72.154830932617 -75.856887817383 -228.226104736328 2.907052040100
-144.355392456055 -70.893173217773 -235.550460815430 1.500232100487
68.975944519043 -77.156158447266 -229.166244506836 4.363933086395
-20.975763320923 -80.084594726563 -230.011627197266 3.578379392624
-142.286621093750 -78.502410888672 -224.469879150391 1.912946939468
76.778068542480 -84.010269165039 -230.198196411133 8.040330886841
10.303233146667 -81.259254455566 -231.659744262695 1.826852083206
-140.113769531250 -79.486564636230 -232.382232666016 2.439250707626
-149.462219238281 -74.544731140137 -229.351989746094 1.503131270409
17.826646804810 -71.609596252441 -230.588729858398 0.243959248066
-2.478513956070 -79.907752990723 -238.342391967773 2.832361936569
-29.429859161377 -74.929512023926 -235.610580444336 3.551768541336
-1.452568054199 -71.103340148926 -235.825546264648 1.314419031143
-160.519409179688 -78.908699035645 -233.740112304688 5.207836627960
5.887615203857 -73.816017150879 -242.334640502930 1.335272550583
-164.828887939453 -76.888839721680 -236.531692504883 3.350791215897
-11.943313598633 -77.215347290039 -236.597885131836 4.145199298859
58.978183746338 -77.288749694824 -239.844619750977 3.223838567734
-13.461212158203 -74.406829833984 -235.800430297852 2.976802110672
-25.177846908569 -75.719673156738 -245.940521240234 3.525299310684
-24.476064682007 -75.518875122070 -240.615036010742 1.994896411896
-11.005238533020 -80.059089660645 -239.130340576172 6.221396446228
-146.138320922852 -76.265739440918 -224.665161132813 2.240561723709
7.810392856598 -74.853912353516 -241.100372314453 1.799583435059
63.988254547119 -75.991004943848 -245.497558593750 4.393443107605
15.455805778503 -73.095848083496 -244.993240356445 1.699038624763
-168.747406005859 -73.505699157715 -238.508544921875 2.126346111298
-51.500183105469 -74.688507080078 -237.249481201172 5.143094062805
4.770408153534 -83.499725341797 -248.246780395508 2.832162618637
17.186885833740 -76.571586608887 -243.078384399414 2.944033861160
-54.003067016602 -75.578819274902 -245.666824340820 2.249511003494
-2.255855083466 -70.704574584961 -249.443572998047 4.767630100250
20.433214187622 -83.489112854004 -248.449966430664 2.926679372787
-171.871536254883 -72.962684631348 -244.841766357422 6.729744434357
-65.726547241211 -80.331192016602 -246.952667236328 2.184669971466
-52.509616851807 -73.955726623535 -246.009506225586 2.750223159790
-82.862594604492 -74.067329406738 -250.438720703125 2.298864126205
-162.022552490234 -77.242828369141 -242.323928833008 3.171775102615
-150.835021972656 -66.509895324707 -244.362487792969 2.291847705841
-60.794002532959 -78.215164184570 -247.901199340820 0.951811432838
-68.868774414063 -75.447914123535 -246.901535034180 0.443903744221
-153.917282104492 -72.960929870605 -248.346862792969 0.825806856155
-152.373809814453 -77.073715209961 -248.278396606445 2.347104787827
-75.131004333496 -71.009269714355 -252.854934692383 1.189044952393
-93.890251159668 -72.343864440918 -254.021499633789 1.970363736153
-163.629013061523 -68.715965270996 -249.541366577148 0.716605484486
-157.813568115234 -76.240447998047 -257.205230712891 3.236389875412
-135.828002929688 -78.014045715332 -256.574493408203 1.206374645233
-83.537460327148 -75.245933532715 -247.616653442383 3.516281604767
-162.063781738281 -71.379478454590 -249.648010253906 2.935974359512
-142.048431396484 -72.868568420410 -253.695068359375 1.863361954689
-85.082176208496 -74.617187500000 -246.511260986328 3.426040887833
-97.900337219238 -73.803131103516 -259.103149414063 2.208702802658
-143.634719848633 -76.956184387207 -251.637725830078 2.176887750626
-92.907829284668 -75.562065124512 -253.263244628906 1.274473547935
-154.776504516602 -73.281600952148 -251.608291625977 2.595770835876
-104.044677734375 -75.226295471191 -251.966339111328 5.291217803955
-171.308547973633 -74.371513366699 -254.479797363281 5.078770637512
-162.707580566406 -77.978904724121 -261.995666503906 3.141766548157
-128.201568603516 -80.163330078125 -252.796646118164 6.031739711761
-152.891342163086 -76.202758789063 -255.778594970703 2.488158464432
-110.503326416016 -71.786827087402 -259.975463867188 1.727187633514
-14.488082885742 -73.966865539551 -261.270660400391 2.229385375977
-141.318130493164 -75.301300048828 -257.100921630859 1.352530717850
-127.295776367188 -74.688949584961 -256.898284912109 1.514917254448
-153.941085815430 -73.341247558594 -259.557708740234 2.209374427795
23.899385452271 -77.646095275879 -272.153442382813 4.184915542603
-150.431518554688 -78.825569152832 -275.588073730469 1.040154576302
-169.981552124023 -76.356826782227 -277.922088623047 3.340210676193
-9.758387565613 -75.408760070801 -279.061279296875 2.923830509186
-145.939956665039 -75.232490539551 -275.932556152344 1.117403388023
-11.605094909668 -74.553474426270 -282.912689208984 3.062825441360
11.801790237427 -77.910247802734 -286.478271484375 1.440261363983
-138.066223144531 -73.404777526855 -282.504455566406 4.058142662048
-67.347389221191 -79.135337829590 -285.471557617188 2.701399326324
-34.383869171143 -79.980934143066 -287.972259521484 1.413959860802
-113.337562561035 -76.346275329590 -279.901977539063 7.600721836090
-98.011528015137 -81.636192321777 -287.352264404297 7.112042427063
-89.749664306641 -77.058189392090 -289.191101074219 3.685193061829
-51.985656738281 -78.342620849609 -290.994049072266 2.506089210510
-117.014465332031 -82.353881835938 -284.203796386719 6.478188991547
-116.538085937500 -78.020858764648 -287.303894042969 1.849263072014
-34.712345123291 -73.198455810547 -286.865661621094 2.216453075409
-117.670104980469 -77.798133850098 -290.834045410156 1.985961318016
-129.356597900391 -70.637527465820 -285.935913085938 3.555789709091
-146.012695312500 -79.238502502441 -290.806793212891 2.485679388046
5.898665904999 -77.179000854492 -290.550323486328 1.012417912483
16.924446105957 -79.120750427246 -292.781341552734 2.690337657928
-162.604339599609 -75.776321411133 -288.333190917969 2.016472578049
-161.698120117188 -80.812438964844 -296.780029296875 7.914035797119
-149.889221191406 -78.249763488770 -306.290161132813 1.952752113342
-154.461303710938 -75.653244018555 -306.560455322266 0.786576688290
-154.299346923828 -77.200233459473 -310.661041259766 2.370305776596
33.302188873291 -76.105178833008 -14.077511787415 3.476853370667
39.277324676514 -68.779815673828 -19.859842300415 1.698064923286
26.099313735962 -71.958366394043 -25.493309020996 0.432538926601
33.848407745361 -68.829467773438 -39.568778991699 1.213231205940
-54.526889801025 -70.966972351074 -48.658134460449 1.694265961647
-60.521446228027 -71.636909484863 -48.917304992676 2.151910066605
-34.841381072998 -76.406181335449 -47.747390747070 6.379761219025
-82.483306884766 -65.464973449707 -63.544357299805 8.022557258606
84.099182128906 -76.624809265137 -76.742912292480 2.939204454422
-9.315044403076 -68.578048706055 -70.852005004883 5.009821891785
93.320892333984 -73.661544799805 -65.032981872559 4.980329036713
104.278633117676 -73.042152404785 -77.651664733887 4.454181671143
-88.286727905273 -69.309425354004 -72.684295654297 3.896191358566
69.656280517578 -73.177688598633 -81.693969726563 1.894085049629
-36.455341339111 -76.617134094238 -85.412193298340 3.685505390167
105.154441833496 -73.133308410645 -82.857658386230 4.498221397400
-53.799251556396 -69.707901000977 -86.788520812988 4.059344768524
53.340114593506 -73.974662780762 -91.525970458984 0.736461877823
73.478050231934 -80.965805053711 -91.161170959473 5.934226036072
57.364170074463 -71.974166870117 -96.653022766113 1.346867442131
55.899257659912 -75.194969177246 -99.700431823730 1.757202625275
78.597152709961 -77.603408813477 -97.427551269531 2.899285316467
50.138938903809 -72.863014221191 -108.924903869629 1.561386585236
101.289733886719 -74.622070312500 -103.860961914063 3.073108434677
108.229248046875 -79.621475219727 -109.547027587891 5.147715091705
80.919952392578 -71.354919433594 -105.337150573730 1.848072648048
96.728355407715 -75.375030517578 -106.618782043457 5.853372097015
103.489410400391 -74.193336486816 -95.527725219727 1.803283095360
113.035453796387 -75.453910827637 -106.392051696777 3.255125999451
42.803718566895 -72.775039672852 -107.153297424316 1.913552284241
116.248397827148 -71.394905090332 -120.126853942871 2.757145166397
117.157188415527 -76.139358520508 -121.690902709961 3.259373903275
32.790256500244 -71.587974548340 -124.927688598633 2.017027378082
47.311672210693 -75.592895507813 -118.894165039063 2.258195877075
117.771965026855 -75.649681091309 -134.351181030273 0.905650138855
36.754070281982 -73.194252014160 -127.273651123047 3.408664226532
119.156845092773 -80.343734741211 -129.243240356445 6.746614933014
110.547119140625 -76.182556152344 -124.713020324707 1.839355230331
29.478370666504 -76.282478332520 -134.250442504883 0.414567798376
-44.544479370117 -74.215591430664 -132.025100708008 5.195371150970
-49.635620117188 -71.549751281738 -133.273376464844 1.837047815323
113.890304565430 -74.471870422363 -137.649902343750 1.411699891090
-65.460906982422 -78.972213745117 -137.614959716797 7.881281375885
-69.237831115723 -74.184204101563 -138.532348632813 3.003027677536
-57.626922607422 -74.091636657715 -137.796234130859 0.819940447807
33.010879516602 -75.264488220215 -145.279251098633 2.642834901810
121.048927307129 -78.148635864258 -149.293060302734 6.621789932251
-67.976547241211 -69.522331237793 -146.002639770508 1.945659160614
-46.915691375732 -74.234222412109 -139.972991943359 1.099075078964
34.832061767578 -75.061180114746 -153.058074951172 2.981817245483
-66.156127929688 -75.276565551758 -145.894012451172 2.708081245422
116.552009582520 -73.652000427246 -142.082153320313 0.547133088112
113.271423339844 -72.893218994141 -160.044357299805 1.754662156105
118.355857849121 -76.679618835449 -156.504867553711 3.317826509476
-36.506008148193 -77.737030029297 -151.226684570313 2.649706363678
-62.154853820801 -73.864929199219 -163.675369262695 2.815354824066
-65.216217041016 -68.991027832031 -156.022308349609 2.522255897522
31.230737686157 -75.752624511719 -144.593856811523 2.712283611298
-0.206086993217 -76.946853637695 -161.468658447266 1.592645764351
111.787918090820 -74.087699890137 -164.747207641602 2.147466182709
114.237640380859 -72.861938476563 -154.593063354492 2.058036565781
114.516792297363 -79.437744140625 -161.537948608398 1.852737784386
-60.899017333984 -71.234474182129 -156.598266601563 3.749141931534
-43.144920349121 -76.860359191895 -166.067672729492 2.196676015854
-1.687327027321 -74.074798583984 -164.728103637695 1.879620075226
-29.297946929932 -75.538063049316 -174.021499633789 1.869901180267
107.405830383301 -74.100891113281 -169.928237915039 2.069091796875
-30.855447769165 -78.881278991699 -158.703048706055 4.300117969513
110.595924377441 -73.423812866211 -169.624572753906 1.392507195473
-40.150344848633 -74.932655334473 -173.023300170898 1.209400296211
109.748054504395 -72.528114318848 -171.984176635742 2.143136739731
-151.563522338867 -75.232162475586 -175.253311157227 3.766005277634
-24.170463562012 -69.666694641113 -176.648056030273 1.839998364449
-18.081781387329 -75.407455444336 -183.182968139648 2.488133192062
26.271453857422 -79.381896972656 -177.017913818359 2.076382875443
15.799208641052 -73.875534057617 -183.916152954102 2.153349876404
30.087146759033 -75.882133483887 -183.107009887695 3.625237464905
104.106147766113 -82.041114807129 -186.416442871094 5.028363704681
-150.749572753906 -69.775466918945 -180.028533935547 2.870373249054
-17.724250793457 -77.509239196777 -181.588119506836 2.313084602356
102.819267272949 -77.645011901855 -180.450408935547 1.881159782410
104.299362182617 -71.211593627930 -191.154296875000 1.122801423073
110.748428344727 -77.741394042969 -178.620147705078 1.797826766968
101.399604797363 -77.955818176270 -194.998077392578 1.552688121796
-149.703887939453 -73.128952026367 -194.342178344727 2.001583099365
100.602127075195 -76.955703735352 -208.229644775391 3.250160455704
-27.017879486084 -72.732719421387 -197.766326904297 1.476445794106
97.671104431152 -75.809822082520 -196.400939941406 1.354012966156
-118.313896179199 -79.421020507813 -198.455230712891 7.521961688995
-28.767143249512 -80.270797729492 -187.392105102539 1.903784871101
-141.336380004883 -68.477996826172 -194.930175781250 1.034824967384
97.102218627930 -76.007781982422 -199.514984130859 1.540952563286
9.465209960938 -75.659271240234 -199.481842041016 2.301176071167
25.825736999512 -73.022254943848 -191.845825195313 1.704836130142
-147.778015136719 -76.183502197266 -200.581909179688 2.438487768173
-136.613189697266 -73.761169433594 -199.197036743164 2.258640527725
-8.608931541443 -74.977912902832 -207.983978271484 2.036575555801
-123.311210632324 -73.986900329590 -202.331893920898 0.836374044418
-143.238159179688 -75.957229614258 -193.646316528320 1.471925616264
2.674263000488 -75.911216735840 -198.380966186523 6.997738361359
-24.703504562378 -77.649185180664 -199.239730834961 2.702154874802
22.124174118042 -79.635063171387 -201.395126342773 2.978623390198
6.384964942932 -77.609199523926 -212.716491699219 2.444845914841
83.805892944336 -71.734458923340 -210.591903686523 4.127659320831
-17.019580841064 -72.243812561035 -211.324050903320 1.651790738106
91.546974182129 -73.048088073730 -210.774978637695 0.687336266041
98.992736816406 -79.341133117676 -208.743011474609 3.893983125687
-147.370773315430 -76.376411437988 -210.129364013672 1.606814265251
95.958930969238 -79.058502197266 -213.278579711914 4.091770648956
5.175675868988 -73.471817016602 -205.881881713867 0.818828344345
3.286998033524 -78.014884948730 -214.084167480469 4.893817424774
-31.052333831787 -74.718673706055 -204.775955200195 1.221091270447
-88.597816467285 -74.259353637695 -210.536636352539 3.062323093414
-24.171483993530 -77.862319946289 -208.972732543945 3.080580711365
86.211120605469 -74.702278137207 -219.428665161133 2.357934713364
91.278129577637 -75.080581665039 -217.291183471680 1.512987971306
-30.546039581299 -74.038520812988 -210.544647216797 1.039555072784
-83.087814331055 -70.827270507813 -217.448715209961 2.912765026093
0.528883993626 -77.857902526855 -218.992355346680 2.746642827988
79.659538269043 -70.866569519043 -213.234008789063 4.769795417786
-151.924102783203 -80.879486083984 -217.597290039063 2.192643165588
-165.535430908203 -72.332969665527 -210.411941528320 1.266700029373
-162.795135498047 -78.873703002930 -217.812026977539 5.534652709961
-21.157131195068 -77.578628540039 -226.065612792969 1.589436769485
-154.128433227539 -79.679901123047 -218.577316284180 4.574547290802
-3.956311941147 -76.331054687500 -223.389877319336 2.593862533569
6.558113098145 -77.729530334473 -218.190521240234 3.026299715042
-168.614929199219 -74.648559570313 -222.227539062500 3.723180294037
-156.652893066406 -75.045455932617 -224.500320434570 3.861845493317
79.125938415527 -80.852073669434 -233.344009399414 4.521683216095
-0.813672006130 -75.093353271484 -225.503997802734 1.747995018959
-158.721664428711 -67.796302795410 -222.826614379883 1.192649841309
-142.213455200195 -77.631408691406 -219.733581542969 3.969497680664
-18.209682464600 -73.678390502930 -222.944396972656 0.228219062090
-1.380154967308 -80.332725524902 -220.197036743164 0.628517270088
80.292999267578 -72.676559448242 -228.189208984375 1.191763997078
-160.542709350586 -72.304603576660 -224.128677368164 1.164266347885
-141.669967651367 -71.509689331055 -229.364547729492 2.206302404404
-125.402336120605 -72.680290222168 -228.704925537109 1.884494066238
78.519973754883 -79.092781066895 -227.354370117188 2.289094448090
-115.416206359863 -75.288330078125 -226.593963623047 2.059297561646
-143.737747192383 -74.740364074707 -226.067993164063 2.161628246307
-150.777709960938 -73.132965087891 -228.478027343750 0.975919902325
-149.497070312500 -75.903503417969 -228.428268432617 1.249463200569
-155.340103149414 -75.866851806641 -225.505935668945 2.901821613312
-164.447235107422 -75.545318603516 -224.655242919922 2.225771903992
-132.497955322266 -76.162734985352 -233.771301269531 2.690265655518
-132.894607543945 -76.277679443359 -230.371566772461 2.296207904816
-151.762039184570 -80.952041625977 -229.928314208984 2.343245983124
-145.266494750977 -70.540893554688 -234.577423095703 2.061467170715
-150.718093872070 -75.929557800293 -232.158523559570 2.509202003479
75.876785278320 -79.720603942871 -234.547988891602 5.261230945587
67.493698120117 -69.358947753906 -236.011749267578 1.500398993492
-155.103790283203 -72.779472351074 -231.809738159180 0.547209322453
73.139564514160 -70.186561584473 -234.393310546875 0.266904860735
-20.212594985962 -73.246078491211 -235.688491821289 2.847359895706
12.706233024597 -78.140884399414 -238.036010742188 2.983769893646
8.038356781006 -76.791442871094 -235.681900024414 2.460093975067
-155.523635864258 -75.217254638672 -237.779067993164 3.078723192215
15.979687690735 -75.384613037109 -241.301513671875 2.382289886475
59.570419311523 -74.386154174805 -239.468841552734 2.220759868622
13.479519844055 -72.616065979004 -238.253433227539 0.938872694969
4.883221149445 -76.151535034180 -241.075103759766 1.912684082985
-6.410746097565 -72.370910644531 -239.231094360352 1.638092875481
-21.628009796143 -73.817550659180 -242.165893554688 1.668406844139
-2.230216026306 -76.106422424316 -240.377883911133 2.586916446686
4.784683227539 -79.741950988770 -245.812728881836 0.660677134991
57.617961883545 -78.018096923828 -241.749282836914 3.647619009018
-54.663162231445 -81.279747009277 -243.225997924805 0.641617953777
20.391658782959 -75.014305114746 -248.157363891602 1.553092002869
-58.091526031494 -76.435600280762 -238.713134765625 5.564182758331
-10.535289764404 -76.463417053223 -247.572616577148 3.057513713837
-66.867111206055 -71.241539001465 -248.975418090820 1.558460235596
-85.841186523438 -72.536239624023 -252.060134887695 1.357937216759
-82.439392089844 -77.520156860352 -251.704757690430 1.096439242363
-8.405437469482 -75.436988830566 -255.904678344727 3.535451412201
-123.735717773438 -75.770172119141 -258.519256591797 2.131466865540
-14.047655105591 -76.911170959473 -250.978836059570 2.881763696671
-117.029205322266 -75.358154296875 -252.081024169922 3.835433959961
-117.871902465820 -73.656639099121 -256.211853027344 0.666588306427
-103.893875122070 -75.530281066895 -252.415802001953 5.044671535492
-143.474777221680 -73.925971984863 -257.194458007813 1.770825624466
-144.995971679688 -75.268692016602 -264.959899902344 2.137633085251
-169.382232666016 -75.529022216797 -259.426544189453 4.309252262115
20.460199356079 -81.448593139648 -280.605682373047 6.751866817474
-60.926944732666 -73.701774597168 -283.601287841797 3.354101419449
-68.858016967773 -75.101692199707 -280.651214599609 5.307159423828
-42.920314788818 -78.605560302734 -281.366271972656 5.038955688477
-27.722906112671 -77.365028381348 -286.397033691406 1.842691183090
-96.677001953125 -79.426879882813 -288.362182617188 4.667953968048
-32.436740875244 -74.136169433594 -283.803527832031 2.683976411819
-4.437139987946 -76.336059570313 -285.218353271484 1.790143251419
-168.168746948242 -76.231941223145 -285.993835449219 2.324551343918
-19.258071899414 -79.562431335449 -284.580291748047 3.730357408524
4.642133235931 -78.284011840820 -287.604797363281 2.602514505386
13.290259361267 -82.886314392090 -280.325073242188 4.037660121918
-57.854129791260 -80.296997070313 -284.107299804688 4.255110740662
-36.033729553223 -78.055274963379 -290.940093994141 1.705307126045
13.357271194458 -74.677742004395 -293.817626953125 0.953284919262
-72.613426208496 -74.330009460449 -292.245300292969 3.000055551529
-43.092422485352 -72.920661926270 -286.987915039063 1.922249674797
-18.975593566895 -74.280265808105 -288.780853271484 3.332867145538
13.372277259827 -79.971893310547 -291.465362548828 3.046486377716
-13.178353309631 -79.615608215332 -294.984924316406 4.194920063019
3.426258087158 -75.853881835938 -294.628784179688 1.692689299583
13.538685798645 -80.283584594727 -288.732025146484 2.569166183472
-135.919036865234 -75.199935913086 -291.211395263672 0.769768714905
-146.215591430664 -78.990310668945 -294.671173095703 2.057883501053
-154.708892822266 -76.024208068848 -309.994445800781 1.325923442841
49.831455230713 -70.851020812988 -14.764404296875 3.412207365036
35.026340484619 -71.331924438477 -11.964509010315 1.368308663368
45.250648498535 -71.841949462891 -15.501978874207 1.586290359497
27.955812454224 -66.776451110840 -18.316625595093 1.501017928123
50.578750610352 -68.616973876953 -23.879909515381 1.995761632919
31.142919540405 -68.442939758301 -25.256725311279 4.710423946381
28.503421783447 -71.804588317871 -26.758752822876 2.609080076218
31.087686538696 -72.886810302734 -40.901103973389 1.065011978149
42.315296173096 -75.371795654297 -31.295469284058 3.768456459045
30.636850357056 -77.097793579102 -37.518119812012 5.449966430664
48.436683654785 -70.074470520020 -40.135295867920 3.635601520538
36.728675842285 -72.608833312988 -41.302600860596 1.364958167076
45.141414642334 -73.957473754883 -35.878536224365 1.608582973480
35.347579956055 -70.295150756836 -40.407596588135 0.653432071209
49.610275268555 -72.120101928711 -42.624610900879 6.632512092590
37.258922576904 -71.041702270508 -37.995807647705 2.126242637634
-37.780189514160 -70.489440917969 -46.303401947021 2.968493938446
-25.052421569824 -65.816741943359 -49.339763641357 2.444719076157
-85.888412475586 -71.550819396973 -51.420486450195 4.298496723175
-85.992111206055 -72.362510681152 -63.864215850830 1.292780041695
81.187339782715 -75.746398925781 -65.759658813477 4.754516601563
88.320861816406 -71.447303771973 -74.178558349609 3.763533830643
-16.893976211548 -69.856018066406 -74.146652221680 2.709298133850
-84.087440490723 -70.241317749023 -69.938743591309 5.065600872040
-21.191730499268 -70.677017211914 -75.851524353027 3.010187864304
-45.835330963135 -73.633987426758 -83.232192993164 1.448677301407
69.639030456543 -68.965072631836 -87.482826232910 2.810075521469
55.567417144775 -71.156120300293 -94.571960449219 1.736573815346
103.000968933105 -70.534393310547 -93.287864685059 2.818622589111
72.381179809570 -75.586219787598 -97.913536071777 1.613905310631
-66.300453186035 -72.464485168457 -87.420608520508 5.760519981384
-56.558975219727 -68.484230041504 -97.186294555664 7.312711238861
48.003963470459 -72.477058410645 -98.034484863281 1.388140678406
80.795547485352 -70.760086059570 -99.433532714844 2.332137584686
58.325531005859 -82.432800292969 -105.875854492188 7.359452247620
105.186149597168 -72.683593750000 -97.272415161133 1.720683574677
-91.532936096191 -75.148971557617 -105.020889282227 2.612854957581
44.500846862793 -72.471626281738 -110.029861450195 2.974000692368
110.594833374023 -74.759033203125 -111.341674804688 1.818827271461
52.318492889404 -73.175354003906 -112.106010437012 3.509613513947
103.634864807129 -74.956375122070 -112.534126281738 2.742568016052
-81.782989501953 -71.600593566895 -114.918907165527 2.327064514160
38.607765197754 -76.993392944336 -112.987228393555 1.407213211060
110.297241210938 -71.360900878906 -118.591323852539 1.322335124016
107.732398986816 -70.049781799316 -118.028869628906 2.496766567230
107.050735473633 -73.909057617188 -116.877708435059 2.244777917862
114.158119201660 -71.713325500488 -115.903213500977 2.207594871521
44.226142883301 -76.234062194824 -108.635505676270 2.152529716492
35.403850555420 -68.360641479492 -116.073486328125 2.621473550797
42.390361785889 -72.480392456055 -112.942329406738 1.992773294449
108.100975036621 -75.615142822266 -122.684837341309 2.845715284348
43.965030670166 -70.833908081055 -122.036529541016 1.140025258064
112.368621826172 -72.249176025391 -134.469436645508 1.916879534721
112.704177856445 -71.978683471680 -132.981414794922 2.244428873062
36.567710876465 -69.811149597168 -118.952850341797 0.957283020020
-75.595291137695 -73.059722900391 -121.042663574219 4.383662700653
115.171401977539 -69.764053344727 -135.610458374023 0.994993627071
-50.666976928711 -73.011169433594 -136.451766967773 1.475581407547
37.450408935547 -74.246124267578 -134.338790893555 2.814281463623
-71.002098083496 -73.011322021484 -131.654647827148 2.257631778717
28.271974563599 -76.673904418945 -129.934326171875 1.260705232620
-78.477920532227 -73.814567565918 -141.457290649414 3.108602285385
-43.047035217285 -76.446708679199 -140.305755615234 2.954758882523
-72.921569824219 -75.039733886719 -136.365036010742 2.490855216980
111.728561401367 -72.625000000000 -137.935256958008 0.722783565521
122.071960449219 -71.202476501465 -143.267684936523 4.954078674316
121.239105224609 -77.804641723633 -149.458770751953 6.530372142792
-77.959327697754 -72.690826416016 -140.967895507813 2.493823289871
8.929310798645 -68.689094543457 -150.311370849609 2.216875314713
-48.551338195801 -73.651710510254 -146.170303344727 3.416141271591
-49.788913726807 -74.553451538086 -153.086990356445 2.643339157104
107.885559082031 -74.916191101074 -164.819854736328 2.320146560669
-38.621776580811 -75.908676147461 -146.709533691406 3.568093299866
16.463909149170 -70.397026062012 -158.036254882813 1.405898809433
24.451414108276 -76.124313354492 -157.034622192383 2.005817174911
116.268249511719 -72.414909362793 -166.952499389648 2.274569988251
32.045303344727 -72.687141418457 -167.139755249023 3.314443349838
1.029579997063 -75.432327270508 -163.045974731445 1.694681525230
33.845859527588 -74.512222290039 -160.289031982422 2.130956888199
-65.635673522949 -71.570426940918 -154.135040283203 2.568202257156
-64.564064025879 -73.251693725586 -156.945098876953 1.499830365181
-67.876419067383 -70.897529602051 -164.093658447266 1.789649963379
116.371559143066 -69.569412231445 -163.605285644531 2.064274787903
-42.890792846680 -73.912712097168 -161.345153808594 2.405610561371
18.119485855103 -73.740135192871 -164.697341918945 1.186204195023
-62.192600250244 -71.615928649902 -167.822280883789 0.876613497734
-62.906909942627 -70.607704162598 -169.512695312500 2.116232633591
-41.087211608887 -75.085510253906 -159.104095458984 2.227549791336
-32.949432373047 -77.117271423340 -166.185562133789 1.007543325424
117.374305725098 -77.331054687500 -173.198837280273 4.754351139069
-35.905902862549 -66.801918029785 -180.298156738281 4.711644172668
14.032764434814 -74.992477416992 -171.890991210938 3.273278951645
111.832054138184 -77.991554260254 -187.542205810547 3.292139768600
-145.672866821289 -75.185791015625 -172.058563232422 4.511969566345
-144.701354980469 -72.235519409180 -168.113098144531 7.035384178162
-145.590454101563 -70.620056152344 -177.535552978516 2.042677402496
-140.761703491211 -75.781051635742 -180.191314697266 3.925046682358
-31.388397216797 -71.884361267090 -183.419769287109 2.781468391418
-22.006814956665 -74.482421875000 -184.122528076172 2.460898160934
24.779254913330 -68.755050659180 -192.120300292969 2.415407180786
-139.431671142578 -72.284561157227 -182.728012084961 2.965825557709
-146.616638183594 -73.761291503906 -184.786148071289 2.261386871338
-20.695465087891 -71.391380310059 -184.234252929688 1.983675360680
11.013010978699 -73.698661804199 -182.052810668945 3.764507532120
-149.063964843750 -73.077049255371 -191.362289428711 1.295880675316
-30.382982254028 -73.884719848633 -187.758911132813 1.362694859505
101.043281555176 -74.901687622070 -189.649902343750 0.456223160028
106.514167785645 -72.525093078613 -191.317916870117 2.353252410889
26.048227310181 -68.216514587402 -193.272415161133 3.080374479294
-9.365132331848 -73.846939086914 -187.428222656250 8.020396232605
-27.461542129517 -76.196952819824 -191.331710815430 2.070264101028
-155.291778564453 -75.510482788086 -196.878799438477 1.887188911438
-131.807312011719 -74.568206787109 -193.049026489258 3.429275751114
-124.544845581055 -69.713386535645 -191.192886352539 3.374774456024
-125.011787414551 -71.766197204590 -193.916671752930 2.774746656418
-20.824674606323 -68.925544738770 -193.930465698242 0.931155145168
15.243053436279 -77.125038146973 -191.554473876953 1.158612847328
92.485954284668 -80.645965576172 -202.351608276367 4.386908531189
-150.136611938477 -68.159576416016 -190.325988769531 2.380484342575
-143.279159545898 -69.896995544434 -195.003952026367 1.406414985657
-150.759872436523 -73.241127014160 -196.926422119141 3.482452630997
-153.744995117188 -70.271438598633 -192.313385009766 0.729644000530
-23.015527725220 -72.806198120117 -198.394912719727 0.994274556637
-7.406845092773 -70.276794433594 -193.987319946289 6.855968475342
-144.056259155273 -67.651557922363 -199.015350341797 2.296200513840
-19.122911453247 -73.117164611816 -201.126571655273 2.829485416412
-159.744247436523 -72.547279357910 -197.544967651367 2.402317285538
-133.587921142578 -72.924827575684 -195.440261840820 0.774455070496
15.837074279785 -77.850166320801 -206.388229370117 1.109263658524
-158.767761230469 -68.594253540039 -200.146011352539 2.168281793594
-145.525680541992 -75.721206665039 -202.677276611328 2.520529508591
7.776027202606 -71.589965820313 -203.749465942383 2.687076568604
-153.420883178711 -69.781593322754 -198.224411010742 1.762416124344
-24.471061706543 -72.811637878418 -201.464309692383 1.672405004501
95.233749389648 -75.991645812988 -200.259597778320 2.485132932663
-159.140243530273 -75.031890869141 -206.393493652344 4.906332969666
-163.503616333008 -78.048690795898 -201.925720214844 5.982684612274
-74.953613281250 -71.063659667969 -204.319076538086 5.921663761139
90.853515625000 -74.050537109375 -209.374893188477 1.537318706512
-3.340137004852 -73.459182739258 -218.967636108398 1.726275801659
-155.748611450195 -71.925277709961 -208.625228881836 2.699511051178
-86.506149291992 -74.593147277832 -210.029327392578 1.706658959389
