90.696418762207 -65.443412780762 -68.047241210938 4.226279735565
-17.959777832031 -66.373985290527 -67.284400939941 3.861370325089
105.148033142090 -70.830352783203 -75.278182983398 4.313297271729
94.821319580078 -75.862716674805 -77.171134948730 2.617866992950
69.229072570801 -72.008850097656 -80.142768859863 1.742568254471
72.808113098145 -75.600891113281 -83.377670288086 1.809645175934
-43.470249176025 -73.800575256348 -81.865730285645 1.995561242104
61.613182067871 -76.400428771973 -82.391731262207 6.334074497223
-92.673744201660 -69.850334167480 -88.333267211914 3.777977943420
-46.786113739014 -67.070388793945 -84.393241882324 1.183270812035
-55.484771728516 -76.786460876465 -85.003433227539 5.573684692383
103.089065551758 -78.904479980469 -100.072059631348 5.022252559662
60.847576141357 -74.902481079102 -91.756492614746 2.134429693222
68.086074829102 -70.365325927734 -92.093315124512 2.239141702652
-93.801231384277 -62.338817596436 -96.671371459961 5.138767242432
108.879486083984 -73.706726074219 -92.953643798828 5.624401092529
43.400352478027 -69.217941284180 -100.190628051758 1.934320569038
102.986755371094 -71.163787841797 -99.933891296387 1.979635238647
107.932754516602 -68.538024902344 -108.122436523438 0.595314085484
100.973220825195 -72.018760681152 -105.303451538086 3.043482303619
74.955360412598 -75.073974609375 -100.468154907227 2.426701545715
87.641265869141 -74.110954284668 -109.205154418945 6.109645366669
51.041576385498 -69.825790405273 -112.187324523926 3.597290039063
111.390014648438 -67.533264160156 -104.148040771484 2.483007669449
48.166622161865 -75.451377868652 -105.326332092285 2.573206901550
39.495666503906 -69.149940490723 -102.893646240234 2.559040069580
114.054489135742 -72.729576110840 -112.224403381348 1.515977382660
-77.498748779297 -65.475013732910 -108.476066589355 1.712296366692
46.310550689697 -69.764007568359 -113.726799011230 1.270768165588
33.938907623291 -74.260406494141 -116.723632812500 1.548265218735
106.668754577637 -68.902244567871 -112.260978698730 1.336103081703
38.341510772705 -67.905281066895 -112.457695007324 2.893000125885
-86.584907531738 -69.334823608398 -110.669593811035 1.396491646767
-94.483963012695 -65.147666931152 -113.683181762695 3.750879287720
102.809600830078 -77.250808715820 -121.388046264648 6.038980007172
-94.276931762695 -70.355461120605 -118.065444946289 1.712852358818
39.975811004639 -74.947837829590 -121.749908447266 2.423947334290
37.169872283936 -71.302963256836 -123.248550415039 1.402597308159
-84.271995544434 -69.578269958496 -123.247032165527 2.605515003204
33.666427612305 -69.057991027832 -134.866714477539 1.284706830978
112.516639709473 -73.543640136719 -133.029541015625 1.863876700401
-52.772438049316 -70.098854064941 -137.935150146484 2.980801582336
-87.470481872559 -67.947967529297 -132.313430786133 1.843889951706
38.698612213135 -76.074623107910 -131.292587280273 1.159294366837
-86.592010498047 -64.351219177246 -135.876708984375 0.819608747959
-87.852493286133 -73.149131774902 -139.967422485352 5.674199581146
-49.710735321045 -70.619651794434 -136.067291259766 1.014812231064
-70.637779235840 -67.187110900879 -138.485366821289 2.221347093582
-50.225315093994 -69.353385925293 -132.318527221680 1.954814434052
117.451339721680 -68.647842407227 -138.569122314453 4.009279727936
-71.622192382813 -72.168266296387 -134.262954711914 2.823836088181
37.910003662109 -72.337142944336 -131.440002441406 1.373328924179
-78.157218933105 -67.717224121094 -140.427139282227 0.857440173626
-71.988380432129 -70.053352355957 -134.819610595703 1.188335776329
-93.273902893066 -67.195716857910 -141.126235961914 2.553420066833
-54.710006713867 -66.370346069336 -145.494125366211 1.787495493889
31.886257171631 -65.818016052246 -146.789108276367 3.272984266281
27.632019042969 -69.523521423340 -149.753860473633 1.457786440849
20.540727615356 -64.623107910156 -145.157608032227 1.386005759239
112.817268371582 -71.461685180664 -147.914398193359 2.407264947891
-91.158760070801 -67.835296630859 -150.976226806641 1.741208195686
11.455679893494 -72.633644104004 -152.860321044922 1.094573020935
-71.463752746582 -69.302925109863 -154.256195068359 2.100441932678
24.012687683105 -69.422752380371 -149.885559082031 1.646197915077
-49.125591278076 -68.835716247559 -155.196807861328 1.773763537407
10.052257537842 -69.332267761230 -154.345062255859 1.748364925385
16.733528137207 -74.425598144531 -159.581878662109 3.308667659760
17.171316146851 -77.033859252930 -164.369277954102 3.569819927216
-50.559215545654 -73.077964782715 -163.125442504883 3.133753061295
-38.401008605957 -68.688697814941 -155.306198120117 1.951091766357
-47.197257995605 -71.422569274902 -161.900268554688 1.484856843948
-103.297172546387 -70.744720458984 -172.024017333984 1.949626326561
21.797670364380 -73.178398132324 -175.449279785156 3.325009584427
-33.898262023926 -70.779479980469 -177.838211059570 1.710203170776
15.374899864197 -76.625404357910 -178.854125976563 2.849937200546
-142.596130371094 -68.658584594727 -174.839202880859 1.510110735893
-31.578964233398 -66.560424804688 -172.603042602539 1.183342337608
-156.340652465820 -76.341011047363 -176.729003906250 6.524616718292
24.546455383301 -65.067703247070 -182.454376220703 4.617116451263
-33.964447021484 -72.512077331543 -170.488479614258 3.203209400177
-106.951606750488 -66.929779052734 -175.298767089844 3.019594907761
-107.158363342285 -76.050209045410 -183.300704956055 6.586925506592
-30.640886306763 -64.522201538086 -185.883728027344 4.462641239166
-24.349819183350 -76.376220703125 -181.692977905273 1.942566394806
12.451446533203 -70.040031433105 -189.668106079102 2.110668897629
15.838505744934 -67.870407104492 -199.362930297852 2.129764795303
13.121359825134 -71.803672790527 -187.988891601563 2.054351568222
-142.740249633789 -67.224227905273 -185.717834472656 1.233025789261
23.607347488403 -66.533096313477 -190.548248291016 3.585450649261
5.669408798218 -70.457641601563 -197.310516357422 2.793871641159
-135.525726318359 -67.500938415527 -192.434082031250 2.073097229004
-113.196327209473 -69.171737670898 -194.471206665039 2.330178499222
14.600482940674 -69.087516784668 -204.124465942383 0.799230098724
-118.594917297363 -67.817169189453 -196.004562377930 3.152087688446
-107.795051574707 -62.581218719482 -191.765106201172 3.843074560165
-166.943740844727 -70.840682983398 -200.033309936523 2.123510599136
-24.702655792236 -69.049789428711 -200.132446289063 0.829241216183
10.738814353943 -69.121070861816 -200.370941162109 1.340529203415
-145.141250610352 -70.234893798828 -202.979080200195 1.624759554863
-137.940780639648 -73.183258056641 -206.023910522461 4.722900390625
-21.974748611450 -68.578948974609 -208.106399536133 2.406667947769
-12.774959564209 -72.032501220703 -205.614227294922 1.403291821480
-14.341016769409 -72.421424865723 -206.180709838867 2.962880373001
-139.383560180664 -74.599128723145 -201.812500000000 1.405632972717
-17.741300582886 -70.840858459473 -213.187728881836 1.932288169861
-9.840130805969 -77.075714111328 -214.873031616211 1.207899928093
17.561637878418 -67.735382080078 -211.966735839844 1.746170759201
-17.328512191772 -76.516960144043 -212.003341674805 0.305424958467
9.854817390442 -72.551315307617 -209.816146850586 0.918936431408
-11.595319747925 -72.797264099121 -215.586654663086 3.410243034363
-23.543647766113 -66.968421936035 -211.941848754883 5.452470302582
11.140905380249 -78.444404602051 -221.300460815430 1.865774273872
-3.007590055466 -77.954498291016 -219.627243041992 1.440803170204
10.601855278015 -66.665634155273 -221.218109130859 1.584863305092
-7.193802833557 -74.693664550781 -228.580001831055 1.904474258423
-160.926361083984 -71.115692138672 -225.283554077148 2.645957946777
79.939994812012 -75.582633972168 -221.037261962891 1.605339884758
-136.290954589844 -67.196434020996 -222.977462768555 2.854883193970
-135.902740478516 -72.696891784668 -220.957778930664 4.544902801514
-8.711047172546 -72.302017211914 -225.539245605469 0.444915741682
6.094872951508 -71.150306701660 -235.792175292969 1.100522041321
-158.833648681641 -69.586944580078 -229.920974731445 1.833209753036
88.764656066895 -70.424179077148 -221.602981567383 2.509161233902
-2.288799047470 -69.799079895020 -226.900711059570 1.393707513809
0.101079002023 -72.072479248047 -222.041534423828 1.974421143532
73.204658508301 -76.044860839844 -232.084106445313 2.421788930893
-0.469222009182 -68.323081970215 -236.725463867188 1.445920348167
-14.562650680542 -73.038185119629 -225.539474487305 2.078825235367
-128.148971557617 -66.702552795410 -233.080917358398 1.847493886948
-5.981427192688 -71.118423461914 -238.329574584961 1.425517082214
1.844619035721 -68.718261718750 -231.032363891602 2.049414157867
65.339782714844 -69.138984680176 -239.368438720703 0.955897688866
-158.924591064453 -72.481307983398 -236.243804931641 0.711816668510
-14.125598907471 -69.744346618652 -245.854995727539 1.694072484970
-171.017333984375 -73.165832519531 -237.783554077148 3.768067836761
9.654844284058 -66.774604797363 -242.212112426758 1.709181785583
-164.552825927734 -71.686485290527 -237.639068603516 1.014690160751
-161.102203369141 -72.302558898926 -245.856460571289 2.068771123886
57.026077270508 -72.885047912598 -246.077514648438 1.958417177200
60.248729705811 -74.734771728516 -243.367080688477 2.452391624451
54.652420043945 -73.381156921387 -246.745483398438 2.094648361206
50.462791442871 -72.308547973633 -250.418167114258 1.773392558098
-154.305175781250 -71.773536682129 -242.036575317383 3.855755090714
-157.205123901367 -66.126502990723 -245.923416137695 3.335265159607
-13.702281951904 -76.487297058105 -249.794601440430 2.344037771225
-151.781829833984 -69.442855834961 -246.361801147461 1.711634516716
17.265924453735 -72.548530578613 -251.809020996094 2.220979213715
-172.128158569336 -76.736022949219 -250.138458251953 6.211775302887
-169.758392333984 -68.027244567871 -248.949295043945 3.682368278503
-83.187591552734 -73.254409790039 -247.124237060547 3.023534297943
-171.647155761719 -69.103996276855 -257.103454589844 4.788825511932
-86.291259765625 -70.663833618164 -257.691314697266 1.573973774910
41.842094421387 -71.034210205078 -254.609771728516 1.292713522911
20.653038024902 -75.705787658691 -257.834167480469 2.060175180435
-159.272140502930 -71.735549926758 -262.055236816406 2.074330806732
-102.260139465332 -63.129039764404 -259.633300781250 1.534525752068
38.681510925293 -71.948440551758 -255.846176147461 1.731726050377
-108.004722595215 -79.814033508301 -257.792785644531 5.229402065277
-154.819213867188 -66.464965820313 -264.932464599609 2.454648017883
-105.228157043457 -69.800613403320 -256.538085937500 2.406865835190
-170.365829467773 -73.461318969727 -258.311676025391 4.568718910217
-114.417190551758 -71.763648986816 -263.342163085938 1.166098833084
-154.866546630859 -73.091514587402 -265.260772705078 2.020055532455
-160.514999389648 -67.257919311523 -261.912994384766 2.908262014389
-166.964080810547 -69.284248352051 -262.788330078125 0.789728224277
-166.393630981445 -68.280380249023 -261.264465332031 1.880845546722
-167.036361694336 -70.385009765625 -263.589263916016 1.280446290970
-169.505737304688 -71.173492431641 -259.195739746094 2.488795518875
25.305143356323 -73.669258117676 -266.429473876953 2.296718120575
-149.585861206055 -75.657890319824 -261.844879150391 2.148573160172
-152.818283081055 -70.530380249023 -284.218902587891 1.694926261902
26.198280334473 -72.407493591309 -276.597961425781 5.235967636108
-13.680357933044 -74.987892150879 -275.059173583984 1.867548346519
-126.796585083008 -68.286170959473 -284.172546386719 1.947917222977
-137.938888549805 -71.205230712891 -285.697479248047 1.819031357765
-135.251480102539 -70.172798156738 -288.682220458984 2.422666311264
-129.496704101563 -71.214347839355 -285.197570800781 3.705273151398
-114.695220947266 -69.649688720703 -291.224121093750 1.595896720886
-105.686546325684 -66.354515075684 -283.917480468750 4.154205799103
6.299314022064 -76.417984008789 -295.299743652344 2.145740032196
-85.992263793945 -72.691894531250 -290.442047119141 1.284249424934
-150.310699462891 -71.382225036621 -285.894561767578 3.231945514679
-103.929222106934 -72.152313232422 -290.644378662109 1.124624729156
-133.645736694336 -68.149536132813 -291.776458740234 1.763034462929
8.436941146851 -74.735420227051 -288.270477294922 1.562883615494
-112.569480895996 -63.603538513184 -287.045471191406 5.201770305634
2.592206954956 -72.708847045898 -294.499969482422 1.975146532059
-144.764587402344 -70.403518676758 -286.117218017578 2.280737638474
-154.096130371094 -70.965721130371 -294.366851806641 1.739888072014
-161.139953613281 -69.727348327637 -315.424346923828 6.224355697632
-157.668685913086 -68.825355529785 -310.302154541016 1.482564568520
48.383441925049 -72.704574584961 -25.917718887329 1.062338113785
26.276264190674 -68.917854309082 -37.757011413574 2.287553787231
30.784877777100 -70.419471740723 -37.357246398926 2.501360893250
-41.142059326172 -71.835868835449 -47.299907684326 2.823130130768
-9.798645019531 -66.470977783203 -63.417224884033 2.395918369293
96.043281555176 -71.178817749023 -69.569824218750 2.271441698074
69.616897583008 -64.089187622070 -70.309967041016 2.218934774399
-24.048830032349 -68.119262695313 -74.546585083008 2.065762281418
-99.133666992188 -73.195083618164 -87.514442443848 3.917686462402
-41.746410369873 -68.643447875977 -85.094528198242 3.852273225784
59.745666503906 -69.662551879883 -81.577072143555 2.725653886795
65.408226013184 -73.693412780762 -86.149658203125 2.942057847977
52.793579101563 -67.120841979980 -88.881881713867 1.222115516663
-58.456047058105 -67.813285827637 -90.680755615234 1.034999251366
68.370979309082 -65.009338378906 -90.592094421387 2.697976589203
43.722351074219 -74.466339111328 -99.496994018555 2.405178785324
69.978935241699 -73.065757751465 -96.330986022949 1.609852552414
-59.831790924072 -66.876777648926 -96.458045959473 4.371463775635
51.996650695801 -72.189819335938 -92.996452331543 0.869161665440
47.387241363525 -72.913154602051 -99.190925598145 0.927741646767
104.044044494629 -66.732452392578 -104.087669372559 0.840436816216
-64.469352722168 -68.728179931641 -98.201637268066 1.524779200554
112.283294677734 -70.114906311035 -101.641769409180 3.273854255676
-78.300315856934 -72.359985351563 -101.260643005371 1.976065874100
54.483188629150 -73.397148132324 -107.625564575195 1.528301954269
48.942176818848 -68.281219482422 -102.328819274902 0.493170678616
91.801155090332 -66.528556823730 -105.831604003906 1.177973628044
84.114845275879 -70.600120544434 -107.600143432617 3.201758384705
57.052223205566 -71.186019897461 -106.201499938965 3.155178308487
-76.320976257324 -69.687614440918 -111.883941650391 1.831597685814
-77.604393005371 -68.318000793457 -116.461334228516 0.997711479664
-80.516693115234 -69.983406066895 -117.518966674805 1.883048653603
-93.435096740723 -75.160240173340 -117.067764282227 2.921601057053
103.805686950684 -63.862075805664 -119.247749328613 5.787375450134
-89.744667053223 -72.213569641113 -117.964942932129 1.656066775322
-74.853210449219 -63.918106079102 -121.407913208008 2.209128141403
109.597946166992 -69.848770141602 -118.469764709473 2.476414680481
-59.420768737793 -59.616065979004 -117.291023254395 1.796478629112
113.702033996582 -76.296485900879 -133.359893798828 1.378059267998
110.327522277832 -73.351509094238 -131.482284545898 1.158790707588
105.942695617676 -73.161247253418 -129.325607299805 3.898384809494
-93.456008911133 -69.694900512695 -136.447158813477 3.001780509949
-45.464668273926 -69.520095825195 -141.921325683594 2.178780794144
-80.726921081543 -65.768150329590 -143.287658691406 4.996654033661
-69.162223815918 -69.123435974121 -148.196121215820 0.901760876179
-68.693542480469 -68.047531127930 -149.135498046875 1.886355400085
-54.789115905762 -68.719100952148 -143.708023071289 1.646948218346
-45.865882873535 -75.018867492676 -144.386108398438 1.858225345612
14.098430633545 -70.366058349609 -148.032836914063 1.738409996033
-93.511352539063 -64.219139099121 -140.857467651367 1.896813035011
-46.142547607422 -67.599090576172 -146.464050292969 2.049918174744
-50.915588378906 -60.542354583740 -146.812713623047 6.678180694580
-42.319782257080 -67.027175903320 -154.317352294922 1.880362153053
26.908967971802 -73.516578674316 -161.427093505859 1.882496476173
-50.777278900146 -70.936645507813 -151.540893554688 1.097295999527
-101.932456970215 -62.778797149658 -147.848922729492 3.190155029297
-47.167762756348 -65.504524230957 -155.144805908203 3.784161329269
25.441883087158 -73.782226562500 -146.820404052734 0.735044538975
-96.343376159668 -76.697669982910 -163.013473510742 8.671506881714
23.017742156982 -73.501716613770 -158.752227783203 2.062664031982
-108.203109741211 -64.882072448730 -168.140197753906 1.869387865067
-101.605972290039 -69.639938354492 -163.332748413086 1.031168818474
21.967893600464 -70.810150146484 -166.963729858398 1.516347527504
26.449766159058 -68.473030090332 -168.306594848633 1.199741601944
-110.710197448730 -72.351921081543 -172.361160278320 3.827060937881
-142.551483154297 -65.285888671875 -172.353027343750 3.006936550140
-18.719264984131 -70.938003540039 -190.860275268555 2.283152103424
-27.829010009766 -69.065490722656 -180.695373535156 1.991036295891
-117.207786560059 -71.184906005859 -185.920211791992 5.201766967773
-143.951690673828 -64.020896911621 -185.003265380859 2.968488216400
-101.907821655273 -65.438491821289 -180.617584228516 3.782679080963
-159.837005615234 -69.007797241211 -187.593704223633 6.697303295135
-131.534942626953 -74.862037658691 -194.410324096680 2.616427421570
-133.366348266602 -72.075736999512 -195.276000976563 0.718326687813
-19.652488708496 -68.246368408203 -187.828002929688 3.211891651154
-119.430221557617 -70.168441772461 -198.313110351563 1.915670990944
-118.876495361328 -64.692512512207 -199.433578491211 2.389773368835
-28.879281997681 -73.433494567871 -193.149353027344 1.203992486000
-154.681152343750 -65.736412048340 -194.478607177734 1.941648960114
-133.185455322266 -70.665946960449 -203.957763671875 0.864092826843
-125.381507873535 -66.199378967285 -202.904388427734 2.446208953857
18.069047927856 -74.457092285156 -202.443298339844 1.749051213264
-162.949188232422 -69.230033874512 -200.606872558594 1.989911317825
12.381938934326 -68.882072448730 -217.406417846680 2.517585754395
13.747630119324 -72.791305541992 -215.987136840820 2.093657970428
-16.035739898682 -65.652931213379 -210.665542602539 2.868521928787
-5.562038898468 -70.723281860352 -217.209457397461 2.202863216400
-172.702316284180 -65.251480102539 -209.444427490234 6.517995834351
-159.842620849609 -63.886833190918 -211.101928710938 4.232309341431
-95.514465332031 -69.037544250488 -218.413055419922 1.414091229439
-97.579864501953 -72.287376403809 -220.899826049805 2.344339609146
-161.678192138672 -70.581825256348 -225.352859497070 3.119534730911
-109.344596862793 -66.613830566406 -218.271545410156 4.663404464722
-12.266796112061 -68.487113952637 -212.308074951172 2.086030721664
-128.915695190430 -71.650810241699 -220.358276367188 3.923084497452
-143.747009277344 -69.632934570313 -221.956146240234 1.116606354713
-3.866302013397 -73.494209289551 -221.736358642578 1.945383906364
-134.908920288086 -67.048568725586 -223.178604125977 1.953178167343
-124.380912780762 -74.827667236328 -221.146377563477 3.994198322296
-115.044708251953 -73.164901733398 -222.979995727539 2.919242620468
-2.131912946701 -63.659439086914 -229.736312866211 3.412706375122
-108.375320434570 -67.048370361328 -231.122985839844 1.401614189148
-162.212081909180 -61.715526580811 -221.364242553711 5.264815330505
-146.533081054688 -68.452590942383 -225.126892089844 3.045606851578
-165.679519653320 -68.474784851074 -224.478546142578 1.598499417305
-8.979457855225 -68.782699584961 -225.993347167969 2.718671798706
-8.961223602295 -71.446182250977 -233.998199462891 1.397106885910
77.662422180176 -75.218086242676 -226.441085815430 1.298348307610
-2.108874082565 -73.967132568359 -229.429885864258 2.096997737885
-144.169296264648 -69.285232543945 -236.904632568359 0.649044871330
-15.338562965393 -68.090171813965 -229.851257324219 2.034287691116
73.165473937988 -72.259780883789 -228.965728759766 1.441710352898
73.277938842773 -72.378005981445 -234.567276000977 1.554477572441
-135.222442626953 -67.326736450195 -230.996765136719 1.977978348732
-157.168411254883 -73.626045227051 -227.175750732422 2.029928207397
-114.665832519531 -67.307418823242 -232.151779174805 1.000045895576
-126.160087585449 -63.797386169434 -235.729858398438 2.273358345032
-163.622817993164 -67.566909790039 -233.884094238281 1.677002429962
-161.742767333984 -70.042900085449 -234.169235229492 3.290207862854
-148.700698852539 -63.292575836182 -231.840667724609 1.598260760307
-15.644687652588 -68.162467956543 -234.891036987305 3.989472866058
-6.794896125793 -69.544334411621 -242.439636230469 2.778870582581
-161.308532714844 -67.743766784668 -241.203125000000 0.989864826202
4.733631134033 -71.699913024902 -237.720672607422 3.056924343109
0.034320998937 -72.524612426758 -238.550247192383 0.699929654598
-160.149734497070 -68.817893981934 -236.255905151367 3.156213998795
17.249406814575 -76.417121887207 -241.426757812500 1.350970268250
49.862503051758 -74.716613769531 -247.198745727539 2.557262420654
48.190696716309 -75.401489257813 -244.743438720703 4.829923629761
-18.160161972046 -71.989288330078 -247.509140014648 3.983972549438
46.361026763916 -70.515960693359 -250.841415405273 1.801298499107
-161.136428833008 -64.485527038574 -247.813201904297 3.668863534927
-158.149917602539 -69.924903869629 -245.511459350586 2.283864021301
-162.295547485352 -74.784408569336 -247.950714111328 1.728051185608
54.682399749756 -70.952949523926 -248.773086547852 1.448063731194
-94.849700927734 -68.435623168945 -252.264175415039 1.331749677658
-125.519599914551 -68.036979675293 -253.823028564453 1.505027651787
-107.522560119629 -75.599540710449 -252.004882812500 5.796422481537
23.682420730591 -76.762550354004 -258.386291503906 2.157676935196
38.720493316650 -68.707511901855 -252.552429199219 1.602007389069
-101.772865295410 -66.677467346191 -254.049255371094 2.515054464340
-94.308708190918 -64.456710815430 -249.024795532227 4.670495033264
44.325103759766 -77.398666381836 -256.444122314453 6.784939765930
39.809772491455 -69.381301879883 -258.148986816406 1.140284776688
-155.699874877930 -75.801689147949 -256.157379150391 2.002209186554
27.512214660645 -71.685668945313 -260.884979248047 2.267172336578
-145.005920410156 -72.701179504395 -263.800750732422 0.911017060280
-114.180816650391 -69.771888732910 -261.960845947266 2.725162744522
-139.479385375977 -66.871681213379 -261.036285400391 1.202591896057
31.347042083740 -70.649070739746 -263.822448730469 3.318589448929
-127.673591613770 -68.403930664063 -261.912963867188 2.166840314865
-12.826017379761 -69.279602050781 -257.075317382813 1.448130011559
18.743030548096 -75.424446105957 -271.877685546875 2.305820465088
-5.695203781128 -77.967834472656 -264.682769775391 4.301437377930
17.399471282959 -74.473960876465 -281.093444824219 1.906263589859
-156.188949584961 -72.897193908691 -281.128509521484 3.584098815918
-13.344137191772 -69.027404785156 -281.245178222656 3.459456920624
-154.387664794922 -73.759117126465 -280.360504150391 3.233299255371
-124.322860717773 -73.490226745605 -283.989013671875 1.867337226868
-165.158081054688 -77.240066528320 -284.632934570313 2.659843921661
-116.885009765625 -69.892745971680 -286.030151367188 1.571182489395
-105.519760131836 -71.217224121094 -289.450408935547 1.773551225662
-8.772623062134 -69.548034667969 -284.935119628906 1.267797112465
-109.621986389160 -72.673774719238 -287.555328369141 1.273855447769
-118.721000671387 -67.598739624023 -282.473876953125 5.781239986420
-124.459846496582 -66.253234863281 -290.966033935547 1.227154374123
-141.407852172852 -70.399528503418 -288.933929443359 2.216396808624
-128.978271484375 -65.954879760742 -290.009338378906 1.785035014153
-160.494796752930 -75.910079956055 -287.978179931641 2.186078786850
-149.106628417969 -66.396453857422 -290.260253906250 1.166333675385
-161.378097534180 -66.497741699219 -301.514801025391 7.669579982758
-156.681838989258 -68.113708496094 -309.473388671875 2.279008388519
-162.350143432617 -67.136184692383 -299.826782226563 6.949872016907
-141.881011962891 -71.509559631348 -308.954406738281 3.021066188812
-151.154937744141 -73.333106994629 -313.370422363281 0.646274268627
37.253135681152 -69.078308105469 -7.887008190155 3.576931715012
50.321632385254 -74.201095581055 -17.940788269043 3.674373865128
25.451662063599 -66.638366699219 -22.598718643188 2.150109052658
52.753910064697 -69.686042785645 -26.891277313232 2.615948438644
29.314289093018 -71.437911987305 -34.601917266846 1.227082610130
33.390502929688 -69.813438415527 -33.847248077393 2.946007728577
-55.949962615967 -63.042716979980 -48.252716064453 4.040410995483
78.778083801270 -64.511650085449 -60.841079711914 2.316843271255
83.862228393555 -71.207466125488 -68.811706542969 1.069936990738
-88.423553466797 -69.858276367188 -62.320026397705 1.631975173950
-11.563736915588 -65.519683837891 -60.045692443848 1.851526737213
-91.298095703125 -69.624206542969 -70.878654479980 2.296519517899
97.927017211914 -72.902770996094 -68.633720397949 3.970314502716
-10.859935760498 -65.430633544922 -67.490310668945 2.588518381119
68.703857421875 -73.298263549805 -82.105873107910 2.038247346878
-42.865818023682 -73.059967041016 -80.660507202148 2.539987325668
-25.131052017212 -71.718536376953 -74.211898803711 1.620905995369
56.869224548340 -64.203826904297 -87.550285339355 1.677313089371
-42.183334350586 -79.038467407227 -83.394256591797 2.157769441605
66.141738891602 -59.618507385254 -88.529922485352 1.512259244919
53.272987365723 -75.239486694336 -91.881996154785 1.017890095711
56.205577850342 -68.786300659180 -95.321022033691 2.081745862961
59.138221740723 -76.913856506348 -91.383102416992 2.983957052231
57.179271697998 -64.670684814453 -96.607711791992 1.434902191162
99.888298034668 -66.072143554688 -99.703948974609 2.383465051651
107.931877136230 -64.474288940430 -101.168113708496 3.077256202698
61.477195739746 -72.854942321777 -101.622962951660 4.413217544556
108.582748413086 -65.366714477539 -102.023628234863 2.160347938538
-76.881828308105 -67.508636474609 -98.198028564453 2.376718521118
-72.533378601074 -68.569938659668 -102.520278930664 1.246758460999
101.187194824219 -66.106842041016 -99.767929077148 1.834914803505
54.114139556885 -70.813217163086 -101.828956604004 0.975811898708
71.169807434082 -71.969543457031 -98.394416809082 2.022049903870
-70.665771484375 -68.668663024902 -108.237586975098 1.777331113815
-84.920120239258 -66.699211120605 -107.353073120117 1.917643904686
87.856445312500 -74.379089355469 -104.405906677246 3.547161817551
39.819194793701 -71.911544799805 -103.506759643555 1.168604373932
106.768798828125 -65.921195983887 -108.789253234863 1.530429124832
48.702846527100 -73.136817932129 -114.377395629883 1.266412019730
111.679237365723 -71.069702148438 -103.678268432617 1.916128993034
-77.159965515137 -68.482513427734 -111.513504028320 1.641763567924
103.928848266602 -64.908927917480 -110.214164733887 3.546232938766
-82.689491271973 -65.361167907715 -121.046180725098 1.848710656166
-57.853599548340 -71.487373352051 -127.634963989258 1.448111176491
-56.369895935059 -68.151695251465 -123.614814758301 1.263136148453
-70.935157775879 -70.981002807617 -129.943664550781 2.439789533615
-50.071258544922 -70.374687194824 -130.877746582031 2.305827379227
-83.477828979492 -70.368576049805 -133.371200561523 2.224497079849
-77.079498291016 -64.118339538574 -131.332992553711 1.409950017929
-78.933433532715 -69.354591369629 -131.990600585938 0.973931014538
-60.896095275879 -74.413291931152 -141.791976928711 2.248610019684
-70.436729431152 -69.114547729492 -140.898101806641 1.529921293259
-60.120315551758 -74.469070434570 -132.776107788086 3.285366296768
-56.949291229248 -68.725013732910 -142.395553588867 1.870199203491
13.505284309387 -64.888221740723 -145.773132324219 2.015933275223
-90.968261718750 -69.560157775879 -140.081085205078 1.918654084206
-48.225646972656 -74.784042358398 -148.354232788086 2.876586198807
-94.659523010254 -66.840614318848 -149.174331665039 2.614307641983
-101.496711730957 -65.190879821777 -146.862014770508 3.164952516556
20.192333221436 -72.583679199219 -155.149291992188 1.554202556610
14.799212455750 -71.294837951660 -159.288742065430 0.627807497978
-95.226989746094 -71.597946166992 -159.784957885742 3.922074079514
-103.965293884277 -69.280914306641 -150.973495483398 4.713778972626
-99.789215087891 -67.212196350098 -166.886001586914 1.796317696571
21.462900161743 -69.421577453613 -170.892669677734 1.693771719933
-112.093498229980 -68.495498657227 -172.431915283203 3.001309871674
24.549833297729 -69.795425415039 -165.504028320313 0.600497841835
-148.158752441406 -68.791923522949 -175.470535278320 1.306103110313
17.877412796021 -69.440155029297 -176.545730590820 1.075724959373
24.544696807861 -71.397750854492 -186.543151855469 1.981960535049
-152.157608032227 -66.660575866699 -184.684585571289 2.918934345245
20.851570129395 -71.920959472656 -175.479248046875 2.265337228775
18.923767089844 -62.161991119385 -181.758575439453 4.654839992523
-145.516006469727 -72.969871520996 -181.568420410156 1.713356971741
-152.286148071289 -64.733955383301 -188.124389648438 1.258653044701
19.410301208496 -70.880683898926 -188.158782958984 3.174892902374
18.177818298340 -73.545196533203 -190.603347778320 2.733448505402
-142.147598266602 -71.346549987793 -192.969970703125 1.581658482552
-110.089706420898 -69.470443725586 -196.689834594727 2.411263465881
25.372072219849 -70.854095458984 -199.883834838867 4.342170238495
-125.933006286621 -69.469352722168 -193.615615844727 1.518888950348
9.000718116760 -73.548988342285 -201.266677856445 0.768946766853
-129.321578979492 -61.727016448975 -192.940780639648 4.573792457581
-162.397003173828 -65.669982910156 -187.147796630859 8.663851737976
-161.015136718750 -66.855316162109 -194.929046630859 2.265225410461
-157.429702758789 -70.724731445313 -191.751983642578 1.932755470276
-21.956268310547 -70.666007995605 -207.139602661133 2.560912370682
-169.432342529297 -71.201911926270 -197.479263305664 5.468585968018
-28.247737884521 -65.170806884766 -192.932830810547 4.087604045868
-16.290220260620 -71.547286987305 -193.854598999023 2.703361988068
6.428633213043 -63.715091705322 -196.409912109375 5.676306247711
-157.606140136719 -69.378440856934 -204.872711181641 1.517215251923
-107.379417419434 -67.270378112793 -201.865432739258 2.665185928345
-17.338598251343 -65.941970825195 -199.798980712891 2.816083192825
-161.861373901367 -61.860229492188 -199.680816650391 4.093098640442
16.710887908936 -71.169296264648 -202.742797851563 1.589255452156
-171.661209106445 -65.914054870605 -204.443222045898 5.519207477570
-120.498695373535 -71.537086486816 -201.324264526367 1.095928788185
-116.686027526855 -65.863334655762 -207.913391113281 3.886375665665
-123.456840515137 -68.550392150879 -202.670135498047 1.115213274956
-16.529537200928 -68.626602172852 -202.749114990234 2.467939615250
-19.762548446655 -70.860969543457 -203.621124267578 1.079914927483
-164.917068481445 -67.996093750000 -210.111511230469 1.261942028999
-160.581756591797 -65.826896667480 -210.179794311523 2.438720941544
-165.709213256836 -69.386024475098 -217.919815063477 2.176201105118
-140.428588867188 -71.717620849609 -212.417205810547 5.654356479645
-146.265930175781 -68.127784729004 -223.567733764648 2.137970447540
-2.129714012146 -68.217895507813 -219.305511474609 2.000888347626
-9.830726623535 -75.977752685547 -217.157577514648 2.810214757919
-101.813301086426 -66.577056884766 -219.677764892578 2.209598541260
-8.682396888733 -68.233932495117 -235.198791503906 2.419737577438
-169.862609863281 -65.095489501953 -229.045684814453 4.222478866577
-106.095367431641 -66.871315002441 -233.105438232422 4.071118831635
1.241189002991 -70.815132141113 -226.837265014648 2.277191162109
1.023741960526 -69.650573730469 -229.727752685547 2.679728269577
-113.017089843750 -69.248275756836 -232.874710083008 0.625979006290
-2.587446928024 -71.753547668457 -227.546981811523 1.647230267525
-119.673179626465 -65.280052185059 -233.049896240234 1.159796595573
-9.154931068420 -66.307266235352 -231.908157348633 1.222140669823
-2.835953950882 -69.023780822754 -235.217498779297 1.159477114677
-3.641818046570 -69.317535400391 -239.140228271484 2.075839757919
71.358528137207 -66.880409240723 -237.749313354492 1.394139766693
-10.752079963684 -73.758293151855 -237.776657104492 1.227132320404
8.835844039917 -71.294525146484 -236.358718872070 1.147740364075
10.166481971741 -69.535255432129 -238.218444824219 1.578849792480
3.979021072388 -71.958686828613 -239.000701904297 2.032135009766
2.949034929276 -72.622467041016 -241.928344726563 1.705186367035
62.081092834473 -65.110015869141 -240.556549072266 2.434043407440
67.721412658691 -66.182632446289 -241.703735351563 3.063415527344
5.407351970673 -69.706031799316 -248.899627685547 5.528455257416
50.667800903320 -72.888259887695 -243.349990844727 1.384459376335
54.045146942139 -75.982772827148 -241.123718261719 3.338832616806
45.667003631592 -66.201118469238 -251.811630249023 2.049607515335
41.053764343262 -67.075141906738 -252.363494873047 0.747895419598
39.393062591553 -69.458610534668 -259.331359863281 2.089421510696
-131.538253784180 -62.942527770996 -258.706054687500 2.160324811935
-10.194138526917 -69.235870361328 -247.942123413086 2.090624332428
29.040359497070 -68.373695373535 -258.125640869141 0.778233408928
42.502140045166 -69.138557434082 -246.434600830078 2.626585006714
27.973119735718 -74.031600952148 -253.277206420898 5.267997264862
-105.514869689941 -72.181350708008 -258.700286865234 0.796704471111
28.704841613770 -72.122650146484 -256.537231445313 2.350244045258
-146.725158691406 -71.299301147461 -260.547485351563 2.140685319901
-118.051017761230 -72.151046752930 -254.966781616211 1.358731508255
-112.249526977539 -69.384216308594 -257.559936523438 1.480720639229
-3.270984888077 -73.869903564453 -258.977203369141 7.761244773865
-153.428009033203 -70.321052551270 -255.718612670898 1.567697405815
35.502964019775 -71.219299316406 -263.581665039063 5.319159984589
-109.439628601074 -67.742324829102 -254.810272216797 2.135932683945
24.289091110229 -75.968643188477 -259.146881103516 2.698908090591
-136.243530273438 -72.568771362305 -263.392333984375 1.377401828766
-118.243797302246 -68.644348144531 -265.271789550781 2.156413793564
-112.523529052734 -68.840995788574 -261.550720214844 2.628725767136
-115.515319824219 -76.608779907227 -260.028533935547 3.432411909103
-143.066314697266 -71.193756103516 -253.921478271484 2.692405700684
28.264762878418 -71.416503906250 -259.503784179688 2.696959972382
-118.432693481445 -67.144149780273 -261.464935302734 1.629251956940
-146.276702880859 -70.658630371094 -262.207153320313 3.242182731628
-6.523938179016 -67.654144287109 -270.694488525391 2.177857398987
-151.647842407227 -71.856956481934 -278.731414794922 1.763639211655
-10.722390174866 -71.715240478516 -289.029144287109 2.382573604584
-7.243063926697 -67.931457519531 -281.479614257813 1.250688791275
-136.221969604492 -68.698188781738 -288.135192871094 0.927509129047
-131.182998657227 -69.910346984863 -290.992401123047 2.089468479156
-137.461853027344 -68.577995300293 -293.790313720703 2.034514427185
-128.595718383789 -66.543884277344 -288.908355712891 1.858823657036
-157.777130126953 -69.007026672363 -292.857757568359 2.791070222855
-159.826217651367 -69.912628173828 -298.386047363281 2.979282855988
-150.480712890625 -73.620796203613 -300.189453125000 2.723781824112
-151.355850219727 -71.428833007813 -303.309112548828 3.113802909851
-146.936019897461 -68.801116943359 -296.695068359375 0.970286846161
-152.770706176758 -68.774291992188 -304.581756591797 2.999424934387
-147.795898437500 -66.348144531250 -315.137329101563 3.192737579346
20.886398315430 -71.000968933105 -26.289142608643 1.923112988472
52.021232604980 -71.783279418945 -37.117153167725 2.686209201813
25.936510086060 -75.092094421387 -36.875404357910 4.108984470367
33.452133178711 -68.505378723145 -44.258235931396 3.314177036285
-40.328365325928 -60.047546386719 -48.389663696289 2.855305194855
-73.455345153809 -63.160480499268 -49.638195037842 4.179424285889
81.379089355469 -68.448982238770 -62.393905639648 2.153495073318
74.960426330566 -69.740066528320 -62.624870300293 2.215587854385
73.651054382324 -71.568634033203 -65.762466430664 3.944334983826
-99.678184509277 -66.888015747070 -70.794540405273 4.336112022400
99.546516418457 -74.022369384766 -76.650527954102 1.201317548752
-27.341981887817 -70.260818481445 -84.949424743652 6.891785144806
62.696262359619 -66.487640380859 -76.045616149902 2.445427179337
-41.297916412354 -63.601543426514 -83.517723083496 3.915087699890
-54.853195190430 -65.264129638672 -81.090736389160 3.059197425842
52.312835693359 -69.218589782715 -91.189224243164 1.680073738098
103.237754821777 -67.377563476563 -91.904586791992 0.806903541088
63.921600341797 -66.697082519531 -93.544921875000 0.980071544647
56.990455627441 -67.051292419434 -92.261978149414 2.715621232986
48.718170166016 -65.152053833008 -102.744293212891 1.793146014214
56.955371856689 -64.711517333984 -102.812683105469 3.759944677353
103.330772399902 -67.135108947754 -98.952339172363 1.221940279007
69.624626159668 -68.405929565430 -108.656120300293 5.429541110992
52.475566864014 -68.972564697266 -106.699287414551 2.934972286224
76.334983825684 -75.375625610352 -108.463905334473 6.828118324280
99.269973754883 -65.277595520020 -108.769416809082 4.443764686584
-73.404777526855 -64.402961730957 -98.535064697266 2.934411764145
-86.052749633789 -67.480964660645 -109.388832092285 2.210945606232
-81.454658508301 -67.994262695313 -111.439575195313 2.364494800568
-60.112258911133 -67.517433166504 -118.427017211914 2.607361316681
-57.009716033936 -71.963920593262 -125.920005798340 1.664063930511
-94.330665588379 -66.643280029297 -120.631782531738 1.016472220421
-73.618019104004 -70.220428466797 -118.315269470215 4.959731101990
-76.787277221680 -71.886871337891 -132.226089477539 2.261521816254
-60.171909332275 -64.200546264648 -127.303359985352 1.946364879608
-87.774116516113 -63.435852050781 -129.908950805664 1.520359396935
-89.539093017578 -66.190460205078 -130.041351318359 1.382013916969
-48.295211791992 -71.443153381348 -134.707077026367 1.224357962608
-50.616817474365 -69.773956298828 -137.052551269531 1.675109744072
-77.522109985352 -71.223770141602 -137.627975463867 2.681600809097
-54.541221618652 -70.593307495117 -140.931411743164 2.329145669937
-73.632308959961 -72.660934448242 -144.360809326172 1.434855818748
19.790790557861 -66.184715270996 -139.790176391602 0.893403112888
-57.863842010498 -73.103622436523 -143.741333007813 1.324059128761
-55.626224517822 -64.364151000977 -145.765686035156 3.159951448441
8.873712539673 -73.248283386230 -155.476654052734 1.445340871811
17.411922454834 -67.239601135254 -151.152084350586 1.382871627808
-141.804794311523 -68.609916687012 -172.009933471680 3.257613658905
-110.390365600586 -66.229812622070 -176.791473388672 0.516628623009
-111.527069091797 -63.888450622559 -189.294204711914 1.687996506691
-153.497055053711 -69.993888854980 -188.763977050781 2.430000305176
-113.642738342285 -67.318969726563 -185.130859375000 1.795940279961
-151.887420654297 -62.625644683838 -195.293884277344 1.742241024971
-114.740188598633 -67.072113037109 -197.997802734375 1.716021180153
-151.478744506836 -64.380775451660 -199.694473266602 2.878638505936
-150.367660522461 -67.425033569336 -205.240386962891 1.600339651108
-154.362808227539 -72.872642517090 -204.106796264648 2.735333204269
-149.862167358398 -68.015243530273 -223.159332275391 1.218306541443
-150.202545166016 -71.506599426270 -224.842697143555 2.021788358688
-106.144096374512 -65.298156738281 -227.270690917969 1.527896761894
-100.965774536133 -68.542991638184 -220.023910522461 0.566931068897
-123.866630554199 -62.856822967529 -231.072601318359 2.507473945618
-108.040626525879 -68.503433227539 -224.611053466797 2.182580709457
-158.091567993164 -68.597564697266 -229.195724487305 0.992117404938
-4.103627204895 -68.962615966797 -224.923614501953 2.255488395691
-134.106643676758 -71.849723815918 -228.766189575195 2.591738224030
-154.584274291992 -68.838325500488 -234.071701049805 1.639973998070
-139.677474975586 -71.991577148438 -231.171218872070 1.383612394333
-11.482915878296 -67.830184936523 -234.373138427734 1.637591242790
7.876064777374 -69.726593017578 -244.368316650391 2.092675685883
61.872119903564 -64.339714050293 -241.201141357422 2.800857543945
16.711769104004 -74.360855102539 -249.802062988281 2.818981647491
53.305118560791 -69.775512695313 -243.166137695313 2.019643783569
39.408565521240 -72.996551513672 -250.393173217773 3.527282238007
60.354438781738 -66.410102844238 -253.450607299805 5.940092563629
-154.420059204102 -68.386833190918 -247.499633789063 2.462216854095
-148.643402099609 -72.414596557617 -253.311508178711 2.457994461060
42.437690734863 -68.732284545898 -257.098175048828 2.093710184097
26.720947265625 -70.062927246094 -254.890518188477 2.371932268143
47.256626129150 -66.507308959961 -254.453918457031 1.799134969711
-146.555236816406 -71.714179992676 -261.177551269531 2.597172260284
-138.845886230469 -66.890121459961 -253.321670532227 4.250503063202
-125.388031005859 -65.967971801758 -258.070495605469 1.744787573814
-134.585647583008 -68.396125793457 -254.680130004883 0.527872323990
-141.315704345703 -69.739639282227 -256.789855957031 1.816483736038
-124.388427734375 -67.808746337891 -258.788848876953 1.225666403770
-144.406402587891 -66.344451904297 -258.838165283203 1.581164717674
-128.543701171875 -71.454139709473 -256.969848632813 4.061063766479
-121.707321166992 -69.816612243652 -263.960540771484 2.437032222748
-130.435562133789 -69.119415283203 -264.139801025391 1.897763609886
-123.447921752930 -64.686691284180 -263.147186279297 1.712098479271
-6.572245121002 -70.374671936035 -266.662017822266 3.024626731873
27.987747192383 -65.856239318848 -261.989288330078 2.115592479706
-147.107330322266 -62.575134277344 -266.102996826172 0.765570700169
24.782276153564 -71.682434082031 -271.467315673828 2.535274982452
-7.460309028625 -63.666927337646 -276.422302246094 4.082096099854
15.796968460083 -76.641372680664 -283.483886718750 3.363739252090
-142.833114624023 -69.444984436035 -288.159881591797 1.882641553879
-126.436805725098 -71.597755432129 -285.917388916016 0.622412443161
-132.557510375977 -63.864467620850 -289.528259277344 1.844149231911
-161.334182739258 -63.775058746338 -291.371246337891 5.484722614288
-128.360107421875 -63.027679443359 -288.355377197266 2.044378757477
-119.736679077148 -66.899070739746 -287.934051513672 1.521988153458
-126.514526367188 -72.165443420410 -296.299896240234 1.422213315964
-154.054229736328 -72.243942260742 -290.555786132813 2.692423105240
30.711906433105 -71.156455993652 -11.904550552368 1.446898698807
30.992372512817 -72.113487243652 -18.152544021606 1.019572257996
38.987545013428 -66.696487426758 -21.629966735840 3.592196226120
49.057106018066 -62.586494445801 -24.009450912476 2.748935222626
29.990329742432 -73.836334228516 -28.405578613281 3.485346794128
20.401798248291 -71.086341857910 -33.931324005127 1.314251422882
-32.549034118652 -68.859931945801 -45.406589508057 4.198213577271
-80.017738342285 -69.155288696289 -52.894462585449 3.506340026855
-16.058517456055 -67.370101928711 -59.380516052246 1.953114986420
75.008262634277 -65.973739624023 -65.637924194336 2.662348270416
104.613174438477 -67.563819885254 -70.078262329102 4.619462013245
65.329040527344 -65.401161193848 -84.693122863770 0.879335701466
61.868892669678 -62.337596893311 -85.051391601563 1.771797060966
98.789657592773 -69.337631225586 -85.823692321777 2.542371988297
-63.818599700928 -64.105621337891 -90.587409973145 2.087137699127
-65.479118347168 -67.311668395996 -89.265678405762 3.384161949158
51.597827911377 -64.957847595215 -92.806182861328 1.625398635864
-67.291442871094 -70.139793395996 -95.401046752930 2.942882537842
-72.463546752930 -66.595794677734 -101.221900939941 1.551854252815
-94.718528747559 -66.684379577637 -101.230567932129 3.154795885086
-75.601684570313 -62.300464630127 -98.884719848633 3.672260761261
47.478263854980 -63.586814880371 -102.956413269043 2.795485496521
-65.282325744629 -69.890716552734 -102.969192504883 4.005109310150
48.516361236572 -65.477447509766 -104.950729370117 1.330375671387
96.023826599121 -67.431472778320 -106.192543029785 2.003238916397
90.084503173828 -68.567520141602 -114.645500183105 7.179039001465
-71.412460327148 -66.470458984375 -115.043685913086 3.364411592484
-86.200630187988 -68.607505798340 -111.428985595703 0.979409277439
-61.687664031982 -66.764984130859 -118.519004821777 1.321129918098
-95.468864440918 -61.735614776611 -117.825004577637 2.556709289551
-76.131599426270 -69.671882629395 -126.647010803223 1.298946619034
-93.737014770508 -58.626434326172 -125.983345031738 2.837456941605
-63.816528320313 -65.542976379395 -116.535308837891 1.600608110428
-59.977840423584 -60.237724304199 -121.238609313965 2.648565292358
-89.801605224609 -68.606002807617 -129.690063476563 1.160545825958
-63.585884094238 -70.303260803223 -126.133522033691 4.374178409576
-83.811721801758 -65.884811401367 -132.801651000977 1.358409166336
-83.138290405273 -67.542198181152 -134.187484741211 2.404670953751
-61.186851501465 -72.573867797852 -136.110260009766 3.317688226700
-60.261390686035 -63.185970306396 -133.706970214844 1.976466774940
-54.990661621094 -60.148571014404 -133.642379760742 0.727066874504
-98.769027709961 -63.260120391846 -130.453308105469 7.359988212585
-97.409782409668 -62.291053771973 -144.011108398438 3.720588207245
-90.699256896973 -67.017608642578 -135.434097290039 1.207925558090
19.236917495728 -70.867034912109 -150.857589721680 2.880425214767
-50.270519256592 -68.040191650391 -140.224822998047 1.698607802391
19.482347488403 -68.434600830078 -151.918243408203 2.053708314896
-98.283103942871 -68.005401611328 -164.703491210938 3.021404266357
-103.612426757813 -73.053024291992 -169.969512939453 3.848526239395
-102.777153015137 -62.946311950684 -170.462249755859 1.573030591011
-108.694618225098 -59.795703887939 -173.154937744141 3.694887638092
-109.276351928711 -67.681991577148 -177.900878906250 1.785574793816
-110.963409423828 -66.676994323730 -178.073562622070 1.524872660637
-142.958816528320 -64.063468933105 -185.380249023438 2.681829690933
-112.052246093750 -65.713371276855 -184.973648071289 2.390109539032
-134.726623535156 -63.772731781006 -200.536956787109 1.038379788399
-151.293518066406 -69.648834228516 -197.124099731445 2.389483213425
-129.175613403320 -67.424392700195 -197.381912231445 3.842451334000
-158.794860839844 -69.027626037598 -194.085754394531 0.920728743076
-147.911773681641 -71.310821533203 -201.088027954102 0.504294931889
-127.143569946289 -60.819171905518 -196.339767456055 3.020210742950
-135.372589111328 -64.725975036621 -198.922607421875 2.816610336304
-140.500030517578 -73.795669555664 -205.420593261719 3.512814044952
-131.869049072266 -69.492362976074 -221.803253173828 3.070459365845
-110.003532409668 -70.225006103516 -229.717178344727 2.673032045364
-143.315444946289 -68.048324584961 -226.322097778320 0.934470057487
-121.051536560059 -65.776054382324 -231.288650512695 1.764539361000
-117.675552368164 -61.668643951416 -229.879043579102 3.648532629013
-122.631965637207 -69.041526794434 -231.480895996094 2.551440954208
-134.103668212891 -66.715103149414 -232.966476440430 0.598697900772
-116.145118713379 -63.748268127441 -237.517990112305 4.471427440643
4.290266990662 -67.471343994141 -236.945999145508 1.439469337463
-153.677368164063 -69.346931457520 -237.615936279297 2.819240570068
4.906640052795 -69.005592346191 -236.969589233398 2.183927536011
