# This PCD file was generated using the MATLAB® pcwrite function
# from Computer Vision Toolbox®.
# .PCD v.7 - Point Cloud Data file format
VERSION .7
FIELDS x y z
SIZE 8 8 8
TYPE F F F
COUNT 1 1 1
WIDTH 798
HEIGHT 1
VIEWPOINT 0 0 0 1 0 0 0
POINTS 798
DATA ascii
-14.416908234924337 -51.809000722804200 -254.642477277045998
15.944999195963371 -52.900419892821823 -255.415363321336741
-14.496973827673418 -53.645240519069297 -255.391352936887557
-10.414383670027812 -51.315085381154759 -257.541870992730367
26.926054478589702 -51.915102548079396 -253.959592715822822
-13.899020891012693 -53.581733459216103 -257.632858282300447
27.098662881805687 -54.908882583332641 -257.603988946915024
28.322105731706444 -53.957660633004053 -257.296567681444628
-14.184208188017694 -53.448365846185858 -257.977957831230356
-12.598497135825777 -51.775299675460268 -258.780957122947939
-12.635085250637758 -50.726764775780715 -256.104802499646325
-13.402203166209592 -53.309648951271299 -257.890339308761156
-13.901484217943514 -53.208559353102665 -255.969880067850397
-10.839838680809260 -51.945579299244784 -257.059141518228557
16.181647407297440 -53.983158863328661 -256.660697968214777
28.827115390659035 -52.760421416335461 -258.118294539012425
25.991142729559435 -53.929919829263014 -257.234511255252130
26.336885936961608 -54.673185026258288 -259.613336394879752
27.387002171961257 -51.708881154050864 -259.068104337016962
-12.258448652704951 -51.784732284697860 -256.376210524014823
-10.545277081560549 -52.225625725263207 -257.373775592628760
15.833291355752975 -54.690784754871615 -257.575850135494306
29.528635898932400 -55.032190483723127 -260.198829335808909
-14.418591257694750 -54.193461183442942 -260.185222824555240
-12.473162796299626 -52.148949602662896 -259.793853412798512
22.713095479405741 -52.973882199146665 -257.230119603917046
-14.363744435454407 -52.017233110851961 -259.608265509025728
18.486399424209097 -52.019079764307790 -259.951846814562032
-12.881102741956513 -55.707945488663576 -261.695963014203699
-10.610295360656560 -51.952971984348871 -259.281946972501714
-14.526299653265264 -50.588731817176139 -260.649270783292195
26.531781042768500 -52.710859560972715 -265.181744964760071
28.278920507919057 -49.867577570199188 -260.867679758692134
-13.040025019789075 -51.681339987780341 -262.042822558303214
-11.278152909640061 -51.621031008397878 -261.131128359689740
-10.692322147913028 -52.914919522658835 -261.109856360733829
28.386431847860948 -51.491106585275247 -260.471426157728331
-8.311274067771675 -51.780251543247893 -263.748448305490854
26.683501327072690 -53.555321291739908 -263.882584067505775
-12.329630907495108 -51.675591907951102 -261.706474425008821
-11.175060284882615 -52.239273409032286 -263.582542913203952
-11.416365120913836 -52.786285215944069 -263.610080535051281
26.565922668420832 -53.379629931800274 -261.937761513968951
28.706441141945017 -52.365527263864770 -261.893904374426199
28.378560969257400 -50.823068343172402 -263.988618287061854
-4.471750105116624 -52.242417149825890 -264.644623389033086
28.250611117098071 -52.755449657029452 -265.755657523394802
-11.831776161340125 -54.731704114015898 -264.522580995913188
-9.317948140844198 -53.420991760476468 -262.941839254360843
27.504975530748407 -53.015108837900193 -265.607311826324121
-12.678128686808780 -53.495756991540468 -264.422603417199412
24.955431418409503 -51.717168286542211 -265.433099714815171
-11.591084258355622 -51.218429268372148 -266.133331590338230
23.038815975145159 -51.657016254197089 -267.365733987732767
-5.579433995737688 -52.519629502389243 -265.798762688676618
18.482568443409885 -53.202174245316392 -267.219562927279753
26.455105811221543 -51.947306430434075 -266.401601936360294
22.415011795036349 -52.653203974123791 -266.488841546129038
24.968494248846465 -51.444272909978906 -268.269997360722130
26.710053929419207 -54.222910566095017 -269.414705739887268
-8.109484710181146 -52.244449206423937 -269.087025615305379
24.529148058039365 -54.252239404826526 -268.384333099499884
29.305644044883365 -52.384884535801909 -268.025905427033251
-6.569986797881315 -51.693392623395049 -268.105939073757838
23.434443064438781 -51.939234763396819 -269.188068311906591
27.103660264799615 -51.432713365874442 -269.506489065299661
-11.260470282324652 -52.907477038576467 -270.636005685956832
-9.662637514349498 -52.779181553313165 -268.878960386021788
23.860717395931086 -52.377004537175196 -269.601261637593950
-4.547087266532402 -55.845775604511424 -270.585753361735044
23.314122637706976 -52.052743319475738 -270.672805806184613
-6.079758158375810 -50.510332717713744 -270.180639073546899
23.179188050097242 -53.800396529277521 -268.977140125034680
-4.543440418292777 -53.460218966622179 -271.074107756539092
16.680938789060697 -51.664300202064460 -269.900945639617476
-8.628713097322787 -52.618593694357514 -271.895127131623155
-0.691635389615702 -52.137360062946726 -271.105644354340143
20.364061008629399 -52.855281125029656 -271.474739023639131
-9.135012454231248 -52.222728332343820 -269.056801660710448
16.176717362810244 -50.456530207189012 -270.851094812240888
19.407692321153451 -54.047010721283485 -271.641835176284133
22.146748432536917 -53.070086415796638 -271.977862832957953
27.186781375171421 -51.445540861223833 -270.239234995184063
25.511045555391693 -51.806724453836409 -271.117462214393640
-6.198093194677268 -53.418108676205271 -273.235356227349712
21.528477748360441 -53.602477508718955 -272.499592575236534
25.262315813950128 -51.553501252226631 -272.542751546572219
-2.833489256938044 -51.228451319591301 -272.812981403053584
22.080752766555719 -51.337271972647315 -272.564797735365460
23.384896355439267 -52.787547459161928 -272.848144301809896
-0.605433830544070 -51.643942955005102 -273.672734039208763
15.955173368871330 -52.873321155517019 -272.370628166904737
20.026053754025806 -50.992930766471481 -273.775703547629348
28.308704359878220 -53.029311229352949 -272.928356295759329
-7.991568172827400 -53.180056613723345 -271.331358608013545
26.433038372748328 -55.802790376094208 -273.725882302382274
-2.891044564126257 -53.816147392823083 -273.254665600749604
20.248447307626396 -48.194045260597363 -273.832646076347032
-4.254890700947163 -55.306004316380125 -274.467224109449944
17.109691518311347 -53.492775834213681 -272.658272383788074
18.507835238128379 -53.378095542804374 -272.601200168709340
19.779237916313182 -53.560974237080764 -275.115560945125594
26.260879760689953 -52.353037894833633 -274.166506750933820
-9.914276889245075 -52.505073240147937 -273.404673836496613
20.708628829747369 -52.775278170723773 -275.317095208687078
-2.107901754432066 -51.473429940612355 -274.446059303482514
-8.064647322238150 -53.787362521199711 -271.829386130149715
21.097429050119377 -51.726560902093773 -277.992215752831498
-2.648343136223625 -51.511473284045941 -274.303657669390418
17.293040503127170 -54.418923875985726 -276.491641102785707
20.342839072978226 -53.099410134779191 -276.477452206585440
23.451669752645394 -54.785051923261207 -273.565852532493352
15.404966821972922 -54.034301195198140 -275.022987140985492
21.415073584981688 -53.031207057768952 -277.027172747702480
-5.814351135165936 -51.832728666158438 -275.742339787482081
-2.403521443007392 -53.074587794045101 -277.853016556253181
20.423773015273273 -52.380139256790656 -275.856301461760722
21.243432491929848 -51.551621998331555 -278.074424233110733
23.100121942199415 -55.204825532064852 -275.484928423742474
25.032282487997698 -51.437961194356156 -278.460257750489404
3.634554684121789 -53.525754431278678 -276.957792086884695
16.240490532549824 -53.215409301155638 -278.512962135641828
15.430874610230374 -53.160408907304713 -277.147827503876840
22.219428310996850 -54.931455733444693 -278.243681330154629
20.445586101293021 -49.611719192864619 -275.120641280130030
20.986083393888446 -52.641592597484689 -277.501057597213787
23.705104731746570 -52.870229122606347 -276.240195409413900
27.058572005561942 -51.304316964274086 -277.482738708056104
17.588144809422293 -53.582264915029256 -277.611707634265372
21.127132099343815 -51.834030517432865 -279.745900349965666
-2.155844066745328 -52.248058356542622 -279.061213709649110
16.306001806879966 -51.280917722382355 -277.875906905232966
15.408047481447428 -53.779726901083038 -279.044585763603948
2.684719318795481 -51.564226030768843 -277.800011003327313
21.959395178131306 -54.182847053942588 -277.674938556100415
-7.886285616721135 -54.876087289162861 -280.106001300214018
22.656511094932494 -52.942444686290635 -277.806328478476132
24.292894740994665 -52.453537578631376 -279.872066839364948
-9.700696195043033 -51.191363579990039 -278.324418096425973
0.799592199684079 -52.547544456740262 -280.743337733922033
19.747439003736929 -54.062365316045195 -280.910566425123022
23.734898632787520 -53.848866174754271 -281.870449134851071
-8.378392669329150 -53.066983543395793 -278.549690622615458
3.538160579014615 -51.602276209516340 -277.091092873255377
14.941883960233104 -53.733955703056758 -280.366740862147878
23.038631524472375 -55.469308654077174 -280.602648335980973
-6.750882129695816 -51.241375122084541 -282.535143091633472
-0.687184254761743 -51.410030511772213 -282.143403232216770
4.482097327130783 -54.476489690513027 -282.148789516838178
-3.994043918449347 -50.390705587499589 -282.771644192325937
15.127705841770489 -52.028110117144422 -282.938319093334655
20.394407844409553 -52.573190738416450 -281.459321652732399
5.510850577938482 -50.270665629775550 -280.104765868488585
10.414182296610859 -52.898397055744098 -279.534518995153917
18.668706436730197 -52.764572702466623 -283.158326249851029
21.282348111124328 -49.706756001381180 -281.595894497038273
-1.282398817832280 -51.851847716029610 -282.608789787780665
8.058041921543444 -53.256362179462940 -279.780710987312489
0.170922240420095 -51.794439805227135 -282.708975957366135
2.538222013684571 -52.962118454641448 -281.729359090803484
2.713896028811766 -52.637565382421926 -282.787706531767697
12.819724972993438 -52.159464707235330 -281.999432520565165
12.851256188051364 -52.718035364219944 -281.442392997333343
17.980246498213784 -51.645889449294067 -283.256436036461139
0.335073693190868 -53.618866436956630 -281.013137221503030
4.129374796213696 -53.033775796143530 -281.685059836414496
18.892752691586288 -53.248692193284391 -281.800632736638818
24.424942526658615 -52.289804993298354 -286.058947099035436
-7.809490785468452 -52.084291448188921 -282.569940876257704
10.725769041055079 -52.155859786051103 -280.613339568104266
13.734806283667339 -50.949320502700395 -283.812386244022093
17.178237751813143 -50.971209851454788 -280.603487703598432
21.872641650303212 -55.271121008329850 -282.952463757858141
4.759535734743490 -51.729346424349991 -283.048604396630196
12.681281453620958 -52.297280664100086 -282.685588877081614
12.828831279368153 -53.004072569562162 -284.860652544768300
17.415382790041786 -53.403847855415215 -284.537257333652519
16.499200128582583 -51.624169186369649 -282.914160031847359
24.976363969301239 -50.353972869428219 -283.737169930624134
-6.424829965650838 -51.676032392008125 -284.102085266930828
2.526575212490311 -53.016101125428769 -286.852284428741541
1.801910375509857 -53.676849504238561 -284.558580666379669
7.052847605407251 -51.024157802755774 -285.660388444660157
13.928640186747897 -53.691604750908873 -284.032762391405299
15.913753077740314 -52.639751209002462 -284.782630553470256
2.404677093801636 -51.860826865522519 -284.941516974195508
12.518940341451442 -52.748743813033769 -286.019825515785385
13.130333550844153 -52.324306133744251 -283.278333820156377
2.176835410399089 -50.203348653964568 -286.240903578071823
3.546020815485552 -53.348416711366312 -283.264742418252069
8.979937920237099 -54.708568195435795 -287.645978834503921
17.016033681041922 -50.808950402211643 -285.854872029629746
16.269058592464489 -54.043351430410645 -285.674812542763789
-3.463260869301297 -52.831650379771119 -286.475091843397024
13.629540001738626 -51.749345436648937 -284.860271848335856
4.630398606890169 -53.603219341853119 -284.144893522950611
8.155991174919079 -54.286394166649664 -289.089099193793061
13.653853435345512 -53.830962521779114 -286.439429345588849
6.237996145541125 -53.437877661731584 -288.216675065923823
11.867055203385851 -52.785510227697870 -286.211360368544774
16.795809193507083 -49.420469904979257 -287.236199055600764
22.080254503548765 -52.439178576573582 -286.645252090861106
-3.244236099098232 -52.368690923031515 -290.219306729339905
4.068054737035350 -52.351151809796562 -286.421816955463385
16.836226437456101 -50.368218423812245 -288.712504249098401
7.281159737869590 -53.198543308728063 -288.267042852030499
9.323393565095678 -52.578739507763061 -289.804637884769136
15.060182305227823 -52.690656968391806 -289.260404199453149
5.517143744761738 -55.367222046096046 -290.819279667390958
11.203126466229786 -52.146745195445391 -288.287371391349893
-1.093589545165117 -50.527468394139582 -291.407279922959390
0.295826581102820 -50.590057661827238 -287.816965998748287
10.600797438051991 -52.194962818981786 -289.997016182839388
4.732832655915174 -51.399264779962898 -287.432145384328521
14.639263381572963 -51.526932924453646 -288.781945571196331
10.674568607366874 -54.478518057318389 -290.899356731171565
-1.209829580230106 -52.485756076389478 -290.230005906326312
4.464804091284782 -50.566702298466701 -290.115042331171651
10.725068841981015 -53.302263531808038 -290.553571921317143
4.995043518889324 -52.305452363593645 -291.172177127401369
9.132178637248346 -52.627784788951743 -290.251069592432941
2.974117254004962 -54.038973002933815 -293.404325859286246
8.776183026513218 -54.510333158538259 -290.168368453493201
9.849134721205516 -52.081721596097083 -291.685312869113375
-0.830474819312697 -55.364934456831222 -291.517785112782235
1.047213430159083 -52.050876249322329 -292.464767995604916
11.333082563150304 -53.990498248301783 -294.078871180945669
11.981559359320334 -53.086724210997161 -292.941164711756358
1.767934664246495 -52.219855118537133 -293.080671925719969
5.989898908008206 -51.469529722672753 -293.756064673023957
14.918328732939312 -51.869218644605681 -291.634628864988883
4.170210747533158 -52.056937010056721 -293.941855202958664
4.466386935853008 -53.323433470919596 -294.503924829457844
8.787237993079950 -53.766270524734516 -296.605877647610441
6.100198160200735 -54.364552491794235 -295.626496504401587
8.010963167793037 -54.791821502186359 -298.433461937976972
34.983543093194001 -53.836658975392190 -13.429489966190035
31.813949617035313 -52.277911824337501 -11.149945995171835
38.534238909252039 -49.880663075333040 -10.509684131118430
37.047830580047048 -52.017135860384528 -11.246220256885556
28.995912852617678 -52.115499708625002 -13.661348898998757
31.619112895924953 -50.518627201989254 -14.084879662280938
39.825259056884683 -53.310401794848815 -13.974468333271130
38.208076779144641 -53.001438445226356 -12.172508757697813
40.680680929880360 -50.699689097505150 -11.446378191949726
41.477241082479672 -49.822984694842766 -13.875121862461530
29.658451379801601 -50.837589934572335 -14.267890368277008
42.542827218323488 -51.508826672906643 -13.281304606956276
27.177021973537929 -52.370390383427335 -16.268831947783440
42.615440591149117 -52.652718817605439 -14.179385334642708
44.512728393890811 -52.298123967379176 -14.672823218643909
21.345745778581637 -52.519204826648568 -14.872928334392977
25.029674613578877 -52.788548313547224 -12.058329185587677
43.881869451849262 -52.871093343556034 -18.118073206131260
24.043754179102553 -52.228555511195879 -15.036602475004010
23.174562932599468 -51.245318653873660 -15.934850857623903
23.928559136323717 -51.714129741278370 -16.858322617512417
32.472727156706995 -53.462869319442291 -16.076105150861935
32.360612521264578 -50.852970565271640 -18.996498036835177
33.197113824969897 -50.920992272923542 -16.655909176320520
32.106928669828221 -51.751354017696528 -14.794826772279942
34.919300231544092 -51.986359447153859 -17.405710917336773
31.642869416852051 -48.860661469221355 -18.041419252719312
38.368893615111652 -52.028398900775102 -18.055156335132043
46.766253068796082 -51.236982610127889 -18.072984739421546
22.207902542141365 -52.150524330667238 -17.787918214330926
24.843643280688852 -51.147307258795941 -19.522247887767215
31.505544856554337 -51.354276830999332 -16.031356705586056
38.399033675017272 -50.592224868240066 -16.342031391642973
24.096641576199968 -51.588647721630295 -19.027125541383615
28.704861638078260 -50.323512067482625 -20.484218883250719
39.784812378935548 -50.815673478125184 -17.454734394703578
47.096286131435534 -51.540515372372383 -19.277807237389311
27.296847210996297 -49.266880355942952 -19.760723386823358
39.650678635072033 -52.175135656964031 -18.832406156233496
22.461552385948185 -49.493260646393715 -21.330445867466924
22.970840201999508 -51.205289887201118 -18.670276955250248
46.900397410388187 -49.374136342297909 -20.811488910505709
28.953949792524739 -50.975544199403721 -21.028569183668576
23.300235701912246 -50.836780628253912 -21.988544218249032
39.792697676207602 -51.171384600613592 -21.310770935030675
47.446149529705536 -50.756029159614300 -20.434790827009156
22.881392220205957 -50.864587261827722 -22.352128246285208
43.276168071501260 -51.137695182500160 -20.775642381575000
27.960023125012409 -52.627541171930304 -22.597166931469697
23.862794747713551 -49.563340295864201 -19.889042657514228
42.297030415118229 -54.054701890562185 -20.465197686960142
42.958450675691310 -50.610966962988847 -20.287050501348542
46.834659012625558 -52.847610299696335 -20.134075900766099
20.304946308665787 -53.388233924248865 -23.271490950296691
21.623037688847475 -53.400266736350630 -21.740002322712815
40.764510956448945 -53.327146574633687 -22.135792169580416
49.711719646276116 -50.616119213537438 -23.973834319302231
21.243357042702293 -47.871278117336445 -22.860340293698869
26.442536358031653 -53.154096184116860 -22.478516225084064
23.498035240582031 -49.656027258405295 -23.439487613991346
43.595489555578411 -51.776945676296961 -23.577665302454829
50.976698592037309 -49.644060721336587 -23.731936271808213
24.627821428395379 -50.689379511088667 -25.605708129871445
23.267114392332459 -50.156625371615135 -23.475825496358517
45.141365848211933 -51.809734119499751 -26.193165445328436
18.705531684067513 -51.208050965195035 -24.295095597610366
42.484515969228390 -55.336315844309233 -25.409321589025915
47.278588597738185 -50.892608095733621 -23.532787961726115
21.699561945411212 -51.969485439158369 -25.533635780560374
25.452566073278319 -52.204802589071221 -28.254628198589977
25.516171366997710 -53.833622808363558 -24.248628357487846
26.194459741877047 -52.476724560400640 -24.905748888927125
49.899104765455867 -50.545302596566650 -25.132743431972159
45.879542450763608 -52.347190820245387 -26.381016521582414
16.572210698008412 -53.201763646963215 -28.136872907875677
23.911480452842852 -51.311154548990416 -25.837947087642558
25.669738594822416 -50.783632131770290 -28.909834565180731
22.929686622456384 -50.104024059686843 -28.891260677788161
42.136679945912725 -52.091183520555653 -28.909022758983614
49.644613748630697 -52.302313671011120 -28.264783958156219
45.216161890567307 -51.268362528751219 -30.452426812354982
20.108739990535209 -51.063350775687958 -29.956853436478859
21.342904264951134 -50.812502297507848 -31.504820633108597
24.338926985424504 -51.874232238687739 -29.440026133174218
21.898048283119650 -52.044286720476045 -31.728203507379725
48.164854555680343 -53.792943670747093 -33.121820287956034
20.151074513072174 -53.298284083388715 -33.126206156205455
21.518063065627405 -51.454769244072942 -29.880725049301436
25.783602778242994 -49.700670454540315 -30.777737152268521
25.410113187372200 -51.780538276505666 -33.719971448012927
27.164270232135539 -51.919858817250024 -31.164060176735806
41.193385821826837 -51.953274176538564 -32.036867455974402
49.519268808125084 -52.616081219837852 -31.749381015317976
19.915937051575636 -51.835753237368806 -31.663618466708463
26.367802584756610 -49.798379827190914 -31.034134758500461
24.573393743382173 -50.004012632847633 -33.618851688159438
44.017379781415904 -49.909029612365593 -32.501349943689775
26.208434891224989 -51.967101224086818 -31.367209785430280
48.244075969545534 -51.480586086008330 -30.617023441192668
17.882914545135776 -51.932108882131487 -33.476974856495502
21.553765820443861 -50.146346633201240 -33.206379900293129
20.971324017125198 -51.491819638598081 -32.148271656644951
26.229543414235717 -50.523362997683186 -32.633499192338100
41.213038885215866 -50.464851273672082 -35.676384525005588
46.688694292110846 -52.532626531588690 -36.269195659690283
19.999742944436022 -51.368942985319897 -34.370820497204569
23.731692816954158 -51.000019506353283 -33.866099301727942
26.033025187298058 -49.340242421351228 -35.389487655930367
30.196453663620076 -51.912636723345528 -35.744935773135403
38.885196969697546 -52.475753250640118 -33.795753509418830
41.979281329783213 -50.001920665818361 -34.121381502398002
48.535885963412611 -50.463328864371768 -35.328829269332900
28.409889126181994 -51.317301116621913 -36.676324153350230
46.557513134454410 -51.697211883132809 -35.437816596450936
24.478359860314381 -49.327647888810958 -37.504231790660391
31.326388467780525 -51.992667585682398 -35.675656874468075
23.898696093268658 -51.629027868322538 -37.667845556401495
37.759544484944037 -50.933870712690151 -37.216659481057050
45.642523307704849 -51.488419293937547 -34.415758374514141
23.308367090141804 -53.004489883464004 -36.378044949843400
22.484114974455306 -50.367529989485860 -38.451366614586185
30.732641373554898 -52.220606269667911 -36.921987494021700
31.928081170015208 -51.507501487921587 -36.386882906390973
39.168297095590624 -51.895960040773460 -36.250598626797505
45.521911442760278 -53.301142747585224 -36.099655625218496
25.700488729340158 -52.487908577648454 -36.680171321264140
30.810673113241286 -49.641844112082751 -36.375352373871337
35.316904751764973 -51.122415770903231 -36.798614080072241
34.576761899797170 -49.638482250203921 -37.204412266609985
23.528202659674236 -50.023803572734764 -36.628105825240489
29.767409649938319 -51.385822862046702 -36.150498171082887
34.138435558766659 -52.868569280289321 -40.995832860975050
45.674062427352183 -50.780047916697434 -35.879935220713428
25.422933475616315 -48.988613354611957 -38.366069988882295
28.789160585772557 -51.263451645714362 -34.947056515279996
30.646726152197665 -50.000162605055593 -37.821258321196098
34.241932795443446 -51.113854584270072 -35.156371512927656
36.047657749986996 -52.179935334652356 -37.818303652574187
47.109114459706667 -53.290423974450547 -38.711234987377914
42.725407900588131 -51.721314417775147 -37.398147592842996
27.558228943746489 -53.826106178245070 -39.215430266272911
25.253874984094526 -52.941690634170968 -39.039828004022965
29.499166323150725 -52.797790720628228 -38.721066764121375
32.394919536792585 -50.012611635039299 -38.943121870879615
41.545962942412743 -53.178145278021802 -39.822331418668099
26.417451070442951 -52.982875455505230 -38.887554677647671
28.678659770868990 -51.489374522622661 -37.966437638195295
40.683141704642729 -54.552029260828213 -38.600315491048839
32.407423868725857 -53.250096258382612 -41.575752337745037
35.206506100368394 -50.280511809887017 -40.750694708609778
27.894683053744295 -50.709474738244253 -39.865051025998824
33.075698898054767 -51.528360372571463 -40.449761105695309
40.947139710094362 -51.605281666469416 -41.723979296957104
32.615816513020931 -51.444709194592647 -40.662567465717395
37.182609561150755 -50.934964044503971 -39.685437564362779
37.027110974069281 -51.731100075488143 -40.876998210624443
35.827124038252876 -50.136756516385759 -42.287274094572432
34.503531856791838 -52.382720311125297 -41.393439261172098
-70.399825286731669 -51.545430208856807 -44.394902577302346
-68.267816538410344 -51.250315386079698 -44.449753842475275
-66.330715995133247 -52.639844944873538 -42.307705107065487
-73.985803178128549 -51.842161385704934 -44.453700582152130
-66.930951666604173 -50.328726296135336 -43.502367702580258
-59.565081699726974 -51.113879673041346 -40.974943952929635
-60.109943152635601 -51.097596395647535 -44.953592873022828
-78.857721676252481 -51.294793568774089 -47.990470973784326
-79.739670107756965 -50.784063322554374 -43.265366240444081
-56.433014768134029 -54.501030258462073 -44.182375280910193
-81.067287551153257 -51.364670283905241 -44.611576716559789
-84.201300740347392 -51.913569887591926 -48.467005897264244
-89.730134162479800 -51.648795682105366 -49.100356698597928
-87.205602379121018 -53.545272949895804 -48.558029031885795
-42.306647585718309 -54.308979432518129 -47.046138112267364
-86.732603215692890 -54.614064476613272 -49.955728074709640
-89.040041676735626 -52.669204105991881 -51.669448096906834
-41.513760403884135 -51.597513471113103 -48.436084095973129
-36.795335021674077 -51.684223198298007 -51.484555244816605
-33.937575813919977 -52.180676169670249 -48.180546199356961
-88.182201085567101 -48.999593146856668 -51.955952713255172
-28.755261317976494 -52.179359334593443 -52.040353796470406
-23.471444558061972 -52.209469677966972 -52.806995147769094
-14.847724667282666 -51.098429877731306 -49.990640380911202
-14.290010288848377 -51.042106511112927 -54.621368478822411
-13.640197063889733 -51.883135958120917 -49.434531122073672
-92.411210379791243 -50.027013801302921 -52.943205029607533
-94.021060578536549 -51.921598382576079 -54.592589519554075
-8.092947831550129 -52.642300879769024 -54.208698427196758
-6.994930689350251 -52.207253894820816 -53.202555148351195
-9.489563610492681 -51.126491856503769 -56.111431945645492
-62.265964197971698 -50.415309889048196 -56.720040696257755
74.778961319897164 -54.724064348910908 -59.884102350375208
77.899376634956852 -53.949329380661254 -55.676942567022095
-9.527264287571159 -52.364655274487831 -56.363601569725482
72.273198971171368 -52.548650438358074 -59.102484934593498
89.166756594538228 -51.388962569257274 -57.996194081241065
-94.981186106132498 -51.409144426055320 -58.361390825184259
-62.271997774346865 -54.101901508552878 -58.100983575458166
73.331307099061974 -53.757539195087269 -59.117487120584620
89.706973852626575 -53.514992356711375 -57.701295040913543
-63.088507982428922 -49.821611246383753 -58.790418710195254
-61.787236941383632 -52.521568536944208 -58.724266977885435
85.438038358815106 -50.944075770654699 -59.928745368617314
94.478691683053299 -52.257560734451573 -58.352685499004437
-19.241608417129239 -52.769044492142683 -59.837475133827219
-18.835712898656180 -51.607029493668449 -59.988785559098922
-16.070894073710413 -52.871755689846218 -57.847283683716967
-14.334425045603254 -51.693751636653154 -59.343037126906822
-59.880188139686133 -52.229493825362454 -58.709357415919690
93.434804995669637 -48.459624085073699 -59.212424094304417
-22.467432646126298 -51.913991290341805 -57.662981138329577
99.553168528797926 -51.900725541864539 -61.345804721827008
-26.827183487217734 -49.924104421468286 -61.855818301689567
-27.578475763394511 -52.377100913997630 -63.122604385132597
-63.002391561142971 -51.588625698622614 -60.854100849642215
-59.936095808416752 -50.561084482461098 -62.116119447367232
99.392598008951097 -51.909046658511407 -62.724352370587738
-30.522591376253231 -50.042911213481297 -63.084020019331774
-60.867197761775103 -51.931575246042463 -62.886120233945050
-65.556232545607770 -52.055727460439222 -65.026324870129372
99.942446134373071 -49.833286722726704 -65.897568409854742
-98.645657213540275 -51.861860585654057 -67.430123090246028
-65.502340831754680 -51.728490042257988 -68.126506489273993
-61.125031959785375 -50.267928700577983 -67.184980444161056
-65.696507230628740 -51.638943671456317 -66.610343008997759
-62.570840666133925 -50.356280765310181 -68.578304819181142
-34.764178131928922 -52.533536205336233 -66.002731848084366
63.702940073134478 -52.401690135884301 -65.834961277908718
-62.278306771120391 -52.460213339849631 -69.977708626039785
102.441731402115281 -52.816380600525129 -68.970775803678492
-101.403970172938642 -51.141869194561806 -66.164138029539757
-34.331078417944433 -51.994335650623533 -68.224609173632487
65.477138699034796 -51.109119727757424 -68.214970339525991
66.397307760837336 -51.299979177263332 -69.331564199476759
62.478787583221980 -50.496242619184379 -71.223252002186982
102.630230895463669 -51.704672506003050 -71.459685141032111
67.491832354072699 -52.200863713703782 -72.003848067534989
78.181314827176934 -51.347659548773457 -70.154727526672602
-99.885544631135886 -52.096648852590910 -71.945505314714197
66.410044088022516 -51.699722198813063 -72.572966351608088
72.446653691692461 -53.670885893238591 -70.993083755345339
66.242375756238260 -50.419292260383862 -73.070717090972352
72.531632478180768 -51.323155810316258 -72.504597181406211
75.605740005123252 -52.516630865709097 -72.116177296271218
77.144476298801791 -51.284822733569044 -73.268701081936527
81.657259196545596 -50.048377227955960 -74.534609971101531
81.698298204871321 -49.516475813134640 -74.023425772125250
105.882175512457934 -52.668432455322787 -72.712423478974642
68.272288000731123 -52.938769071827785 -72.980981955427481
80.929906645945962 -53.406832712670145 -74.114512376021693
86.587579080976994 -51.344873032375205 -74.681329192715964
103.960395659814480 -51.454876684347120 -72.607426605649536
65.919651578011980 -48.695127726566618 -73.822803758210483
70.262746398650179 -49.193847915373190 -75.548445713362696
68.886136927211865 -54.273525864440508 -75.846457529592072
104.786657614839896 -51.258700725864252 -73.853626271399150
-96.711556115716405 -49.851749543378524 -75.053897522667839
-38.839669132851697 -50.301096819228093 -77.286517176024603
67.048476197173187 -52.684031119611461 -75.393969849244385
89.080213954275152 -51.367143021815842 -73.936274923381532
91.094845525607226 -52.462806347617075 -73.994696783409580
-36.106563845772797 -51.892487061728204 -75.088985472248837
104.101352778172483 -53.724107344898378 -75.202260958000963
90.831500761437837 -49.467680565113866 -76.916874822333611
-100.966621314895107 -51.139379291068593 -78.822334191365002
103.520299249590295 -51.224793535623931 -79.319907565511485
63.323489936284375 -53.097976392175809 -78.901044351144705
92.327936174307027 -49.893009608044395 -78.967144223816334
93.020113511192164 -53.012438440701345 -76.333629782810789
101.226301947384528 -50.154089205945724 -76.278003657536303
-99.592808417963184 -49.982711927861615 -78.418599130458475
97.971122887445802 -50.048037208731571 -79.491868290232674
95.846835868569940 -49.751144120591512 -78.486737390086859
-99.257106770698243 -49.790303962749739 -79.004155070985377
-43.230300817411219 -51.650759223653758 -79.959122221543737
62.894984004630714 -49.929944386411819 -77.462693825806269
96.529212861669905 -51.831282477671948 -77.769801698798645
102.199060855202987 -50.657980672273105 -78.497167662099884
-43.776467825951620 -52.365690394031404 -78.510969532741456
99.969493277414756 -52.544273836711575 -79.415899045125713
-46.619815638223187 -50.826972726465051 -81.369462541551798
95.035086861492317 -52.590017316804051 -81.014404410621893
101.268640751548944 -48.446644101382979 -81.348771240722357
63.683004133783662 -50.614104557146312 -82.526951616083409
62.582741146780648 -50.500721089848774 -83.349820873886529
98.184610801027262 -49.571735332404458 -80.865959520726236
101.124361957996470 -52.157239813364129 -82.347336821846227
100.639875039146801 -52.116002494857170 -84.009621459518883
98.789869553841044 -53.566896771425625 -82.637149184509454
104.072950749189403 -50.782605177783218 -84.258208789070238
63.493608395599466 -52.287681466189156 -82.808363427216506
98.684530837990195 -50.102457187577691 -86.792377454733852
104.009498440472044 -52.871022090119027 -85.257447953518351
97.607963521037064 -50.795669897426279 -85.799074639820347
102.968705254819639 -50.537719464858746 -85.736012615573401
-60.738494009191577 -51.470724462061554 -88.603243891416568
104.383233828043174 -53.038565410436220 -87.080429001874506
-61.224751425352501 -52.206551039907019 -92.103156040634829
102.822639466812703 -53.792049856656497 -85.752168772586899
-61.564036957106147 -53.050577080552223 -86.147799185590515
60.910038854587050 -50.057876777686836 -87.196666599850673
64.593576851693825 -51.753024480168321 -89.941942208863281
102.640343777197543 -52.913662879620965 -86.840961560616918
-63.721516108789608 -50.878316547748483 -90.626956781693366
63.108509803413966 -52.213905595256684 -87.737526170310701
-100.290249236068860 -52.855479003008973 -91.224718801910399
61.819192862721422 -53.208736163508561 -90.511537256275872
62.930293601444880 -51.010519005314478 -90.382174986242077
104.498933312576398 -52.508794678015221 -89.418741290182908
-63.718340877848604 -51.162994401009357 -90.488777626259846
98.060341646104774 -50.844340045307099 -93.374112794927683
101.440432321290075 -51.753736832603046 -91.122573260719875
102.852882637165962 -49.394597917913899 -94.322707225900402
62.899247588222522 -51.169413635814784 -93.629302137896033
63.332400907088058 -53.170048626439566 -92.532476616076138
101.554516388577525 -50.882781419262628 -94.933643940220904
101.000530052243406 -49.868420294317787 -99.304027913751497
-99.316798064385765 -50.937837910304125 -92.832611665914342
100.667614386981825 -52.081148767842265 -96.802862070214118
-68.177089936624114 -52.337581396260418 -94.585664292731437
-67.801861917782318 -51.381529191198666 -98.036930586473318
64.048592026601554 -51.690168712877409 -96.399146423383868
64.994739407571473 -52.169486124700789 -96.742928745786230
-69.678710170534060 -49.903297065844214 -97.628692234259034
63.017438363173518 -48.718142912939086 -98.380552280077836
67.155482307892385 -51.891465333189444 -99.964691957946286
65.550405675352778 -49.193655630647413 -99.862814253091372
-101.568897360872839 -50.106757938856717 -100.842860178302658
65.578445976969292 -52.062902209069769 -99.775611756571308
63.166196374026676 -49.783608947840655 -100.773831407390261
65.934271696021227 -50.647820278293921 -100.334146265119173
68.244533263137129 -50.608601817519286 -101.376723135391288
68.724249309238459 -52.090493693146620 -102.498041453381319
-101.235168236435285 -50.599179152669990 -102.613811206640122
68.597089028744477 -49.560739757698926 -103.141959853487378
-72.957422612265688 -54.660439848268830 -105.972080320623007
-100.220561918665240 -53.076026783536634 -108.521047623194349
68.675278496837649 -52.922855061350909 -104.682755619917501
-66.173261645494065 -52.709790867886099 -104.481394394690227
-63.326927753392731 -51.167430236593020 -105.626624583488677
-62.094771961263291 -50.656939631444089 -105.353752687681435
-76.658335107116514 -52.618092581555935 -105.818342414588358
-68.891228313305305 -50.072078162443731 -107.301685459733164
-64.983415969248327 -50.893766687900374 -107.590561085504220
-100.563264184402229 -54.547151554641957 -106.242347157407508
-69.474866162115887 -50.844433683761238 -106.003857085522668
-63.165580443544378 -52.745690110072900 -106.474182775039310
-76.829908310866514 -50.724114440156768 -110.331740378556248
-71.525999438100655 -52.224508967095815 -109.309955091238933
-99.120717095122657 -52.449701095259137 -108.782069567155943
-77.251730172604240 -51.368457565248761 -109.742583429902282
-65.465032072680600 -49.578490679897250 -109.704107125324157
-65.429905897375519 -53.565570739198044 -108.638389623387823
-75.024151616256802 -52.612515691691833 -112.177311836269325
-68.299223160253774 -49.163158977767530 -109.898237897178802
-68.436785047271798 -49.104885076754258 -109.936853250478748
-67.225301309079725 -50.014900835903347 -110.703824490855794
-68.704105110373376 -53.436652849685892 -112.276108866355258
-62.839036874548768 -49.224793293761493 -111.733264274361062
-95.958918380339114 -51.283590614566570 -113.910825448909861
-66.304219165065376 -51.562319924733671 -114.706169805557209
-67.882944389099038 -51.946447097105938 -110.834800876543881
-66.692810171548828 -52.094834474851012 -114.181427595483314
-62.878117482764765 -52.129314272769825 -115.351970068051727
-96.786100838161758 -54.948277643771235 -115.397290753662375
-67.442748242082473 -51.423251637414261 -116.674154764757745
-95.947651776731860 -51.731324337103509 -115.002352081730137
-97.686109175315494 -49.796100106205337 -116.504155960008887
-83.320351811973197 -52.961344468213760 -114.128402978282978
-61.723348059251308 -53.140558988498242 -118.886770436884476
-62.624259528202010 -52.629936101470108 -114.523975717283662
-95.535240748409265 -52.123891243070553 -118.348085400731563
-85.576482730483207 -51.769475314387400 -117.852911925168641
-94.025901089621456 -52.447260942484220 -120.194306074197982
-94.309331935808387 -51.523708927375317 -120.802072060200501
-87.926029786339782 -51.306403698392607 -121.117858277926715
-94.212947113266935 -50.633405151724681 -119.904668043634473
-93.685853593547421 -50.640336732937001 -120.444147479503613
0.553382325810325 -50.819858121538360 -236.836229238039692
-0.526853963112067 -53.890415908565011 -236.646011297036040
3.683923040546899 -54.089652337971167 -235.796112777659687
8.783377797213934 -53.091214268319405 -236.557220207638466
-1.552448026131928 -51.766626378688962 -235.734517720442426
2.270530117240195 -50.510376117867750 -238.347029938804525
1.562278846697497 -49.325244391922780 -236.805885566759571
7.231300726714543 -51.145512371661837 -236.571868134131137
8.736776206549042 -51.277433833194522 -237.021210301238995
10.979670114512299 -50.931475870368864 -236.227064442120366
14.817058029302711 -53.493707034303576 -237.408349649694799
-4.672590785112838 -51.135522111984997 -238.306923568605981
-1.621465387524189 -50.232154748109544 -237.066421509816990
2.094492105720017 -53.022438535652789 -241.145641785385351
7.094849755734632 -53.212956462693882 -239.036970403776934
-5.000585150473100 -50.429805508756907 -236.939119841153513
4.182702862586928 -50.584590489136104 -239.807152371796946
7.074784031169499 -49.393160010635988 -236.051054467470010
9.519943714665883 -53.161153221845190 -240.136023758620468
9.091487942681528 -51.127331122183577 -240.221032961394826
17.815130422754024 -51.914328228051538 -239.741043752536456
1.038454862524838 -50.549570001089307 -238.448693635129985
3.899994494672603 -51.286212025087984 -239.921805517693485
1.066952229831985 -53.216054302374054 -239.616366903572725
7.008666765392834 -52.993657163203558 -237.782398638867363
9.833121779161454 -50.555398929504094 -236.823458350488323
15.081262309456006 -50.681240501867606 -237.553177281031964
4.745070224507439 -50.141845464256932 -238.024217269906870
6.099362846119861 -50.564238155076843 -235.462770278175384
3.389509150801615 -51.534354581447182 -239.043384751879046
8.659503924023575 -51.606236981703361 -240.282279710088318
2.522934572374864 -52.449872472375432 -238.865174761900079
19.731276497845492 -51.694866936951989 -242.097079124748149
16.485447299155137 -50.896912507152194 -239.395962990838399
-1.550486836988581 -51.885839993867343 -239.745772808019581
-2.296610730081089 -50.983538719856540 -241.957221383261100
0.372135936053746 -52.840824767887966 -242.264453785937519
-5.253379997135386 -51.778527923768287 -240.162491397514202
10.089701391556474 -51.672088082985184 -241.366381776328268
14.509799374129496 -50.293282222043423 -240.802863274289308
15.775185280457357 -53.699201804998431 -240.476567444529707
16.767125164179813 -50.006208187220004 -240.976259563586979
23.315281284612819 -51.535865212854191 -240.957423407000732
0.650039394499573 -52.262974731505729 -241.645732610002369
13.385153625024319 -52.846675996520126 -240.482203248085312
14.911523310829324 -51.179195145577637 -242.361959735905600
25.867638539345272 -50.464314988883380 -240.773412939311157
-8.235099833882067 -50.327732615916837 -242.192456912099516
-1.067803951531094 -51.772840888087394 -243.107742243567145
3.210449249239441 -51.057407521909887 -240.284582195533289
-12.320910860703497 -51.986676120441977 -242.451711123735350
5.425675658525384 -52.710782675295874 -241.943162632143327
9.553656456762445 -53.406860265405108 -242.591249821123995
18.085186433312494 -51.194364829257530 -240.768535801072943
-11.417731394523154 -51.964852039008505 -243.010809465705023
8.065671632516130 -55.450016673522676 -244.595076658067370
21.932378891733503 -49.736938838832771 -243.073069688896965
23.193922699646812 -52.383968378515398 -243.474602543636479
19.358337515754755 -53.144358475031943 -242.940262651911638
17.397128802886993 -53.475905994864803 -242.296722614702986
20.763706958210111 -53.325078548123898 -242.272994651442900
6.904886121692583 -52.153181901897248 -244.147023918627809
18.858877899746187 -51.706475182838858 -245.472966703836676
22.779152714809015 -52.075114699653085 -243.114524755744014
-11.690796455954638 -51.188998639061268 -244.000621300617041
18.977994358715939 -51.388920580311741 -247.418829571844753
20.769490991615843 -49.699715846654186 -242.720705105742667
17.075558470975789 -50.931950358229379 -246.842671984866428
-12.066042494906659 -52.155080546230018 -245.464809084882944
24.062242236471796 -50.511521455504827 -244.388296183933818
25.220504585093877 -52.118042699538464 -244.988868627076329
12.902321666819581 -49.342622467049139 -249.168061652741329
22.106298605559477 -50.208499074111685 -244.191729945841132
27.402132084479650 -52.069346201300114 -245.526916818162050
28.641672246323381 -50.775652946678761 -244.389987708328192
-11.066339793060664 -51.045257805413321 -245.726357175621160
21.293281877191180 -53.736575895608169 -245.795588444367752
-13.955786038127881 -49.909793824084709 -242.839983345183185
29.368352911767609 -49.040899203828559 -247.058928412480753
15.435052222670750 -51.909131160930649 -246.921369509742505
19.848049146344120 -52.670129039229550 -246.656620535348480
23.721181868596307 -50.970913833978841 -247.876439459412097
-13.746753102055486 -52.431588369370843 -247.796451602428931
14.612736697785856 -53.096581351603646 -249.310581762917337
26.992535861024983 -52.359600056303798 -248.864338334298765
29.657895454868228 -51.390233927979864 -248.548310273221716
28.092923672238484 -50.850364983746566 -250.176075199935354
-12.383944205257826 -54.130628101323573 -249.253225634706382
-8.841535725461892 -50.960512656142221 -250.073684455015552
-12.763121771937998 -51.922144557019116 -249.552487535217011
-11.114060747987267 -53.853693243330881 -251.501095011736453
24.087843545360347 -52.344104069579501 -248.623997529147459
30.866418291278638 -52.969223406296635 -250.947098791872719
-12.418033195923703 -50.649218802147210 -251.767510011682646
-10.811970873123496 -52.047567903772325 -250.453632110341601
17.846560876928336 -51.465396476619020 -249.610241130775449
29.185551020901990 -52.175893428593994 -252.876643852540894
-14.312170890996939 -52.336202414163147 -252.780456846470031
-12.176392010677834 -53.320542165851769 -249.825617692443188
-13.689985046206722 -50.845645875332828 -251.192471063100413
-10.543509774307148 -52.747759205270363 -251.327111016019757
7.129537494555158 -54.440308643755813 -251.613817623041655
31.110642409756458 -51.044668531947337 -250.481817498675440
-13.310651254317255 -52.032529120828471 -251.657125610874402
-13.987653068751799 -50.309525039219118 -253.703499858028295
-11.943211890461583 -53.295454329162865 -253.406688552085114
4.765697147474658 -51.366997623433022 -252.690926237458996
9.606145809765650 -53.570937189918865 -251.515126357771635
12.037339190219384 -51.073898677751323 -250.747316072528577
32.390193165552120 -49.276672175234218 -246.788669659697405
-12.071181418079993 -52.985581681374306 -253.505911974578879
-10.944114223428258 -49.478258338821973 -252.305875138432128
26.404417320393680 -53.376795176338263 -253.650352791784201
32.039014199971774 -52.026845818621666 -252.063089091858103
-14.168636674767102 -50.159787036070995 -252.954807270873232
5.784755924341017 -51.201121552806313 -254.014075734712463
12.204218374305317 -51.539948895337353 -253.861792953314762
-12.906339602827035 -53.804726503681188 -255.621434154557647
-12.025438135193712 -51.082547929327227 -251.988576222148708
-15.126113671516581 -48.973337540271991 -252.914786428774249
-13.476588675488863 -49.746802512635171 -253.797292990757086
-10.263001117553067 -48.801984640712661 -255.249286975124534
16.788725041447044 -54.396068877290482 -252.726116141980157
-14.478892840530504 -51.741180018208048 -255.029391656995500
10.031279581666343 -52.829761097103820 -254.198311745349343
10.864941406002792 -51.480560750724713 -254.161922354629695
15.570543248933848 -52.237100583980450 -251.597076079377388
20.433284038059305 -52.882353743866481 -253.212497123284322
25.201957882862679 -52.830070366125334 -252.703476689049779
7.029723969465484 -52.353280014887204 -253.938354712793824
-12.376193337751594 -52.630296803253387 -255.113950069739957
7.920090230081413 -50.169235898610410 -254.232761812854250
30.286691756360138 -50.259590813205214 -253.885342726084275
29.700468735824455 -50.740006934659519 -252.489170357741244
-8.324881440705267 -51.749022872511716 -253.160248483214076
6.385212174481486 -52.058532112123764 -256.663128279910097
10.431479003512234 -50.087709136021033 -255.195504475247020
16.737694773685000 -49.618990265414844 -255.928616083000179
7.627345186520356 -49.866727741230790 -252.870031055990268
12.331317243200413 -55.371263220095074 -254.001705660688060
14.568552244117033 -51.618939305819850 -254.859183175331083
17.120328089850457 -51.613406385232935 -256.167974949921472
15.835620842789153 -53.769719584248669 -253.413189815744488
29.263709687753707 -52.860130527263934 -254.950902266093237
-11.077822102826072 -50.334107224883432 -256.630514978319184
-12.467105761386550 -50.531156440396352 -256.900037292196600
6.143047165214762 -51.292587540499959 -255.463979365951104
10.696919855186978 -50.288343413334353 -258.041808142406978
22.694560493278196 -52.054035798847927 -255.948648290089778
27.136932740497929 -53.063140970611649 -255.928311725930257
-15.300757292058503 -50.715686848802562 -256.345082620681410
-11.222929442084668 -50.165491314596061 -256.309070281332993
19.338464658236120 -50.588196610873865 -258.825939511753290
-13.958713948987388 -52.791296261577713 -256.827034046711276
13.631693250362382 -52.453954035604653 -260.634876393491993
-9.765471730536101 -51.269939602135906 -258.301080280451856
15.019964053201518 -52.429944197794306 -257.137019325071890
-8.245743092043801 -51.311881889240858 -257.856144342571781
5.159091941116673 -50.833914955331537 -259.272889837165678
11.973761239985762 -52.815090569267802 -257.852934435196289
16.004732682531564 -53.198376789549229 -260.531194620322651
27.550851124977861 -51.109485148355034 -259.332758634018262
30.056297141231855 -52.150889092177557 -258.010627776470812
-15.177590884092828 -54.508698843217090 -261.314292351593735
-9.541485529167929 -50.992917913935912 -260.133453516311704
-9.651584545300480 -53.697536745255384 -259.090388718202860
9.505921079311452 -50.741509108122969 -261.229539094338406
25.997686302154694 -49.973547782704962 -258.974997838299259
-8.123596514690650 -53.107039978511075 -260.677903587023422
4.375724167841690 -52.683081295599351 -258.413099486176463
5.015467911566549 -53.891658735548951 -259.990027773123074
14.617565243350162 -52.017841117328139 -256.600865825647645
27.307914247946041 -50.302018726733763 -258.981993222371386
28.018080591361262 -50.780502012592322 -259.258825151434621
-3.590895522983965 -50.957270102267422 -260.856852867937732
7.092161117018752 -51.192000660267489 -260.377382720215167
12.320698519668049 -51.030959007477492 -260.344462359396800
17.659509854715761 -51.861215708581433 -260.336161537690032
-14.260621925510517 -52.271343773000901 -260.355257342379105
-8.477715971629733 -52.582168957979654 -259.528975908324526
15.187913740407497 -50.940170728836769 -262.541065428656566
-6.120494589389976 -51.876643054178764 -261.200362114499626
-4.077713713256383 -52.642094749583080 -261.305238931102963
3.994094410995021 -52.251206807235469 -262.022840018416218
15.893429249187516 -51.032989645666987 -262.303662891679039
