# This PCD file was generated using the MATLAB® pcwrite function
# from Computer Vision Toolbox®.
# .PCD v.7 - Point Cloud Data file format
VERSION .7
FIELDS x y z
SIZE 8 8 8
TYPE F F F
COUNT 1 1 1
WIDTH 792
HEIGHT 1
VIEWPOINT 0 0 0 1 0 0 0
POINTS 792
DATA ascii
-134.604761509458939 -71.197494227689688 -287.170202759699634
-65.503061973877877 -71.897157091407095 -285.088317256125663
-63.439348847396261 -72.443583155179240 -283.051789217563282
-58.717850125580426 -72.687003844217259 -288.242941387344104
-51.567871075138271 -71.300599635756413 -285.119499328387747
14.984922264602346 -71.708984223131012 -283.720495427266030
-125.054128365676320 -72.650930565190649 -287.731055809929103
-82.063465299459708 -71.713907442038234 -286.770994043177836
-75.110577963482882 -72.596814834589651 -287.615745463220492
-71.475927822035047 -75.748967434252080 -285.688931926079874
-60.736516692416700 -72.994144871859234 -286.067729824664127
-53.030235439706686 -71.199968853755607 -286.089825556155404
-45.984613624937005 -74.231083479203662 -286.505207822811656
-114.479386923745011 -71.201291493460715 -285.907255233644491
-96.751699367527465 -74.235686286022101 -286.522415531166530
-92.403644932507049 -74.941217491671779 -288.603315470143002
-87.083120548041066 -72.521209825403176 -288.631636304327628
-50.131287572556879 -71.480448932558460 -285.802760351539689
-42.848676891989946 -71.492716594886389 -285.601023737479579
-29.840808494731192 -73.309535052305748 -288.840413094139819
-28.744257743962052 -72.595506596910653 -287.553798939090484
-28.500431755055146 -73.612988962786176 -287.073553965372071
-166.278424620685342 -72.144651990028933 -285.848111933959217
-116.486617924457761 -73.347328981956579 -287.482522202561654
-112.625312874680830 -75.058326087577811 -289.454125619199999
-108.002538746681552 -72.178055858181949 -287.505979424021859
-107.252879676315203 -73.992488365869946 -286.848664261266151
-40.105451131064569 -70.874188663644119 -286.388177997132402
-37.160309011861202 -71.768483839478819 -289.204593017163347
-39.838184437594869 -72.375914365922327 -289.171081356167633
-34.721879355540366 -71.038573658905136 -287.328605027062792
-33.437778934953556 -72.405606826497348 -287.188896995725429
-26.534261213906223 -72.265299794450712 -284.890478821498789
-22.655742188562435 -71.853784955973680 -289.100302613772271
-14.411743709203044 -72.724155235975587 -287.886242219245105
-11.808453453529523 -69.577190503904561 -286.793692866199194
10.862849834441063 -71.420966259231335 -289.317234116166162
-28.090195874600688 -70.143710669089472 -287.854200350833025
-19.732889583402383 -70.599900789866581 -286.502157981291191
-13.486199192052629 -71.737137849538769 -290.246787486004337
-12.777386812926824 -72.403539704332061 -286.095076257205164
-7.038531048051116 -72.414192444536198 -286.618470238129589
-166.835576280890990 -72.129670097656273 -286.688466412656510
7.839082767104030 -71.602604083427678 -289.264497700628795
7.793286246608361 -73.690341974817187 -289.130265785162067
11.957739856231493 -75.176820880556832 -287.777773418587117
11.842993411287436 -73.063027771079916 -289.361620184563208
-35.690914191188462 -70.695946185004615 -289.843495231651673
14.916140389541720 -73.424830907767159 -289.873807610153563
7.636893898904798 -71.481193011815691 -290.346465363480775
13.065588646278261 -73.030617793409164 -289.267955458731763
-165.099717199109364 -71.997015315730323 -290.720267094604878
-61.709617918049688 -74.924620407861823 -291.362669782438104
-56.568584826249001 -70.875223667791104 -290.101461845501831
-51.075459541453938 -73.989281708335241 -290.979828303577563
-50.701038416381422 -74.670485863697252 -289.875346330536445
-42.410814926668799 -70.168532816066232 -291.121727903540545
-42.617945302520809 -69.853447242307567 -288.861532645616307
-39.620607169905810 -74.534240378689503 -289.613980073588209
-36.866318026763416 -71.037208073883605 -290.206177320824395
-31.285204314428324 -71.938497619026620 -290.958628655549035
-21.897325691097027 -72.026585716057667 -291.697796126896378
15.993547000128890 -71.251854449378015 -292.803091584524225
-79.856801600377921 -72.646939010224713 -291.142087383181490
-71.438233553390901 -71.202590476960140 -291.241436963744775
-67.292389607144173 -73.398143129641895 -290.958784293887447
-31.164158744357817 -72.806779273809425 -291.140489995695873
-28.706636041609109 -73.256037325016891 -290.997124610990682
-22.202996586555081 -72.929219942590635 -291.165913545809758
-18.492954873639505 -71.615165264617787 -291.527219067173689
-12.876165560210159 -72.796045679837235 -292.012725916726367
7.753433274071673 -74.140048046320800 -290.952287249801429
13.795088343230644 -72.877568817993449 -291.915358311403565
-164.098772242683594 -74.721776293858653 -290.695392922412793
-86.994194270151169 -71.853080875221622 -292.063156284231354
-15.317370007949958 -72.146887130569581 -291.127792025027077
-6.417952117738063 -71.948980437976189 -289.865496847278962
-163.760643544729106 -72.363611009724252 -292.159928908927668
-101.802764835891907 -70.269814405196215 -293.132006027306602
-97.927169293601992 -74.836238476348200 -292.949457922811916
-93.922454078333161 -72.593753344215457 -289.829799853045813
-4.820269233545602 -75.324807324875749 -292.694313464365621
-5.582543446274238 -72.982748786341745 -292.189061173225696
-0.209251100662913 -72.598692989229988 -290.542733458912494
5.958308490142517 -72.653267840884709 -293.366013307786091
7.023678073942412 -73.588857692388984 -292.369912230931334
-142.255450014880353 -73.767161479963718 -290.573263798822552
-134.908892739908964 -73.627543916257437 -292.423384318107253
-126.310007797748924 -73.342719285596687 -291.711395370116406
-121.812648420424352 -72.842904225853502 -293.861308769430366
0.800378431695518 -73.758479350418298 -292.480319851471904
3.544780322151360 -71.430632320609647 -290.713421115125527
4.970614596573123 -71.930125086177327 -292.722993461906185
11.014992577331117 -70.890062559494652 -289.257265904511712
-162.796250444391148 -73.216409043638862 -290.963035882914141
-141.624539275613813 -71.161107607621489 -293.726435443742275
9.615534202911308 -72.109567191344780 -294.788649398600398
14.554007818592734 -71.003719477501988 -290.866722090609130
-160.022119431684672 -70.839876533321544 -293.808593808532294
-125.939842299393078 -73.965033038612162 -293.622735708825701
-159.749154470605816 -73.231356652306019 -292.120054349715247
-143.221059453902370 -73.071164567383661 -294.180391176278079
-132.358571916667472 -73.419919164759932 -295.204735309456339
-130.718567374537173 -74.380738544206835 -296.089487487684437
-131.984185086126445 -71.834602115334818 -296.426330004272245
-156.709279042784686 -71.591027601318828 -294.574265475414506
-140.773356606807113 -73.754820728007260 -297.482222918431603
-156.736437529556298 -71.285557382853568 -294.941297493490595
-146.147671752406978 -70.928922064661649 -295.152399821412018
-155.129181404120715 -71.857379662064673 -297.877469460259135
-154.011331407859586 -73.292749162391459 -296.438006535442753
-144.810972152838417 -72.682363908262957 -295.683570415769452
-153.529850237036783 -71.177252161103723 -301.589107211445878
-145.211211389351746 -73.648318746965529 -300.321235605093761
-153.652685604806322 -73.434690327033877 -298.853569347564246
-154.906124240679645 -73.103518747605321 -300.092966031928484
-155.014297824546503 -73.703098820394473 -301.281370671880154
-155.395602425019860 -73.424834205029441 -302.192922270286147
-143.142593195173419 -74.895788687394287 -305.720533259843762
-154.418268405490352 -72.361196946775820 -308.015347473433508
-143.646628849878169 -71.735190786479635 -306.489036182964526
-154.561848953755799 -70.685412937342036 -307.382816678561483
-155.452954968656513 -72.788928340832015 -308.014165759780440
-155.228080268289773 -71.760924154294273 -311.772798923463654
-144.383403012619965 -73.657006503492369 -313.173298925096390
-154.471704776732423 -72.184234656388497 -312.779666324844982
-149.166516462132137 -72.848872628017347 -312.505919560112147
-151.811157670020833 -71.557417550476003 -312.323924946567104
-149.596822191463417 -71.873133420684610 -310.585634426326124
-147.864322456010683 -73.392173661385300 -310.640836235086454
-149.470407896088801 -71.149897768894405 -312.543370137205784
-145.016030541110297 -71.710968607987610 -312.470720872569359
33.914922297266642 -69.833740115692834 -14.589326408816351
29.491339920014333 -70.498450925623871 -14.749314909953444
33.642909701287770 -72.337258497611828 -13.440239461849872
35.765145891410477 -71.787830289958094 -10.722794626481386
37.362299218968893 -71.060158370148642 -13.649747917832990
40.707781220946160 -69.644228236352618 -14.300084208416333
31.521443647289086 -72.217050201050128 -14.643663590594283
39.074318816355571 -71.819724200646846 -13.775750590234525
39.503550576957736 -71.984213908584550 -13.684945865232340
27.175427928664323 -70.583966189058984 -14.558056188089186
36.971674447241881 -71.789420499603992 -14.843110745659402
40.511201676741052 -72.787517329784706 -11.975603389682815
42.046657566340549 -69.220940122755309 -15.170752975108138
24.165385271364574 -71.479184022557533 -16.382629944765316
33.497811349764298 -70.547131030841797 -17.877258268103354
32.147431826088486 -71.545061050114683 -17.322328854641761
35.840219348552090 -74.406672596663839 -14.864097468726229
37.758943453963013 -70.741917859097072 -16.174221595964546
42.695263900946955 -71.114889103295226 -16.527755685629668
22.555203733719051 -72.863544953007789 -17.486871628266947
45.616443131441393 -70.382605686309759 -14.990579309858681
35.411330588083743 -70.867824624189311 -16.397897023789817
38.447061543410989 -69.751934641704381 -15.849485154783173
40.824021021049063 -71.550138121290516 -17.773911424071471
40.796640513726487 -71.673536779679566 -16.252451090743563
45.371723776378296 -71.623745270489991 -19.393164528499579
47.716858847663588 -70.716671106944005 -18.129322985034655
41.350964016117274 -73.096186686791242 -19.420462333596173
42.423128260383379 -71.038886917228197 -16.346802373642401
29.455843554326389 -69.347133039765495 -18.445928914683591
48.409454681848658 -71.768844814466888 -19.760946893804054
45.914552516564584 -73.327347792545282 -18.723308967710739
45.903940245810126 -71.225249103008935 -18.840168366537497
45.057447631669774 -72.639465152170089 -20.906973450636212
22.282642885086744 -70.958456650987159 -17.710442316692415
28.856312180255458 -68.718978729357644 -21.972924996161176
45.081000169370931 -72.253384027389600 -21.624519674258639
44.497307904219284 -70.931178366564097 -22.103059255927647
48.210632625981667 -72.164907511981710 -19.720589031069004
47.442424551924340 -72.158262933122046 -22.049523029186183
25.376477724192483 -70.396853505736502 -22.817513174969761
44.025033274786672 -72.425602994883505 -23.429242014104460
20.750888642528661 -73.877784910201441 -25.966453353402922
44.560056347126761 -71.488363650653795 -21.892252612382343
43.604866002180131 -73.125615364599199 -24.835594630244813
49.941094556211908 -70.989291468059434 -24.437992691822600
20.421881045928181 -71.982153524389417 -25.708041285263601
46.436849766335207 -70.889051238441070 -24.519921983305359
26.145620250166097 -71.394594895548806 -26.110239692178286
47.918625608782108 -73.398851926992450 -26.082065890784037
48.369043640467311 -70.062724553342747 -26.203761937851159
19.796749858845509 -73.070522375216626 -29.692990875441030
47.756797355517875 -73.767775884201114 -27.662996740929255
24.988997806718526 -72.645963873696871 -27.988699760441410
44.111434326046627 -72.529411136392838 -30.206342870188141
44.616630113270162 -71.667527389769432 -29.278118156190075
25.993473158959020 -72.739609272459020 -29.252535407783594
46.983864228833440 -70.714621481919508 -30.472288832136890
44.355745414755482 -70.981469422042352 -30.303161275951485
20.576712117765585 -71.500172633869525 -28.201507917985438
45.558913771451870 -71.156510459180524 -30.738637761206064
51.130952806391385 -70.739696561425220 -31.801018257087225
23.033184025202516 -69.390647656575453 -31.867478147047461
43.583716917372868 -71.916560136416450 -30.514048321299480
45.470863576282362 -71.432466551930489 -29.424076396413344
25.020764987256360 -70.496249905257187 -31.192973278961546
47.038758004618984 -68.052389571003118 -33.175203252920078
20.433554345756583 -71.407386807638943 -32.458858432115726
43.525248018774079 -72.425917289041180 -34.068253191326562
43.575156324793497 -69.686663151462795 -32.339683917600247
41.498638734224706 -73.949408800172478 -32.385068900225150
46.083054944044669 -72.121790848920270 -33.190362453131776
45.077806430906925 -70.334333756698413 -35.218236721757933
23.886224211644379 -72.351520174561671 -32.414705818139829
42.346397597305312 -69.956393413833069 -35.087261638852418
47.672298815147855 -70.642158484952105 -34.538372598372291
28.269591117420678 -72.348693022590979 -33.502036972778789
41.389497491367827 -72.830948453263218 -33.542113604029119
42.141720831198050 -70.096505252777092 -34.303280218349215
46.393957767248629 -73.040342453674583 -35.393523845920043
24.193266566001906 -69.809950726505221 -36.580066399166974
41.754499608345625 -70.729201643953814 -37.724175339145383
41.740342787761499 -73.029297181673840 -34.637168007468851
36.579506698023934 -73.525815320920259 -37.943735090911034
44.979332959607213 -71.094016741457239 -35.848682844570440
25.012054844312338 -69.596518731138119 -35.454777021764798
44.022269640216656 -71.384988675638510 -38.145866663307352
34.810699517234518 -71.571389363354015 -36.373687392929398
45.091948559088209 -74.831283408937139 -34.994894627993766
24.212656174970455 -71.719518928469483 -35.993134053279107
31.878290152111912 -72.889634195869689 -39.307161626700172
46.916271661694935 -69.931804355082335 -36.997792431334993
29.785028611115287 -74.437482550359761 -40.842643383671408
40.853853240562529 -72.769427262406026 -38.834344143877523
41.687200315049488 -71.794778611725789 -38.612951339430531
33.532913936822645 -70.590902867923234 -39.414232213086677
41.704169097161412 -72.033496412253328 -38.621058768486357
40.630615896416728 -70.840706261115329 -38.433773624084949
29.685260438554060 -72.303571545815828 -39.796779014551355
41.544149197261419 -71.801327201434717 -40.245570150235892
39.698880567871811 -71.136768876627656 -42.888796320059775
31.557277040466186 -72.760811592029938 -40.524172202949529
35.447600715473321 -71.893674958715124 -39.553734937856532
-63.003798912965813 -69.818432793946769 -47.978644191751165
-57.818676927547941 -73.163168668994714 -47.061903931914038
-55.459574434772399 -71.751762512718997 -47.267394238960023
-53.281530138877251 -71.366326650462014 -48.455727113664025
-68.119208981093493 -71.143271172909692 -47.544750438581318
-63.828348455017675 -69.848173808323097 -50.213381394478837
-52.234927213738686 -73.100836108741916 -47.732379758414147
-45.270724374902947 -69.990200170617157 -51.724732722401114
-69.622872304544586 -70.291853356027516 -52.231262504453710
-43.372304821655717 -72.602879732972951 -50.421800157475687
-68.232706147884500 -73.629513729025703 -50.773303135223344
-45.029165376198115 -71.887735571754249 -50.214263659948877
-73.323744742481878 -70.740624600889845 -51.632707326571641
-38.959645875611365 -71.878659077954254 -51.615375920501194
-71.736416707333959 -71.680821140516272 -51.231369033172584
-39.633465607290724 -72.210405501516277 -54.540034260225482
-36.756643584834102 -69.900692026369612 -54.065518251728797
-75.234776621882702 -72.474597315324814 -54.078804656864037
-37.447503813230618 -70.693981895835918 -52.514935975182482
-75.556208721224635 -70.840018550054339 -51.672479544528557
-75.430002624719393 -71.830395010040036 -51.987354624336660
-32.804990527257111 -72.722371404167419 -53.660163040459807
-76.215073849074543 -72.398308767497710 -53.915087040156116
-33.695804411310895 -71.221288308952978 -53.763331757680106
-78.319428641303759 -70.134713152140876 -54.209841165176115
-32.392861965695090 -73.594135957768145 -54.279794246556385
-78.971760253983575 -72.107900913440744 -52.039521323651854
-29.547076187921384 -72.802360994430330 -56.647875923640584
-26.963120208942609 -71.514879280621102 -56.273964576971203
-80.816448829761072 -72.813129654829055 -58.217099842076450
-23.236283580507415 -72.845611055809655 -57.558966314171215
-21.702558925493452 -71.151895255619607 -59.683429060887470
-21.575047653941684 -70.747022369825316 -58.003797295518503
-83.692195809148103 -72.863245097348752 -60.043484598758702
-20.996424602994672 -71.190048415838930 -61.089103934295487
-83.941667216247723 -71.459366234803028 -65.329350993226456
-20.399781110180651 -69.902074176835711 -60.592146937282351
-16.438893160699600 -74.079723248698315 -65.226417827703315
-90.097603223145356 -72.513387036736631 -67.555273961174379
-13.692432925219086 -72.009227872705949 -64.965244805290311
-15.261918517496659 -70.798113852406530 -65.387122553026813
-13.491758270702721 -70.801597201932665 -65.043814405272968
81.098516638862975 -70.136680699725062 -68.032260228458696
82.894126929092081 -71.632506458220973 -66.594439067051013
88.886732848401792 -71.550684611101630 -67.287043206415021
90.738585584588293 -71.197070933827831 -68.838544743933994
79.123915913458887 -71.480193629971566 -68.157457129434988
88.917219022143186 -71.213927713696052 -67.251240562469093
76.520957310480014 -72.983524997151633 -67.662589149268641
84.165378798949348 -72.374358358639398 -70.072902921755826
-90.901263513155669 -72.503861999630985 -69.872648001849015
78.344530764184782 -73.011034591982494 -68.117828837119944
93.712212027084647 -71.672731259345213 -68.254431808335838
85.527085938331865 -72.899138144682155 -68.421116330720778
-17.088947314493431 -71.812391973422137 -70.711259160673350
75.703025827749784 -72.390437771217151 -69.739323482340865
95.214386247824265 -72.154161659404494 -70.474830464610562
94.117572419419872 -70.710241748147496 -71.436351003071536
-92.717812134709405 -71.324801988056151 -71.034911398730571
-20.268968627940495 -70.967747901858161 -71.831485800829611
-93.446007638678950 -72.584561256599542 -73.845010987566610
-18.624274691556941 -72.472457464341460 -75.085533613370472
72.500388101690987 -71.788789706801268 -71.113969756886192
96.630330434445412 -70.264738460808331 -73.764098121912170
98.300552535550025 -70.707071674774681 -74.231699755176422
97.747482202320739 -72.525235274125933 -74.927786303249192
-24.111673234645281 -72.251073758901157 -75.410732215371652
96.704888537244329 -71.750981856447694 -78.551339758939818
-37.526994022860251 -70.795681820246799 -78.016896051984546
96.908616504210812 -70.306791900024066 -76.128665068571181
-37.079652802557824 -70.305547432746977 -77.376168877075997
-35.894174515417085 -71.317251086627095 -77.092493409593203
-33.998342467444651 -72.256590961806978 -75.518781806685425
-24.284570927499892 -70.166743453958148 -78.453372637524012
-30.226573150502830 -71.680268106762767 -76.940055568525580
-24.670242532002412 -73.714039297429949 -77.045747988672119
-29.139964911353985 -70.708175103546168 -77.325927778233705
-41.456101214372232 -72.602380615713656 -77.444204650933798
-41.331345815193217 -72.675553118702126 -79.737966348429680
70.256199340313032 -71.345181379983345 -79.759705869356907
-45.593131753080655 -67.930402438337097 -78.249430792443320
71.075671145907037 -71.417663688915056 -79.383595950350340
98.907921848615970 -72.984770955038243 -81.956774596833768
69.243990904822951 -72.946947561748516 -77.920482500180427
-93.660188012399374 -71.743379161964810 -81.101268656127260
-45.494281094517298 -71.678164880655714 -83.157588159452530
68.682529294503794 -71.049234596060757 -82.027434979262210
99.207822864585538 -71.341184727838822 -81.531844014366555
-46.311537204374609 -72.432545001574994 -81.992573053854628
100.792402114960836 -72.979202921474453 -83.314601447930059
67.969754742403325 -70.111999464689873 -85.316116357280066
100.854445126290358 -71.201391999797707 -83.245988425290221
101.966278580116636 -72.833690400232314 -84.689351568836514
67.708277901923481 -73.230453202286569 -84.934626769730940
58.512584380467032 -71.470924524806946 -87.775896783094950
99.560866840607900 -71.277045887582858 -87.078299656826019
-48.338006107043299 -71.965293558911270 -88.121919274234827
56.644333461352517 -71.548300866406521 -89.473922068436096
62.625559905033150 -72.021226923156703 -87.362570861680439
56.468744317732934 -71.998496158523210 -87.430354746261060
-96.151181015859351 -71.230128112571151 -87.454764514339686
52.967447039469874 -70.627755754781987 -89.687311059175457
55.041440367835229 -71.364342233528177 -89.868995227201069
65.780683181711566 -73.396315642647096 -88.871139014108451
69.644368108214479 -72.767297673512658 -89.463972339196175
62.242635230922197 -71.227548357421341 -92.896935092463707
99.909750211415528 -71.424235037189803 -90.081908073476356
-94.619092145926430 -69.080892355972637 -92.004093689659214
-58.810388532388210 -71.752023044709375 -90.328417857179332
50.782197342693550 -71.542214074829474 -91.735924072502641
53.936977717453978 -69.759356339278014 -92.875588178356963
55.514911540863416 -71.529759013185497 -91.226720548387078
58.508413621265255 -68.257823038142945 -89.886609560397460
60.928532989949048 -74.408422132051683 -91.341163163880879
-62.177003035600066 -72.394961338736024 -91.674586302537449
50.609880327555111 -69.602568727870860 -92.721693288461410
60.858491538869679 -69.706184536330042 -92.896641253895325
52.039490235127609 -69.645694213911895 -91.513529816944285
59.305695189694042 -74.065885474651850 -94.042853719909402
-63.644475288274876 -73.163924251523710 -93.969723567687140
-62.449863387422674 -70.464654864342037 -92.378661968953153
100.428580750978156 -73.027294275417972 -91.166086634368199
-95.214804839978882 -70.786364336250898 -92.608685758326274
48.400327958261784 -72.282111983656051 -91.273848686641060
58.758717856523859 -72.775329306024688 -91.392796664993114
71.605591854477268 -72.212721953421237 -92.444849633055085
-65.436349363346011 -73.160051851434105 -92.820355804921789
54.094142887249411 -68.403445040591691 -92.715057119896372
69.147015335346254 -70.828631225208781 -93.728561285024654
-94.835354655185043 -71.288190328936295 -93.786893108076413
45.405296979319658 -70.931001561867845 -96.455471945545796
58.464705173359697 -74.125937251906535 -93.805622851553920
-95.932825571983344 -70.946368451107062 -96.132453704200174
47.046909070459101 -71.513070718046833 -94.720151645546508
58.463336998214345 -72.864568435137059 -96.201625722307767
60.653266453024472 -71.721092809501613 -97.991193184729710
105.857644812531802 -72.278754877268099 -95.147400756409255
-66.700897779616980 -71.732736774221507 -95.878691915896923
72.766405004536068 -72.823716234869707 -97.399854186218505
-67.468569825440099 -72.681219516810614 -96.147634497073199
45.871719732561644 -71.121759159430354 -95.821789374084929
48.178978043043905 -70.195823261675656 -97.549840307042999
57.414943038928627 -70.837773349389551 -95.520799169695351
98.123711641467793 -73.984551607876554 -94.787825599045689
103.939912903256825 -70.487617959488077 -97.069499944659256
106.178571252214354 -73.019049053913704 -96.254026791474246
57.066472486994485 -73.451007858574201 -96.560394924502290
69.946473497871267 -72.810887152934058 -98.995401411468222
101.131902513826063 -71.716913801480459 -96.894814746633102
-65.670881699339745 -70.030813741735884 -99.154919728653596
44.619347265464015 -72.137835146795837 -96.076636845567805
46.371723040087304 -70.439424958011386 -97.768185443412591
97.668003783569773 -71.531461743939616 -97.582100674824886
101.292150883712850 -72.574651882750146 -99.634603747645812
102.696122933988150 -69.838281353565264 -99.772346296038705
-95.379896141462169 -73.059121130188331 -100.259965666915477
46.639010524444060 -72.740160537112317 -100.654239059585294
57.686277952165312 -72.662881308676532 -100.379774507579768
72.180182783293191 -72.546064259834992 -100.499995784319665
74.568321166848833 -71.375153521708484 -99.767244511364282
97.163455996722050 -73.733543711287524 -100.736501919183254
108.581212187626790 -69.249516264431605 -96.788872316860846
102.804000336314431 -72.704827441279022 -100.424373008692854
108.544693487978506 -70.836790145265837 -101.532737757563325
-83.476118239187002 -71.945795108834290 -101.368565006010201
-76.255092138832126 -72.432084863593957 -100.117101769737062
54.406318323567923 -72.360742560850767 -101.330989075306448
41.653738168362359 -69.135502329542959 -102.242679697043002
46.107772528715238 -72.919146923849155 -99.084841394570830
95.738393236887234 -72.250252350981441 -101.098668697313229
104.832679018224553 -71.969641125600305 -100.885039938686404
74.819872114190119 -70.846390998922530 -100.800185020103214
54.449883388011671 -75.366633408461283 -101.875651690014919
57.484461885379261 -71.708182768715275 -104.312910158355166
81.058506892760150 -73.312581341865197 -100.308244144001904
84.690934463308679 -71.153265093823549 -101.270753221632987
111.810002120968107 -72.872573673688905 -100.570438620921820
102.195230961595371 -71.458093120198242 -102.763400060079391
40.431176626457415 -71.335557657975457 -103.531144857680800
76.728738322860224 -70.730839694669271 -104.390058605815497
77.984797857305779 -70.169301306239035 -103.390599513471230
89.126877751160436 -71.382851755134539 -104.278150068644123
91.200233586715143 -69.104454047036739 -101.594969536750014
79.337970866485847 -72.302532299571510 -103.979964039799285
86.262826180042907 -72.888502273955950 -103.895802309837080
91.372171174196211 -74.220720180689042 -104.881256705174152
54.249307747203396 -71.976884761244307 -102.551309101724840
94.505793907476175 -71.920240128874383 -100.813231680213875
101.047940497080887 -71.162964490957862 -102.749679739406844
101.098816314676924 -71.076455773920244 -104.596786316425749
107.606796734933624 -70.282459361336535 -102.867375224942165
110.309691077278956 -72.623034942937011 -103.355780032929061
87.737729046147592 -71.146111288994092 -103.885476281597263
89.687476285917072 -72.434272887915483 -103.681112538368382
-83.236658993597729 -73.367722905118228 -104.479356460245299
-84.560958428528352 -72.354025828501634 -104.035075825525723
41.663116694284781 -72.247473579336457 -104.534381568131835
-95.200997365272812 -75.094858071956295 -104.080500687826600
52.662072575302801 -71.408270746417543 -104.461811959553302
38.765015881194813 -71.339669692084641 -104.491201530444343
107.609768215033512 -70.673360091822431 -104.172542882689882
53.196319063247039 -71.797221739872768 -103.320627551574901
-81.100076034015132 -70.461373400721570 -106.257556785492469
-82.420327758235189 -72.448663987800956 -106.637900661553275
42.372423072269498 -73.169082978136530 -105.524388154180869
108.590925721947968 -69.783175185413924 -105.066631111716774
110.326108176429400 -71.487135644188328 -107.296015080823778
53.165687885853181 -71.940964009011907 -106.186335449121287
104.802199816643039 -70.070694928040922 -107.587445411014698
41.513105577591432 -70.990916144117278 -107.596652186153406
-96.676198861251223 -68.614448601592358 -106.839061151907160
50.242116942453933 -72.504734117769445 -107.501722059252430
50.762560264244840 -72.897029365270697 -107.640975321262317
105.315580838846913 -72.646240169644145 -106.938270045236649
110.362563159724431 -70.010323995294584 -107.770195174182618
40.276748881525528 -71.290682138535814 -110.934695015968501
104.024920992100860 -72.414991368618672 -107.365435207986238
-84.469261930689655 -74.363920196769783 -108.585592529994216
46.619306075341257 -72.460947371466702 -104.662393350305706
50.160928886249764 -70.532683248080644 -106.904520382136127
107.241033917799754 -71.860309241133365 -106.514850945630755
107.556721151356115 -70.636678242903230 -109.356741302583615
40.725437576711627 -71.056128259427283 -109.861342046550860
48.021884448190342 -71.407501320413431 -108.259322370318486
36.485563561072901 -71.971821468641366 -109.868914863937803
48.939686376417363 -74.220525682445498 -110.310534837129694
-83.839498351440142 -71.417532328302116 -108.432691639168809
105.307160186693920 -73.782524554338693 -110.754825632024591
37.069922439886305 -70.574764305085878 -112.730366961435848
38.547121111488600 -70.633377746288517 -109.175881094069837
48.263987048133231 -71.093305476662948 -110.567001401755206
109.731917842237920 -70.917537201549408 -112.860861557098914
37.088998629148278 -71.896934632576034 -112.980949906395836
106.321161578699204 -71.418889492972710 -110.130526474202512
108.221081631884346 -70.393012925931160 -111.197100793282942
-92.783402984778533 -71.748683561560910 -112.332801673378441
-83.739316902624836 -71.410160632898453 -112.110132323670243
49.920810477316124 -71.153693674232400 -109.464789821868422
107.154331338283868 -70.359189075660709 -112.737996049288711
-92.485416210416204 -71.736988813407791 -114.041422423262986
37.180013761497754 -69.750649724893520 -113.922235275610291
37.250698896816537 -69.513394178024953 -114.032448886961731
106.690451675413442 -72.023182714353823 -112.611920487506509
46.065373110330540 -68.814718161161210 -110.160869100843641
112.960314306530464 -71.028571710568073 -114.278844637322692
-85.939916104212529 -72.839061088073464 -112.338385035909525
34.146062334120174 -72.387236201143565 -112.794241158030999
107.445595142510953 -70.767625593414337 -113.864850811967088
43.444903192221247 -73.712795334122674 -114.226558854862517
-94.231963857645013 -71.448694743393929 -115.236357049879189
108.250715969684393 -70.207257531407407 -114.396232602146426
111.743326117726724 -71.708306710919516 -114.149629349981325
108.042853277446000 -71.653579528019975 -116.677625215858313
-93.094041293855426 -74.144207884884878 -116.692930469374488
32.067281581387405 -72.180076459080937 -116.417028605400503
45.481444300067977 -72.014929928377271 -115.287057423401762
113.786085604193431 -71.924192295042872 -118.780979927022898
-91.101273172271704 -75.306464006712247 -116.434909583400568
43.848627578117139 -72.043467795141126 -116.126246665145132
45.977266426914433 -73.443296866126843 -119.151380767263134
107.204389611945771 -70.866373669801646 -120.736168249502640
109.264960211938870 -73.987382554630074 -118.530577785592925
33.903716818966927 -72.179141361652739 -120.405538271678964
-81.850197892740184 -71.282569469542167 -123.188941409832069
35.042296634393573 -72.671561391873041 -122.354933043638781
40.866291314785421 -72.075957473221351 -121.585473335344503
111.543247086186085 -71.969891036374605 -118.422406255825493
40.857174338804590 -70.062205308355928 -121.163904014273186
-83.619796732095722 -71.813177819906073 -122.065925845698644
109.705853850094172 -70.286416618707563 -121.544047848988754
114.721456677607108 -72.546119352670374 -120.970635214235273
30.291273769315342 -73.881859114836587 -121.198784828950664
34.493362496078774 -72.247769023933074 -123.097175522349502
41.986062838458459 -72.273485149657063 -122.268004714698975
107.041803018593484 -69.305393392054711 -122.711747660691174
112.046604036260490 -72.411625647781278 -121.182587489477754
35.238221734466975 -74.020615137736556 -123.670963624371225
40.169064012432102 -71.810320835605239 -125.430244156147822
44.279178159040413 -70.402067467310985 -123.271672160428622
111.068913611087680 -71.921088028566516 -123.074856180581648
30.567744492940225 -72.921418675221787 -125.239413900664317
38.305170637674998 -70.341263062995338 -122.430321274206776
108.949103532549003 -74.823786881808942 -125.750355039335957
114.150851515178132 -72.441452002614170 -123.174311114136501
31.571100107840152 -69.773695426430791 -124.291300624507855
35.066210323409969 -72.587983981333863 -124.960737559306466
40.276295374370967 -71.096265697687059 -125.644732911222562
40.898371112812320 -71.445599914506786 -125.325256731105753
114.420687285601744 -73.805367879782111 -122.367170034934986
112.557824954755347 -70.774161347866738 -127.911262509338343
28.860086817075064 -70.831803233721189 -126.151461977581619
113.696996991802294 -73.020925979292386 -125.725523259574516
36.712140684544565 -70.942378403233619 -127.109775076194438
115.354628923638799 -71.031097401729696 -128.359885377250976
41.424544392071084 -72.607613506607834 -127.720436635646450
111.193655884934131 -71.880191393787001 -128.993404302013317
116.177536030670097 -71.456669469033045 -127.190383907567920
-53.937072280343010 -66.972842063673355 -127.924143170329089
32.721410657666368 -70.086506444432558 -127.686461397338817
-57.700450554146165 -70.891850210635099 -129.992848096035885
31.483955969625502 -73.311776325791499 -126.655945931620053
113.362220076222584 -72.843631836001236 -127.858820582189566
113.589563541292620 -71.599714184672749 -125.952542583993107
-79.134314771880014 -70.561774182232298 -130.742769208292714
-56.746720620857396 -73.478290633693447 -129.706395211399013
-54.200047925906176 -73.796757064570116 -129.381011453806309
28.814996968945945 -71.421502689080256 -129.983854483522293
111.838207078911907 -72.524865540580407 -126.035193574897249
-61.951021839307813 -73.104464843729659 -127.425386374433387
110.176599647771866 -70.545762289453307 -132.765053193963354
106.648966371448353 -69.899610245982686 -129.215557688481965
108.679732593790533 -73.143723184792520 -131.284459087564926
-52.850670770195826 -71.753768349127824 -129.289887468288839
38.881529674855997 -72.811210057793062 -130.562201308145490
39.795806839475574 -71.842658733450634 -132.002571598647336
-59.046345889113226 -73.117773011677514 -132.029759012574573
-54.338577344259370 -72.608268356102201 -132.117729990587435
31.232978694235573 -71.215940661777282 -133.415838148093201
110.582399757490805 -72.215312760123197 -129.277152623938321
-77.874216318403128 -69.627853943286112 -127.960504690878253
-74.851847375957334 -71.856587432885050 -131.065498275429462
-59.670169670826461 -71.887220072242968 -131.399666245468438
113.421090841000279 -72.435094151851587 -129.636956601970383
112.414959376397491 -70.704530219884290 -131.150416026044724
-76.251103904524385 -68.237473557885650 -132.998973032865905
29.730776282877716 -73.498767108547298 -132.614064042954482
35.690449700143645 -71.599049871274019 -130.736595214690681
-79.005748463766352 -72.507810024397344 -131.399899285345100
-55.344779823485240 -69.924308574511457 -131.178661051760457
-52.944148042997647 -71.998556894426827 -133.993730551556212
38.186354312370071 -71.133799997592007 -130.673595565772985
37.333305626194189 -71.488917882056597 -133.632392314401045
114.132406870411131 -73.246928090211114 -132.397051159580400
-77.289318124327181 -71.971778720478014 -133.639495299142141
-53.695956046749188 -70.705288624320332 -131.194164921648309
29.972843449114912 -72.922564517468359 -133.806943742123195
-71.781728995554786 -71.970649054745252 -134.061414389553391
-56.154105404944907 -69.540469271791423 -133.275081000131394
113.243097987740640 -73.651263484642158 -132.860229768395129
-54.732928641461939 -70.903367546356534 -133.452377964613049
117.730541717368595 -71.647732557236409 -133.540955784510913
-49.707078584278221 -72.763078386069267 -137.273394998223523
108.455895049551486 -69.641397234271267 -134.939284064003317
111.000402787384388 -71.496007961706468 -136.258650496882638
-80.657235439961227 -70.004039397333230 -134.679539453018322
-59.356845798498128 -70.660491858396298 -134.691390671568286
-52.155457672011181 -71.856986257321239 -133.707274869291808
26.429055265530490 -72.915846021864326 -136.941332378454035
116.645097926553504 -72.412212256383398 -130.707748717461271
-54.268273111871451 -72.487228083731310 -135.154749909105732
36.775731481952647 -73.076358663198022 -135.122207664187755
-47.126227878050905 -72.743465670241662 -134.584169162699482
34.532514621631236 -73.237032988505220 -134.026295234908162
-51.649356580314560 -73.205216920088802 -134.866590823292228
112.959989961601138 -73.210356682913485 -135.232592955660806
117.400159451914860 -70.329096737299992 -135.492419515579769
-54.651096061265825 -71.107012195232755 -135.406348166935430
37.190453553936443 -70.055241630899289 -137.145480436574530
112.862575204274734 -72.502384058003855 -136.544325407198073
112.296760995772630 -73.323176452084070 -137.291140074220266
-71.698462255839232 -71.204221613640044 -137.153530770615816
-52.271316791237474 -72.689612920268388 -136.394148348234211
26.822570592036897 -71.927556968752867 -136.651446618786025
108.618933179318361 -68.805224434592347 -137.752473553914257
111.787587359152795 -69.977801447346806 -137.979665515712128
-46.338722399554435 -70.722508340991723 -138.524315985096848
-61.943650158962754 -74.779901322272593 -139.721324585745265
-48.592331390026011 -68.554287740869185 -139.136720463946034
33.651332720347412 -71.093774866294837 -139.590541428859808
-75.701019733738917 -74.420857606251403 -141.123135386604474
-71.359013823160510 -71.448130503597682 -139.584234683375314
-55.440821432420762 -74.095854248507493 -138.194659115721691
30.250194245159616 -71.900565303247916 -139.338258247024783
-72.372391663979229 -75.225290009812170 -139.493736479627842
113.829327275120704 -73.577043474835151 -137.759620343965935
-73.922164008869075 -71.208721878575147 -138.256656992302396
-67.923137087703822 -70.558850368040495 -138.865532141045151
107.924998280687944 -70.220503528651435 -138.043750478814701
-77.255396882901309 -71.643255332056469 -141.195165098795087
-48.213471638014937 -72.228301051927403 -139.178887959752814
-45.686968219205937 -70.362496417596745 -138.533725792842148
25.316420819893331 -71.806972343570166 -138.747643922408088
35.846002364000299 -71.460622893765191 -141.439189589704824
116.364816831097542 -72.577003020897777 -141.052434544985090
-72.760864671843791 -70.324471753949581 -142.685313395177360
-70.228566409390069 -69.943493527057086 -139.640296814364063
-59.623795910945304 -71.937734191971515 -142.689505245487851
-57.729342577237595 -72.380516101653328 -141.459659134218583
26.554354411096771 -70.126114610473650 -142.206840255482660
33.619258594277937 -69.833799478697500 -140.778403378850840
113.779359066100611 -72.371427258485639 -141.397954596398421
-78.151283096452005 -70.276894910704257 -139.045573999715259
-44.592118561441062 -70.264023338146160 -143.054480926042430
114.535072781473289 -72.473583858032200 -140.786260263727485
119.640368288690269 -72.123163185498584 -141.956660065810809
-74.832821620188383 -69.665958887649282 -141.463979775454305
-46.746117325589694 -70.926643007398269 -139.928918829546063
-58.541315866337655 -74.523044024671989 -141.214844600399289
25.029969071952713 -71.389536902559769 -142.071191325115649
35.647974760769998 -69.942566338988811 -142.297289395278256
-44.794594661350992 -72.236398361222342 -143.422731426546648
-77.151273592497319 -72.204487543915135 -144.392636910718039
-71.869924448187078 -71.928657251102052 -141.195598866313674
23.898149675632542 -70.979238407547186 -143.466287439961064
-56.215966016818307 -70.247147888215537 -144.320330738341767
33.012151471728799 -72.603225018377003 -142.967418233641354
113.096080910030935 -70.613127445199765 -144.066410492483612
-71.864585623141778 -73.620340818451368 -143.343544699782399
-44.037129058181669 -70.453846436355150 -144.871620321884649
-43.451451082159707 -74.182021243338994 -147.072539853375133
-57.931072116010419 -74.161392338228552 -142.119053888302943
-53.951215510283021 -69.900131357302541 -142.786486755941070
26.178165016214919 -72.305435311515311 -145.425312265598421
111.702379005347581 -72.552821409910678 -146.455824427533457
-76.771476251580012 -71.318600880215286 -143.505345365889866
37.537530811248537 -71.760245072200661 -145.472725863650851
-68.272946756411059 -72.771496473233796 -145.961330432870199
21.988871229752782 -71.749528757649912 -146.806488757616421
111.281467046353100 -71.869758358900413 -144.265344338211378
-45.065517925818668 -68.815393323585383 -144.177998199744763
-57.647823282796381 -71.226521890671975 -145.943452311290372
-39.618479391479305 -70.248184161871336 -147.241343257544884
-74.878596665934666 -72.939530456787807 -147.069305856314287
-72.876194364864261 -72.430611356097330 -148.007345789478364
-52.453251285945939 -71.343982469356334 -149.428324498225635
23.721876353957764 -71.609404641555500 -143.959026801816577
33.889872919188974 -73.772018879031066 -146.644318304370302
113.465646110204744 -69.858973757418951 -146.515987251933240
118.149229449438963 -74.265515566079785 -145.763377559861766
31.772962675592947 -72.325079125633223 -147.009367349077763
-72.914846240714439 -73.721949447874579 -147.380894187601143
-71.108560636755087 -69.675505442934920 -149.724210915947566
-65.916604994716252 -73.110642806904110 -147.357380117509024
-43.021688749915008 -73.781795549485011 -145.807786970220178
22.071967467475680 -71.681810332623655 -148.160437205331220
35.064870660075293 -71.374824000441578 -146.517299712208597
-70.511848602884939 -70.549573424968230 -147.039287357181365
-52.924134001771996 -70.745321481297339 -149.654317454752743
-69.416070957511664 -68.137301714310254 -147.635757444972398
-71.571920607807797 -72.738084749080059 -149.334983828867593
-56.200786882393444 -70.578342592643807 -150.596819917413086
-44.007133758362976 -73.064655669655409 -147.486897605866488
25.582085756558122 -70.665836172908897 -149.245202211492796
-73.464352379747908 -71.657583871652449 -150.753115904849551
-74.106047464602469 -72.266858973154939 -151.142462067949964
-53.621246295105188 -70.820250384355006 -150.397406825593151
-51.539107926396476 -69.492744626679922 -149.273218528782223
-45.938676628476777 -68.651533027552475 -150.185217191487169
-41.608583661341427 -70.263006889468883 -150.027842229080591
14.104578038757776 -68.486542257285691 -151.465188084816504
-69.451051158933524 -69.295040291406764 -149.035342843365584
-65.752938210222084 -70.782934550481016 -150.486527841837102
-41.825832221849566 -71.756684120083847 -149.357500875131677
15.255661451832951 -71.248689269118387 -151.114239424288627
32.787827092123173 -69.645112119486186 -151.465261816701911
118.237914258221267 -69.948376155509806 -148.908618276384829
-68.252601605145102 -71.232092940034050 -150.820939325530617
11.272328462508684 -72.063823231341203 -149.953298098687611
25.695793517203263 -71.118693731105949 -150.294494070982353
34.006136112146130 -72.387323514013360 -152.253397507514507
-73.598367772558447 -70.796248474897368 -152.171290630320868
-69.654004257442395 -72.065593975679036 -150.466499468138807
-67.226465092551194 -71.015291974283286 -149.675619175859822
-55.508011392714799 -72.783925640295465 -150.598063577944345
15.559744940755326 -70.819465924612757 -149.168965157657027
9.059587681006851 -69.524973828226393 -151.297678649307159
10.890841404746558 -71.155122060211824 -149.221952258712264
25.068285168272599 -70.691680588616208 -153.067699005542522
-65.304668029517558 -71.894863350770791 -152.203636351072760
-54.772901443514471 -72.591305434016505 -154.821481410900418
-50.376408950293019 -71.264487510804258 -154.457425100782814
-42.295551379607979 -73.770290734956149 -152.332854647947528
18.222872752011540 -70.836113316688824 -152.579676648029107
22.244517285399127 -70.073432588703909 -151.376758750839144
-62.746202042955851 -71.315318798896314 -152.972178276136106
-73.280710479328960 -72.144101949566377 -153.421133360341059
-72.604235988199676 -71.923261121122223 -152.301674762795329
33.573476542907407 -72.802758082372236 -155.360180772287407
109.249987376268720 -71.751699707950706 -152.200883953416053
117.972803495240143 -69.072889848278166 -153.912598715271429
-42.491210418481408 -70.356631545512286 -155.774313492531206
-36.262312235118280 -70.388229209349802 -151.754439166296379
7.375079813283614 -72.841701622389081 -153.709952050629454
-49.602766872777835 -70.514681208150606 -153.983220925273372
13.524801410965486 -72.753216284055952 -155.455416411985965
23.090359771548968 -71.705614900215338 -153.520194609911044
22.259240287573089 -73.534093448996217 -156.502664490677688
32.352370366889737 -71.086677733029788 -154.459717748691503
34.072962751646678 -71.937507254982606 -153.687041687420447
115.956315067165747 -70.279617156513069 -154.482546462005217
-47.902648421221578 -72.795417971373539 -154.975301324900954
-34.776175311662392 -71.206784623455050 -154.054656971512145
5.307797888245011 -72.674823911029151 -157.819129786231656
-73.425892408308471 -73.600354839867180 -154.872421043333759
-63.783658757424817 -72.489152724445390 -157.968634813039358
-52.327774371889781 -72.251462442497754 -154.543250785113742
14.081030265667263 -71.739195176520852 -154.361789774108075
32.361763117784903 -73.313667383524674 -153.741487663160683
-38.349822306163745 -74.385418874940854 -155.362304043409694
12.837246983167967 -70.790818770799063 -154.189693344106985
114.078632531309538 -74.199002316005178 -155.730619824099904
-62.672141034184286 -71.707766106520495 -154.892392751931794
-34.317901700044210 -70.027626917008135 -156.902446623083165
-71.460436494635289 -73.443843827108395 -156.174354808544336
-48.720090188837951 -71.120269387436451 -158.558831128015953
4.627790113592754 -73.500846338125129 -156.510621912123867
22.172513962374182 -72.794512759293454 -155.329482247302906
110.739342648193528 -72.134151694339096 -152.972386003123262
-48.997563828326776 -69.423496239731620 -155.996825134735872
-46.611086769832966 -71.439820849781142 -157.826230035654874
-36.781657184166136 -70.270394122989941 -155.877679030626410
14.019970573836090 -73.017925855033340 -155.737007790501821
22.613735311999157 -71.203335135290189 -157.678636943089970
-70.570271904897098 -69.040642330357514 -157.398719506576242
3.828769539022013 -70.916751387377701 -159.133714398706019
-67.971328734008452 -68.960757839906023 -158.266684458860226
-64.722732014416849 -71.911341573191464 -156.355653847806963
-44.522918999474093 -72.090309107627718 -159.679544211389924
-0.516443362523508 -71.461872972876890 -159.942044039275970
-38.211675982709963 -73.300735121422605 -161.104322392037233
12.736000035349827 -73.132784729003703 -158.789802128429528
-47.390657938696563 -72.630429145044715 -161.443065337227296
-35.951200498578245 -72.752051252527281 -159.275785394311242
19.862109054510800 -73.833560728628953 -159.606530428096960
29.871682648616968 -74.923807233931967 -160.544064999646764
-67.211594706640298 -71.935225388124195 -159.871702380375240
3.114801471376345 -72.328829026015484 -159.281220536371620
10.274870919723975 -70.899980286597653 -159.374939754920035
23.342808325729383 -72.035322742314094 -161.083887505272656
29.596946645662285 -70.925411570957891 -161.542994693224614
-64.655701932999051 -71.816176597295936 -162.112989766900000
-39.377595098521120 -70.391180074526915 -159.571093132484549
108.272910211251784 -70.663920665188613 -161.134972329749019
115.228478885125980 -71.952530310753374 -159.718533669430599
-68.315577966947785 -69.577783894705874 -160.843741768392732
-65.490952400172205 -71.636105334859607 -162.878738880174069
-46.665298036787235 -72.421395919001000 -160.256985293506176
-34.830455580467543 -72.707916401701439 -162.395101095920126
1.656443994439902 -69.071664098874010 -160.923063195914295
6.183496034876514 -74.012370567901343 -160.472913036504877
30.433078299227695 -71.318841379776543 -162.019908183895154
33.429676294538872 -71.754080425254287 -162.151383913090200
2.322353855109216 -72.151808334846081 -161.888299714804191
6.648702115442408 -72.379308087383833 -162.547732902185317
-63.514049731472582 -70.966874050010304 -162.408367175013268
-48.311189446776453 -71.537357614983264 -162.941294811551472
-30.557283738008760 -71.629116111018661 -160.636596999692983
106.144430833374855 -71.960935699634291 -159.956596442543059
-66.168448530089577 -71.754541878473248 -163.125235411497925
-40.137350523230388 -72.698846710869717 -161.469088440764409
1.961309592387669 -70.923746654471543 -161.459129395660113
117.331197917272746 -69.461281596068389 -160.931787523857821
-67.169011929302741 -71.520491036696370 -163.745335124983797
-45.763466859847782 -73.609929714841599 -162.756820786442546
0.710300658675981 -73.861533070786280 -164.141865480435087
-65.755201556016559 -71.436550197381251 -165.033274029976383
-64.538042657180355 -72.093267325671107 -162.013424910786426
