# This PCD file was generated using the MATLAB® pcwrite function
# from Computer Vision Toolbox®.
# .PCD v.7 - Point Cloud Data file format
VERSION .7
FIELDS x y z
SIZE 8 8 8
TYPE F F F
COUNT 1 1 1
WIDTH 802
HEIGHT 1
VIEWPOINT 0 0 0 1 0 0 0
POINTS 802
DATA ascii
-85.545635384445077 -45.746191085104059 -47.019522444869992
-63.341101714996483 -44.553241987274603 -51.026674521797716
-58.791941533114120 -45.648094820575714 -50.123781841168373
-50.088354353753644 -42.780020232343318 -50.561632238272885
-88.919007018531985 -44.493005656711993 -49.678750846367649
-62.831253432224258 -45.493679125785434 -49.999904763917101
-46.152236088918215 -45.724838648246291 -50.999395597555676
-89.041127227393162 -45.097700174612100 -52.083775279635937
-58.978929160900570 -44.864807041885250 -48.776345599220214
-63.468967523704229 -46.060660149825551 -53.012171679751582
-62.674002506851060 -45.567941322543618 -51.460396853819582
-58.640621666918456 -44.281576174904259 -51.996400608330092
-91.799241302458356 -45.697457438481493 -52.209341536179622
-61.571560302438648 -45.016617245889535 -53.862052731870818
-41.726860535167475 -44.998883096326828 -53.280190511603976
-62.794327579924698 -44.922317195475429 -53.708894376309424
-59.862142523535773 -43.762254925064177 -53.626696322846378
-42.387744413149413 -44.897925452106044 -53.090819538441608
-40.324189183337673 -43.585883538657107 -51.978000932830504
-34.468359072915597 -47.149081649743849 -53.903820618661435
-32.642586422832217 -46.867778755345313 -53.256079659434107
-34.026541100259209 -45.981858522331883 -52.712937213100204
-21.894675735655753 -45.916780212280024 -53.947073883753802
78.380669311051449 -45.472594242716852 -54.171161841461071
82.215623579000365 -45.111756716476627 -55.539368517398280
-32.152502466881963 -44.924857627099790 -54.597381085914677
-28.635133479788323 -45.083104437776335 -54.956863546350952
-16.280413917973213 -45.649957874418476 -55.269842469203454
75.477894362837375 -44.595411475721590 -54.494965811428564
76.879981248422510 -44.513934529855739 -55.910634980690681
78.743018476199580 -46.221001551361979 -53.854556169218583
83.355759770412135 -44.818837075260582 -54.215332841353579
83.979278611285181 -43.290985388960877 -56.448939360671211
85.416595304055235 -44.229466337140636 -53.430683568859422
79.409927620890869 -44.024565948790496 -55.184841081978718
-11.180709636403465 -43.848322232082737 -56.003771260436743
72.935520034470102 -44.484617163981923 -54.480153895513858
74.262267300207299 -44.687223008310724 -57.070863665639173
77.307112792392317 -44.494547128622330 -57.420442972546198
78.712999729770388 -44.718678124833232 -56.444342358155019
86.944496252935224 -43.889413426399763 -54.310896952370683
82.346211802663532 -45.152854923390180 -56.126519884675638
82.904428868546205 -43.779267527846130 -56.284840758117078
82.712973962399175 -43.463919643109705 -54.940545562377274
-10.146351103718374 -45.318957063009073 -55.094188764676794
74.460552462013538 -44.817098865973684 -55.551392501604859
75.268793692322660 -43.763989372118182 -55.769778138532928
85.205475935026101 -44.229353808199548 -57.236957531683963
90.049152076403203 -45.512897369091434 -56.914806191592668
86.479912440666325 -45.764085728239955 -57.716801269246730
87.264637892586606 -44.955922017734700 -56.852667171570019
89.700246036963605 -43.849984945805232 -56.259673591728117
92.085854601625400 -46.049785606810701 -56.958759806857671
90.748455707907780 -45.282939417744238 -55.789268115068403
94.430250724191382 -45.634383138429925 -58.971882887141874
83.136235215125851 -45.047669101754899 -57.643563044745221
84.122490358805493 -45.763838876496123 -57.397155839338915
94.611460411190905 -44.181798142408311 -56.612070605413955
71.402526307548186 -44.876262943172151 -57.147436687247826
84.595459874531073 -44.143971622253034 -58.222225928115364
87.305511198518147 -45.359035450078565 -57.016994640024059
87.337610896504373 -45.854416443947180 -58.166734029598793
87.620279314482190 -45.814811429420772 -58.823172155950090
95.649019618274153 -44.239234473286139 -57.953367068695286
-10.864573592613676 -44.245305865585856 -59.465833226847934
71.161867816074050 -46.270880698355150 -57.692498864771409
83.981576936405659 -45.352247037157667 -57.676770742032048
87.183414625761486 -44.970806227651842 -56.854517901338049
86.771099676307514 -45.832432077694556 -57.103060247033675
89.195491434224294 -45.380680531220314 -58.996898733504040
85.221708151528645 -44.860700794253496 -58.196535738481508
100.791342114248408 -45.688929601589507 -59.135108800849068
84.578562253533775 -44.946131886712124 -60.298014538710490
88.199274508662810 -45.035130588719440 -59.475953576095627
-96.176224891716828 -46.518129574546421 -60.134962020328842
76.445907179520773 -45.877273630391123 -58.333370283099256
80.477174891316167 -45.698310661030725 -59.970992130860736
80.209109363314866 -43.574465720152823 -58.397655273862860
99.856671775745056 -46.196281025961248 -59.763469723689752
78.838268252747923 -45.151978650309786 -58.540288265897274
80.538682511148949 -44.697880817906928 -60.118042269965670
82.682677779896864 -44.871731325085371 -59.630680286688019
100.660456184781552 -43.577285452760258 -60.206912560841708
-97.450490213906079 -44.735995154452652 -59.475661325965014
76.256717162406886 -44.746918620623070 -60.782643602446839
80.333149290708278 -42.681360175530806 -61.583157450211537
91.457724685566859 -44.609562834076414 -61.772565976995097
93.279885397980848 -43.938376051855343 -60.891678485562004
95.618300926343849 -43.616138881079365 -59.379718764374360
96.960251056143335 -47.027654968535934 -61.455854163511141
80.561121388877908 -42.974414925365913 -61.765861337829435
-25.840804974789140 -46.168514148955353 -62.946160082874641
-23.479190459086432 -46.493564887113045 -61.155736234858772
74.928719375734616 -44.252637202549650 -59.856595255474396
76.864682165073290 -44.848695623228238 -61.288908995405791
91.717911551410225 -45.051054578671348 -62.184553855479329
98.855181271137610 -46.288418425543021 -62.076987511213034
-31.353934711717347 -45.665049283371651 -63.249186464027879
85.783870608235915 -46.104436630103478 -61.691509486479973
88.396152853533394 -44.718649535059811 -62.441779575956701
91.380792033943976 -44.142343717777628 -62.869582767285337
94.830436122334845 -46.032421459669315 -63.036484884185619
97.346062297465096 -46.306812409082120 -61.960887877099090
74.467204173686284 -45.550305353662246 -61.884970901420949
90.438292202901565 -45.340920061716048 -62.434989803770542
103.786113595198373 -45.795507708190577 -61.623995860669645
80.746747304244053 -45.773063984963933 -61.844599874145487
83.666375655519332 -46.238375284338154 -63.117931489933198
90.697543085435640 -45.056842654196707 -62.997395634591911
94.740400322346218 -44.579462251933975 -62.405129585400928
101.233613518294931 -46.298500251629143 -63.672601681041527
-34.555087876969345 -45.438697544910269 -62.008851034602259
79.398531329397244 -44.849913357597181 -63.845200904939823
83.851817847492470 -46.136513801617944 -62.927309314681139
86.625778251036920 -44.496582888840244 -62.974902003141878
99.352577877122727 -43.639405975201548 -63.108163125733412
101.745017363622182 -46.237595657623842 -64.689274820287153
76.360693144656622 -45.609192898082604 -63.908452844682088
82.383977432263833 -44.463798557074810 -63.306659721689535
88.319451203379472 -44.354383442397307 -62.578657492034125
81.819343744371480 -45.160950923833788 -63.210791049571505
98.217074965476272 -44.557305544756360 -63.805138117557306
99.489596876582709 -44.618566064286306 -63.321553049352794
72.829313856699599 -44.929467893222380 -63.664123996983122
75.768494881716293 -43.353915554346500 -62.671927427983633
86.458251196678319 -45.713571254051949 -65.400214308358045
99.903918617706239 -43.684571862063002 -63.798146518569354
101.374713192574589 -45.259217114126898 -64.014441277454807
99.668455311493375 -45.974679367751591 -65.425816936976801
103.579280438099886 -44.745673884743255 -66.160230958884000
84.414390767678128 -45.444924155988339 -66.421531906744448
101.563728709689727 -44.559334982852384 -65.914801813850474
72.992095284944156 -44.445356575984768 -64.809125536766530
82.269619237898567 -43.699016363167281 -67.037395880829166
100.365666063621234 -43.171624344252301 -64.771560844649741
76.305446868923909 -45.551003003727601 -65.744228520240327
102.799789504719030 -45.869566444392831 -67.231170282134784
-38.704491146150168 -45.779628648110567 -66.828786049824927
71.371252745211748 -45.485855048356115 -66.026936667533704
74.359697577981947 -44.639900958562691 -65.516755229250236
76.206998697505981 -43.714992044488156 -66.906592418825454
85.865958586764734 -45.299866353207349 -67.904313841984219
-38.264028514802376 -45.164746855331813 -65.923099810900126
80.899980609836575 -46.276121518773870 -69.071348688604786
84.217659546113595 -44.548624487826743 -67.273159971666075
101.298283370336549 -45.265167897609494 -67.758653326477685
-38.242402092404916 -45.929351525209633 -68.156496065581791
73.700807748786744 -44.800172179109218 -68.115115758683231
102.508930772057681 -45.742829743267464 -69.788571089199593
73.558198572931929 -43.667078374621106 -69.013215927000672
83.275329055376488 -45.687274626868884 -68.868141143649467
84.211242367538219 -43.945494038690299 -68.043570171732867
89.030946269985535 -44.370496151518225 -67.215101683239965
81.939412956160425 -43.648167573216078 -69.183692734898656
104.029144718836747 -45.470582699614418 -69.059669636976551
104.072208134116124 -45.518445618062067 -68.448314859831910
71.900864020016115 -44.165068129351290 -69.752423256524608
76.083351011573114 -44.084992618943069 -68.244907212386380
88.876020349323142 -45.444785860614971 -70.492764127749751
102.088313753353077 -45.107693554317912 -69.146725992989474
-37.536491402265639 -46.951619931776122 -69.860577028834598
82.971060933059121 -45.100453887348692 -69.892282735017744
103.621265403974078 -45.329565992823049 -71.937696049497006
72.277201357201633 -44.485849463231737 -71.330404159457700
76.922737122291707 -45.638567553899932 -71.742077192425882
90.595858827627140 -45.389781029312111 -70.850706967293078
83.989395171031902 -44.947740439763976 -72.096435637698519
88.105156618190733 -45.790278476869581 -70.618586893012989
105.429934667061914 -44.970560089340317 -71.926215181720337
73.363983656620064 -44.087905046565652 -73.074225557261343
88.668183525145935 -44.521166972405211 -70.356778109507360
104.134865764313119 -44.692737899745595 -72.815700456551568
78.116324661251625 -44.534818929192468 -73.569484410177978
-40.641227637742652 -45.731784250649874 -72.622778911092823
74.190332599749539 -45.509766571011383 -72.202508650239523
102.429393351637060 -44.730019799039454 -71.838933186533467
76.506582056665863 -44.960710829309164 -73.857883820697339
87.063661158028751 -44.337479679365877 -75.410083523540152
88.958404799771060 -43.657030655750440 -74.119143271001320
90.394430517818662 -43.821031866160546 -73.762552061642282
-40.298135070748948 -44.217414057421720 -75.292122923554018
70.368606171692221 -45.718517444521197 -74.921942899292006
72.802603816695310 -45.174638714995297 -73.509408428070003
76.556605489172540 -45.394682136584535 -73.873755710737854
83.954080352358488 -44.678866702960136 -75.014790865646091
107.288294569756758 -46.219336828665995 -75.007783551768853
79.980944435632253 -45.187885179296025 -75.843916355277202
91.686644214148885 -44.565160905256143 -74.623067978253360
87.284962620587294 -44.571743441729915 -76.245535650907399
89.235999123621696 -44.703811481019471 -76.243384385088802
-101.940587177264050 -45.450683145721008 -76.858508875217652
-43.022165638677905 -45.661256443812462 -76.861937130040317
77.611406998534903 -43.492328668929780 -77.300336049295765
79.557034520007505 -43.670348658593667 -76.483352571911851
107.848147200775898 -43.781284648876834 -76.430240354898501
70.663969469470956 -46.331293329884993 -76.807834980072286
103.000273727408242 -45.362296603428661 -78.045050600460357
-40.842111810767349 -45.090576154956281 -77.076280716806593
73.935423600095973 -44.141438616521249 -75.646397398058426
-41.277464453266397 -43.954908160127076 -76.594678422310096
73.320477564772716 -45.379289069125349 -77.287181576840183
81.699431320305976 -44.648999001878870 -76.073642403935608
86.625063384773981 -45.307625884602238 -77.724308466477822
91.774774637188685 -43.398880354655056 -77.189189467244418
106.072200095115008 -46.635624432982233 -78.297021466307854
-100.404375548003514 -45.818672365913152 -78.175531788754526
104.869045928288699 -43.272728644878399 -77.994254526474421
72.621056834297704 -43.737341078464794 -77.795217012641828
78.999817590258658 -43.289516228300009 -76.093323572950510
-45.366312789722507 -44.854356993192503 -77.821569027351686
77.928938384587212 -43.062270049901144 -78.613248612680465
89.600953717407251 -45.838210337297006 -78.641866853163194
89.900756383305222 -45.143067693922113 -79.179288071812977
107.312972178436155 -44.614292014118170 -77.894696405527370
95.605756725924508 -42.919327771442326 -79.377511927994632
102.713153707248722 -45.492939406573853 -80.454917289088769
72.419438384679552 -45.611588583903064 -78.783701412221887
76.249651894716223 -43.744981613038036 -80.821961246040047
80.336016974190869 -44.663048683326295 -79.095171989720640
88.857577955564807 -43.610066002123304 -78.829883274883898
93.311301071731606 -44.252746851703648 -79.132592479613876
-50.885486584285921 -43.235852662087936 -79.497572699514720
101.975754473000322 -43.794510777955828 -80.233192592338554
-100.870400643663814 -45.735384290163701 -80.321430215467970
-46.424514746799524 -44.290526024122570 -79.242875018045439
105.494231078338359 -45.097293324099589 -79.846642281513141
-53.872056516807817 -44.877834213443776 -80.347171935671071
-55.379061313792114 -44.330183051902893 -80.808822495952441
-51.981656310577932 -46.291121906231211 -82.444415914149431
71.973232582901929 -45.830400396196545 -81.803046512796385
89.508995367041152 -45.381005702245062 -80.712864765699535
-56.393048222735430 -43.789707437514487 -80.144352628770633
-49.901291543377539 -44.317919595336612 -80.000697867844252
-48.635639128602719 -44.353546094493908 -81.303816524469241
74.911799320135529 -44.605800426792207 -80.422916035646779
81.215998158846617 -44.692729475826191 -81.011195806215511
87.962470081282632 -44.084047261033575 -80.053151208711952
91.982332339307760 -46.082922376085349 -81.320904895156346
106.109079734644752 -45.576484479514797 -80.772569890687606
94.069514339370031 -43.734859707319032 -80.933558408831843
-100.821535049636552 -43.990545366603655 -82.499260022235433
104.446910134203705 -43.425755948691965 -81.279716948532169
88.579897590408351 -45.360300794944159 -81.876241677559278
90.450111543645889 -45.183844930178616 -82.696036915863729
-56.631785998559565 -44.740023528807633 -84.356639717048580
78.789221920990741 -43.221657715829373 -83.338582967295778
87.577106818150781 -44.706153533601288 -82.945595543545735
-101.724940668962248 -46.294731005134942 -82.971739145355272
74.740140456454228 -46.007510217938915 -82.498669963782021
88.265596318857774 -44.630375633930591 -82.711873629141820
92.409168316683278 -44.076535415413545 -82.325120872294889
77.149779510155014 -44.798462753170121 -84.038032173601380
82.384774423665419 -45.593257136771932 -83.076987833281223
89.586302325541652 -46.436465744281342 -84.019526458627141
93.466597903633541 -43.648003924622365 -84.464172387237198
105.741453465970864 -43.620221447839036 -84.243827517671676
82.051868756441380 -43.976729642637416 -82.987217371666418
83.591703457421374 -43.583497995573921 -84.178474226157093
88.517839651545657 -44.592334529894451 -86.181397197920873
95.664512552195418 -43.359786561849049 -84.590500288218493
-100.460322066509107 -47.342711719268344 -85.577672491507798
-59.580969659311002 -45.838369401685462 -84.680335595096366
75.746097475858591 -44.258110566697958 -84.598636662108305
103.790940334735637 -46.783881249780002 -86.842567272853387
103.815481213794214 -44.903129517093255 -86.336937964924914
77.650904821636487 -44.099779972171092 -85.346634302256859
84.274968878878923 -44.349410722446230 -85.524359686097242
93.074708972439211 -44.735662640001344 -85.908475186760526
85.726739992104427 -46.186331141018805 -84.371420881496192
96.663718262362679 -44.697158960137457 -87.283254596152887
91.819453372730266 -45.073030877035123 -86.019988082410336
102.401241578259118 -43.323179924537484 -85.052429036774228
74.974997502110497 -45.938199928102264 -87.369891601873050
81.474433829886053 -43.972426656793935 -87.013896632637838
77.841239010254654 -46.161764399510041 -86.011394162230090
82.661573858125323 -46.427778586092764 -87.861929043185583
94.066129918144995 -44.911478717820543 -87.635498009754713
103.366999904098250 -44.463435049369131 -86.889440198299766
78.897920737048807 -44.439694033900750 -88.453890910846738
90.324972727664885 -43.955240269810353 -89.031011052984439
93.803702967088086 -44.493078246162597 -86.328063530219168
106.535202394271550 -45.605496518784250 -88.495847532227188
-60.771220503873842 -45.829023134124689 -89.123504652178539
83.808368981238289 -44.457775635380628 -88.691394672067815
104.697146959817928 -44.901243876884216 -87.833664537079628
96.105103791532983 -44.225572902903231 -87.502550865672845
106.222882014187107 -45.561026418162946 -89.522683228586530
78.749806847222260 -45.486803747543028 -89.823972287511012
82.121983760130888 -44.518154253082038 -89.026365214053314
83.227303518151388 -44.489759002836195 -91.914694763271456
93.006204489673635 -44.540221419260853 -89.539540315403428
96.531692553583724 -45.263454584697108 -90.146303675981144
90.969000930482139 -45.541413710042185 -91.161835960377388
103.346609758982936 -44.684583111519267 -88.826525847997658
76.801443459070001 -46.125684775975031 -90.621564141079915
93.362725363151839 -46.051200242669005 -90.847518378902564
93.340828611278198 -43.460016884484183 -90.398846823870201
104.330307136812607 -44.442666036792218 -90.217700846972761
-101.044466115692785 -44.079535357983104 -90.627914615121625
-63.361954542985394 -45.883402133816510 -91.887219312276812
77.846659072385194 -44.616321811273600 -91.690322130254103
85.294976685123032 -44.116756323859242 -91.665775053021818
76.472232379224891 -45.517645934941257 -91.594716833459259
94.758895117878453 -43.622682208411540 -92.754054209803840
103.903702316922278 -44.527572113128329 -92.311457290771770
104.221133912283634 -43.978515929029314 -91.614729352731260
84.244454212311041 -45.039479689135305 -91.897317009140295
81.269078512306763 -45.400281375959437 -92.476773456159790
86.163426483284638 -43.539060680137446 -92.923554114770141
94.951021796822388 -46.042607203306446 -91.045313812312259
104.596920211720132 -44.101208935859418 -93.344884980063412
106.385845662746050 -44.405291917533894 -91.481654233870543
84.427134084441718 -45.693116537530052 -92.803556480683838
91.432576405819859 -45.412204049289336 -93.678035457900535
94.293003616323929 -45.334980827193931 -94.754235410868617
96.513102845490067 -44.284074525878360 -93.429625135680112
102.164639741753987 -44.820578275343586 -91.974104558039144
79.869371225345162 -46.175714399877414 -93.437488313178818
99.902306540286574 -44.844668783433221 -93.522802308301578
-64.955292193018309 -44.951073230951813 -93.800494030421845
86.215773456732506 -43.435370914413980 -93.904085664631850
99.770035098237713 -45.851091036028265 -94.062314706402859
103.011963220916527 -44.801944948215279 -93.684286176081017
104.686705084770637 -45.266271456752690 -94.488951894982904
79.780185508975151 -44.097007549382170 -94.254268650843997
86.952886997289326 -44.774670112985405 -95.914399359391567
91.525818724291668 -43.850841652927151 -92.606320576944555
99.237861835884374 -45.159441735695438 -93.706722280898830
86.322848291810715 -43.312503828469822 -94.061932317467409
91.514821606836691 -45.278720938998873 -94.894463371648371
99.380844967216049 -44.706936203132628 -94.371346149436647
101.792754010553026 -44.610771422616153 -94.323087274225699
104.340343740161615 -44.104973346225499 -96.024814117634619
-66.498560667994553 -44.863815757209380 -95.043304930098216
77.645630044909154 -46.414892747865331 -95.979587976798683
86.183058685160617 -44.234873292127439 -95.898307528275581
93.848448777684979 -45.337332052454009 -95.173457661899363
101.803027551601019 -46.215752109830618 -96.532131628186917
102.264333934330779 -44.842963991830189 -96.132961997348715
105.179365224601597 -45.972666167075054 -96.412390386275703
94.300549736310145 -46.056746263906170 -95.847076966475328
98.933495876376000 -44.385922156411766 -96.798949623531954
104.108013377245300 -45.226776166222443 -94.485981334154076
-67.659464352503264 -44.635795647587400 -97.150517269617040
80.193661250658380 -43.287037850778511 -97.629625691303218
95.526976405208018 -44.436690857689591 -96.676505534394892
93.606651163917704 -45.506823367880095 -96.993697598173100
99.478891397701616 -44.106674635403046 -97.107635275410615
103.195065736907807 -44.086560587702230 -97.307451622681285
86.208192883696640 -43.505377308219700 -98.840747425911346
96.244532028264373 -43.290952451797644 -97.950400441406899
99.036457925748337 -45.775870583838660 -96.681907860623269
104.716557822569499 -46.243244174470121 -97.243027717810563
104.768847677236423 -45.470741487969640 -98.363633025285040
80.690460817316378 -45.532177425926697 -98.869866418088165
82.650259945947141 -44.605234091745565 -97.093313259259332
102.134043455445834 -44.148951762884998 -96.715795261898108
93.969941300807037 -45.472207556106468 -97.170844488333003
99.451244771420846 -42.704955472867013 -98.428065852064094
85.572577417515745 -44.920098660970559 -99.082058966615065
96.323607524940599 -44.754220766709849 -98.809449541184932
80.862742514929423 -44.101286488790727 -97.889048055217827
99.639044014492754 -45.313733502667816 -101.225132403828027
92.151496154163979 -45.263934030106000 -100.586887669290491
81.493172121728122 -45.856506788206467 -101.017749601122418
92.961984790562965 -43.897945215684480 -99.254295450714167
102.992475203772130 -47.822161214325156 -100.182977968288895
-72.307953265708917 -43.743395694696716 -101.541099741127184
85.906138896856831 -45.844792074546412 -99.908754856081146
98.745681406048362 -43.677986046904110 -101.846949860699553
97.742628779743143 -43.068972097014495 -102.626574740029398
79.852811680486724 -44.833491951363698 -102.693953304271673
-72.575487501725505 -46.019233770004277 -101.787929711077865
96.948422872816380 -45.281860000134046 -102.623673858639748
95.376650301434026 -45.679682628555973 -101.922638208311369
103.572963902835170 -47.181301660233913 -102.688721308478094
-74.446391343980565 -44.841169711592926 -103.041966852930827
79.655735674772231 -46.273319836996180 -104.670826843915023
82.237017348457073 -46.121794850771785 -103.579674147872339
93.351030824515789 -44.588427472718685 -103.538423890894251
95.549039519367355 -46.444844292857958 -104.218118271568784
-76.482445872437509 -44.338378179129300 -103.494203219188535
94.858052616941947 -44.613228033218100 -105.827710816423206
-98.067018018673821 -44.723475212450779 -104.393285398740616
100.304756455100076 -46.713688068343821 -104.564487564022471
-77.009681860878047 -46.351983057538327 -104.335422440486823
85.185149471907138 -43.381119426733520 -104.466799162406417
88.689776104801965 -46.491985058885149 -103.898889574957408
95.276315125817021 -45.178493568422262 -102.552144011944648
96.717206590090797 -45.885646258279458 -105.037945264124374
-79.391715127604968 -45.101082885377593 -104.763392353620588
83.172702279036272 -44.634903461904187 -104.397945044055945
93.599283286104523 -46.034172925397300 -105.888158958357806
-79.237631393017381 -45.730257742520351 -105.571990332471259
88.661208469562084 -45.214598416400101 -106.001341528593656
100.169329656819301 -43.727923875301961 -106.445838199510732
-80.211319368728084 -44.493348995263027 -106.011741196472812
85.201614278281113 -44.766772183978702 -106.904078570777259
88.696379662240858 -44.326628446062848 -108.738091672374765
94.199364174436596 -44.558973616795576 -107.141297294638065
99.154961943451710 -46.043117591365210 -105.777271393311594
93.295595322764171 -43.988651809984752 -108.254919846858911
-82.643047644902026 -45.604657910221604 -107.783849275094553
98.014030633858937 -45.737409039199832 -107.597376556784312
86.559788060564102 -45.889879272220469 -109.172694075357214
89.535690337607065 -45.858783186139100 -108.586909415457299
-82.994790585194124 -44.576504248288053 -109.353956928920866
88.612333677533144 -44.731671435913100 -109.329894006406860
91.629787926928572 -46.012968431707648 -109.605345824203113
94.683351812454816 -44.222292856805481 -111.207074029637894
97.619227690980949 -44.077122072065983 -110.803794476427655
95.821244216824155 -45.800927228615386 -110.690498455446615
78.945712429277393 -45.441450101105254 -111.668028986664211
91.871328075389783 -45.029686266767897 -111.628882409910446
83.055582669118948 -44.023622322826213 -111.953378578389433
85.611170077912888 -45.093722512933127 -111.555292064917239
-95.397965771198017 -44.217515175248245 -111.484325209510331
80.185406331907231 -45.909074842615951 -112.270812470740466
84.461711219525426 -44.709755702717956 -113.907269724889190
79.901831045547823 -43.537615038056543 -111.710725783066380
84.034063788937857 -44.751752442518296 -112.399926991394040
83.601801911053357 -46.881752368098752 -114.277642538771715
86.693343695313288 -44.436353072112283 -111.993025368725441
91.469535199749146 -43.882927775316169 -112.626277774986931
92.906401416741772 -44.229285024921843 -113.590533664653307
93.101545447438070 -44.177302116183974 -113.571207092162894
85.584428231777508 -44.860216873949547 -113.072467221284001
87.262375236616606 -45.748738726212373 -112.829671206601247
90.456480683154695 -45.671315244248362 -114.898283401122285
-95.372452488121084 -46.958687193006199 -114.875725860722255
-94.373396936056551 -43.391611363564792 -114.345673225608579
-86.974191731141502 -45.032340842830756 -114.592079126778074
-92.977531809373076 -45.535025048910789 -115.168028185215093
-88.233300979091965 -44.919254755469105 -114.426657842044349
-92.256442292440923 -44.394400747818580 -119.169012884062880
-78.119014205276116 -44.845758110162002 -46.240552222595802
-79.797906614987923 -44.122238915804395 -46.498428411319338
-76.832265489806559 -40.897869124925322 -47.928214985774567
-62.094630696510386 -43.151580484060780 -46.400506059290791
-83.622772403712887 -44.475480017307405 -46.545958120199728
-63.925036002129794 -44.206207903990403 -48.243570797719308
-63.344807777492342 -43.376686436469392 -49.456974958790482
-56.677984287360132 -44.098571044922629 -49.617275171997797
-58.802262278419278 -43.113961555116617 -47.966929999603593
-51.617356995205441 -44.260524882314307 -49.556588793784222
-59.644672337088025 -43.206994043025254 -49.418580522398699
-62.140910948374170 -44.524183991277155 -53.463284427476218
-61.374914814076533 -44.610032086142596 -51.941233845437047
-49.752312089715105 -43.283922879748651 -49.769363414550703
-48.841606621400821 -42.860665992263783 -51.135179134878555
-46.843342195612152 -44.004074126254679 -51.701134212507540
-62.428765407454982 -44.567754708006952 -52.358331656222873
-92.925230891710996 -42.745211694595149 -52.990843924375689
-44.364165467791864 -42.315537350002209 -54.271903495375653
-93.632029855473618 -42.711835109882159 -53.980997561012430
-41.965713677919091 -43.517729626060735 -54.734144666126980
82.403130675684409 -44.415392958749422 -55.058387759666232
-37.463126641634524 -43.845097377501759 -54.729442018952810
-29.247285439930881 -44.123909381255345 -55.959279763942888
82.431197593324370 -44.891832773440044 -53.678516724108754
-34.795938771873516 -43.749536809246862 -55.624464320853733
-26.583087337327488 -43.454177681279411 -54.814988522766797
-12.347812538320600 -44.145024396903231 -55.087267994618628
82.284405428059301 -44.623553629712163 -54.716494437712527
85.171860472789433 -43.716608914558755 -54.605953286703269
86.935662270633586 -44.179864799193204 -56.752268837583983
-95.576286223081453 -43.237903222576463 -55.156995354081950
-24.287161314029980 -44.276516779120911 -55.447961389601090
-11.052688444570189 -43.081464051409668 -54.589320540738747
85.650076069059693 -44.428624765989156 -56.821050310982059
89.580395244928837 -43.846237020689287 -54.391145483256032
-10.913681778584952 -45.177424034516228 -55.487088432773675
85.167172083855732 -44.714213594487425 -54.695422803400760
87.981179275775517 -43.757323379054291 -54.644441162498183
-94.312361134533191 -44.056609768235113 -56.161001753392050
93.443260016323606 -44.390882833722110 -57.415616031656576
83.518659091043631 -44.096502546766267 -55.692095050141852
94.058564495480923 -45.196607230062057 -57.545278819391591
96.537107062548827 -43.502078878813833 -55.535086748542305
84.793798583262259 -44.210871198215415 -55.986234679110304
85.497635456297971 -42.360707514160829 -58.321802437470737
90.167266177357746 -43.742845826759478 -57.784818518148562
95.234708055516819 -42.345322350974776 -56.748114851551669
97.758824802366661 -43.972402994979198 -57.517132296690768
89.493910933538203 -43.529361113314934 -56.932000422270889
88.847949419837690 -41.809002782684956 -57.433996936061590
90.994464711222449 -43.107080870203454 -57.338233947098203
92.864538708327544 -43.766724517022965 -57.775401922905949
93.746923673372379 -43.902378613167997 -56.970565463573848
98.668548207883262 -44.114342213139984 -56.611244583045270
-8.948499143785890 -44.962009949909195 -58.707820082092319
85.022362152541874 -42.859011190636700 -58.922649733820975
-95.194280205739247 -43.360342988086778 -59.014551000492915
86.162972353659711 -44.806051300992820 -58.387629941857398
96.277269496190300 -42.315695725116825 -58.136972476770104
96.078038274115627 -44.137413776671231 -58.462561653037930
-10.927907467646403 -43.671208420048728 -58.433334397534125
98.767834832776344 -45.071036159099812 -59.622509221834576
95.853070742898140 -44.707653670528195 -58.951982190637892
98.078772930446604 -44.069988601015055 -59.983806270402468
-15.117607444764833 -43.981168093288211 -57.991454000970016
101.011836851335445 -43.114401964332011 -59.863074976306507
101.571692592962663 -44.983794009717009 -59.784438469030846
-97.785260226272953 -43.884717543695274 -60.942176621882794
-22.206621784146037 -43.982829898002876 -61.315020176450837
-19.889826811230442 -43.624108476761485 -60.012850116911444
99.074950099110154 -43.495958348890568 -61.258018749764958
101.776629999235666 -43.564837040947836 -60.580947435756833
80.447230911396176 -45.237632122370549 -61.731466117895224
93.507741551551362 -43.349230296109845 -60.910120785947164
93.325783975606996 -43.144939561787915 -59.819242581442602
99.451769889569647 -42.843230690842098 -62.368539700296502
-99.136659005864800 -42.611118775238516 -62.330828545362841
-30.254706476230538 -44.541070438679562 -61.645452534110490
-26.509972144672858 -44.925895937234408 -62.577926831576633
-24.728093207731472 -43.556997794663729 -61.875010192881184
78.629755484431612 -43.985569942052855 -61.445236145351124
80.714483118683603 -44.367737289327280 -61.671012204876313
82.425868341953731 -44.945348598140590 -61.721658347434541
101.016079730515017 -43.746191778059320 -62.179274141393442
102.253550625433675 -45.207854548848040 -60.789823140808416
-33.462328895849218 -43.601708489812431 -62.483290321815268
86.126881786346914 -44.221330571646149 -62.584760441159787
89.170481201304653 -44.661410025260103 -60.516295874774293
89.738321775437569 -43.551884190069757 -61.525888385276858
85.319740226049390 -43.543479568586818 -61.881421364953987
94.259963996028773 -42.348374937789252 -63.735621615305000
83.246453471147163 -44.622205263789652 -61.432144037786195
90.128169637610782 -43.678189008104965 -63.451795553609742
92.164822058106139 -43.685664064232057 -63.486210707637504
92.141146996227988 -43.276034548475572 -64.379743065387459
95.060253514854026 -43.672440365205695 -63.139873678676373
102.885775579559450 -43.870534778733592 -62.033070727266981
78.901205395630484 -42.654738404751228 -63.015505435745709
86.328729545702117 -43.865688303966806 -63.341578035147634
92.274007323914830 -42.706196433926259 -62.521056013522269
-99.488372426022949 -43.454872548930446 -64.180307297850405
82.951018214495235 -44.555258352934104 -64.301421114524061
85.901278148816488 -44.423887638718554 -64.344515138547692
95.352652005937202 -42.806244494538667 -64.471633727776677
96.055615228265907 -44.597349462829172 -63.462774493193521
88.927518856227621 -44.595445562417787 -63.213017562855256
91.558741734269432 -44.221712170028212 -64.528666128604414
91.990843828904616 -43.314159895131219 -62.906701302664445
98.385899936125554 -44.401375247684378 -64.647523977329854
97.392389820516868 -45.890337751175672 -64.106887209740378
80.123406699247667 -44.609305223944169 -65.539450072859665
82.993808930471715 -43.489903626646047 -64.194424521048305
81.723609308997240 -43.059546690433031 -66.221234627103797
83.860213678818823 -45.609958264665316 -64.908802837982449
88.041463979093365 -47.376020568488919 -64.972103763212544
89.647287062567202 -45.754546221130106 -65.723925580193125
92.788081554817495 -44.518250618820453 -65.617607256838326
98.186115427662514 -43.822677833975455 -66.548017495908283
103.571031598665641 -45.233508311098092 -63.534399312870313
-37.630088307872946 -45.345960373761216 -66.586597769034327
94.051636558698007 -44.741172246554108 -65.813348378533902
97.906983804668869 -44.718447832708662 -65.392004984521932
82.951879814650937 -44.492984120068435 -66.291908346830880
84.904698251678411 -42.430915427977553 -64.821136026208350
102.599056047462597 -42.388203819587531 -66.463111361102889
79.394376575422797 -44.495859552964745 -64.809907201414461
104.328140414475243 -43.868396260139590 -66.478416546407203
-98.728809657626599 -43.479435090299113 -64.926911590882696
90.227339882050302 -44.944953825345486 -65.796241336367729
90.721833295871676 -43.745345902311776 -67.512450215848062
80.063718967841567 -43.843117639230087 -66.609845428567851
97.223290391835164 -43.648380603299486 -67.443152257796470
100.045441109114847 -43.058559964085362 -66.208032812235942
84.576664337685642 -43.320531394287720 -67.692651108236348
85.077858961252687 -41.075955770210186 -66.860795182509392
90.539425374427921 -44.394602738077879 -67.595259327003205
94.844263494026009 -43.282982437802652 -66.920881650834389
100.919698879564322 -44.548720943725094 -67.553037953652677
103.041155029712399 -44.229202682531245 -66.880486130619332
97.136570747755840 -44.238761985813795 -66.730645393345696
78.348295353009050 -44.934489508731659 -66.582349767333810
90.247490557921878 -44.131854842780648 -69.820910793448320
99.469718077334733 -42.507344291790425 -65.826087065509270
104.948803565091481 -45.334984785845890 -68.093582256981009
80.733972777483089 -44.207258091599897 -67.604086607472780
85.996294694730196 -44.354545509062923 -69.031677046939919
97.042506763409520 -43.353119668224458 -67.811174050392069
106.352895888842141 -44.731849989915062 -68.412573651078446
81.077701850356419 -45.044702679773060 -68.400945355297253
92.179537197493900 -41.959733777634462 -69.208737713755482
100.671506990792608 -43.342533101903349 -69.717180655311452
92.107381249794685 -44.762153062068208 -68.692789757817465
81.528715854891502 -43.944628730788111 -70.215440732458461
84.752984990506107 -43.963831907534534 -68.312224017674168
90.872041446568943 -44.829324242392310 -68.260757573460396
93.107833199666615 -43.471829487916203 -70.550974227295512
99.487106757153569 -42.885462502875150 -68.750700732560404
102.302927499796496 -44.007838693346983 -70.981672702406669
103.902610594846223 -44.539573441852959 -68.865178506599406
79.238993781952573 -44.147437981416132 -69.106763521713034
104.581505691242725 -44.824288589917920 -68.810377259962351
-40.063541701718286 -45.002780844368097 -71.278360504024562
84.059605230917654 -44.888063196586671 -69.821841943604355
91.641825059455542 -44.798503011485707 -70.721422847584947
95.714702160868143 -43.868872350621785 -69.895486306223148
96.443521404415819 -43.290888951287194 -71.517223396297013
101.557422494790572 -44.398688225630856 -70.822537026703372
91.618321794920377 -43.033496413347230 -69.195071621402604
102.808993308396751 -43.317388351439611 -70.268091930610510
106.753315757215901 -43.681769315667040 -72.111406317655138
79.500370980858378 -44.548728466641563 -72.802171394397320
83.226301772089926 -43.088014061762770 -71.796956200588369
92.085974901893806 -45.604146188098525 -72.677312742083288
86.782501465019493 -44.324744405387158 -73.189437329145420
92.048680590209472 -43.643307741291125 -73.233240916933937
99.740362813145225 -44.421548328427761 -72.198141932591014
79.690216185637183 -45.857507565885697 -73.015125914001771
103.177012407457497 -43.435280409397073 -72.634905862641531
-39.993466788703643 -44.254900855720805 -75.073442767635925
95.365701833407684 -44.137902344961987 -72.058219835265376
104.096418315998633 -42.913978762512315 -73.040390092661525
105.844379016315699 -44.495950036796970 -73.908178150178387
92.229543416408561 -43.838797119642074 -74.872372442690761
101.023277257274188 -42.902738414090820 -74.036214054873895
-99.284126388597471 -45.183103453279372 -73.277859570180141
80.647910189374059 -43.083194174167971 -74.180639483436977
86.208012630831320 -42.182510288067768 -74.641645472734979
100.378134341947160 -44.114441355419764 -73.961961116358580
94.800654993677782 -43.824098209560169 -73.560080957373387
99.757825244720237 -42.569663726653324 -74.974133165896220
102.892276442342421 -45.302406505875950 -73.670656888841748
84.496228097621781 -45.347916556672601 -75.223765433852705
88.648967339367118 -44.539571924926143 -75.105921077045537
103.179756627677548 -43.670649524341883 -71.521733593361262
105.494513836373045 -42.786897729423480 -74.316621863344395
79.839543840630668 -43.999381180597659 -76.015467860351905
102.535354969932399 -44.278631765559382 -75.361859103155652
-100.498322513018437 -42.688058980720619 -76.086903917847877
-39.587155989797012 -46.206563969752473 -74.817951406143891
84.168818597611818 -42.316329912982518 -74.661533975731629
103.000020362481266 -44.657199843275414 -76.355587279647850
84.873629753239157 -44.575434366456641 -75.163219308704626
92.417111510951884 -42.745656276418089 -75.770076722699258
100.592442510450823 -44.005344189087133 -76.159067111584207
103.455015882372436 -45.267351128310693 -76.158722572016345
104.058525435098076 -43.598025725108634 -76.633289819041110
-41.605319047863269 -43.642768735246399 -77.419569996202114
103.438533065323057 -44.559948188200018 -75.919955070066493
99.084794391885509 -43.271331293273043 -77.599470110744974
83.869475396628999 -44.232487954544069 -78.211420268402307
94.977320697285137 -44.691926048502665 -78.711928600478203
100.485993323963527 -43.577197706503640 -77.238314222410452
101.658956689872554 -44.273517662746137 -78.698414525368676
104.793858172704304 -43.617342635206157 -75.358571405171404
105.939696765909801 -41.678094359314649 -77.514950704122157
85.444490045582981 -43.643968355269429 -79.090753625214447
-53.954503214438461 -44.146489177886934 -77.583456324158135
83.419103312970151 -43.459812801562514 -79.476088318451573
88.339713530767639 -43.519632170891946 -79.081768645244878
98.765641624010001 -43.890166454547682 -78.735220131259410
104.284651879323377 -46.323602633006118 -79.968636630253101
102.523203575036334 -44.714779873077035 -78.403366203534688
103.900345982713162 -43.966262269723927 -78.695745946846515
106.442108990930024 -43.335503063419068 -78.914563290852655
104.793516302764715 -43.383229766561826 -79.916452983737926
-55.378259896387306 -44.900823791832089 -79.033981021002361
-53.692970575398697 -43.549057353073366 -79.697026449765801
-53.952375350071726 -43.135371994839666 -79.157333470092809
-49.526925959170782 -42.387969197123759 -78.717897147593092
-45.807085005574855 -45.056716844955290 -77.923551408190477
87.365196832480194 -45.422104043892411 -79.451516012985849
100.541709057248880 -42.160023114824448 -77.379717251854018
103.191009180168919 -43.645665534381337 -80.576581013930593
-55.327162707840365 -44.140592851208432 -81.137123104692677
83.555570031464597 -44.317800277070162 -80.565019125428719
87.898127324274810 -42.887254757953379 -79.733431066863119
101.869939975138607 -44.515722841775869 -80.133513154844181
101.759499060828091 -44.798024299557760 -80.192107409044795
103.437745517271281 -42.961183115593784 -80.400827404216798
-49.728691525438819 -43.587996868431027 -80.606290736862931
-47.224845042361466 -42.635147274184817 -80.878603163414283
96.909993647960121 -44.682109300402381 -80.785370522935310
81.775251045328389 -46.351307489896328 -80.820889333641929
83.520432902649972 -42.287665249313257 -82.549914028111658
103.616869028122750 -42.875160174355713 -81.414320486191713
105.627120221183688 -44.468279599033878 -80.532036003866693
87.329128181527096 -43.617318960483892 -81.006399318134385
89.640199892637284 -43.515857897756810 -81.393936353536546
99.218443392921500 -43.285223519408568 -81.232907352906707
101.722630660891781 -44.087848791978836 -80.866927112547657
102.909241710132704 -43.056855434800951 -81.126996356972754
103.227215437764130 -45.623441056961354 -80.903078132693665
-55.602862026158100 -44.270925449824233 -82.454310601141614
105.128373980664037 -44.803150379706970 -81.600236206976305
103.819247395844712 -42.273415088943622 -81.770759802602996
105.029099430589227 -44.849946123293527 -81.910070788737144
83.750360655215388 -43.803065426353577 -83.602144151460863
-102.106289476197318 -43.792257605764156 -84.285418356689732
97.219946604420585 -42.329714433711011 -83.533069520826871
102.905947682941147 -44.059693697053177 -84.472580888103181
102.887771290272525 -43.388318632856496 -82.133576894804634
87.343519981147296 -44.746242136201445 -84.425338124371919
90.755040159229253 -44.974926857368423 -83.114824694485236
101.893632737466277 -44.249825702216263 -82.942037945135269
103.178431336398205 -42.729507048822235 -83.946235906265741
103.333283238402231 -44.313366232782982 -81.895082353713804
104.510229157923064 -43.042264196257975 -81.228409456268949
103.439386973120008 -42.848475995663051 -82.764335726703862
102.070710799488424 -43.551639057923751 -81.737238509158601
105.102156846221618 -43.650086083020234 -84.015521470278969
106.744797372586561 -42.271494787642254 -84.657138156749994
88.751647444940048 -43.174933404459452 -81.973441259065297
102.180123953169101 -44.748806569020623 -84.169229496678142
104.120045339519379 -46.502709480027782 -83.357249509534782
103.583643589641852 -43.106516592122134 -83.194371427954195
108.395075998395725 -43.700000145040995 -84.999706581488198
83.887658531488228 -44.211697393584117 -84.845840511150570
96.281342277856766 -42.442259549991775 -84.217260907879805
102.945969819760279 -44.581896505505284 -82.729180664383108
102.269914030701088 -45.141093313674951 -83.840165512397519
105.630489491245555 -41.987370428268918 -83.952932467043283
102.847259212763689 -45.527776802967686 -84.492845393213940
104.064404482548241 -44.664069865302380 -84.287430055888393
96.281080311824084 -43.573088458092109 -84.709246017682716
98.985694674790594 -43.953332867144091 -85.511305991922356
100.081570098317187 -44.090700060297046 -82.057221716363557
103.245858255183649 -43.950831645734375 -85.641756962272865
-101.299795868288470 -43.176432089516084 -84.306123979861312
87.030138081157077 -43.291895262855178 -84.967088909340859
89.069873999076421 -41.652426163001856 -84.965949505127966
90.883827217867534 -43.437822771200750 -85.754330055110685
105.348437265513681 -45.040137291932830 -86.192724780979106
106.383855991959635 -43.988548761385722 -85.931858834423011
103.376802432623549 -43.994331783795971 -86.075488537029329
87.808858017463407 -45.300873461537840 -86.868688219526049
97.384605274142331 -43.037452177557505 -86.782243382095842
101.787694671444783 -43.913903399771101 -87.200443924045913
-100.938969018725501 -44.778080719487846 -87.868437859163507
-57.812746998210166 -44.542892038580703 -88.407637811580656
90.276613598176667 -44.249704816576056 -86.977772711050747
84.771525259365362 -44.745859467730547 -88.030095562365361
101.698379507634968 -44.275232119794744 -85.392772870063425
106.333299533787581 -43.776197396951126 -87.297666481606626
-100.925920498184865 -42.948707115490478 -88.393377672148674
87.589808459514003 -43.323555045774953 -86.646410399938446
93.038687197894404 -44.097781644648968 -87.404617677124776
94.806802770964609 -44.912927385436952 -88.702739951588512
107.150153939388346 -43.680482483930867 -88.948453400908406
91.274268089523318 -43.691863743704239 -89.113846113155034
98.278839211646854 -43.877606428634714 -87.635191007090313
99.520999033241480 -42.761430956705766 -89.354094721775496
103.546728154748550 -44.177252318449504 -89.810443416067073
106.667289746488905 -44.438497012955949 -89.991191108509128
89.193618012818604 -42.980424834721738 -88.409273894286443
93.329140515245001 -43.716277615390197 -90.583284236281457
97.811810265927448 -45.427108942762686 -89.767268737384526
106.645438093511061 -45.699200141185685 -89.712235646437776
-60.951683693799815 -44.007283523054674 -89.223189411995264
-60.059104404469061 -42.798082364697159 -91.834244234297785
90.679767538866429 -43.665605055010268 -87.990282967519562
99.770342929782885 -42.259766193175786 -88.814488796206675
-99.764216659515995 -44.709275156195432 -89.892062681026871
88.011622309221210 -44.613995625569160 -91.015153720816940
90.692287310901392 -43.004879162283480 -91.167794130128414
99.620558453989489 -45.460975692525345 -91.223956289269807
100.571571310880884 -43.914216686718660 -91.268634612760408
102.507054389581342 -43.119543409666520 -91.423811264643803
87.178043059569802 -44.202185693649064 -90.513481049855471
-99.777475157178515 -43.335083488787397 -91.329020052598452
102.056520989183042 -42.102497237245665 -90.489732814245698
104.876034567523078 -43.911854939352359 -90.558182409476245
105.780323147279589 -44.620277590535871 -91.613947201533065
100.153518516255360 -44.622397621981051 -90.507492440662304
102.271440239120167 -41.591558327341453 -89.295025213217968
-64.455422422742458 -44.243830391241524 -93.669520167336998
88.723774918068102 -45.044001626133145 -91.532166802625440
92.488088963928334 -43.364823594606015 -91.747612471153985
104.710921716486979 -42.521969950264229 -91.972322181212249
90.155776062753716 -43.440232867841281 -93.014721242625470
99.774615511617512 -44.456373245616859 -93.290141688104441
99.532457738996442 -44.216336568029867 -92.450717449098718
105.444126475337001 -43.463290846229242 -95.346935737199303
103.246912918341934 -43.686470479862585 -91.727579726812209
105.141681938930247 -44.173643661403403 -94.871356722454195
-64.340233480416444 -43.316111235877912 -95.156262445831061
99.311918628121106 -43.523221927275330 -93.649218164547818
89.779034700063434 -43.823543549774840 -94.273721342914868
93.228508469212230 -44.223678590397995 -94.403187184133202
106.664031143888963 -45.726528481145792 -95.132314964708655
93.050900380740586 -42.567231658102472 -94.824174349823025
103.828934601450428 -44.521987723846536 -95.492029730146882
104.389926804340135 -43.648213218409282 -96.257999791627256
89.233721448601173 -45.140467472073922 -97.389666152963642
94.231719884662638 -44.795216515250999 -96.643426894732642
92.027208298547379 -44.189565493054808 -95.504921616826778
95.412560355453522 -42.555119340554526 -96.103542117764988
105.428571337349069 -44.218240696844120 -95.949283293874743
106.006674433667882 -44.448101816502003 -96.754627160368827
105.808010755639387 -44.396048595469040 -97.443582813188556
-99.740751560601709 -43.459874948542840 -96.647274668718737
92.322613596711037 -43.129948215752265 -96.330211811032839
95.032366939475267 -44.982106762044083 -98.582909589280945
103.668308107617008 -42.803059215388586 -96.528988152711676
100.683407374683412 -45.287319410334121 -97.470308985098470
104.376067793933686 -43.989179917969970 -98.741672455199492
91.585510290944626 -44.812995705505010 -97.549509683158377
