# This PCD file was generated using the MATLAB® pcwrite function
# from Computer Vision Toolbox®.
# .PCD v.7 - Point Cloud Data file format
VERSION .7
FIELDS x y z
SIZE 8 8 8
TYPE F F F
COUNT 1 1 1
WIDTH 789
HEIGHT 1
VIEWPOINT 0 0 0 1 0 0 0
POINTS 789
DATA ascii
3.902959049872715 -76.611504137633275 -243.525924181212588
9.429091488756246 -76.023704787864503 -243.896985151173880
-34.403219302958938 -77.129734271141913 -243.735536419344783
6.078678876670069 -76.114220565367489 -244.055794202643455
8.697558794004465 -76.167489863668891 -243.775993716893083
-61.095941515417273 -75.786009922853722 -244.605351396325801
-35.899324374917491 -76.492160693274130 -245.634009800999564
5.759290849934675 -77.784414820251143 -244.572053598340688
8.932135161939636 -76.284408619592980 -244.219629386844673
20.485519904328388 -76.488269766839181 -243.348934933578761
21.510700519812069 -76.565545224802051 -244.854477934599345
-40.346789073194572 -76.247169770061191 -245.503411618786629
-39.182643395441495 -77.149602937634199 -245.266216676523925
4.660765764129441 -76.654008100208699 -244.491418946168693
22.616956900749134 -76.436779279867054 -245.154842454523816
-64.036690782540759 -75.766116215207532 -244.927664003025029
-41.341805984673385 -76.763867748763445 -246.555709862842434
-64.825361506375572 -75.857017029807878 -245.741578712646742
-41.888386845342680 -76.539413731726953 -246.385548427852825
-0.058282088099380 -76.035488974808771 -245.439283326215872
20.130417963511462 -75.773336632729041 -245.678177123324190
-149.414183244012037 -76.275368921017332 -246.349077484619045
-146.047682626689152 -76.169922131705377 -246.478166282004224
-44.431681187917860 -76.839921974087503 -245.759986425412848
-48.203672581646110 -76.822648029979234 -247.004422346923747
-2.742774501873989 -76.945302203292258 -246.361317489876768
13.177913304326509 -76.383839170435493 -246.652021971398909
21.322302775401607 -76.326367073892541 -247.109436092558582
-149.614958228187845 -76.898649692657685 -247.516549157510951
-68.405609594299534 -75.234328821496476 -246.759498199194780
-4.658939784169213 -76.344052647959046 -245.964190917526054
-146.724323739439114 -76.893980516884866 -247.727535304626514
-69.704316397707515 -75.910278051224211 -247.504385408750920
-51.334574147157781 -76.712097568303975 -248.186682372911520
20.844211008849452 -76.233584990976055 -247.324195788314313
22.173263633866281 -76.890858592705527 -248.189508371275338
-72.640280952661783 -76.263684269369051 -248.278592275511670
-70.539720134485520 -76.459377412712996 -247.186726761039779
-6.464871673246550 -77.628748312236340 -247.767270408169310
-149.828588492565672 -76.469405164912885 -248.590480361909727
-56.727774467758245 -76.739466871292962 -248.147919958649481
-56.213062617351270 -76.654596457209152 -248.309840890125486
-6.787637966506469 -77.394052451186056 -248.970972715280311
-75.395729032606411 -76.006354922457817 -249.643792638415022
-71.728173520282922 -76.689171197145015 -248.663967365632828
-69.826437350421543 -77.417290746910453 -249.128691619842300
-67.290910544420200 -76.549931526530628 -249.712719830287682
-147.132204303813211 -76.380523655898841 -249.862181224603461
-7.710951716646384 -76.859767631722988 -249.759343749451688
-75.105039156249831 -75.825194452682595 -250.262815752199401
-66.867128760188990 -77.201883392068638 -250.192452723583926
-64.667577839693777 -75.415917861774574 -250.656503098134920
-62.583722999001019 -76.696660479809267 -250.489355830208268
-70.615330018548320 -77.066380886547677 -251.146531205782793
-68.976038719062430 -76.706599087049369 -250.684429488935308
-66.637028756512606 -76.339561124008881 -250.281486522926457
-65.253435977540676 -75.782505617104931 -250.752190973622447
-74.866895160865681 -76.208059601048760 -251.204078681611946
-69.245267148660133 -76.377066338560809 -250.158943073304386
-149.880541354106100 -76.501623181043257 -251.516819652482127
-72.724782341264557 -74.448404890367385 -251.294678967983089
17.871786337933422 -76.478349273761623 -251.461998524528241
-147.518203401686492 -76.938524109370562 -251.929290472567004
-150.931515916460341 -76.453981912487862 -253.008599402002659
-11.841494430303856 -75.809232602559433 -252.896571044076950
18.700587224707572 -76.947256075385383 -253.005193230568835
-12.578198370427376 -77.018418383505406 -254.632401538103437
19.515161625571064 -76.448861955721341 -254.748341974435959
-11.908939157873739 -75.994162145337043 -256.045864079746138
-12.879496587183448 -77.080190155360171 -256.821479471804309
20.231140720480823 -77.592182947547855 -257.297054119858444
-132.443773853577937 -76.306191482914116 -258.105089921674107
-12.915438938973802 -76.362809858338977 -258.480748646642667
-141.452024084092642 -77.294637041088635 -258.841061188132585
-131.429621202039357 -76.274119712217498 -258.218802748119458
-125.603754094457045 -75.391858865504616 -259.136169002409815
-128.381265475237853 -76.424205669542161 -259.434699953552524
-133.567006997657273 -75.714909334643011 -259.127745679534371
-132.203737104524890 -76.455677496562387 -259.492632544900630
-130.792926638198281 -76.107684743707580 -258.287830559311317
-125.626838726592624 -75.846863606759399 -259.647883834923562
-155.445313217417947 -75.741914675759489 -259.433787946768803
-149.586633330414543 -76.962438477634365 -259.824433587210422
-141.953401345932804 -76.278945849269874 -259.579328503898921
-132.987874355865642 -75.572061621765158 -260.170334536701944
-129.494544981513116 -75.820004929322877 -260.586174934488895
-126.248360795481958 -75.935345628253287 -260.337465972966186
-143.029547748784609 -77.101168354995920 -262.438755885965975
-14.172820063892487 -75.774698351432733 -262.554595782098943
21.244496583500407 -76.258358139318105 -262.833802894364567
-143.992539938971333 -76.564858340214798 -264.280882863632257
-151.133826825813856 -76.492276163889343 -266.175920553110586
21.716740534892196 -76.520726829468089 -266.916285094439559
-12.713081926592070 -76.961786894540850 -267.859877519946451
19.765881233464160 -77.131923457765424 -268.785865798267650
-11.040419770923419 -76.168270958972187 -270.886706480050691
-150.768721183462418 -76.314348377990186 -271.467701745003581
-10.217567509055126 -76.981628436363337 -271.696096800612736
-145.942905186351339 -76.231421635735714 -271.376118247161514
-9.203758052243295 -76.935550521000934 -273.057287653606750
17.963268306622627 -75.720058002248493 -274.962732402305335
-150.809058823911414 -76.643225599942355 -275.121422204041608
16.773831369933884 -76.570252644992166 -276.565668673878633
-146.536874235467366 -77.087062720213652 -276.036346426342732
-151.171176490369874 -77.096893983260031 -276.654765465386788
16.985360653804300 -76.144805557092582 -278.229927045499778
16.889559995905230 -77.166274355355824 -278.726151923955172
-6.433039352211591 -76.715159810326981 -278.942626385066944
-150.392447810249109 -77.835820576149302 -279.545107064723311
-4.292001808447413 -76.747245581593063 -280.404255487834121
-146.589793557602775 -76.695592184719843 -280.097316521009930
-6.497889558648762 -76.275725408957271 -280.186117188152650
-150.840674917861207 -76.972069521524830 -282.497101624829043
-151.541596432405271 -77.213078864495628 -283.529501800174785
11.090864531013628 -75.947827739971245 -282.497780616722196
-4.116728839574748 -76.240625852011604 -283.316764280609277
-144.072142300059880 -76.721237684777350 -283.443017249221100
-2.662786338093738 -77.697049026912907 -283.598830638315917
-144.300605814840992 -76.552414218318361 -284.767747533011402
-154.814579155472217 -76.337531869567940 -284.352158921213800
-143.476236800016380 -76.464982744305360 -285.099962818813367
0.263945290534403 -76.212460672459827 -285.557153080551132
-142.951932759006496 -76.960573155212998 -286.438318656089223
-133.445672033027279 -75.176087752717265 -285.650078632057614
-129.594663364170827 -76.818929909976561 -285.836679107393422
3.487520957261785 -75.757313858008104 -286.244016501514295
7.961791046879664 -75.694019511708731 -285.812781444705536
-132.967452756619736 -76.561156198602561 -285.755949159093518
-127.007846834248596 -76.225094110281347 -285.947871206795185
-126.161478852968898 -76.473106132496397 -285.829233642587951
-30.702247809974324 -76.425324108219655 -286.622365129420757
4.570633558851132 -76.549544961958432 -286.036198748816275
7.402747481255580 -75.363857872089525 -286.370821159798481
-60.719168252888977 -75.735768757039182 -286.447758708596325
-54.283680264313197 -76.329488552938344 -287.250316498723350
-44.344373896990930 -76.192495304913351 -286.361137914400160
-41.631891330147155 -76.778379743490731 -286.346653430814342
-27.099065560354511 -75.854189642308498 -286.564491282343738
-129.556178748608886 -76.248393432529042 -286.224391909116207
-126.777510123767740 -76.857565400280635 -286.811544968611145
-61.690912185559775 -76.228603366903542 -286.797786087356485
-57.865998920373748 -76.929866227856579 -286.741054297776770
-52.075867942308811 -77.148062160322681 -287.249415239475695
-18.312542640992479 -77.494584094808744 -287.012083760257894
-9.788010474526862 -76.139690938541520 -287.591103654494532
-9.335393602255396 -75.752101696484800 -287.725566413459546
-142.892772211943679 -76.925100978457778 -288.022519724161384
-70.580001066627673 -75.686969698731005 -288.273181699722159
-67.369290574540585 -76.380753192448282 -287.039808144053836
-65.217082059304346 -75.962020732881143 -287.183441139571016
-58.271846744497694 -76.360032405043611 -287.535908670531853
-4.992791997854086 -75.412415181205319 -286.883868765810121
-72.171886794170987 -75.308788589250980 -286.716828015428007
-69.504518738616312 -75.767032681886803 -288.056211384186156
-65.431143725846894 -76.716421202093969 -288.309370536413951
-2.541919649564661 -76.284774084704409 -287.784457885707354
1.413251561148708 -76.311619354419847 -287.712304614635457
-135.513525254789926 -74.762333501352742 -287.998720319259121
-133.847420790135288 -76.238342231599859 -288.265821482817444
-57.427036549767600 -76.367118366662666 -287.619372827676330
7.220515150918654 -76.303854899509389 -288.674172907104492
-151.052863668604260 -76.843036705760042 -287.864247787833676
-140.807920640479409 -75.843900205572339 -288.525749459582869
-121.498065360320240 -76.725034134145801 -288.288465947057205
-119.030789147657387 -75.966302078728475 -288.188398979326621
-117.886486318683268 -75.498240946927197 -288.639340100031632
-74.220042777749200 -77.717889556973617 -289.200954011429360
-67.085689974824462 -76.419933636554475 -287.754116954781352
-58.862530724023920 -76.462250425317407 -288.898275378552569
-142.379542824714775 -76.090542872079325 -289.132757337230316
-137.596997619443357 -75.925760212764544 -288.537288722532651
-78.977922186113901 -75.148735104283091 -289.326213407119781
-77.077867015304392 -75.768233664018126 -288.943859838066317
-73.373374247908117 -76.027804241431923 -289.480252102741417
-68.797544307174292 -77.167229298986058 -288.450842438545351
-56.689567835008056 -76.940431770600469 -289.865866214107598
-116.792436267497507 -76.969470367230826 -290.045656435077433
-78.099747500159665 -76.137911272022066 -289.594999424661580
-73.981503343130044 -75.741734551899867 -289.858123747072170
-54.030897198645334 -76.600418148953679 -289.202454640256633
-67.553978728829492 -76.148644961749298 -290.429265226904761
-62.420852621703354 -76.695308212011142 -290.482872178375146
-50.601225597583337 -76.516396680618769 -290.615698227486803
-155.523026456377124 -76.113688284441523 -290.062858582593151
-142.295276044953766 -76.215322078483027 -290.514398408669933
-124.823674841393441 -75.241251547184731 -289.937372086058190
-119.162221241310860 -76.149943200221315 -290.432342679445526
-117.226839330276789 -76.236024957702341 -290.625069625305059
-60.894108162146424 -76.296569440057041 -289.424591249460946
-54.335664872938231 -75.939565633286719 -290.622897624658492
-133.561097320145876 -77.082428253731223 -290.493594342282336
-55.492067841790906 -76.559525861583467 -290.233186173490310
-53.290112362535524 -76.816459550378781 -290.243875135420410
-45.311037744098648 -77.103068434265865 -290.964733787277282
-133.837781336082685 -77.150249129561757 -290.854215102637170
-126.930742089601154 -77.285217633022583 -291.743627915066156
15.650883148921572 -76.509446272299229 -290.172825172207126
-16.124537619459900 -76.014574219566470 -291.583564191687060
1.174795686739359 -76.412216069536299 -292.431268319267929
-134.493684554137701 -76.307623750315216 -291.230666656277549
-134.193717525669683 -75.979674476322714 -292.220185530196090
-130.443717437398391 -77.495397010441209 -291.371225051203623
-11.078909109923869 -76.222067317864884 -291.013510022099354
-6.221731990673682 -76.963624177239268 -292.253568193197111
-3.511460527385576 -76.245527961858201 -291.416171000292422
-126.098950375437880 -76.684483198865124 -293.186174453645719
-125.534873458482522 -76.471528578383754 -292.663448174018583
1.221015491849205 -75.827841678932884 -291.504835067429610
3.764690097320508 -77.225026051833595 -292.215797249827517
16.098596996165067 -76.086251240188162 -291.795888932139519
-143.872417076079387 -76.638695582938766 -293.044055486384934
-130.288665488046405 -76.357917943565525 -292.495210454239270
-128.632686219956298 -75.535334782681275 -294.021834588040520
10.333488114332351 -77.027704160402891 -293.167603668286176
15.487108600204104 -76.619523885471054 -292.811496642106420
-150.706550491836055 -75.720105680017824 -295.117044367954577
-148.106842551810075 -77.444838067343426 -294.827499737160508
-147.897539972551613 -76.726617296962473 -295.229687507714573
-148.118291813413606 -76.437187641196658 -295.424747077007453
-151.825875081296999 -76.446695921852665 -296.461046767265032
-150.513138494171528 -76.328827447769726 -297.240479561680957
-149.845493855183179 -76.334741027182361 -297.132624821614570
-147.274721721080510 -75.712738717000448 -297.381426016238549
-152.448451907668158 -76.659728928013664 -298.490796797118037
-151.668370650466812 -76.251592552335339 -299.209313180016920
-149.614670153287079 -76.800966383092899 -299.014043358519416
-147.881665605086766 -76.806925773128285 -299.968949417983424
-147.538781369466250 -77.608721652063593 -299.356894020590175
-147.030522208445149 -76.736087382120871 -299.917828825235404
-145.286570859122008 -77.025354729815248 -302.351380954125659
-154.330265080924647 -76.542521929321126 -305.413445042866840
-154.271882518011580 -76.982532571325905 -306.729965182006481
-154.024754547384305 -76.864245777516061 -309.990774430279600
-154.966179416927844 -76.322865994002285 -309.960859724784370
-145.651557505440337 -76.557884616080017 -310.042921906433492
-151.183291090532123 -76.072244126168684 -311.944218265871484
-147.307554825033776 -76.146397891186979 -311.963704484332482
-55.579069763227672 -74.356908001603614 -53.820350407206412
-59.306933976562028 -75.254789078127260 -53.942546809652811
-56.750727693672545 -75.594194628949580 -54.692516959966689
-53.279142609082029 -75.337341931305957 -54.339415954388762
-45.498471996787181 -74.511016443389707 -54.583318840137110
-69.156554591711171 -74.823024058949727 -54.869052867862585
-66.123908090462194 -74.728930986858543 -54.725230640814601
-58.530940352613065 -75.834247617969993 -54.324142994209168
-46.481832227863492 -75.345023343608929 -55.202012547584090
-54.500393598676467 -76.042852831646059 -55.049357826609750
-51.149919340876494 -75.450741832750097 -55.227888173712316
-47.893494740948121 -75.293004857695067 -55.597677331272166
-45.373624620259939 -75.454462163997519 -55.299819724113803
-68.158242695974678 -75.905910942049402 -55.902655354594273
-64.605818072398279 -75.860783996385678 -56.038318757068531
-48.287223509999045 -75.596506133910680 -56.250666207843238
-44.675574168095103 -75.861627709493405 -56.371294320328474
-41.704393128807233 -74.984007171650177 -56.566266195967160
-40.044818932642180 -75.401654734844783 -56.330575823817497
-68.472513567891127 -75.425271290278445 -57.135789766316584
-70.566249061358150 -75.694306778131448 -57.434543064956443
-40.495881969772590 -75.106578073284197 -57.383813600525670
-38.178349606057466 -75.689498551505338 -56.546332701857352
-39.247744350715124 -75.806757697676986 -57.368806973530518
-72.321799643848692 -75.646694517984727 -58.424071214064710
-36.263902206680477 -75.222966512601829 -57.592498672277522
-74.854637805847815 -75.817452124543166 -58.531718291776180
-73.360974253135808 -76.122081619134946 -57.875589632373895
-33.288199067485110 -75.120187921154695 -58.347956417686653
-37.101354103504924 -75.149953714404504 -59.090182676439923
-76.013004418765505 -76.027981747815460 -59.552949715409333
-33.167827681121992 -75.370194274448195 -59.998113046070003
-76.065606929434523 -75.864594605258759 -60.356269943639013
-33.842367047963890 -76.148491811381319 -60.796898133784630
-78.574189711935389 -75.061473541354701 -60.364297121911214
-30.080602152141154 -75.094155684255568 -60.392806557064461
-79.359998116875488 -75.558762897310331 -62.009912793573342
-31.900882334433476 -76.257757530541795 -61.799521719455441
-81.118147655849668 -74.857639632595706 -62.223208972784192
-30.366854021941286 -75.928960620069219 -62.125019574154265
-28.205037086721749 -75.622478732212656 -62.018082268839514
-81.103916857888080 -75.168397068786547 -62.392542366448417
-81.742656655866597 -75.277901226168922 -63.250395157103320
-24.714467239121831 -74.845461155370273 -64.046832364681507
-82.000453965359981 -75.545788207719141 -64.838257803672192
-84.137273169645255 -75.778086949825834 -66.305226993168120
-82.478877796317988 -75.729757162786839 -66.328250777696269
-24.377728055170071 -75.427544303502913 -65.947123419227154
-22.099594980601779 -75.941510460254193 -66.905979378146057
-84.932622528770665 -74.949486518794302 -67.096155730574097
-22.516550459755859 -75.448020296625415 -65.968651511418173
-19.992848648481807 -75.312188620099462 -67.290799009662905
-85.846958706195238 -75.362329174237132 -69.473957432236901
-20.948704070951191 -75.457201203001020 -70.016495976430789
-19.805305379940179 -76.018080754143938 -69.998837428957799
-85.870429275472375 -76.162429684120454 -71.189690557826310
-20.339276682178362 -75.577054348376578 -71.065515438141674
-86.898568571525828 -75.711311497530616 -71.104238658754284
-21.270417539072412 -75.052430309721160 -72.017353437110089
-87.310645718394980 -75.111747068169379 -72.840959577267355
-87.232474273272317 -74.797690217140669 -73.032582784317086
80.883066394975074 -74.730460631590120 -72.669631119691530
82.129740662277925 -74.891940692073447 -73.505210389762993
79.757947804803408 -75.211078752788183 -74.595004442287717
88.697090709296333 -74.995986381578078 -74.531143974648600
-88.817162195507620 -75.213345123731841 -74.878961407174899
-22.949960997182103 -75.330008045064318 -74.469502918396458
79.026580457555596 -74.457537613861092 -74.596109618193196
83.204048855183288 -74.394017180542093 -74.130749945524826
83.673596174995168 -73.857025173279780 -73.530066537168082
86.605172433710422 -75.193403251791040 -74.731507119277708
-24.073142234931588 -75.499756103073466 -75.717928788824807
78.564507807265400 -75.922101043439639 -75.623069554490058
87.438517561956360 -75.737764788884718 -75.933149598253806
89.471028612392089 -75.459965788590949 -75.597195193890698
-88.185697211808005 -75.850673736586444 -75.829973372946156
77.941062296290411 -75.273727680627729 -75.595922487060264
81.066752377315140 -75.660430410595595 -76.670146211478311
83.213325093512907 -75.353475362073056 -76.004613950826041
87.264362614601495 -75.163115112971312 -76.002252817500406
91.422497137792433 -75.585672612797694 -76.254755452071521
-89.949733229842167 -75.081827476943360 -76.076620716873805
-25.192281245052623 -75.628108550442931 -77.606849749322279
78.690935919033990 -76.186208374891393 -76.037585579761327
88.204649043860513 -75.948559485838175 -77.229327396393089
76.137951661137834 -75.575180522448861 -76.822843667844893
85.479367816248725 -75.364791664715824 -77.798185777709094
85.251883233450570 -75.192831620361332 -77.728890384891670
91.917450681119618 -75.111696690702317 -76.845955623543873
-27.708693317101019 -76.312904501435924 -78.040096224211879
-36.422163148133642 -74.742822738111983 -77.940811755713270
-32.743262408068233 -75.119412602799017 -78.539768030287206
-30.905886967170396 -74.258686495377717 -78.587054489456463
-30.333813875378741 -75.835642985827278 -78.797237282492972
75.542031743846110 -74.620080375784482 -79.019247929096451
76.528786631187089 -75.522035611320490 -78.033441218190831
91.346890271678220 -75.199995366867924 -78.203043179716886
-31.250120371789119 -76.530907429030066 -79.277343877018652
-37.225076812190174 -75.467378307775633 -79.931232595069261
-35.489146278288885 -75.610838256146380 -79.860184368839484
91.797349727401667 -76.080097152882630 -78.888078023534604
-90.197039888143877 -75.872589502026372 -79.846629624829291
-38.427095644375171 -74.339982692081279 -79.029722737058023
76.468755548267822 -76.037179369523443 -80.268891568233528
89.699070588509883 -75.194716811487027 -80.102189122206568
73.737258520634228 -74.885076650358201 -81.044724884910252
91.884873489845901 -75.892682344544156 -81.450695512981767
93.035506145792041 -76.121440455349486 -80.312491170772006
-39.725776979326895 -75.231685399440209 -80.827683121403027
73.140523487544357 -75.088090190793437 -83.228986243469237
93.591464319898279 -76.539566856741160 -81.601807284400621
-40.875816577945649 -76.297520764556381 -82.979971553440606
-90.066481459030541 -75.714562397738078 -83.524859049985238
-42.260622863539723 -75.598446981779801 -83.593679818022650
-91.749743903542395 -74.878214540874026 -84.623757750193008
94.838668741245570 -76.235533494335527 -84.608466137439677
-47.791320826995232 -76.260850250036427 -85.382911298820673
73.780980098780560 -76.276114974668587 -86.424376084240890
93.649300023645935 -74.906293702254501 -85.256926992655536
72.438025950464748 -75.705526745753829 -86.183778329125872
95.407171380548363 -74.624032881307841 -86.778679855632546
-48.509222653888862 -76.317929429743572 -86.038544441691386
73.222092013681817 -75.619847732333454 -86.811841928566480
94.957393047672937 -75.304851843081750 -87.344933401499702
-92.056697392109086 -75.832988929387312 -87.946218364405610
95.384938636396001 -75.501051541134743 -88.146349267307770
-51.217480088141329 -75.600831335521619 -88.626469110999267
72.402475681355313 -75.865665751633927 -88.282449750900241
72.938404983856557 -76.225091299493059 -88.254475243972109
94.538779683296625 -75.647815113721023 -89.208597663289524
-51.969228063522202 -74.989082851149078 -89.938692291713181
-91.333022545546996 -75.880513875424299 -90.353353837291991
-52.728067127444994 -75.373590098273596 -90.820857229985833
73.105873173804582 -75.056307498034116 -90.933275062981366
73.854567463358592 -75.754792448597243 -91.780925361145648
96.267651608010439 -75.746356384062437 -91.094421663856920
-91.702602091008259 -76.305798815661078 -91.629234317066661
-92.230415694874210 -75.520170783905158 -92.079150437075128
-57.082181163898909 -75.040100815746840 -92.465734782198794
74.683281843249304 -75.779065006235356 -92.789838943453120
93.908707808062914 -76.094465246518169 -93.387905316253566
52.651061944657691 -75.890627466471287 -93.722549722006093
54.661793444640445 -74.637258353179149 -93.513541780896745
57.256272224541476 -74.967459448002714 -93.298851581859481
-63.521158384970782 -76.297487394392348 -92.902531773433324
74.835299883731835 -75.346739099050509 -94.194425929330876
78.570504873129238 -75.964437239675732 -94.201235242670066
93.480614298604053 -75.911462676908442 -93.885319684501198
-64.085823056877700 -75.581392033858037 -93.541756087770750
-64.699015078264438 -76.237580692966304 -94.720032374277793
50.365319350190916 -75.353789000509067 -95.444570822747409
83.856004080449694 -75.254794313905819 -94.167794553955389
56.736052895115414 -76.172688556868067 -94.677068985234115
75.773785262872892 -75.991347325759989 -94.307483114955474
78.365513878526940 -75.390232472970581 -94.689069568232128
94.823377133625840 -75.701106233066298 -95.128134001710890
50.217613244485321 -75.501588539949054 -95.086140174551275
-64.869624232168334 -75.738625708191805 -95.052393444189036
48.601995989686991 -75.539740436422420 -95.755853490260378
78.262506204808432 -75.583770338722445 -96.260669946916735
84.857651187335222 -75.548131637187183 -96.016939500172782
83.835470730879592 -75.916445881637813 -97.017958563351428
93.218615378374281 -75.310910176854534 -96.355215049322638
76.741657220898688 -74.815548718386665 -96.583092586686419
89.681669091081503 -76.628436337741803 -97.154850826858606
83.009640970797932 -74.908881893846925 -97.563569087662046
88.643620678854290 -75.569026325643236 -98.078027641791692
91.192182613254502 -74.774768770107144 -97.890992097647825
53.072934769224403 -75.681147247290738 -97.576453513827616
82.445622402022721 -75.441489934345796 -97.054544072641662
87.169537355827913 -75.479471891055439 -98.101848469890214
49.391874876039417 -75.084561471671677 -98.634355423662996
88.193045704743724 -75.895129165189601 -98.836233355164325
-92.827869662173413 -75.009572519198656 -98.995554567402507
88.201787672785741 -74.890846765047968 -99.123566324245786
-67.490614759773621 -75.801917478010353 -99.495690921636054
55.799172846254031 -75.068341889703632 -99.145538322911264
47.511706243016633 -75.064907282425025 -98.925413937136312
51.731255186026878 -75.176734668889935 -100.117242892269161
51.786705160408459 -75.471472964877350 -100.322801246395912
53.109624363359323 -75.324396419041079 -99.886894727435617
49.707299589902270 -75.153838292331912 -99.846817045483277
44.610912548721920 -75.584381322856331 -100.954899073742453
-78.854038045136178 -75.156658952928154 -101.062988105186207
-76.046895122611218 -76.224217709111954 -101.732139389777316
-73.733197002626028 -75.746024184631068 -101.969046941016572
-71.728577356383340 -75.020948488723789 -101.072840342279420
50.938727700999181 -76.322947497840516 -101.565729547789786
-92.845070766157448 -76.604308476618314 -101.552243023426030
44.496955677852661 -75.757506898288355 -101.736742619847888
52.226504183746684 -74.665372018534470 -102.098479147668826
54.623933410036180 -76.177468617283765 -102.320130785955755
-80.924253225585744 -74.495613909716184 -102.231438103420459
51.740435180759206 -74.892259858120184 -103.990595521384734
54.103097186125055 -76.197800130913294 -104.225270771916570
-92.360924183120304 -74.904116831005723 -105.025329632467063
41.488050258363074 -75.475036331847903 -104.549858504594326
-82.197435567892782 -74.844456138942576 -105.617923514069048
53.115685192638701 -75.402626055803239 -106.346848445726096
-92.958200135196890 -75.769427023553732 -106.510106555580862
-82.574735984408619 -75.162140284292576 -107.154618789447071
50.379073408538041 -75.571253495145385 -106.391273366882956
51.126999869468222 -75.404772324130903 -108.447754316877067
-83.280933424707115 -76.056677861234974 -108.769659080591296
-83.514540335943963 -75.963598076908497 -109.101320221744345
48.977692883532491 -75.763788423113169 -110.058853848170202
40.074928529804360 -75.620044324221368 -110.766313780794135
-84.128519123295746 -76.213389649518305 -110.857403732085317
-84.192720365605297 -74.228141743202997 -110.706826858427149
-85.362931788009760 -76.204791635460069 -111.484265392012446
36.388340790284190 -76.243540733228016 -112.165380837494070
47.194850421981769 -76.219671629620095 -112.810204306275253
38.972561054015500 -76.438123490452639 -112.607493091856085
49.545159452173962 -75.107389974463530 -111.689601401504163
108.822558163100453 -75.052969250834508 -112.167145529555313
-86.191107213123829 -75.944567677726255 -113.386505812269903
46.635685174115750 -75.973728409442316 -113.311467025143855
-86.920702224329887 -76.030316698479098 -113.845283354653802
38.553401242791885 -75.841926518383119 -113.801703491389816
35.743998034462614 -74.814174302526496 -113.634601925992982
-87.987794021576789 -75.652177434605306 -114.426911338603048
109.576038343944830 -75.117000317662061 -114.573410329520726
-92.328583869148446 -75.101436665695886 -114.480515303400153
110.414892644251893 -75.711319567420560 -114.837604186790074
-91.148233814300099 -75.488386286470629 -115.330025758009256
-91.420981476888230 -75.476794200601560 -115.251900318846282
-90.574186554124068 -75.088732779983701 -116.140871684296016
45.931483738479791 -75.314439651725493 -116.950298576408443
108.802616390909833 -75.489495692959949 -116.931056691726141
35.226922373300937 -76.351810210344638 -116.494488838225237
33.468748795783327 -76.298678503125345 -116.496330789750687
46.693745483530869 -75.158245541936424 -117.909063523403674
111.660979197255514 -75.236541362449032 -117.613085594561070
32.926041893066916 -75.924536285468093 -117.560598374729580
44.918310637906700 -75.489498872388154 -118.255073278112960
109.464032340379717 -75.574431034531244 -118.284625607189923
110.412629048548638 -75.202307093331456 -119.115743021244043
35.182952595729091 -75.869325124200927 -120.068173824166465
44.496652826820508 -75.461311449787715 -119.537266760623638
45.657303631306554 -75.734396691860525 -118.877372279575283
110.142268683269805 -75.353555165957189 -119.880174790843043
110.682562990596168 -75.182050089149399 -120.119899255688480
32.327382501116766 -75.420457052764561 -121.240451973685026
111.616611233014140 -76.224919708518641 -120.363030734366390
46.020703041521308 -76.241616290446657 -121.659906526075332
112.274505885344098 -74.659549707536542 -121.452401681113415
109.951955863994741 -74.860817732069407 -121.580386126081009
42.316156077996268 -75.290089383391191 -122.187756832241291
31.242998848444216 -75.934570694001351 -122.173264830026056
111.624745198693390 -75.232317465509510 -123.918552333343854
113.664714696740575 -74.522839709290139 -123.288569739491791
110.644984100941826 -75.844366459948446 -124.411753166010939
114.162077709864704 -75.361331317186014 -124.822754967718893
112.300380942335707 -75.361496737471668 -125.661012156506928
30.536301598906434 -75.564287872388562 -125.222419359854555
32.459245653418144 -75.410605110771101 -125.202155446674084
41.084576435260942 -76.270649817759121 -125.925387822275013
109.658661124462412 -76.115790205941835 -125.760805154585952
110.241445907109494 -75.540313286433360 -125.862692973094113
112.182176190899796 -75.887454802764893 -126.668573758788455
29.638848805748054 -76.655683013677589 -127.337234739314681
114.202522692128184 -75.690887923078733 -127.194349244020870
41.663682034126694 -76.363337005224523 -127.711507612691577
108.691242945189757 -75.016526734861401 -128.530382975739286
28.549872904377711 -75.158826531250710 -127.752827641282821
30.876994759788197 -75.298833609865497 -128.114274901045377
41.830203445759892 -75.880767268777774 -129.293902322010183
28.659128076199000 -75.419472615063185 -129.686272103971589
114.986459377821831 -75.973922684278776 -129.612737567853173
110.980639934740807 -75.162753244159518 -129.769276718955865
29.651300506308516 -75.370759871047099 -130.487768821478397
38.920901007562286 -76.792632292702564 -130.652433342581475
41.289895948242972 -76.378479106014098 -131.173308861488692
30.432891039367707 -75.797151753785741 -133.266288860951619
38.711306924595867 -76.206309681244193 -132.342948923204432
40.542468844163551 -75.895316767009859 -133.807874174219762
27.224036030849234 -76.398428010040462 -132.830731754207676
110.441692278052159 -74.953502563274625 -133.333598806640310
26.929524608771452 -76.031704258099140 -134.104704054930806
37.702619340423574 -75.583223570163938 -134.441906540646073
39.653143267908362 -75.920809135867842 -134.790450485204445
-52.182557463949344 -74.985442884678250 -135.889011661481135
28.684990200689796 -75.416437066868554 -135.686065211353309
-50.015274278628922 -74.584388610465652 -137.087550224708906
36.515721234176205 -75.186225549988393 -136.296176168647975
110.318398619635687 -74.720643902008533 -136.353281795730680
-53.203357983206615 -75.829679204073855 -136.590134972283153
-50.437494859856656 -74.954293505539169 -137.194244610423397
-55.481094942926731 -75.944390526261927 -137.764913720870027
-54.681985114166174 -75.430523360926117 -137.207661806595411
115.289404423449866 -76.735894610915565 -136.708018318667570
-49.892087290883801 -75.802604267189039 -137.538158771572569
-48.991116767893601 -75.122102273096914 -138.140182909584382
35.889083455399472 -75.691410778178877 -138.151767942987874
24.912052900679072 -75.779874821863629 -139.260715432917550
27.602567891572235 -75.753655045653360 -139.455576159331230
-56.360153612527974 -75.144538989050290 -138.948306043453670
-50.834001863887202 -75.177519402852866 -140.599047370277020
24.253085525500364 -75.291588177343343 -139.722064458300991
110.771487710035458 -75.430037284859552 -139.678691024645445
-56.900058371620936 -74.356772756285352 -141.122644072686569
-52.211511385849541 -74.716196816799666 -140.774156143168199
-44.844635870055164 -75.703063552582890 -141.009049439340060
-49.082534835893391 -75.756634112714607 -141.165904255339001
-48.641382518788944 -74.968804517378288 -141.020224106466117
24.772908315413748 -75.736620871927059 -140.479831718981615
35.437031733719046 -75.715470220778869 -142.191154078398370
-51.087868568663936 -75.122183248171197 -142.201716610825684
-50.127011023393443 -74.953391382490324 -142.383726504347209
36.770137105889965 -75.810287469301628 -142.143197600919677
-55.106782324630288 -75.540769399173087 -143.233070971434103
-52.885558777902482 -75.219784468137732 -143.200356487852673
-46.803388926800650 -75.764196182839001 -142.690271959087141
-44.872734901039500 -75.577585822803414 -142.360568955568937
33.979736276554696 -76.280073297372667 -144.179361431304159
115.848370217097326 -75.413178905957778 -143.647033538261212
-71.240651367016227 -74.742284343521206 -142.849233760583047
-52.909226010456621 -75.800721669523327 -144.759983547834565
-46.143570475023147 -75.169931574746926 -144.519311686887932
-70.680476872265501 -75.512716921401491 -145.798608525361857
-71.639267062456284 -75.253926714155909 -145.728292145475393
-70.405492365298144 -74.811913323482145 -144.557148779703112
22.725041264786405 -75.921480593733605 -145.812043884039838
-69.397762929771659 -75.671726090819305 -146.435308037334579
-54.506002792307882 -75.739338382207876 -145.587150814271951
-42.210475567899088 -75.496276748274965 -146.006216616570214
33.156388661190796 -75.674462605465521 -146.220675794990512
110.499319359769800 -75.707109386432151 -146.589335660867391
-52.986023706321404 -76.111759398611397 -147.666840976415358
-73.018175418331381 -75.878815788950604 -146.683107004517922
-41.204221218747776 -76.208667656399669 -149.128429014451541
-68.830149404775810 -75.297197512297629 -148.239794917718797
-52.480858273983507 -74.565830198632227 -148.167186958269582
34.764992891082805 -75.499013585248548 -148.684593205104335
22.862358316728908 -75.663530396400304 -148.442531318003688
-54.585088878255192 -75.476466249944636 -149.664046900939979
-51.203102298360029 -76.015749620089693 -150.001293554758007
22.942020425778662 -75.576056970704485 -149.983250668588795
24.587670521962398 -75.289052257356360 -149.710905197555206
-72.675672639154300 -75.061288387632601 -149.705708968040341
-43.116853895249378 -77.304771514419812 -149.339010405834671
-50.629616904600134 -75.296622379887623 -151.051955474736161
-39.569233334049628 -75.734258609179378 -151.615993615386884
-41.954331467208142 -75.512373040007603 -151.643270657740999
-50.493768528118352 -75.526809918541971 -152.275539128994552
116.154083612658169 -75.238418389938772 -152.206673692220733
-65.854670240669662 -75.628491474059672 -152.292303836219304
24.490355274173524 -75.670569035794543 -151.560420650032597
34.062566723056747 -75.667599505701375 -153.045256957486316
-38.736973563274034 -75.426960703219109 -152.035522615665201
-65.147328515013356 -75.489994914770449 -152.794947987373234
-67.962836739100950 -74.191849434316211 -152.937563906123472
-37.805616934119151 -76.617017650886680 -153.944697890713883
-40.248630008755931 -75.142127005847698 -154.443577081490304
-70.846898710979858 -76.098986325949753 -153.974617222033999
-68.100621706451960 -74.714842005363082 -154.127258277241026
-64.480878714708027 -75.833586267876399 -154.118831789061744
-37.351254957328067 -76.381277318817212 -154.411856055466643
21.154759672577747 -75.405086569644268 -153.652069847264073
110.679718902716544 -75.226231289225751 -154.055405007245184
31.533552879622878 -76.243078925013720 -154.257098663653920
116.331325930351284 -75.683109512736564 -155.742498613467546
-39.280079416371493 -75.374359975961582 -155.875931095129800
-68.144498927917979 -74.971521658732257 -155.690506394455014
-36.448825842339609 -76.077135168801121 -155.701679463154221
24.083629370617967 -75.775671472970558 -155.282431091623323
-70.748888872703304 -76.392175546064550 -155.677719409406734
-49.815557302853257 -75.273967196369966 -156.027832200946904
-48.092930812748186 -76.029747039978872 -156.833547791872007
-36.913466314526396 -76.167036485979153 -155.873138768001127
-66.322984503097857 -75.405932233058991 -156.754825343803958
6.188045923683709 -75.683882877698110 -157.325631852087582
7.339398466081716 -76.336541765366562 -157.065917337703951
-71.065986548588057 -75.395263466860243 -157.262451640642240
5.893082714611570 -75.133573226382808 -158.026637622330725
8.485854586378109 -75.517971479403585 -157.497943693248089
33.082398281000728 -75.901808130160134 -157.251039683394538
-62.761190699974563 -75.204243413640782 -156.903076004955750
-35.343701854983593 -74.773497781606054 -157.955768601952286
108.888945392625004 -74.809774482546771 -158.168276208329445
-67.613307972041468 -74.218081106435719 -157.902705880381575
6.718401277351284 -75.672121524063428 -158.980628443318722
-65.649644539319880 -75.903781463983677 -158.258443678312773
4.848665390350172 -75.453825765884361 -158.715857459018224
8.680037466789358 -75.398037898970756 -158.612900275085508
115.393683145915602 -76.240293817284538 -159.518471672929763
-35.049524818830704 -76.087254635464063 -158.036102679769300
30.443910097302869 -75.771634120395063 -158.716325748799733
-61.800826551195634 -75.398819828977992 -159.739540829819475
32.975708816861946 -76.148097787114537 -159.129112967065907
-70.294182338151344 -76.563182515549968 -159.245424115620438
-46.064733260515077 -76.104567029569296 -159.682482752816526
7.600951835901856 -77.052261685638499 -158.880047323501230
8.008601967665232 -75.489624698048559 -158.994726285832996
23.978530546459986 -75.805552085460036 -160.411499774603158
-36.101197020775807 -76.197024959913378 -160.081080804992666
-33.669309419235049 -75.759859082273664 -159.968778444812159
20.259438287271106 -74.816670073134020 -159.825816746079198
-69.590457392011729 -74.586040033693052 -161.022763950551962
30.012501259712430 -75.892346333778278 -159.718316624567876
-61.341549528763913 -75.209147388502814 -160.682930407113901
0.403863878039105 -76.442747424576567 -161.225572702875610
-65.119510557991021 -75.706154251861449 -161.154130024842829
-35.971491864511222 -75.458481249582675 -162.218471490933837
-35.814728668895079 -74.463059281568547 -161.270987333774656
-1.220482893488334 -76.724775213771807 -162.043898672538518
-68.827526515185255 -75.493116570884993 -161.631171488181167
-63.842000171744402 -76.570050572111228 -162.084494493438115
-43.859115078961679 -76.309327261333166 -162.054742078931184
6.310468545838400 -75.896371504537669 -162.024489939919306
22.874778481893863 -75.366094437921234 -162.382486714853826
-47.214657853987923 -75.503811911497550 -162.083660078479994
5.238465739727166 -75.774745208153590 -162.941905940927739
29.947862581462314 -75.834960480889421 -162.729333103401132
31.598443656091217 -75.397777056761640 -162.653590408721072
108.433402304927654 -75.819008104793909 -162.890212433162162
-44.216865579976087 -75.743510625908272 -164.293633896929094
-32.293765073532128 -75.151254321213699 -162.870825616533068
-68.066569769645440 -75.205510579209928 -163.451908321399287
113.735818415674331 -75.188566562557256 -163.338288716738191
5.450979664242706 -75.747920091714363 -163.124407305327821
-64.171600875850174 -76.054184194565252 -163.558866735127708
-62.151342015423062 -75.669557491866883 -164.186108398452262
-34.063266994411357 -75.494752154248999 -163.599102753926502
-3.449133393289834 -76.050282858369741 -164.293562575844874
22.168405255949295 -76.141194022454926 -164.590474838655268
28.935835972631619 -75.117439354215151 -164.033313919512750
108.177340650764421 -75.823757076829239 -163.542490936135579
-67.740676097799522 -75.642462114414528 -164.217030452970647
-58.726830311145847 -75.583116886464666 -164.523474248316830
19.174123164254588 -76.080641738125436 -164.254961787036081
-43.372825875888608 -75.013872995512983 -164.280223915136503
3.912212017071604 -75.797306605462097 -164.175498275886639
-58.409267999542891 -75.160646873232267 -165.325015564353492
19.221781172277939 -75.486045492399143 -165.146746058197323
108.020370037867636 -75.249544496379357 -165.205494742620004
-67.183277707703738 -75.987337643362139 -165.501084438124764
-61.935596072446714 -75.799085481535613 -166.003894238487050
-33.059322651908957 -75.952476053574586 -165.615684886568602
-4.420878734498340 -75.552217638846997 -165.413262181226344
21.164466784059552 -75.341862661236348 -165.505109206227218
-63.454896242631648 -75.715473162234844 -166.268700828731880
-61.781487291815708 -74.779455195553197 -165.636040391919863
-44.410455127243544 -76.380281045678942 -166.301779987583473
-42.145718874055618 -76.237323043048079 -166.060767544638821
28.683628678712957 -76.119116222534259 -165.972081478822275
31.121616689651059 -75.854241574445183 -166.935679385320867
-62.525660649179393 -75.010974479982039 -166.550161194006051
-32.729799598769986 -76.036415419406524 -166.966567404643911
3.072530824703069 -75.711768428329663 -166.290925281791743
-61.620683257064982 -75.373840462534503 -166.816007272637449
19.415316336267260 -75.140579366625275 -166.751286085629999
28.960022033620689 -75.750867359466582 -167.004518775901346
29.684506923104870 -75.870452321340494 -165.560938069024900
108.184479896084738 -75.658595219361999 -166.816175721883269
113.913329609358797 -75.915355530513011 -166.766279890570843
-66.240132243122758 -75.129273962383309 -167.174625550869848
-63.718236710220779 -76.145057679790156 -168.004958593033621
-60.169858032724264 -75.739216618596984 -167.083430412459620
-6.910046939980351 -75.561337946573730 -168.758222734387857
-58.327632916164795 -75.965371995388992 -167.552688627108523
-41.393230402932055 -75.001618723758043 -167.972621982027817
-29.211932275240109 -75.878370468213419 -167.916448572247759
-65.230988628306207 -75.776155426261809 -168.078997283066400
0.162602072486000 -76.270875492754001 -167.736317785775213
-60.351475470225139 -74.957289473763154 -168.332358218627462
-60.299824074458364 -75.419505662033785 -168.586714622206301
-56.756675841544393 -76.112079780463162 -168.062502851564602
-31.293061267022374 -76.566937289492415 -168.484414254044339
-42.596275857425027 -75.745489530898823 -169.383688107864913
-7.760178819897336 -76.093958770056886 -169.174217968692091
18.523286612052502 -75.540961933692827 -167.870454260101440
-65.705583568409850 -75.811957530343349 -169.486689407131081
-62.636546365283941 -75.320833409208319 -169.426369829550708
29.263073752434206 -75.937939762377752 -169.646945312683073
111.298530160137801 -75.060762907667225 -169.432926640744000
-42.639526960461041 -75.471776327942408 -169.930152677781621
-7.720577167478095 -74.727240672909730 -169.630314263010661
-60.353295058252776 -75.253393187818858 -169.705900433983203
-27.439018536490170 -76.170104938485537 -170.249728942056322
-2.559181120190066 -75.567587751965050 -170.055225654583325
108.006984997301515 -75.234929702380015 -171.076381247976400
-2.036562812699859 -75.880551793136533 -170.022679531185645
-61.560747195659012 -75.875753527515286 -171.036010030171525
-30.281221787995019 -76.424678980078511 -171.691219740457143
-4.261917193636587 -74.099074047325729 -171.042688231683684
110.332006181242306 -75.387123114378042 -170.754448131094080
-60.859812249371679 -75.506745766540533 -170.572646037175161
-58.796044037019016 -75.942197942654943 -171.121747504221986
-7.854484992746299 -75.345296989075550 -171.154294124501178
-6.217594785008568 -74.981526716574521 -171.382564981262647
28.604310849612016 -76.685336508823667 -171.247194102901972
-59.587809648386234 -75.499237385794302 -172.520882761458495
-38.600128003538792 -75.814925341130859 -171.783953887293109
110.065013749168656 -74.479162972821072 -171.720106515911880
113.103552662220821 -76.284681437290885 -171.935179379987034
-27.197357493943510 -75.138920838592412 -172.064956529635822
-6.060332151780742 -74.920575997629257 -171.974227060397368
110.811377230182643 -75.873047729492868 -172.203310001861553
-9.106476855945237 -75.207402669413767 -171.819968371429297
-7.802776460296256 -74.715881415385070 -173.380161814673727
27.747527742536853 -75.623300817911499 -172.942782099004347
-55.312848155762502 -75.479450004587278 -172.760747590657814
-27.611140966318956 -75.869394687696172 -172.280770431150785
-10.600822483000780 -75.811670804083832 -172.885994854278891
-58.853674831428599 -75.464526214842024 -173.104849465381932
-41.290117810538810 -75.687759090882253 -172.521341245344985
-37.826977847170959 -75.919565606516301 -172.761664407224941
-28.729362074460116 -75.709651174114157 -173.652603841446648
17.423256818241054 -75.379933374721048 -173.051475101195365
20.165747967140156 -75.888596431926629 -172.936343803908130
106.667349840942720 -74.940364740951310 -172.852406899016586
-57.985627556783108 -75.231321182909468 -173.564535314607980
-53.973883819925128 -76.066105180962083 -174.774485901357053
17.225000284322938 -75.543313784342104 -174.491846884032782
28.351665772991879 -76.492611949763699 -174.426063525674209
-62.149400865653753 -75.035862058758724 -174.468702990514288
-62.316929270883499 -75.633218197031184 -174.813700891476060
-25.310152162274704 -75.511984783807293 -174.654960477834607
19.248598002243984 -75.044946387886867 -174.666618841403874
108.887481330475836 -74.344704532244251 -174.917205162010390
106.528389728947360 -75.699168866437773 -175.306231214936702
111.954620966799311 -75.658895839915303 -175.166023090968395
-38.412264248520877 -75.953257848706585 -175.691644158758635
108.350932828186458 -74.769751911060652 -175.404082620738336
-60.886440909804755 -74.942936859789853 -175.426251782741247
-52.926801055435639 -75.653898932724360 -176.069963240320561
-26.624252071488598 -75.495493231011039 -175.806378471670939
-36.643316492279190 -75.369428363496795 -176.037222160943003
26.178093225871429 -75.801570586090065 -177.116580654526615
27.910882010163281 -76.352508513643429 -177.158367138535738
110.431891574622952 -74.976366526211422 -176.518165988320931
-61.240034759093220 -75.384551817763679 -175.851742467466210
-23.844374167841281 -74.816082621456957 -176.882111945575332
17.134919674247143 -75.616284480567273 -177.207040024631766
-60.489895892766810 -75.462159655609284 -178.726990921326149
-53.519926889939775 -75.006401129835893 -177.606556842089645
-35.598979667683864 -75.719201584951691 -177.589431270930078
-52.756813345051512 -75.371343427248433 -177.829142711129009
-26.354185098464164 -75.852951915881334 -177.975596085991725
-24.194016693494071 -75.761153868060958 -177.673405186721936
107.716183029780851 -74.970645963241822 -178.076509078719710
17.863706943537220 -74.825477104476107 -178.257654663582144
25.145734949809366 -75.299345258829348 -178.047979084354949
108.405670512485045 -74.566531493499014 -178.937945264480476
110.591515237324728 -75.177139954706973 -178.417528743144572
-37.166514050010612 -76.179525692810444 -178.594705732587641
-34.688488587706068 -75.507681432819467 -178.452100748241804
-51.437222764290823 -76.865514685362754 -179.338949630396343
107.794820715070088 -74.653066210905095 -180.336159157326904
-24.709282162568044 -76.798674027958413 -179.892017021432110
24.857191543119914 -75.050018035259498 -179.757766578909127
