# This PCD file was generated using the MATLAB® pcwrite function
# from Computer Vision Toolbox®.
# .PCD v.7 - Point Cloud Data file format
VERSION .7
FIELDS x y z
SIZE 8 8 8
TYPE F F F
COUNT 1 1 1
WIDTH 789
HEIGHT 1
VIEWPOINT 0 0 0 1 0 0 0
POINTS 789
DATA ascii
6.845762755793162 -76.535151654465537 -235.525677799213838
-150.842250017852081 -77.980718494254134 -236.836555908045710
7.154363453827981 -79.014808117081515 -236.882284935660891
17.177336462677868 -78.893479797971537 -236.708808130650652
19.982488160799445 -78.222373537766103 -237.894230641286015
-145.973788205701283 -77.353615797180566 -236.914535791791764
4.746852876834287 -78.245252559861711 -236.756317396188678
-27.964835363087719 -77.522158638649515 -238.335946325776547
-28.868713005399204 -76.554161255736901 -240.189351804116939
-23.448487759977546 -79.026742213671952 -237.017407812387603
-21.461697528926038 -78.394637839499481 -238.211165335135689
-20.794945883661313 -76.673080246871805 -237.045624943490679
-0.373021209753441 -76.509510785788962 -238.601621752891816
-149.992947736836754 -75.959155303167321 -239.909359264628876
-33.189026956029814 -76.431965933532680 -238.799948138222163
5.804066697434163 -77.183303881307225 -236.796446528341534
-34.211389571058056 -77.598616187043774 -239.140958886831243
5.897673849712931 -76.277324476278466 -239.119411891049708
10.756047956146851 -77.998894445986693 -238.669276146078857
-40.697353624574752 -77.391543837526001 -239.974035669460307
-18.410186707371462 -78.128856249791497 -239.224712865414915
2.531193367542102 -76.565566224025417 -240.115743410148355
-150.754694336822638 -78.253751809793968 -239.981521199212239
4.467170414940437 -79.134535900179486 -240.799786027305146
-42.500830294139107 -78.206890428534450 -240.530738512783444
-19.028290232886786 -76.918611130299880 -238.997875104432097
18.076886620651027 -76.191258853006445 -241.791808933904775
21.054020381239066 -77.115147241113490 -240.509050667217537
-144.739404516036444 -77.915315055468184 -240.571680527063421
-49.318182418482088 -78.175184348436346 -243.133917445116737
5.733949711879077 -74.883718231062176 -243.138783814838462
-148.276445529594554 -77.516982893535399 -241.907162507697535
-146.422234363178120 -78.082880695266937 -240.494730957403533
-146.029277937291255 -76.282181205433787 -241.817258445069541
-48.824802100990063 -78.004877960161053 -241.015230154840623
-148.823400980885083 -77.696891679578528 -242.434213475013877
-20.034709913901317 -76.995334157465791 -243.602773683514982
18.607765550571955 -77.177056394394640 -241.954454685351124
-25.450728843574890 -77.126645839387251 -242.724956035468608
3.481658365912919 -77.970965183953908 -241.464723882628846
21.356448275147283 -76.712661408543909 -242.908522415820784
-146.020537335880050 -78.646844873448615 -244.378019257853083
4.223883453545725 -76.790928791241782 -241.706265886184411
4.762414014471245 -77.368782283901950 -241.710549739056972
-28.914018586735356 -78.555500663978563 -241.487881574531770
8.883434671632157 -78.562103195046703 -243.414443759851707
-59.026295117170662 -76.443082770767958 -244.854354212588476
-34.353325571740591 -77.927430106037832 -243.557408014033058
-147.186087476752618 -78.458605669617370 -244.804374547169573
-58.903958859076184 -77.278023590868415 -244.410121036415489
-35.045158173860521 -78.931859874702596 -245.126152370458499
7.538274633459184 -77.955399056957376 -244.169095114853093
20.032967308766011 -78.228029033609658 -244.783003270449058
-60.411754583601379 -78.458955283314268 -246.501751498158313
-39.845777206592764 -78.153708111771351 -246.482188973728768
6.908028298714228 -74.757509327420166 -244.981977311647597
9.530831576761189 -76.872426723144045 -244.988510870905742
21.519305242786395 -78.705259941962339 -245.277898425108617
-148.308712114269326 -79.340317656265256 -246.347382982891048
-61.025073753217988 -77.762421332588659 -244.912666177056508
-43.856646053707372 -77.802683672996650 -245.109716401373248
-147.836864655026915 -77.843290294311217 -245.531828326063078
-64.164888776966649 -78.510916929180297 -245.868159184953726
-43.290138609986393 -76.506841528503074 -246.720038143670990
11.053698856818162 -76.210598195066339 -246.602197531550132
-147.100989706117076 -77.058401094251977 -246.416283145579882
-65.636385469655409 -76.486689623393545 -247.988307419778494
-60.012472419455129 -76.689368414328754 -246.804334803556344
-46.948961161491027 -77.432605050368835 -246.951978094237802
1.889685946355297 -76.902924167818071 -246.901275817908385
10.071949994720750 -77.457248325733303 -247.339372905472516
-66.013688018901846 -75.946124578088245 -245.879112822689223
-63.303634152338645 -79.304062238753033 -246.507626930302564
-49.371980153443815 -75.651100194635276 -247.910705421385217
13.463108529737621 -76.953589395723952 -246.528175928552940
20.702685233113201 -76.260814412026946 -247.088995165468191
-150.212398706463517 -77.741358067711886 -248.680977568732885
-66.625086296625753 -77.589549563461588 -248.075140655036648
-53.406477648395970 -78.088714787849625 -245.424152610292026
-1.770931811792593 -78.026431188126438 -244.570152826911539
-145.317313387951799 -78.997061801242921 -247.886803199432592
-4.111333644977003 -78.156100230271960 -247.129871575368327
15.627136713417979 -77.727269796571832 -246.971335436735160
21.836217736933826 -78.669757327985792 -248.708138282914746
-58.796260810716063 -76.477366393973981 -248.404674195135300
-56.564043807710036 -77.695836482824618 -248.462031963452347
22.385262007813999 -76.035123825073782 -248.370178574746319
-67.564350994822362 -78.184043847786000 -248.051891318660950
-67.662621848563418 -77.377656636306369 -248.490441507660535
-58.127713960105389 -78.051338727476605 -248.233043282342123
-63.022196814887558 -75.807794381565699 -249.818209886753550
-59.852973455891025 -77.175519033774464 -247.296564305207966
17.534250442708565 -77.423370167502270 -249.586820430463348
-69.562866057268650 -76.613600262518503 -249.669367538774338
-64.080747652319758 -77.491518839513915 -249.428409018991601
-63.684636153521744 -77.430772073363315 -248.329229172129573
-145.523232149675010 -78.003552886972656 -250.016815969160490
15.903981116814037 -78.620702974423111 -250.748983937030204
-151.269208225640256 -77.991552715563074 -250.025399291531528
-7.897884167403143 -77.974163727858624 -249.939640370612153
17.814665343728990 -78.410214686404160 -251.663246881652015
-145.402942588412174 -77.069060233066480 -251.199567177816590
-149.762330123883686 -79.008402675825522 -251.249435998679360
16.167967456474727 -77.873362070410224 -252.351324424467066
-146.153059450242353 -78.378239321463397 -252.522499123010306
-152.023955366727705 -75.683919908050697 -251.543079207085896
-10.708164446508800 -76.576730016484447 -253.702912250594608
-144.054884148018914 -77.928559113578729 -254.222196321576519
19.845880467226380 -78.467414620485670 -252.302191431420482
-152.281546290710338 -77.114546001994114 -254.932348920468883
-144.533736400541045 -79.118302728689571 -256.727475832786070
-142.184493275974916 -77.558699013274392 -258.032488388024547
19.480918245677461 -78.070488517224902 -256.279289441206970
-156.183418195297520 -78.916673284751838 -257.703644474705982
-147.995024341674281 -77.973470960893764 -257.451902861194014
-148.009570624779343 -76.636728927663455 -257.522106342202562
-141.845641204124547 -76.404096695624716 -257.135061683715776
-12.813671361993910 -77.826663792829109 -256.449800568515514
-140.151943433661330 -77.108208146469238 -256.923334981083826
-138.304411763381324 -78.379646815541292 -257.168543049195364
21.581675082766953 -75.903814631741483 -257.113097669116883
-148.533698460814691 -76.822221738110542 -258.346002747610385
-134.454736864690631 -77.541107845576747 -258.749994974274955
-138.164859391570815 -77.263093270247595 -258.842908012115913
-12.931729286670382 -76.449595353866584 -258.871482038833165
-143.931985593181366 -76.970580410687475 -259.080885525446888
-145.494326816672668 -77.606056610182151 -259.494792046968371
-136.958333155700359 -75.917216522207966 -259.613003147493316
-12.379358250383529 -78.401285377620539 -258.809087925268500
19.717212359553706 -77.037109093393838 -258.857381675208671
-148.026243009551109 -78.227964616977815 -259.107061693688081
-140.447297251163775 -76.245705095858057 -261.101800555192028
-137.495529905050063 -78.807322291925090 -260.008426245398880
-149.311687436891788 -78.657773424180931 -261.429253678232158
-136.656413698120730 -77.363074229855556 -260.924916684487528
20.355642609119531 -78.303364925955862 -261.142701946635327
-153.148039972189736 -76.791062696436299 -259.295295003597005
-153.046551405356666 -77.434846367579723 -263.817230579442423
-11.895307514609115 -78.863001116010068 -263.627745410165062
20.357239567109417 -78.054452178485477 -261.997565020377976
-150.574393424186468 -77.933284459428009 -264.448217592575759
-145.874535423000822 -77.467009278496036 -264.666020232738106
-148.362934441957236 -78.998837761229424 -264.890418963673426
-12.406139251073995 -76.272988352188264 -265.229365097549191
-9.790504667866795 -78.315964489298892 -265.274293770886800
-147.425512691836047 -77.703115977383163 -267.394928038443993
-149.517018909361354 -77.454389340639466 -267.489409149890662
-147.083623649651059 -77.997168739187742 -267.270336313267990
-11.280659725457232 -77.917522991097727 -268.538785968798777
-151.581732772599622 -76.831919783220656 -269.504012276574429
-146.577516137902563 -78.007301099681129 -269.855379850066299
21.118309623703418 -78.206846355092736 -269.223475333954354
-151.633109604159642 -77.440028670153225 -269.733267132730361
-12.207163827831611 -77.430895285477249 -269.388329748357705
18.694481034124998 -77.929632537894548 -270.839852423145260
-146.335633946814824 -77.115594117473293 -270.493762273484094
-150.845143185936308 -76.604935733640460 -271.072761642696094
18.770290464226509 -78.657084574952677 -271.819204789719322
-148.858280907948142 -78.210865290070416 -273.226284719759292
-7.324276964530458 -77.807533199930802 -274.742161289905994
-150.060173491684395 -78.014286642610841 -275.294161722768081
-151.771237265111864 -77.500543001883273 -276.963976203671223
-146.949717839410908 -77.217905189769127 -275.450522497221868
-6.108976738334952 -76.586543718659001 -276.166264294010887
-151.288765962167417 -77.741849192569973 -278.333814208872866
-146.180523582112073 -78.870661541763866 -278.369229357564734
-6.133941308849368 -75.254449716551250 -280.402055379963087
-4.254133574694800 -78.633802179977508 -278.690277790915445
14.652612667024785 -78.238221066842712 -281.653691683694092
-1.889188438520090 -77.055799321934586 -280.771829352466625
13.919837383179809 -76.140652315365315 -280.753482343713301
-149.784328037167569 -77.427523284909626 -280.923840782398202
-0.739754984463428 -76.840286661287976 -281.645673721958360
-2.957628437182455 -77.380829080245562 -281.030939539182611
-3.659309496390968 -76.668002492851798 -283.598377036760382
0.711496384847330 -77.226158211478477 -285.239027428538350
9.547529585225350 -78.463091633846531 -284.225145722547893
0.838754554942245 -77.483577993659935 -282.860771020652010
6.301408537656071 -78.705658889297709 -284.743829640447700
4.194704800807061 -76.208472501472983 -284.861090665082088
8.532545757147659 -76.771707483526626 -284.632053030538202
1.444867323480319 -78.001200524952353 -284.839670514091324
1.896561911463010 -75.983284011699013 -285.660350397007164
6.610308327791932 -77.981187481683421 -285.770737431520445
-142.173956836083363 -77.487328439740196 -284.786259828884738
-30.073581857885369 -75.601109130645071 -286.753495480340689
-156.579571574006991 -76.667246041392758 -287.132208879514906
-46.106386666769161 -76.400528540660673 -286.423119336085506
-38.144367018851554 -76.506618913570449 -287.086946936561048
-35.574606161157661 -76.520718760056297 -286.885617749179346
-34.603087998233335 -76.251031608212188 -287.335287599567721
-32.099857251222282 -77.036285754972738 -286.773467646874963
-28.665939714674138 -75.094482039451279 -286.013122270996462
-25.506650071757868 -77.520703770236523 -288.080905529425081
-150.065170694508453 -77.274876444095199 -288.118685485412982
-51.109727478114131 -78.177965689968488 -287.279272627260809
-45.213638595977812 -77.408145386854258 -287.435506087612907
-39.960944053090728 -77.255765699670874 -288.947531248430664
-30.151337687797220 -78.268814134213741 -286.709261117157212
-25.656756708358397 -77.727944483761405 -287.603999463895036
-23.812383407344065 -78.456461844049471 -286.800168124757136
-16.186603818641970 -78.434968923381447 -286.606589045784688
-10.945264003950133 -77.358096953800214 -289.409241839870901
-130.065265862252289 -76.299807283567063 -289.267876130659602
-129.324787378348901 -77.197970664550340 -287.085291379535363
-35.427362646635601 -78.202403820943147 -288.562257942247300
-24.032576721536593 -77.804870467374798 -287.889499856265104
-16.022014547732617 -77.995105150142550 -287.482265175490284
-12.739267265081811 -75.935988002775403 -287.926675380202823
-8.289517968033660 -78.654377793310502 -287.315658121028946
-3.229434259449440 -76.840155559898179 -287.995220905863221
-154.847423804944469 -77.249724403428587 -285.887998908839904
-133.427635523789576 -77.152482800280865 -288.040804692268125
-131.597338649451842 -77.546656761319824 -286.725359498551200
-128.063290491223853 -76.202700426634635 -287.843226334386884
-125.462166110220394 -76.884349921714161 -287.677630892371383
-55.114144228744429 -76.873375764655719 -288.154386761279284
-50.502685325166013 -77.888693916858188 -287.306582608865483
-34.497878647911953 -75.534344222933498 -287.186724366769624
-26.804151721788429 -77.273348471079615 -288.506174101581223
-22.178341853617528 -78.421889493307205 -287.709448176108936
-6.165124389127622 -77.873359066537148 -289.129201803723731
-5.172747577340333 -75.851338921752685 -287.916455655871005
-132.781424237772001 -76.266894504758952 -289.011506950813782
-127.736189601453688 -77.656858078009506 -288.074281107898059
-124.487669904077265 -76.517132245184143 -288.413600231032547
-56.039746431340738 -77.418356097677204 -288.232161040647497
-51.741733377681463 -76.679468156037345 -287.963156919929531
-47.483650079029424 -77.844465794689228 -288.830674317995147
-39.428985801164558 -76.869404153541041 -287.724979682360470
-12.227229920821621 -77.618916236206232 -288.744895541454810
-8.133257148871827 -77.005460520467167 -288.935889253603307
-3.606798648241431 -76.783113687426166 -288.822096389868761
-0.761335106709082 -76.012793647557785 -289.037682561774432
3.540282686133248 -77.898799580574163 -288.648562513009438
-147.955507737678374 -78.278725305914946 -288.316171820469606
-141.925933992467208 -76.231814192725352 -289.049646229341192
-130.521012671036829 -77.276337213399856 -288.410541140445218
-127.946617316499498 -77.141752593556575 -289.410737780635884
-120.588034762214832 -76.207837207263339 -287.620856343745686
1.563144043940934 -76.299135613649710 -288.228320030754503
6.331960743097306 -77.561982344564981 -288.662562301181481
8.378196678998250 -74.696548606771771 -289.312826303023428
11.917913164662039 -77.556057723321388 -289.518912965781055
-133.277907418219598 -77.460398700685047 -289.262684964047253
-123.241439717532543 -78.026115562929292 -289.202414430653619
-54.586538502673058 -77.712822833142624 -289.933573784711086
-49.557644233212578 -77.089837412224625 -289.595744982213546
-47.134103133749164 -77.349111136842780 -289.393484237526877
-40.476382405695638 -77.698215714102076 -289.634841589328232
0.792690401578211 -77.141130587891681 -289.944836928623545
14.416155293901960 -76.306903826352553 -287.654556705816276
14.975300886425353 -78.039249331323902 -288.982060779414951
-130.090929720455364 -77.200196603179293 -289.545264075711827
-125.549235513300076 -77.097025478226456 -290.457520234487788
-124.539541612224070 -76.458306971760493 -290.796074505240824
-120.164244434450936 -75.099352235500760 -290.211925521802073
-51.592792983819812 -77.064818767079501 -291.517004219093735
-47.583093512999028 -77.539436669014449 -290.506911499860053
-37.151275015796521 -78.776549178023203 -290.753573945844096
-16.479752827266005 -77.942105775642403 -290.424525485429172
-5.395703112889652 -77.027626599692695 -291.086479093414198
5.610343278774078 -77.114299986239331 -289.046640295509462
10.942855039533855 -78.364215416360764 -290.646462523160608
13.824009936947196 -79.724049287026048 -290.405514265427712
-132.773134591452106 -75.998892867828232 -290.376019392947740
-128.845761608347544 -78.159010269780680 -290.130399342793112
-125.881082414277401 -76.569429820554973 -289.631766873920071
-41.128888611231005 -78.228170155689213 -288.868278207882781
-38.739327344060648 -79.890420488425249 -290.441300936068615
-30.769445466569834 -77.638503753579144 -289.304011803159881
-25.232070774347655 -77.201039481013453 -290.171111254840014
-21.745321640544180 -77.670701836217731 -290.120605587468731
15.733832569979777 -77.680410491731863 -290.380759039084694
-143.734224404768497 -79.055112422339676 -290.871855460221241
-134.202560579017188 -75.600696283784160 -292.072527029854541
-126.154546774636486 -78.291622053635521 -290.283704916334159
-125.771854347853065 -75.595301047455891 -290.958631453367047
-42.761868117885761 -76.124835383917699 -291.913893797471587
-41.015027986810715 -76.391208402264112 -290.542501654637647
-33.718468092068051 -79.090355906970572 -291.862312735760725
-22.070328629646397 -76.786492096845521 -290.778478619152565
-15.012152059043476 -78.408751711087987 -292.132983594920461
-5.526290211012419 -78.171992354467534 -289.774954372056015
-2.751942031656608 -77.274980189508838 -291.327842101282215
2.278484473335606 -76.775638293257146 -292.576247919437492
8.068513261894909 -78.110993093871699 -290.141262272586289
-155.260801701144317 -77.658446488354315 -291.387265505855453
-127.249592115794570 -76.775570523823731 -291.090419122665878
-33.155625437686048 -76.527734449537448 -287.981213572101183
-27.604301246223329 -77.286040845043573 -290.945239170695970
-25.167605181262918 -77.252385648262489 -291.198209895318143
-11.466774873827998 -78.282896196029313 -291.285250731450105
-6.791398740531990 -78.185847744784184 -290.287111437862848
6.109878541195368 -77.100891531387362 -290.687617499887608
15.034681935288770 -77.482352388890419 -290.064197783718157
-8.834160821365646 -79.554799361374961 -292.272105632818409
-2.771458793934920 -76.528419692365830 -292.366922685084830
2.296664069055919 -79.214131705356706 -291.518259083324949
6.799151177657787 -78.016931174526803 -290.944767155231148
10.172287543919410 -76.375069536543620 -290.588279073828119
7.973592585735211 -77.282685735072704 -292.223906036555263
12.237589670116440 -76.814147442284096 -293.962607049767314
9.863073709225977 -76.947701722293701 -294.081052365804624
13.866626919234180 -77.360808647298668 -292.815290179042904
-144.205968899196677 -78.363743306846203 -293.589957644773506
13.169061146146502 -77.030369772359052 -292.950987233974388
15.306374745796219 -76.807271692368857 -293.757930509988341
-144.295301718913834 -78.152523406906028 -292.794489266781909
-151.478077157581936 -77.566948326354336 -292.169571493879175
-145.200846458601660 -78.148363711848518 -294.077039009042153
-147.019609343765126 -78.052617057283072 -294.963000113369048
-148.688122467828549 -77.059151286871838 -295.727904223176495
-149.208051146128355 -77.689996322301099 -295.785260176323959
-148.380829115964985 -76.682879003029470 -299.062341766498434
-152.969022987836013 -77.686613816553049 -301.743122202276936
-151.603553966685922 -78.298612461942099 -300.398735032287050
-144.853634512294349 -77.851238982391479 -300.051941910327002
-153.396507819555865 -78.148242502061720 -299.944593788728298
-146.172275369110167 -76.473668645121350 -302.964659613072627
-153.083461300602409 -77.503942071978386 -301.976107417028800
-146.458075332054136 -76.965416538545114 -303.222712370092040
-153.603080060859213 -78.343195347763114 -304.815373316489172
-153.568465507959615 -78.515385588087923 -304.720174409532206
-147.045372479303069 -77.317493000922738 -305.488561458142726
-153.959944606368623 -78.140564394778906 -306.581332741464337
-145.990944842237440 -75.972670209402793 -307.215102583868997
-152.721849286449896 -78.332704465251652 -306.932396626585103
-145.010625635520853 -77.815873663768102 -305.762075319837720
-145.751401679435645 -78.682468336840174 -309.315613827042625
-154.282658944345343 -76.982074480959355 -312.445726149665461
-150.971570279808390 -78.712853827179316 -311.137445819175184
-147.897771578540500 -77.603646354530369 -311.618791465046229
-152.605200724941568 -78.538376221020215 -312.282073322756958
-59.279108397342256 -75.380238349228321 -55.459557082876778
-55.247214671438947 -76.670171539342988 -56.917239895193497
-63.173193436049459 -76.392759328856215 -55.326886929907957
-53.191483667958650 -75.563818333294350 -54.774467658675533
-49.318417894112734 -75.614974380142613 -56.466523913676852
-67.690635332569826 -75.485325522171749 -57.832332145887570
-61.355549105877188 -77.392352607559289 -54.756199641656707
-57.245093239431142 -76.730948584649738 -56.343847676154283
-59.331494305192358 -76.949440298808284 -56.124640341500928
-55.086030034501697 -77.003859059280103 -55.813886761340285
-51.720199888075115 -75.450126539442365 -57.799382781752037
-46.423740068998988 -78.063496534210699 -56.824417627758507
-41.144827243878119 -77.372483973446634 -57.623389883456063
-67.860445974101822 -76.674636855928327 -56.980094190443026
-49.190026070628193 -78.986226603289538 -59.555739768986022
-42.594942775772658 -75.864813312687943 -57.535550227147702
-68.557367900462523 -77.500905825550404 -56.369184272324027
-65.369916590250057 -76.875722690052442 -56.250661746000560
-68.079411497964330 -76.460631380600773 -59.507479870806137
-39.833622854755475 -77.495981148446930 -57.770001987371728
-70.636919109676029 -75.251695560531488 -57.437856765280600
-41.455268314949066 -78.269497026883187 -56.442652793546081
-71.491915103371937 -76.157510152172989 -58.164586926406734
-68.486056018508165 -76.748741265664719 -58.891060885407498
-74.906033185354573 -76.336476774854944 -58.101749996446230
-72.441865198374188 -76.876218997958404 -58.732879868750103
-39.041906985420468 -76.173243562399065 -60.559506106014965
-36.158022815385564 -76.940623851703307 -59.283196170690552
-75.465788772058858 -77.144452169142696 -58.892434230521793
-38.295622796124142 -75.387052414523339 -60.536219389604433
-76.660493380449168 -74.598524367136719 -60.948152181129764
-35.260419134291880 -75.793488130483638 -61.334206874215901
-74.628118038395385 -77.471509447161608 -60.400970681787854
-79.595970163033442 -76.610295654341542 -62.357501048944968
-35.247142825506586 -76.512078637709664 -61.410874837195429
-32.248093881778530 -76.043139085852161 -61.810000143820012
-77.153175237756443 -75.839074961952690 -61.175921716926368
-77.888502362625914 -75.593042713683445 -65.231595502083806
-33.928829492744576 -76.210239841402284 -63.263323114687182
-31.319034225295251 -76.929794099089506 -63.629498537653546
-79.041049398574003 -77.318960172774254 -63.405651378627915
-81.062012622421562 -75.822579204113367 -64.265523208095331
-31.740827169906950 -76.637456241422029 -64.695151344794198
-26.801641630003505 -74.977461445689414 -66.957742699984351
-82.268434199518168 -77.457580140590807 -66.208265378405500
-80.473777321940261 -76.916682143848945 -66.720737507634041
-28.123323249961828 -74.148294020471582 -67.875481927560585
-25.223001567040427 -74.806234594884913 -65.460139450207834
-26.213314236796624 -77.831243593809290 -66.785372794736631
-23.355310482596099 -76.418768489473138 -67.449922171783314
-83.053845723351529 -75.338631600701902 -69.073428202808614
-83.072992913102254 -77.420646569311515 -67.187426138219280
-26.217431825607839 -76.495727826236816 -69.353776914609313
-21.340748803483148 -76.956489694202091 -70.194438430713149
-21.476472408826417 -74.964975421519995 -69.139656014811294
-83.422109644654526 -75.940268422791391 -70.228952202803868
-83.835522370468254 -77.416451191420208 -70.694125441086300
-84.356656244414012 -76.491837542550755 -71.950464051313986
-22.120604415952258 -77.495562144206303 -70.323391997601064
-86.944327968267260 -76.436095001143798 -73.465439499070996
-22.853151576183844 -76.614422753089855 -70.937120844621703
-21.844803512686820 -76.683205907333559 -72.119072892541297
-21.162884189520597 -75.944609392236970 -73.375644642682772
-87.101020488865942 -76.206931468899398 -74.906797875847914
-25.479422713592527 -75.866523205037311 -73.103695967440913
-26.131085599242077 -76.653454953912927 -75.854858009898066
-25.969324989430234 -77.197242308514618 -77.932971599980192
79.190592354034209 -77.586585189165149 -76.227738243039880
78.647187207783190 -77.384839372941940 -77.385873159179141
82.451104959788836 -75.737450682899279 -77.664119790733182
85.664093493976381 -75.539399748876875 -77.577160510238301
86.391389935250743 -74.854837918772660 -76.899569479822915
90.714384066619516 -74.482623901914920 -78.990796706811167
79.124246809600223 -77.227173991775814 -77.377934607959304
-87.678882229877956 -76.368258479631095 -77.108867037617657
-29.845905292758356 -77.129136360784727 -77.250251083048781
79.955093331961464 -78.390331918804108 -78.727753817094197
86.162603197007101 -76.683185215226302 -78.781815256402567
-33.728644448263445 -75.513088455729871 -81.939802540970973
85.290481697553616 -76.058902778259736 -79.911297077859146
-36.953690721350142 -76.584432305124523 -80.285546381328771
76.499853085125281 -75.710081497002648 -80.015483120431895
85.825415267597450 -76.099222761397058 -79.185674162797540
88.804387296900302 -76.888374272750710 -80.379743164495210
-34.770258843186944 -76.788787367572013 -81.017383373949244
-37.814299282990049 -75.149241299877531 -81.277384504782844
-35.711803146701975 -76.506158025029222 -80.807463593945755
77.986485569634553 -74.790366357504524 -81.797149324315285
89.472951416302038 -76.902563625966621 -80.727717564162432
-89.927496189020374 -75.474630276138356 -81.247767178864379
74.352298227388800 -76.569675826621562 -81.026525547431632
77.314649048778108 -75.999786451970749 -79.788955643465172
90.772764148973721 -76.182247443005835 -81.298963446023791
78.392793104403253 -77.563581644037114 -82.264741646192860
-90.321333378828001 -75.680020751844097 -82.541256163057440
-39.529829067994847 -77.652912320108953 -80.804708112167972
75.630074602645735 -76.142331287433748 -82.301196235341891
76.961756590027548 -77.499923450698560 -81.376862055893127
89.771128378320753 -76.703233398854579 -80.210778654808308
92.395319780366478 -76.634218237234151 -82.239142046925522
94.180075554746310 -78.264993467348432 -81.002827835576326
91.474041842714300 -76.613938715009652 -84.701013456862256
-40.381723545371095 -76.585945769190872 -84.291072135645052
78.079204358766333 -77.361119415451043 -83.900996520382378
73.311632971857392 -77.308200731530150 -83.354056733758370
-42.562543776323466 -77.011213334243422 -83.520293817465088
-42.989933176313926 -75.140487332823326 -85.321899391904651
76.374473036775484 -77.996534848867853 -83.475984299636806
90.721712135384990 -75.522526408691405 -84.347850674984613
-46.552299996881054 -75.745031206753694 -85.734226991770200
-89.690923908543809 -77.365183102379234 -86.191880715075797
-48.340530091219421 -75.482662996170944 -86.090773803132478
74.453401655202711 -76.515292462154335 -83.392106315017557
93.468068396760387 -77.030980167416743 -86.151743141109137
75.224207346312824 -77.900170351567098 -87.662759236409570
93.715975583755906 -76.487126876587013 -86.288910968443531
-47.957732258292666 -76.644091416317295 -86.020593688548814
75.937220834449420 -77.906364040623956 -88.669453849581245
90.555356119097567 -77.445770593742424 -86.823916218180074
73.658489165069383 -75.416234769975546 -88.276067415817849
93.517627084414912 -75.666093977472173 -89.723786831691541
76.938793834037583 -76.301829661648327 -89.475838992898531
-90.240663779082439 -77.647350487338173 -89.608690244573751
74.051744890760745 -76.732899724104968 -90.590811887772020
74.270127612899117 -76.648230272627046 -89.726920496156211
94.889071227764475 -75.018221227211541 -91.744054009111537
-53.030408951355902 -77.810839905793031 -91.256726919679792
76.219377410004910 -76.776222423814090 -90.362169692603914
78.957186566826365 -77.711861853834819 -90.719759284454952
93.061130542556000 -75.458812006151120 -92.066933901952510
75.806503260242209 -75.427583198280360 -92.244893210315993
84.320875148091346 -77.056595289333131 -90.950823650222915
75.802997844379220 -77.367595995188083 -92.260151927606202
-90.905461959624219 -76.954431510292721 -94.132985772781339
80.798035028285312 -76.289338146965065 -92.044585636808733
92.733036543990281 -76.865015035351632 -92.395334941721558
79.910091392130639 -75.888742730950369 -94.369587958618311
91.244804728092589 -75.437528374054978 -94.191911582137962
-61.177268587752927 -76.402577926658324 -94.305633594039932
85.478838811576466 -75.519286167288172 -94.756449976509955
77.511863676110735 -75.085923413497397 -95.734700452352016
80.752691055016641 -77.313231544489184 -95.287786085361020
-91.575725646558581 -76.167636110610019 -95.713093241162539
81.414068263350487 -74.845478563612915 -92.897641869459207
85.536239735970497 -76.933828784787508 -93.035965926649737
51.518135971392276 -75.798616909201058 -92.774736881329787
54.018631795188391 -75.425602807625651 -95.808370595160241
54.442993852971874 -75.403807576090813 -95.906681599143141
79.023682686948888 -78.259797279046438 -96.426337565716821
86.386903530185933 -76.994081554309673 -95.168831892911882
89.849107285129307 -77.939223867403612 -95.867964153703127
93.476282311989436 -75.948068262076262 -96.315471745843936
92.177340280250178 -75.740069433206685 -95.293503802457764
50.401758380261576 -76.259601555860684 -97.141274920837517
50.847278236678662 -76.116569053740037 -96.470043059101698
80.494365263029806 -76.720123627304645 -96.485822609611319
82.313925989772940 -77.123418113848402 -97.344430049578420
86.917610671713106 -75.892726247656398 -94.595646229932044
-62.778698579621022 -76.593248304899134 -96.435029964066558
-64.861695662282003 -76.195713638488812 -96.701210790759873
87.182901598890382 -77.067517823791050 -97.143718435964772
48.478446150453678 -75.167091529896055 -96.786782323898024
50.822871475524842 -76.062473890491489 -98.510853547106748
49.389900317018679 -75.895332615297235 -97.684589642986438
54.559025496842345 -76.109277057958565 -97.574250166282269
55.154316809276757 -75.792305103338720 -98.478181111562378
46.646801202711522 -74.437483922199803 -100.468012963781845
-68.622348034331580 -75.683540838691130 -100.525361022605267
-77.235899994547552 -76.461568495416500 -101.700051710731586
54.029249030668488 -76.404161284096972 -100.245087684760776
-77.207445114503599 -75.171146002789044 -101.489462907433492
-70.370891221397258 -76.423139790916679 -101.115505900805914
47.589138308946040 -75.986158718117665 -101.679232472128078
50.615070395102009 -75.918640208178545 -99.715119243890015
46.304894344704685 -75.571957296125035 -102.033635038219344
-80.674278009631010 -75.933052052268579 -102.159983527454983
45.177301719220146 -76.293061448901312 -103.285598138836647
47.140262048746202 -76.092449187833026 -101.363512690855586
-81.087130842866955 -76.735315465347043 -103.152191624914167
50.256631549662806 -76.253161330880687 -103.331742798319965
49.658608537926000 -75.863132908704699 -103.193686814132050
45.726298953138958 -76.180296902852859 -104.063557257754510
48.760032883479887 -75.754598602960641 -102.575743292900142
-80.780663062053094 -76.335394884436312 -104.217380688191582
-91.985625790701988 -76.864388157891824 -105.410904815652714
44.949092191463386 -77.131214490139314 -103.796850847569260
51.305208770120913 -75.302552375550192 -105.392628799616290
-90.117212021466671 -76.236274027710323 -106.415799094747825
41.311919509138235 -75.588053046089911 -105.599495605260387
42.319301773757793 -76.381463390743846 -105.060068487011549
-81.889952786673973 -75.950356442093451 -107.138795023561926
51.463185058172336 -76.964011117985706 -108.039125441371795
-91.080605139079879 -77.219744211563125 -108.429192501117555
38.772517334533298 -75.992059398182079 -108.853520164047936
38.586452850451067 -77.293644788793557 -109.163895778142916
-85.310962122063231 -77.210818743185897 -112.031966056523515
50.604282817549141 -76.236447692773964 -111.834981311846278
40.017148000571090 -77.107293288100635 -111.146100480486211
-85.748463046908981 -75.110649129528539 -111.063534611298763
45.400073228709580 -76.112797534949664 -111.341890492936571
-87.419214175091341 -75.261124331218895 -113.065969140770633
36.441768903095749 -77.208840044166749 -112.764495112308737
38.608323863827984 -77.062727843388728 -112.725226081417503
49.592091707234914 -76.062742258561940 -115.280611480850538
33.745586127067845 -76.141173870792230 -113.090318232194562
-91.372304777082476 -77.368586040604669 -114.158116562528178
-86.095419909918164 -76.269343758790455 -115.592472634943135
39.595687120319681 -75.801516835804165 -115.671511990772089
-89.020955759101355 -74.908937822570138 -114.412082409819490
46.512600487714103 -78.158180297317202 -113.712634185992940
34.073952275036170 -76.854806952164452 -115.124061997580569
48.272018572801549 -75.509629621231554 -114.536471041668449
37.594133355798192 -76.224181939950910 -116.470786932327329
46.339534411989717 -76.127995321584393 -116.280904910773685
47.636233487978899 -76.357932131772017 -119.617511695432370
36.573144356793073 -76.568754202888854 -117.484060488252595
31.464382178092023 -76.302041572407333 -120.235340854685504
43.482607685277621 -77.317366069565708 -120.513976442036153
36.014432921323937 -74.360178002547869 -121.621994120008225
45.031905685016355 -75.817702988965905 -123.011589241415933
33.491596608315668 -74.074029572000754 -122.682483737772216
41.279084312939467 -77.310515230293817 -123.658570986757368
42.121988157324694 -75.743240453244638 -123.866153141824441
31.801191342235860 -75.316749614122003 -123.320128022762873
32.544418150911909 -77.425985746745027 -123.307825617136132
44.675859957408640 -75.323129274142914 -124.925470727526971
28.724286868686150 -75.680898721487452 -124.852362020478111
41.379435098606187 -76.539309372592101 -125.768501491011776
31.273640652822362 -76.946498941597696 -126.737279910925025
39.060587008298221 -77.809184257431966 -127.000050988577286
110.485812741487038 -76.061522996596238 -128.643323516227866
113.345528448603659 -76.100658645301380 -128.106182755491346
27.402997259479942 -76.607407144586276 -128.844441670574099
30.408602941754420 -76.052323306389567 -128.622451378896670
40.894121216169346 -75.813791854047011 -130.599323296414951
112.083839222428168 -77.085399845940245 -130.168735224896494
113.444168118907783 -75.931552572486325 -130.952348088048268
28.919283032496878 -77.264689359418909 -131.551109980740875
29.730930985157027 -76.522811114496960 -131.470399343060365
38.871793447539417 -76.604426511644448 -132.841029906681769
40.239863729532964 -76.139353532743314 -132.389094393495640
113.002947586035447 -75.007098270535963 -130.902223774972128
27.586926788888160 -75.444883799342833 -133.845335125096426
36.894066313993029 -75.049107752451988 -133.077921331411062
28.787349654932864 -77.060321132451620 -134.700134058485617
38.226431574161204 -77.831476622649262 -133.393104197215393
114.664413558600316 -77.318114067711520 -134.290238458551443
116.001417768044320 -76.179407611114314 -133.075146429562750
38.635242438978025 -75.339948835607572 -136.367845811428310
112.734114537189512 -76.736032377221719 -133.708590818568325
26.734224018972274 -77.306857764188919 -137.184226746638444
38.454203432778122 -77.014260590423689 -136.230123543657584
25.551354703984916 -76.866428503087789 -136.398932221878596
111.294746600753854 -75.918038599245321 -136.360350196948900
114.220183001866829 -75.552885270097946 -137.169862597275625
28.024035093279075 -76.962657106140043 -137.670926037327291
35.853194883556206 -77.213346666553917 -137.205112033701624
37.425997197521902 -77.023918430011506 -138.555400135199960
-52.852678519035962 -77.215443104507557 -139.078702659521355
26.130368900344163 -76.736912507032145 -140.255246025023411
-52.611432308007721 -75.448358215852807 -137.567145156147518
-48.728079630082043 -75.020158354654086 -137.672444280919734
-49.467361667294000 -76.320001736742029 -139.562406919465559
26.320917328583626 -75.480865824499517 -138.663396688430623
112.351546591111330 -75.950496745833433 -138.256279789757258
-48.554528997925786 -76.214240645369244 -139.907510133851048
38.569419539933577 -75.698360116792628 -141.750276316679276
112.952993983645342 -75.410047447498627 -140.012453867246222
-55.333827450489892 -77.031642368616716 -140.500835201914271
-47.056544569957545 -77.475857798945697 -138.346609026893049
112.197052788290534 -78.497433433687576 -140.502545309426978
112.641067288504530 -75.959880444139216 -140.915371761786076
26.775728241661710 -76.027418165639205 -142.508135050548759
33.371064434219960 -76.912099529885623 -141.971887583125437
35.820220507489900 -74.591362207931297 -142.898701939567246
112.979101406836975 -75.447433102715948 -141.429277782071239
-54.530700262987651 -77.366130255370379 -140.436102323379544
26.026292096056732 -75.319301630873795 -141.468185827515896
-52.106905297271545 -75.081452961472095 -143.984938233070409
-48.450758459830503 -75.935433654226500 -143.593956584307932
22.903796535661236 -76.250652143873694 -143.130684489892445
108.930941344093199 -76.130165243636370 -143.590875228417190
33.156087195486158 -75.709962934530907 -143.993054019579773
112.564812923602787 -77.258122303848324 -143.101551385346227
-52.039059454371262 -76.535490583008752 -144.751290292720512
-50.139122014021375 -76.961535456947288 -144.625829242654646
-49.587374110737876 -75.756644035444737 -144.489833807170811
-46.887648442255639 -76.559255146494166 -144.343003920145520
24.348848856397776 -75.369144124312626 -145.354354764789889
116.030477208342617 -76.351455529593125 -144.331926196226021
110.763509972967839 -76.733088391179535 -145.161776863712419
113.845952972916024 -76.490160281464185 -145.314274359821354
-46.274031086403454 -75.679555117989182 -146.188271327716279
25.385372694829844 -77.384648670630298 -146.473967926142251
25.253780556870211 -76.627727685769017 -146.491797504186081
112.247395155156127 -75.936416453293603 -146.139606372000287
-51.351431227468993 -75.826120734767173 -147.197925640066842
-46.002053889863852 -74.642087980211755 -145.584673255787692
34.864745460615055 -76.577471613785789 -147.602102037636286
114.018615951439443 -76.173733626261964 -146.786151474939004
-43.134990513949482 -74.972537146696695 -148.160072279232594
23.453975215753800 -78.140228154899972 -146.158527946802565
24.004466537321942 -77.458825852560409 -147.441787401081370
32.453324058748265 -77.284189337149655 -148.718879376579594
113.066347747376696 -76.381354950888493 -147.002788801044574
-42.330791886548297 -75.022076027634157 -147.726623234089601
-71.848862587258267 -76.565619543589690 -148.516563118997396
-69.871364816760263 -75.878308061447584 -150.013800810400198
-70.218468917570476 -76.447150223175015 -149.035708289088660
34.537864620606214 -77.147643276717048 -148.013520561463366
113.344565006695589 -76.502961298973275 -149.778020078816638
24.156347946041677 -75.925267772261265 -149.859369839944094
24.457668686856710 -78.279327188028574 -149.438557550373218
-70.439229875477054 -77.573154099538684 -148.989163433463375
32.544013592370341 -76.563263590029337 -149.680457609711567
-68.267984793537337 -75.959787353882575 -149.802470777476429
-39.655223969073198 -77.619262076556907 -150.401062169892356
-70.310722755982383 -76.848203273259529 -150.090457530075525
33.825011850397750 -77.588290086229264 -150.293200178378726
-67.080432183966209 -75.667396895376655 -151.396427948533017
-40.595724340906415 -77.574710932265432 -150.437285266177810
32.480303916851796 -75.658493547872183 -151.288662339106963
110.547481310261901 -76.706289438494224 -151.964754615938119
109.940131946270313 -76.966048512075602 -151.220174389980457
-69.915283494417764 -75.949717717306811 -152.988605080562536
-51.221386618313176 -78.361044805763356 -151.255285662558464
110.616733045883819 -75.581100172119363 -150.463143663568729
-70.229308422874468 -75.989338512962902 -153.237151727661796
-67.859652310541378 -76.886436204711515 -151.486058385224169
115.826058450502529 -75.148426333247343 -153.625077402713259
-49.505852613139048 -76.420637241437547 -153.153853297352100
-40.774871616521473 -77.583400316582086 -152.549176779121922
-39.014305344743057 -75.355244753028828 -153.595715339596950
22.339684797718522 -75.975774411306588 -153.544502512377022
33.149903489795463 -78.230604345716429 -153.146454765934834
-50.595354098426576 -75.979958006859121 -153.560307677865580
-70.154413905268925 -76.688890602221349 -154.006353609561188
115.065392443552199 -76.591285408071457 -156.075273416559014
-47.809679234702706 -77.156803030814785 -153.772536461743783
-40.615303993137800 -76.051357933230065 -154.547293168307931
30.059440517320994 -77.933389085022412 -154.171339191886972
32.431434239954172 -77.180362634347148 -157.079569623019665
-66.009940152861333 -75.729575371542879 -155.591766418645079
21.982810128372460 -77.881477482923628 -156.688178349049082
115.734953864903957 -77.671913876953852 -154.698838895948057
-48.336252022869324 -77.357334743994699 -155.744463439111200
-39.276988335038020 -76.198188664481606 -155.811301356236811
110.340193011662635 -77.822276798535682 -158.105158547263841
114.097154572579583 -75.148907203170168 -156.240126318376980
-63.433423477338643 -76.684252960929612 -156.156555456760202
-48.120877587308769 -76.735581990049710 -157.035968309943485
29.780041205225022 -77.586603235857851 -157.781286795744933
21.076781152282333 -76.345755528935399 -156.554527280360929
22.859193443344751 -75.194796924233728 -156.720551523487046
-65.094426382545606 -76.496824245428868 -158.322693823722034
32.132532963554908 -76.427578954010670 -159.386514376803120
-36.696571226270152 -77.393078938994833 -159.300767652199994
5.163113932114161 -74.890673613219775 -158.773391708313511
-61.413945757821388 -76.150888604115238 -158.584208608298951
-38.420490789493293 -77.050778388687405 -159.520050856528712
-66.178365204367026 -75.969186760776367 -160.860078115877883
3.793243844505773 -76.004976028466885 -159.434871318413599
3.891400086882731 -76.989995110329161 -159.825316447650778
-67.677517138532522 -77.238228643751611 -159.012775690853232
6.804793913206379 -76.093820098091584 -159.241077259974958
22.359266763440701 -75.343969340195073 -159.582733676043574
113.379773436647611 -76.540644786392491 -159.309845566219735
-47.944515735966277 -77.508094170634237 -161.149848252705539
2.835781313917667 -75.305052505590226 -160.775674436363829
29.161929324621834 -76.292442416741352 -158.565396826700152
-48.009970698857373 -75.084410458959326 -160.153022273262195
-63.094456713514404 -75.260883490955607 -159.958617283938395
-61.779905355450708 -76.253756660236476 -160.248373215552533
-33.077205768067252 -76.715415308303292 -162.363328747342052
7.889649167623761 -76.540765205649649 -161.392315231176411
109.719184657948759 -76.969849253339433 -161.788799065755882
-35.660603019476923 -76.543340090511649 -161.438886287046927
6.597927195586823 -75.570967532751197 -161.172055440318161
32.205613419043289 -75.289090027915080 -161.484387255339954
113.595719090219518 -74.905831683748048 -159.986628413587283
21.245110720706293 -77.030136982357647 -161.469453293948618
114.014088637286960 -76.559505460928250 -162.554886212199278
-66.566280445444775 -76.442968624682095 -161.816179771621677
-60.472271599791469 -75.942557525053971 -161.910796355642049
-44.243821041353236 -77.421824480683512 -161.678684134107925
-65.205760976783324 -75.979036670859458 -164.455950091280755
-59.977920077923407 -76.732817133763660 -164.386958560600419
-46.449325226177073 -77.900375540796674 -164.667614899958210
-65.864277992863279 -77.204261911778900 -163.339258991500543
-46.361075229726936 -76.855121727127241 -164.234036676627852
-29.950309060523786 -75.846076410263905 -163.654667085064858
20.391341795471103 -77.140349938727738 -163.917797878500409
28.634845517510605 -77.447518377861783 -165.197549069593833
-41.173461585553575 -75.823595559809121 -164.565413253153025
-5.510893407280049 -76.185789937312961 -164.115196006122432
29.844219908564298 -75.937803515765722 -165.616364912057776
113.984878585150668 -75.504106247329261 -164.559873722984349
-57.970901146672880 -74.874028120068147 -165.994493955017958
2.892077724667601 -77.792703369896287 -165.962579196437503
109.703010531974655 -77.041130884164289 -164.310513862918640
-60.399758969018080 -76.843072820075463 -164.832844609871643
-30.938438400747408 -75.673960147411279 -163.424281607289430
-43.536623612513544 -77.112886065482925 -163.712404972503407
-41.598703059670676 -77.451813078782948 -165.841710373434665
-63.009244820927471 -77.297424829211153 -166.110520769037493
-61.961188145905695 -75.805859219862512 -165.813163150643135
-31.783753995632726 -76.648236557714327 -167.921795290403821
-6.394560756055233 -78.106693899382847 -168.325829914405176
3.378220931551859 -75.592849363941781 -166.699810627651573
1.963309801023869 -77.867208459686424 -167.156671561427032
19.960205321214382 -77.006981834624582 -165.600820574584361
-57.777701551917595 -76.875393877172527 -165.224420062537007
29.575308141198146 -76.041287884705511 -166.553002186495604
-65.940210281869241 -76.024396859767052 -167.236309537899899
29.132400723515534 -76.822885881068558 -169.010508514878921
-59.951007026269487 -76.692659600372309 -168.743574558174515
-32.155789816478070 -76.915961489564708 -166.598743288857605
-29.493509058600015 -75.624374554021600 -166.833062397391416
2.878324103541798 -76.440235581940215 -167.285353215340109
-7.590832376089566 -76.016239174838574 -167.596360775583491
20.679586744637774 -77.191663773686116 -168.310776951503556
-44.080672467453880 -75.673458068284816 -168.608910681929217
-58.797224352133981 -74.977496019054442 -167.042118348941756
-38.416113589691662 -76.386856794523780 -169.922313004603041
-59.348908300036449 -77.036148306619069 -169.464816202680453
19.309555608719517 -76.925309973795677 -168.914705394526379
-65.050062183631610 -76.429188123686345 -171.250817439907706
-41.250678734869680 -77.521889996482798 -171.716269920522024
20.599421824328743 -74.791003517595584 -169.274225108134232
28.951881034555448 -73.974584377505096 -170.074319307679133
28.679142142955911 -76.038879079588170 -170.372507762810329
-40.353319895857098 -77.227302691949347 -171.077830900656267
-9.823710052706641 -77.124198688146109 -169.183479820754684
-0.713489038451809 -77.168626586628164 -170.052685720971226
-39.495368653181991 -76.295854638923856 -171.078760422880066
-65.879081196625066 -76.734953895486711 -170.427672541643432
-59.022547652772907 -76.453507615477562 -170.308566529614069
-27.779756520601747 -75.384667468909115 -170.303929535960407
19.601937540983446 -76.952766560128396 -170.827422742486050
-38.692974921798815 -75.979585599474703 -171.807695007693013
-9.071636521354197 -76.615285026176522 -170.372038578617492
-1.276566172853907 -77.505573767866110 -171.165860801520267
-60.507704369086717 -76.331547459723737 -172.680377878730326
-63.161954137861073 -76.848778481458211 -172.650790427079869
-54.454108796089749 -77.988480249169839 -171.000089483718625
-4.719040548800884 -74.105527019194923 -172.803732074047701
-39.637155325931317 -77.402442979551708 -173.500118377643219
-28.914956920917621 -76.801400886300797 -173.095837052010211
-10.501498738791630 -76.893782227820395 -172.458632356248728
-56.947743064796121 -75.698260299447099 -172.436399597393461
-12.405923109207906 -76.247204109774017 -172.771138609946092
27.578849801751613 -76.484697642048687 -173.009474523112942
112.135645994489607 -76.505614440648969 -174.116640046812847
-59.190545557229456 -75.256306066697746 -173.836381445888691
-37.042276485929499 -76.340864175726225 -174.196179810101711
