-49.555847167969 -76.984733581543 -239.905242919922 2.201492786407
-55.124450683594 -67.801025390625 -236.411346435547 9.176334381104
98.423446655273 -74.802726745605 -269.462371826172 39.769081115723
56.742610931396 -75.647476196289 -263.037322998047 13.672204017639
62.716899871826 -79.760566711426 -265.820251464844 19.910762786865
-91.151672363281 -77.590728759766 -215.850219726563 0.809893488884
103.690658569336 -79.225234985352 -275.404785156250 48.013870239258
43.930416107178 -79.052154541016 -252.237274169922 7.509912490845
98.831787109375 -80.379180908203 -268.721191406250 40.138542175293
106.078292846680 -81.965576171875 -262.501037597656 39.918601989746
100.476119995117 -79.451911926270 -262.551971435547 35.807662963867
73.122726440430 -76.687309265137 -258.877410888672 18.429176330566
87.633224487305 -77.079406738281 -256.927429199219 24.275831222534
53.002155303955 -77.589065551758 -242.157943725586 4.793789863586
109.156982421875 -82.329902648926 -265.860809326172 44.424060821533
47.828624725342 -74.987190246582 -246.835052490234 3.464638471603
41.236133575439 -79.334487915039 -248.730072021484 8.362144470215
113.105743408203 -79.551452636719 -260.105834960938 43.008167266846
-71.079757690430 -75.112960815430 -208.478897094727 0.561983227730
49.684352874756 -77.962280273438 -239.455230712891 7.518754005432
39.444988250732 -74.684303283691 -234.434509277344 14.632672309875
105.962371826172 -81.918197631836 -258.208312988281 36.966964721680
42.827426910400 -79.744117736816 -238.823638916016 12.377897262573
-79.306121826172 -72.402618408203 -202.947540283203 7.221103668213
-86.049011230469 -74.478622436523 -198.895080566406 12.418741226196
107.214752197266 -76.038887023926 -249.482864379883 31.898948669434
-84.137908935547 -70.163284301758 -195.700393676758 15.369708061218
45.201068878174 -74.473022460938 -229.630218505859 15.089784622192
43.079669952393 -76.730995178223 -229.427932739258 16.765735626221
-71.728897094727 -72.016044616699 -193.338272094727 14.257270812988
42.472675323486 -77.300247192383 -214.727996826172 23.866443634033
117.037307739258 -77.471786499023 -239.622680664063 32.342960357666
-38.877059936523 -72.538055419922 -190.369644165039 5.740128993988
-74.347045898438 -72.264373779297 -184.852066040039 16.422670364380
47.092227935791 -72.740280151367 -219.466262817383 22.180625915527
-74.073867797852 -75.046394348145 -180.364791870117 13.254895210266
-72.714202880859 -68.658065795898 -177.221115112305 11.013814926147
-35.777252197266 -71.187713623047 -190.553436279297 4.715717315674
-55.475120544434 -73.221984863281 -181.989837646484 1.701328635216
-37.739875793457 -73.442642211914 -193.348602294922 4.198621273041
123.073379516602 -81.243385314941 -234.540588378906 35.676052093506
-58.428108215332 -70.075691223145 -184.155258178711 4.708897113800
45.563602447510 -75.597984313965 -219.247131347656 23.671594619751
-62.823459625244 -72.174873352051 -179.310089111328 4.928788185120
-58.853050231934 -71.854782104492 -185.024124145508 4.539228439331
-75.050003051758 -72.624755859375 -175.796691894531 11.197324752808
-37.084831237793 -73.796150207520 -179.374572753906 1.966300368309
44.562923431396 -78.804946899414 -203.688354492188 21.996709823608
41.874637603760 -76.385375976563 -199.164779663086 17.660446166992
32.328750610352 -79.169845581055 -201.681716918945 11.088000297546
123.028900146484 -78.750228881836 -225.553558349609 30.841436386108
-73.685813903809 -71.449218750000 -163.397537231445 5.485621929169
28.773895263672 -72.536773681641 -192.647705078125 4.165523052216
-52.687828063965 -71.324974060059 -168.525863647461 7.010920047760
38.064426422119 -75.501586914063 -197.867568969727 13.693572044373
-30.226909637451 -72.564529418945 -172.671035766602 1.931287884712
25.643280029297 -75.212356567383 -190.714569091797 1.246691346169
32.466899871826 -71.526870727539 -187.505355834961 6.445747375488
36.603206634521 -69.530334472656 -183.075286865234 9.620558738708
-27.958526611328 -69.307922363281 -166.071411132813 3.520900726318
-20.787723541260 -72.936370849609 -175.940933227539 3.661322832108
-25.974411010742 -71.057495117188 -168.118896484375 3.756468057632
-78.087265014648 -68.159576416016 -142.066116333008 2.181399106979
43.107784271240 -72.310325622559 -174.196090698242 12.317546844482
-10.732845306396 -71.333923339844 -156.900909423828 11.138116836548
38.279712677002 -69.290382385254 -168.550704956055 8.451980590820
-115.476150512695 -66.926620483398 -127.512084960938 19.333681106567
-9.229246139526 -74.247413635254 -160.439437866211 6.950321197510
-125.749832153320 -61.974685668945 -122.696548461914 27.711479187012
46.733371734619 -77.125274658203 -166.863967895508 14.070565223694
-10.168094635010 -70.429565429688 -161.778701782227 8.535774230957
-80.407699584961 -69.839355468750 -135.318145751953 2.608390808105
-78.141441345215 -63.944137573242 -130.210998535156 0.770624816418
-3.716619491577 -75.066993713379 -149.045349121094 12.261023521423
1.665515899658 -67.403564453125 -154.601654052734 4.630962371826
39.761478424072 -73.241020202637 -157.310638427734 6.205231666565
44.782382965088 -74.357658386230 -150.408691406250 8.645266532898
39.033786773682 -72.537788391113 -159.557189941406 6.446785449982
-111.553100585938 -67.361480712891 -116.384628295898 13.739613533020
47.187557220459 -75.900840759277 -158.584716796875 13.971602439880
35.643733978271 -71.841148376465 -148.435852050781 1.792845010757
-104.112045288086 -67.672355651855 -111.236343383789 6.263935089111
-81.933219909668 -67.397369384766 -116.549774169922 2.991342544556
43.888668060303 -73.328018188477 -146.070526123047 6.591271400452
-83.516906738281 -67.976585388184 -114.631591796875 0.998624026775
-76.608291625977 -72.071006774902 -121.182495117188 3.250642538071
-129.640060424805 -63.565544128418 -98.277862548828 29.380348205566
5.883411407471 -71.315147399902 -136.564514160156 13.104611396790
41.720905303955 -73.197967529297 -146.436447143555 4.843164920807
-107.123336791992 -65.262489318848 -100.580902099609 9.046784400940
-99.506057739258 -63.847045898438 -100.325973510742 2.171251296997
11.903202056885 -71.736610412598 -130.673004150391 14.114896774292
19.099967956543 -69.520545959473 -135.709350585938 5.971430301666
16.710792541504 -69.794921875000 -133.553634643555 8.503036499023
-104.832489013672 -62.401245117188 -100.881164550781 6.195258140564
16.925601959229 -69.646621704102 -126.370376586914 12.330257415771
23.210186004639 -66.565475463867 -126.894699096680 7.383236408234
49.116268157959 -73.840232849121 -137.295455932617 9.242412567139
18.221111297607 -66.842247009277 -128.363998413086 9.259899139404
42.132617950439 -70.905906677246 -136.455307006836 4.874393939972
23.595664978027 -69.181327819824 -125.486053466797 7.246665000916
12.320598602295 -72.319923400879 -125.865371704102 16.474178314209
47.337291717529 -66.375495910645 -126.784408569336 6.966532230377
33.316352844238 -65.453338623047 -124.101181030273 2.805647134781
45.800937652588 -73.900680541992 -125.723571777344 3.656738281250
30.909244537354 -67.670730590820 -115.886428833008 5.832876682281
-116.425582885742 -63.127998352051 -75.745513916016 17.207426071167
112.591156005859 -71.157218933105 -146.042831420898 2.209931373596
-94.107589721680 -66.519592285156 -82.899627685547 2.223144531250
-94.135719299316 -63.150428771973 -84.340393066406 3.407899379730
28.159332275391 -68.880645751953 -116.744964599609 5.970447063446
46.809360504150 -69.970413208008 -113.047088623047 1.270635366440
-113.452728271484 -63.903900146484 -72.111602783203 14.847475051880
119.418304443359 -74.938354492188 -147.877761840820 3.218761444092
34.272853851318 -70.953651428223 -117.834823608398 2.598817586899
36.235027313232 -69.390861511230 -121.360504150391 1.537083864212
108.596847534180 -70.047821044922 -135.317489624023 2.369711160660
39.427112579346 -71.568794250488 -109.768661499023 1.309585928917
22.652114868164 -67.393585205078 -113.250000000000 11.526803970337
-82.937774658203 -66.031791687012 -75.720764160156 10.036079406738
35.328968048096 -69.395812988281 -106.605606079102 4.185435771942
40.407772064209 -71.770614624023 -113.044982910156 1.197838306427
103.268066406250 -73.631179809570 -124.300933837891 5.150705337524
-112.300796508789 -61.855445861816 -63.458038330078 14.148450851440
29.556930541992 -68.926597595215 -96.843307495117 13.321074485779
-122.547958374023 -60.393829345703 -60.010223388672 24.274827957153
50.279743194580 -72.042884826660 -105.314697265625 0.422113418579
-118.196578979492 -62.046859741211 -60.979858398438 20.178812026978
-112.566955566406 -61.220596313477 -55.219696044922 15.869320869446
96.565887451172 -71.170509338379 -115.257171630859 8.213087081909
100.930984497070 -70.133544921875 -119.243148803711 5.590796947479
95.530395507813 -70.583831787109 -115.776306152344 9.414597511292
92.493453979492 -70.774002075195 -110.262008666992 4.533195972443
-108.029098510742 -62.130271911621 -58.602111816406 10.904795646667
-107.918792724609 -64.871894836426 -53.868255615234 14.110071182251
30.104698181152 -65.353004455566 -92.262145996094 15.025119781494
-103.418655395508 -63.277671813965 -57.030181884766 8.580302238464
62.289676666260 -67.926872253418 -99.431930541992 3.408072710037
-119.750305175781 -57.446701049805 -48.155792236328 25.218992233276
-118.613265991211 -63.768318176270 -50.984222412109 23.560258865356
-36.206726074219 -64.072532653809 -73.913177490234 4.548039436340
-117.204132080078 -61.860504150391 -39.520050048828 28.351121902466
-37.243061065674 -65.316200256348 -65.389282226563 8.421606063843
84.781829833984 -70.931472778320 -103.567810058594 1.325801849365
66.223709106445 -65.909530639648 -95.366470336914 0.939862787724
-106.268005371094 -61.018722534180 -40.543731689453 18.995141983032
-51.413906097412 -69.504302978516 -58.079406738281 5.805017471313
82.344696044922 -69.622581481934 -100.296218872070 1.093183279037
-55.151817321777 -57.946594238281 -58.230468750000 8.730050086975
-101.151580810547 -65.946624755859 -38.530853271484 17.175994873047
-55.822265625000 -65.077964782715 -58.224029541016 9.745012283325
-115.670944213867 -59.659469604492 -40.230834960938 26.422700881958
-62.056968688965 -62.456420898438 -51.543914794922 8.287120819092
-99.996734619141 -59.732322692871 -38.334808349609 15.549416542053
-105.763168334961 -63.209259033203 -38.779113769531 19.837915420532
-112.879104614258 -61.997100830078 -36.599365234375 26.723543167114
-111.398147583008 -63.179290771484 -38.468505859375 24.755851745605
-112.004516601563 -61.264648437500 -34.847229003906 26.836009979248
-112.815811157227 -60.832046508789 -37.783233642578 25.806697845459
72.016479492188 -67.567314147949 -87.539764404297 4.969148159027
-97.223236083984 -58.803924560547 -41.336822509766 11.415680885315
-91.644973754883 -61.330947875977 -21.400543212891 25.959278106689
74.044097900391 -67.301940917969 -76.505126953125 5.497878074646
38.533771514893 -65.190444946289 -68.520996093750 23.693935394287
-68.558578491211 -63.061065673828 -27.689453125000 16.171539306641
-78.182647705078 -60.361129760742 -23.333953857422 20.427022933960
-75.748779296875 -62.229492187500 -21.392395019531 22.281961441040
-69.111869812012 -61.120887756348 -26.066223144531 17.601305007935
-56.050556182861 -63.101409912109 -25.526885986328 17.844636917114
-48.605842590332 -65.851699829102 -32.023132324219 12.873904228210
63.626834869385 -63.917015075684 -57.019683837891 8.249006271362
-27.771654129028 -62.414550781250 -33.593566894531 14.565986633301
-89.854309082031 -60.044235229492 -17.663085937500 28.761901855469
-43.641395568848 -62.230491638184 -28.250000000000 15.599262237549
-69.869964599609 -63.676010131836 -19.473815917969 24.482629776001
62.732837677002 -64.453758239746 -61.191894531250 7.573051929474
-54.141151428223 -67.052787780762 -26.691528320313 17.270009994507
57.605495452881 -66.126785278320 -54.426605224609 14.977533340454
-84.077346801758 -61.323135375977 -18.765777587891 26.508520126343
-91.491088867188 -59.590667724609 -9.292938232422 37.144226074219
-91.393363952637 -59.346282958984 9.607696533203 55.358947753906
-89.352554321289 -59.974288940430 6.651885986328 52.068267822266
27.374118804932 -80.206787109375 -324.788391113281 33.835494995117
6.691532135010 -80.592201232910 -307.579803466797 15.065843582153
14.237506866455 -79.939384460449 -308.597259521484 14.945055961609
-55.573402404785 -75.561035156250 -277.603912353516 7.108893394470
-20.692571640015 -79.886917114258 -271.963867187500 8.539738655090
83.950607299805 -80.861106872559 -295.326354980469 54.095493316650
59.492008209229 -84.932678222656 -286.880554199219 37.719871520996
-28.397045135498 -77.110771179199 -257.234588623047 13.572164535522
-96.022796630859 -69.764328002930 -225.883178710938 3.487746000290
-43.773468017578 -75.873397827148 -244.431610107422 2.212705373764
55.940280914307 -80.796051025391 -273.759765625000 24.438369750977
57.895397186279 -77.544715881348 -269.795593261719 20.543695449829
49.816593170166 -81.659942626953 -265.585815429688 16.726707458496
-57.471649169922 -76.038253784180 -232.458053588867 10.695468902588
63.068569183350 -83.595642089844 -267.467010498047 23.305431365967
43.334522247314 -75.459632873535 -253.341308593750 4.120375633240
66.265731811523 -78.153549194336 -263.073608398438 18.328214645386
-59.164257049561 -76.334396362305 -226.014404296875 16.212934494019
48.235599517822 -77.280883789063 -259.539764404297 9.377856254578
45.365459442139 -77.068382263184 -253.312377929688 5.495376110077
101.273086547852 -83.517456054688 -266.670227050781 40.513160705566
-62.415489196777 -74.365203857422 -222.234771728516 12.196264266968
108.253616333008 -81.720794677734 -268.954956054688 45.933147430420
-73.801361083984 -71.692840576172 -216.811279296875 4.939771652222
55.660045623779 -76.178695678711 -249.446411132813 4.811288833618
48.136463165283 -80.391372680664 -251.523284912109 8.108349800110
91.126190185547 -81.988166809082 -260.468811035156 30.103725433350
84.850463867188 -81.306121826172 -255.776580810547 23.533353805542
55.765094757080 -78.871658325195 -249.787994384766 7.030334949493
-68.495574951172 -72.736267089844 -207.909240722656 3.750700235367
-67.972366333008 -73.886932373047 -203.981903076172 5.237424373627
-70.417694091797 -71.631057739258 -199.861495971680 9.115924835205
-82.610115051270 -67.716926574707 -196.474609375000 15.050143241882
107.073944091797 -85.079521179199 -251.654479980469 35.167201995850
-77.908683776855 -70.204048156738 -197.114547729492 13.192227363586
-66.180603027344 -76.331024169922 -197.793029785156 8.482749938965
111.509872436523 -81.606697082520 -253.600906372070 38.636318206787
-52.642421722412 -80.795959472656 -204.750152587891 2.300993442535
119.850296020508 -76.549591064453 -240.231765747070 34.996379852295
115.725067138672 -78.425239562988 -241.053497314453 32.179855346680
112.066848754883 -78.856391906738 -243.755096435547 31.279531478882
-77.675292968750 -70.899841308594 -177.623199462891 14.547029495239
-31.957384109497 -73.044822692871 -186.357025146484 1.973142147064
-62.144935607910 -73.551795959473 -174.924011230469 1.775256395340
-51.423072814941 -71.744033813477 -173.401840209961 4.829267501831
-52.641868591309 -73.117820739746 -174.064346313477 2.978328466415
-39.288391113281 -73.234046936035 -182.358367919922 3.727987051010
-30.628982543945 -69.180290222168 -182.579818725586 1.663566350937
30.287975311279 -75.201187133789 -199.211730957031 7.803328514099
-77.029830932617 -74.013923645020 -172.329116821289 11.375761032104
-29.218009948730 -74.152359008789 -181.386245727539 3.700597286224
-35.415313720703 -78.239822387695 -178.990798950195 1.938420176506
-23.677387237549 -74.283538818359 -175.071960449219 2.727911233902
45.291660308838 -72.852378845215 -187.494674682617 18.561464309692
-32.320365905762 -72.113983154297 -176.758056640625 2.064544677734
-81.293388366699 -74.428436279297 -164.240371704102 10.966601371765
-26.275077819824 -75.088363647461 -172.246963500977 1.577274799347
39.784107208252 -73.689094543457 -200.163879394531 16.369205474854
-75.543678283691 -65.200317382813 -152.259277343750 4.712615966797
39.507160186768 -72.998970031738 -190.236953735352 13.908867835999
-82.622047424316 -71.787780761719 -142.775955200195 5.398908138275
-77.911834716797 -69.502182006836 -150.673324584961 4.175949573517
40.950458526611 -74.747962951660 -182.974395751953 13.492885589600
45.550708770752 -76.238014221191 -181.172500610352 17.386491775513
-82.092994689941 -66.916061401367 -139.227523803711 3.328723907471
-114.402603149414 -69.565780639648 -128.860473632813 19.486171722412
7.274456024170 -71.280860900879 -148.085739135742 2.440573453903
-2.166952133179 -72.549880981445 -153.344909667969 8.137284278870
-85.185157775879 -66.849639892578 -124.438919067383 1.573871850967
-112.662384033203 -71.140762329102 -116.309967041016 15.877504348755
-75.277847290039 -71.356391906738 -132.598373413086 1.987617254257
-125.268463134766 -65.999114990234 -109.335510253906 26.684728622437
-98.129257202148 -62.968429565430 -112.328720092773 2.355910301208
-99.821640014648 -64.992126464844 -110.743133544922 1.219289302826
7.240028381348 -73.333930969238 -147.915435791016 3.554986953735
-86.961425781250 -66.716812133789 -112.433258056641 0.777797758579
-83.586471557617 -70.536834716797 -112.160385131836 2.928449630737
1.928874969482 -69.248245239258 -141.253524780273 11.192969322205
-119.748321533203 -68.229469299316 -103.098327636719 21.863981246948
-96.488067626953 -64.676963806152 -102.678588867188 1.437540173531
-89.656677246094 -68.814018249512 -104.743988037109 4.142467975616
47.233386993408 -70.606155395508 -146.540756225586 9.923991203308
-125.616912841797 -65.923507690430 -96.016906738281 26.004461288452
44.218189239502 -72.499298095703 -131.567108154297 3.380943775177
46.709690093994 -70.681678771973 -132.990051269531 6.282311916351
15.301555633545 -74.154510498047 -129.731948852539 12.929972648621
28.916347503662 -70.714805603027 -126.139984130859 2.469669580460
-131.426818847656 -67.222595214844 -86.834396362305 31.669561386108
-120.210327148438 -68.271469116211 -87.247024536133 21.384424209595
-56.724014282227 -67.449729919434 -99.662170410156 8.603886604309
-59.263069152832 -65.379318237305 -94.552597045898 3.897338628769
-118.562255859375 -63.860435485840 -75.210601806641 19.375068664551
-67.858779907227 -68.503807067871 -95.537658691406 3.686288356781
21.515377044678 -72.241561889648 -126.201843261719 8.235475540161
-87.093788146973 -64.197799682617 -87.126129150391 9.378986358643
-100.748291015625 -64.460037231445 -81.393432617188 4.278161525726
32.141254425049 -69.273254394531 -121.981674194336 0.649398982525
-93.091720581055 -66.913078308105 -82.694458007813 2.857321262360
-83.244422912598 -62.068908691406 -87.405426025391 13.629257202148
-73.822875976563 -64.184036254883 -88.368408203125 7.589822769165
37.191738128662 -75.022750854492 -115.995010375977 1.626386642456
-65.471847534180 -67.570129394531 -84.387054443359 6.045698165894
-118.813125610352 -69.459503173828 -77.115509033203 20.558197021484
-104.412033081055 -65.679649353027 -77.429779052734 5.827746391296
-122.873611450195 -64.713569641113 -73.901947021484 23.812957763672
28.936546325684 -70.719375610352 -115.367156982422 4.864682197571
30.111625671387 -69.740280151367 -109.628341674805 5.445491790771
111.726226806641 -71.528190612793 -140.220306396484 1.701806783676
37.281642913818 -68.515678405762 -114.943145751953 2.057456016541
-98.272521972656 -64.645446777344 -69.425720214844 3.087847232819
23.536769866943 -71.363693237305 -111.193084716797 9.760623931885
108.179962158203 -73.043663024902 -136.454666137695 1.762053966522
110.142913818359 -72.697631835938 -131.773376464844 1.209231734276
-91.245376586914 -66.351501464844 -75.218383789063 5.125672817230
-114.191268920898 -61.901390075684 -73.110992431641 15.363122940063
-71.516754150391 -67.055160522461 -80.319671630859 10.590567588806
-80.955795288086 -69.255439758301 -74.675292968750 8.053341865540
-118.575393676758 -64.990699768066 -64.967315673828 20.278162002563
-114.847320556641 -63.482490539551 -65.243957519531 16.327278137207
-102.510635375977 -67.945411682129 -70.127258300781 7.400844097137
26.664428710938 -70.550750732422 -105.712356567383 10.100455284119
35.340961456299 -70.237869262695 -102.862838745117 5.386171817780
-114.131240844727 -65.025756835938 -60.178131103516 17.277734756470
45.007228851318 -69.302192687988 -108.055908203125 1.889841079712
42.060787200928 -69.414581298828 -108.811035156250 1.488176226616
-114.001296997070 -63.990081787109 -62.193695068359 16.533960342407
57.064853668213 -66.683616638184 -107.417907714844 5.248517990112
90.564697265625 -69.248748779297 -113.606765747070 6.806558609009
90.106811523438 -69.343055725098 -114.476043701172 7.515374183655
26.774681091309 -67.808044433594 -93.808288574219 17.482017517090
89.035446166992 -72.333129882813 -109.037536621094 4.756470203400
-112.371643066406 -66.079895019531 -50.790252685547 19.469482421875
-110.746887207031 -63.071670532227 -54.174255371094 15.299928665161
-111.437042236328 -59.762397766113 -51.995300292969 16.303918838501
95.171966552734 -71.690361022949 -111.288726806641 5.918191432953
-45.033386230469 -66.703201293945 -67.233551025391 10.635443687439
-76.005546569824 -65.040405273438 -56.812286376953 8.201099395752
-57.815635681152 -61.123977661133 -62.983489990234 7.729290485382
70.528045654297 -66.318824768066 -95.456939697266 3.777302503586
82.842697143555 -72.715881347656 -105.158889770508 2.177144050598
-52.776176452637 -67.614105224609 -62.759490966797 9.749744415283
-46.846412658691 -69.518852233887 -67.782562255859 8.829195976257
87.835250854492 -67.149475097656 -103.425598144531 3.008219957352
85.218597412109 -72.089675903320 -100.104980468750 2.727339506149
-103.828857421875 -58.367599487305 -45.523864746094 13.754486083984
74.614776611328 -69.984428405762 -94.549621582031 3.308281898499
-90.609619140625 -60.216697692871 -42.586303710938 6.829126834869
-62.932621002197 -64.724075317383 -52.232421875000 6.769342422485
-85.567604064941 -64.410171508789 -45.653228759766 3.738781929016
76.301467895508 -70.121055603027 -91.365112304688 4.820209980011
-74.899246215820 -64.911621093750 -47.663208007813 1.959209680557
34.123867034912 -69.605598449707 -84.184783935547 15.862915992737
69.289718627930 -65.966613769531 -80.986999511719 3.307605981827
41.537181854248 -64.238365173340 -79.100738525391 14.396073341370
69.928329467773 -66.498474121094 -71.923767089844 2.624742507935
-95.747741699219 -59.868789672852 -22.278137207031 26.337358474731
40.515331268311 -68.438949584961 -62.645690917969 20.318096160889
-95.551528930664 -58.277503967285 -22.355224609375 25.949428558350
-66.730133056641 -60.993621826172 -27.867645263672 15.655105590820
-101.567016601563 -55.509735107422 -16.890655517578 33.100948333740
-57.517402648926 -62.970657348633 -28.252197265625 15.300450325012
-46.940441131592 -62.861358642578 -28.704681396484 15.009545326233
45.579410552979 -68.569274902344 -59.272338867188 17.998067855835
-50.731998443604 -61.738555908203 -28.047027587891 15.647143363953
-59.773979187012 -65.057891845703 -29.465606689453 14.284940719604
-61.676105499268 -65.316352844238 -22.230194091797 21.569482803345
-79.200897216797 -62.065521240234 -19.268157958984 24.884115219116
-67.424240112305 -64.456474304199 -20.748901367188 23.150573730469
-97.954101562500 -56.731445312500 -14.107543945313 34.362297058105
-86.885650634766 -63.121124267578 -13.928802490234 31.850299835205
-93.727096557617 -62.729232788086 -2.645111083984 44.359867095947
-88.932952880859 -61.670783996582 5.580169677734 51.091968536377
-95.652023315430 -61.873962402344 -2.876068115234 44.677795410156
-77.062713623047 -59.623519897461 1.611297607422 44.643180847168
-83.678558349609 -58.873725891113 6.814331054688 50.715274810791
11.109916687012 -82.408050537109 -336.663604736328 42.879306793213
24.166229248047 -79.419082641602 -332.782135009766 40.139362335205
4.126895904541 -84.982147216797 -319.381439208984 27.770465850830
30.576335906982 -82.107009887695 -323.066772460938 33.827392578125
11.106998443604 -79.203544616699 -310.432067871094 16.591163635254
15.664600372314 -80.495422363281 -311.407623291016 17.934913635254
-68.023872375488 -81.527236938477 -274.104766845703 13.115659713745
68.034576416016 -85.886184692383 -298.360473632813 51.442512512207
70.927536010742 -81.091979980469 -293.542327880859 47.281600952148
-95.204345703125 -74.844505310059 -251.165130615234 1.992522239685
-20.786361694336 -81.229942321777 -272.984130859375 9.372591972351
-95.085525512695 -73.467025756836 -243.220352172852 9.218772888184
86.175781250000 -80.700721740723 -296.005035400391 55.668830871582
-20.069408416748 -81.317024230957 -266.406768798828 8.805646896362
61.254650115967 -78.490692138672 -278.511383056641 29.578222274780
-43.939620971680 -72.725303649902 -248.309814453125 3.720734596252
-30.732368469238 -74.028007507324 -255.633758544922 12.705881118774
52.165256500244 -83.379318237305 -267.939453125000 20.333578109741
-44.436203002930 -66.566940307617 -243.152786254883 7.163909912109
60.587474822998 -87.558288574219 -269.319854736328 26.264867782593
50.092510223389 -75.949325561523 -264.106842041016 12.584951400757
51.821949005127 -79.625953674316 -260.288177490234 12.648086547852
56.817157745361 -75.753425598145 -264.917022705078 15.419384956360
55.362026214600 -82.571182250977 -258.992431640625 14.915512084961
97.144409179688 -84.114517211914 -268.778900146484 40.370670318604
103.357223510742 -85.447723388672 -269.551177978516 44.482040405273
59.460132598877 -77.234809875488 -256.101287841797 10.508942604065
104.500640869141 -85.409507751465 -268.942993164063 44.633201599121
-72.252288818359 -74.899253845215 -219.366180419922 4.576871871948
-67.413642883301 -75.009902954102 -217.863616943359 6.764574527740
97.887969970703 -84.374328613281 -268.194030761719 40.298702239990
53.352352142334 -78.856262207031 -253.341186523438 8.376723289490
69.306930541992 -78.862350463867 -260.143524169922 17.832706451416
-65.761779785156 -74.204421997070 -212.815399169922 4.780702114105
-78.011421203613 -75.102249145508 -209.438720703125 2.009930133820
88.905715942383 -77.965461730957 -259.899536132813 27.615512847900
41.762172698975 -77.666755676270 -246.538726806641 7.250770092010
104.237213134766 -84.508316040039 -262.365905761719 39.353958129883
50.406101226807 -76.480941772461 -239.461853027344 6.182841300964
108.741851806641 -81.445404052734 -266.207977294922 44.189376831055
-70.753799438477 -74.406936645508 -207.542587280273 1.558471679688
104.649139404297 -85.140686035156 -259.607574462891 37.964076995850
-73.411849975586 -75.525955200195 -196.167343139648 10.812060356140
-46.578414916992 -71.633148193359 -196.425079345703 4.375463485718
-45.099998474121 -75.114654541016 -200.464370727539 1.893647789955
-59.600982666016 -71.935333251953 -191.213058471680 8.190274238586
-38.648517608643 -72.740539550781 -196.110763549805 2.630761623383
-69.912200927734 -71.113685607910 -185.224914550781 12.662330627441
-63.707019805908 -75.828384399414 -186.605331420898 6.629350662231
-67.172180175781 -72.815368652344 -187.946716308594 10.876449584961
-44.598762512207 -68.819213867188 -183.600387573242 7.905473709106
-55.907234191895 -72.987831115723 -181.044647216797 2.298135042191
-46.201408386230 -70.372909545898 -189.748565673828 4.961453914642
-43.059974670410 -72.907630920410 -183.479003906250 5.811272144318
29.816738128662 -79.364471435547 -201.870910644531 9.317173004150
-74.119064331055 -71.500419616699 -174.304962158203 9.887964248657
-31.179716110229 -69.793464660645 -182.007858276367 1.207046389580
-77.411178588867 -73.076690673828 -165.433914184570 8.903978347778
-81.800544738770 -73.377120971680 -164.676147460938 11.621295928955
34.929981231689 -73.807708740234 -193.264907836914 9.826354026794
31.207126617432 -73.941513061523 -187.645660400391 5.623947620392
-74.006439208984 -69.199821472168 -156.195724487305 3.257564067841
-82.913047790527 -70.670616149902 -159.324844360352 11.348743438721
-76.082633972168 -71.317527770996 -146.462188720703 0.760739743710
42.031291961670 -75.589515686035 -178.417266845703 12.888494491577
-84.629760742188 -69.821983337402 -139.547897338867 4.240002155304
41.717876434326 -75.011825561523 -181.924270629883 14.060770034790
-119.250915527344 -67.792266845703 -125.781600952148 22.509706497192
39.747379302979 -74.660987854004 -170.993560791016 8.264435768127
48.430576324463 -73.490859985352 -163.675231933594 15.670326232910
-121.078399658203 -68.476989746094 -114.710189819336 23.091663360596
43.204402923584 -73.830848693848 -172.052780151367 11.810070991516
41.944766998291 -79.609016418457 -167.182510375977 9.970751762390
-113.139785766602 -64.241523742676 -119.098373413086 15.007229804993
-119.946243286133 -69.360923767090 -112.221893310547 21.858283996582
45.001018524170 -73.851470947266 -160.123687744141 12.052428245544
44.054775238037 -72.129776000977 -158.397811889648 10.327760696411
-109.274688720703 -65.355819702148 -110.748840332031 10.643056869507
-76.390609741211 -67.923995971680 -115.919891357422 1.625993251801
51.591823577881 -73.007331848145 -151.456039428711 15.432942390442
-92.400360107422 -68.011856079102 -114.333923339844 4.120050907135
39.307643890381 -70.909812927246 -146.583938598633 3.430040836334
-97.758422851563 -72.361663818359 -113.002151489258 4.722440242767
-126.819549560547 -68.868865966797 -108.743362426758 28.550491333008
-127.111801147461 -66.914588928223 -102.417236328125 28.304101943970
-124.927947998047 -65.559761047363 -104.835174560547 25.834777832031
10.860927581787 -71.506973266602 -133.514358520508 12.533068656921
-132.153244018555 -63.821365356445 -98.170989990234 31.879774093628
1.499799728394 -74.834472656250 -143.047485351563 10.809381484985
13.051658630371 -70.890296936035 -143.218948364258 4.474921703339
37.130786895752 -77.464805603027 -150.008773803711 3.143058061600
-121.613082885742 -66.110893249512 -96.569824218750 22.274393081665
-74.341064453125 -69.312355041504 -111.659530639648 1.900619745255
12.566368103027 -74.633560180664 -136.875076293945 11.079888343811
-124.575988769531 -70.113716125488 -97.766632080078 26.496675491333
45.511096954346 -72.950714111328 -146.542266845703 8.208621978760
-131.939529418945 -67.578857421875 -92.318145751953 32.340431213379
-86.234329223633 -65.413940429688 -107.865081787109 2.752399682999
-79.999511718750 -70.159133911133 -104.701416015625 3.260069131851
-88.072723388672 -68.367332458496 -105.632904052734 2.374272823334
15.717819213867 -72.608039855957 -135.841217041016 9.235738754272
13.534450531006 -71.404495239258 -134.360702514648 10.589370727539
-126.016036987305 -66.205406188965 -88.106185913086 26.203018188477
-121.524139404297 -67.502143859863 -87.558074951172 22.406383514404
-124.096389770508 -64.692306518555 -79.560150146484 25.119491577148
-102.961471557617 -64.371978759766 -91.263381958008 4.899893760681
-103.631546020508 -65.511306762695 -80.851318359375 6.672675609589
31.557796478271 -73.021820068359 -123.293838500977 1.482504129410
24.514114379883 -67.986648559570 -124.713165283203 6.761548042297
-61.452590942383 -69.101524353027 -95.904678344727 4.029612541199
31.219753265381 -72.043678283691 -110.544952392578 3.341899871826
-123.726379394531 -66.824150085449 -69.659240722656 25.442457199097
-64.853637695313 -68.733825683594 -82.989654541016 7.005321979523
37.637195587158 -71.263412475586 -118.174118041992 0.796644806862
39.858654022217 -72.207710266113 -115.390686035156 2.380800724030
-69.408447265625 -65.929115295410 -81.070831298828 8.092790603638
35.468311309814 -70.389541625977 -115.370010375977 1.201265692711
-74.847785949707 -68.839469909668 -78.066131591797 11.843229293823
30.555629730225 -73.334808349609 -109.258102416992 4.830670833588
36.396144866943 -71.803848266602 -109.200088500977 1.991588592529
37.774333953857 -71.015106201172 -106.738311767578 1.832803487778
107.773666381836 -76.323211669922 -127.818710327148 2.255065679550
29.019218444824 -67.498886108398 -104.496307373047 10.906849861145
46.277400970459 -70.450698852539 -109.683044433594 1.121072292328
50.404636383057 -71.975807189941 -108.811767578125 1.361738324165
44.877140045166 -70.241744995117 -107.609527587891 1.859220027924
42.763233184814 -69.253311157227 -104.686492919922 2.239127159119
101.142959594727 -77.082519531250 -123.675918579102 7.690723896027
106.232101440430 -76.122337341309 -123.448242187500 4.264986991882
49.863101959229 -70.822868347168 -100.604934692383 3.219904661179
92.530944824219 -71.722488403320 -117.703018188477 11.714328765869
93.641052246094 -69.279823303223 -119.757522583008 12.446413040161
87.599182128906 -75.030029296875 -108.657852172852 6.358917713165
82.700851440430 -73.731483459473 -105.322952270508 2.962701320648
83.546127319336 -72.468452453613 -100.297348022461 1.469161152840
-82.014144897461 -68.157562255859 -51.509277343750 1.445757865906
32.695491790771 -70.186027526855 -92.482681274414 12.723619461060
72.120895385742 -72.007751464844 -95.345336914063 1.244387507439
85.426773071289 -72.883018493652 -109.489257812500 5.794542789459
70.106781005859 -68.752059936523 -99.288330078125 0.950212359428
-53.802886962891 -64.085083007813 -58.901000976563 11.055164337158
74.432678222656 -70.292755126953 -97.974319458008 1.906601071358
-95.735076904297 -61.871795654297 -44.722534179688 8.185361862183
-67.303604125977 -63.810455322266 -57.038574218750 9.853076934814
-59.811199188232 -65.607582092285 -57.988555908203 9.667744636536
41.751262664795 -67.637916564941 -85.851257324219 8.734862327576
-99.921905517578 -62.542640686035 -47.226409912109 10.642407417297
79.789184570313 -71.209609985352 -93.645797729492 4.190606117249
-61.069393157959 -66.708312988281 -58.862701416016 9.634851455688
70.393310546875 -67.551261901855 -93.893707275391 2.374302148819
-83.544876098633 -62.568252563477 -46.263366699219 2.227657079697
-65.539085388184 -65.741592407227 -49.944549560547 4.189254283905
-59.596397399902 -65.914611816406 -54.476104736328 6.510912418365
-64.671524047852 -61.032234191895 -53.114807128906 9.430251121521
-89.765647888184 -62.797256469727 -49.590667724609 2.583225488663
73.301788330078 -70.398887634277 -93.551361083984 2.372166156769
-66.673599243164 -66.135131835938 -50.662475585938 4.294758796692
-92.385368347168 -62.260261535645 -42.980346679688 7.713737010956
43.359729766846 -70.850456237793 -73.928375244141 16.750001907349
-93.728225708008 -60.281204223633 -24.322601318359 23.908044815063
44.506809234619 -67.359756469727 -58.304046630859 16.967018127441
46.376445770264 -70.437660217285 -62.152313232422 20.818479537964
-76.204147338867 -63.150642395020 -22.341644287109 21.701097488403
-68.929870605469 -62.679031372070 -21.603668212891 22.150234222412
-75.791336059570 -62.577621459961 -15.963470458984 27.608802795410
-67.677307128906 -64.132209777832 -20.488128662109 23.360849380493
-94.072174072266 -61.206886291504 -10.279571533203 37.153003692627
-93.757072448730 -61.008026123047 -4.421112060547 42.583782196045
-85.506851196289 -58.568893432617 -6.097991943359 38.714015960693
-86.763008117676 -60.718330383301 -3.167449951172 42.056644439697
-83.441085815430 -61.920471191406 -8.460357666016 36.203014373779
-86.276489257813 -62.170829772949 -2.297088623047 42.896762847900
-80.297134399414 -63.074409484863 7.079193115234 50.769058227539
0.682659149170 -79.453796386719 -314.664184570313 21.944908142090
31.722827911377 -80.310325622559 -314.766754150391 27.361484527588
9.337760925293 -76.596527099609 -306.604858398438 12.818059921265
17.281639099121 -81.022888183594 -303.623382568359 10.842967987061
-53.558944702148 -84.232048034668 -277.575805664063 11.351764678955
-85.416030883789 -79.730987548828 -265.957214355469 11.933547019958
68.471725463867 -84.330062866211 -298.333862304688 51.198890686035
63.133602142334 -82.622879028320 -296.056732177734 46.126869201660
61.365795135498 -81.257255554199 -291.503753662109 41.123001098633
-101.194839477539 -75.998962402344 -238.523864746094 11.540171623230
90.659545898438 -80.266998291016 -290.005767822266 52.986503601074
-32.319976806641 -77.014648437500 -247.889587402344 4.591603755951
55.908916473389 -83.454315185547 -279.129730224609 29.461147308350
-44.636482238770 -80.489532470703 -244.119644165039 1.761888504028
-54.970954895020 -79.312202453613 -241.256301879883 2.027878761292
47.968891143799 -79.823631286621 -262.521911621094 13.031415939331
97.446075439453 -83.390518188477 -276.506927490234 46.999427795410
61.545566558838 -83.299751281738 -262.782470703125 19.382928848267
54.301212310791 -82.400024414063 -261.646179199219 16.261915206909
48.821071624756 -82.614944458008 -251.187500000000 10.239580154419
56.145603179932 -83.946563720703 -254.297973632813 13.385318756104
100.187210083008 -84.433227539063 -269.506744384766 42.497409820557
70.482345581055 -81.496231079102 -252.375152587891 13.511861801147
51.484348297119 -80.364204406738 -247.574157714844 7.409391880035
77.359878540039 -76.689689636230 -253.904830932617 16.289384841919
95.694931030273 -85.084571838379 -257.750915527344 31.241680145264
-70.262184143066 -77.277854919434 -217.240722656250 4.453357219696
-78.964500427246 -73.949058532715 -205.953750610352 4.287258148193
-73.838340759277 -73.813171386719 -204.747360229492 5.160162925720
-51.085334777832 -76.084381103516 -205.025207519531 5.027755260468
-46.098255157471 -71.596458435059 -199.042068481445 3.608798027039
-83.356063842773 -74.064567565918 -192.665924072266 16.929462432861
-65.176773071289 -73.244598388672 -200.312789916992 8.412781715393
-63.152442932129 -70.527351379395 -187.618377685547 8.865877151489
-49.164859771729 -76.892951965332 -195.461990356445 0.790544211864
-75.253402709961 -76.810844421387 -185.825820922852 16.982902526855
-76.428421020508 -74.070381164551 -185.967117309570 18.345266342163
-34.891143798828 -71.351921081543 -192.554428100586 5.349189758301
-37.778518676758 -73.989578247070 -190.206405639648 5.563571929932
-62.059768676758 -71.926086425781 -181.453659057617 4.106437206268
-38.810493469238 -72.610458374023 -184.895599365234 4.649188041687
-57.791847229004 -70.512786865234 -177.188934326172 3.314712047577
32.527076721191 -79.521743774414 -207.830657958984 13.432011604309
-41.216133117676 -70.222503662109 -180.930618286133 5.271686077118
-38.825828552246 -76.766983032227 -180.446548461914 3.334525108337
25.652442932129 -73.097160339355 -189.159088134766 1.386756658554
31.677951812744 -78.154479980469 -194.828445434570 6.804156780243
-114.832778930664 -68.642425537109 -129.367874145508 19.734178543091
-83.035644531250 -70.877334594727 -134.219757080078 2.577546119690
-79.264739990234 -72.532302856445 -123.125518798828 3.013651132584
-119.888366699219 -66.050102233887 -110.047470092773 21.290931701660
-83.533676147461 -70.259948730469 -126.187103271484 1.342291474342
-118.242034912109 -71.059387207031 -105.263595581055 21.193059921265
-81.082611083984 -70.157958984375 -113.541076660156 2.353216171265
-115.365066528320 -69.616134643555 -101.861572265625 17.938751220703
-113.931930541992 -66.904769897461 -96.260604858398 15.374522209167
-115.665817260742 -63.252807617188 -94.223663330078 15.588820457458
-106.486953735352 -66.391105651855 -80.053039550781 8.743144035339
-108.412536621094 -63.333633422852 -78.232421875000 9.381992340088
-64.831130981445 -69.807418823242 -89.567199707031 3.443400382996
-62.728569030762 -68.289176940918 -93.986938476563 2.171761989594
-81.194252014160 -70.875007629395 -80.172485351563 8.005243301392
-67.661651611328 -68.241989135742 -88.743453979492 5.182221889496
-112.911987304688 -64.415748596191 -71.316497802734 14.615029335022
33.376575469971 -72.329711914063 -117.564605712891 1.361958742142
-91.114517211914 -64.691940307617 -77.386077880859 5.785826683044
-108.723724365234 -64.158447265625 -67.812072753906 10.336442947388
-93.395690917969 -63.855987548828 -74.201843261719 3.545000791550
28.121055603027 -71.824172973633 -105.633728027344 9.143308639526
49.382297515869 -71.254600524902 -104.476882934570 1.124039173126
100.570495605469 -77.671310424805 -121.194366455078 7.729073524475
60.002696990967 -68.696960449219 -101.883163452148 3.736883163452
94.841873168945 -73.850715637207 -116.730590820313 10.255367279053
82.343490600586 -70.921981811523 -107.083114624023 3.264345884323
99.699340820313 -75.378517150879 -109.782196044922 4.425404548645
-103.710617065430 -64.635406494141 -53.468505859375 11.374121665955
-99.602432250977 -61.050247192383 -50.555328369141 7.941931247711
85.718948364258 -73.380371093750 -100.469528198242 1.970866799355
72.572937011719 -72.059211730957 -97.901199340820 1.595235347748
89.318237304688 -74.802139282227 -105.674804687500 4.189346790314
-93.727767944336 -61.734840393066 -46.839019775391 5.346957683563
-86.924774169922 -66.529067993164 -52.929473876953 2.021524190903
-75.207511901855 -67.525833129883 -53.511901855469 4.507298946381
-84.394775390625 -64.842597961426 -52.976562500000 0.983032941818
-90.437850952148 -64.040985107422 -49.335998535156 3.935317754745
-73.556060791016 -66.042419433594 -52.454498291016 4.573283672333
-91.701797485352 -66.077346801758 -46.404205322266 7.116810321808
-75.988174438477 -63.575317382813 -51.869659423828 4.381164550781
-70.983184814453 -65.003280639648 -48.118255615234 2.480393886566
-75.820686340332 -64.369430541992 -46.328887939453 1.373682856560
-69.253845214844 -68.177536010742 -48.796600341797 3.512860059738
42.075672149658 -69.386062622070 -78.583709716797 13.213169097900
72.873931884766 -73.766021728516 -91.230163574219 1.798187255859
-93.296768188477 -67.520263671875 -38.974273681641 13.627731323242
73.154632568359 -70.599731445313 -84.196136474609 4.350142478943
44.596523284912 -73.502120971680 -70.354431152344 19.633327484131
68.428222656250 -64.571022033691 -68.119873046875 1.402037858963
-82.692138671875 -62.554786682129 -19.088470458984 26.175107955933
-67.654190063477 -62.701217651367 -25.348297119141 18.345909118652
-73.478775024414 -66.970535278320 -20.286346435547 24.126516342163
-98.294067382813 -66.109565734863 -11.541168212891 38.226943969727
-67.828407287598 -67.996726989746 -22.899688720703 21.229454040527
-60.151077270508 -66.045097351074 -25.295715332031 18.511724472046
-65.502883911133 -61.696075439453 -17.278289794922 25.920303344727
-90.347778320313 -59.933723449707 -12.414520263672 33.927825927734
4.892837524414 -80.549400329590 -331.488311767578 38.324489593506
9.356246948242 -79.818733215332 -327.636657714844 33.728961944580
16.198734283447 -83.325408935547 -326.819091796875 33.512008666992
26.769969940186 -89.292610168457 -325.671112060547 36.148422241211
8.331970214844 -78.076026916504 -316.477905273438 22.735982894897
3.371509552002 -79.155136108398 -308.173339843750 15.429703712463
-46.085762023926 -79.720436096191 -281.621582031250 6.062157630920
-90.382705688477 -76.536987304688 -262.057128906250 5.634709358215
-25.539585113525 -80.544807434082 -274.683959960938 11.878587722778
61.824840545654 -85.364410400391 -292.981842041016 43.832984924316
90.762435913086 -85.480239868164 -297.235198974609 60.081886291504
59.067028045654 -83.996429443359 -273.351409912109 26.820142745972
55.781253814697 -86.889793395996 -272.080078125000 26.514759063721
93.666702270508 -83.969741821289 -281.754699707031 49.331012725830
-62.695117950439 -79.403457641602 -230.832122802734 14.480792999268
-63.748268127441 -77.039001464844 -229.960540771484 15.025029182434
47.387912750244 -83.503326416016 -259.203063964844 13.696867942810
-64.119720458984 -75.274650573730 -225.009674072266 13.562943458557
-67.009353637695 -76.533035278320 -219.050140380859 7.117932796478
-91.473213195801 -76.412727355957 -213.085510253906 2.379154682159
-71.331832885742 -79.290245056152 -218.388336181641 5.077534675598
46.972843170166 -84.036560058594 -250.425201416016 11.736822128296
-62.360538482666 -74.407508850098 -217.792846679688 9.090296745300
49.892597198486 -83.126762390137 -249.836608886719 10.604965209961
95.278228759766 -83.286552429199 -261.107421875000 32.917884826660
91.883865356445 -82.692802429199 -253.367340087891 24.998497009277
-64.587310791016 -75.986976623535 -205.557571411133 3.406688928604
-76.286514282227 -74.415435791016 -204.379241943359 5.244456768036
-52.728172302246 -76.019958496094 -204.064620971680 3.957131862640
-85.800857543945 -77.802886962891 -194.493286132813 15.981662750244
-64.690826416016 -73.152671813965 -192.344467163086 12.132600784302
-81.517013549805 -80.322219848633 -189.124664306641 18.775585174561
-54.504730224609 -77.621505737305 -204.726013183594 3.349594831467
-50.922618865967 -81.374496459961 -202.929794311523 2.509722232819
-75.625015258789 -73.873519897461 -186.764526367188 17.772758483887
-51.720527648926 -72.425117492676 -195.921920776367 5.595005512238
-70.485244750977 -75.342819213867 -185.099075317383 12.237769126892
-65.645767211914 -73.781707763672 -185.128051757813 8.058720588684
-48.644695281982 -71.821556091309 -189.448471069336 3.676428556442
-47.612213134766 -78.819480895996 -189.256698608398 1.652269840240
-41.462120056152 -80.024223327637 -190.045455932617 2.607623815536
-82.267395019531 -76.320098876953 -181.822113037109 20.328451156616
-79.695068359375 -75.806007385254 -170.306411743164 12.888110160828
-73.974349975586 -73.835845947266 -181.609283447266 13.990905761719
34.673519134521 -75.709014892578 -198.542160034180 10.815164566040
-35.001625061035 -74.754257202148 -185.559494018555 1.420120835304
32.580135345459 -77.958091735840 -195.996932983398 7.919031143188
-75.115859985352 -71.650733947754 -150.601364135742 2.037822484970
-77.686325073242 -67.719596862793 -142.909179687500 2.201146841049
-77.469528198242 -74.764038085938 -142.675292968750 2.628215074539
-82.682334899902 -76.024246215820 -141.080795288086 7.217904567719
-79.943138122559 -70.450515747070 -133.597198486328 1.483461141586
-83.259201049805 -71.382759094238 -133.879043579102 2.349866390228
-111.215209960938 -70.801330566406 -116.808349609375 14.364923477173
-82.328903198242 -71.793502807617 -125.627685546875 2.184962511063
-99.677795410156 -71.785232543945 -106.912185668945 4.888998031616
-114.878204345703 -66.529327392578 -104.175445556641 16.694705963135
-93.069931030273 -69.177330017090 -110.638549804688 4.226002216339
-122.659286499023 -66.548049926758 -103.905075073242 24.136535644531
-111.868621826172 -65.289123535156 -101.321472167969 13.604785919189
-91.751327514648 -73.801559448242 -109.939010620117 2.361209630966
-99.935684204102 -69.932731628418 -105.064727783203 4.343520641327
-105.098556518555 -63.731422424316 -98.701919555664 6.518168449402
-91.422897338867 -65.610961914063 -84.749572753906 4.454736232758
-69.089385986328 -66.863281250000 -84.759765625000 7.804245948792
-101.628982543945 -66.134017944336 -76.747375488281 3.769367218018
-76.581344604492 -69.481552124023 -80.866943359375 10.849577903748
-73.842926025391 -71.942291259766 -81.712432861328 10.346841812134
-79.845809936523 -66.868583679199 -77.937438964844 11.819929122925
-87.150466918945 -67.348602294922 -74.482147216797 6.649622440338
-72.223495483398 -70.556816101074 -76.407043457031 9.633109092712
43.079662322998 -73.616996765137 -110.082824707031 2.274505138397
-106.683471679688 -64.591545104980 -65.601379394531 9.135028839111
44.894680023193 -71.915328979492 -111.467117309570 2.051673412323
45.780811309814 -75.665763854980 -104.103271484375 1.542621493340
42.205005645752 -70.633720397949 -104.237884521484 1.793515443802
53.579235076904 -76.126762390137 -107.784851074219 3.760276317596
-100.208801269531 -68.182548522949 -69.849914550781 5.770987033844
37.139530181885 -70.684722900391 -96.711746215820 7.147010326385
59.013820648193 -73.528808593750 -108.936996459961 5.947395801544
90.308349609375 -75.662757873535 -109.025924682617 6.533842086792
91.492370605469 -75.522056579590 -108.722061157227 5.832487583160
-97.659759521484 -64.022247314453 -52.847839355469 6.117811203003
