# This PCD file was generated using the MATLAB® pcwrite function
# from Computer Vision Toolbox®.
# .PCD v.7 - Point Cloud Data file format
VERSION .7
FIELDS x y z
SIZE 8 8 8
TYPE F F F
COUNT 1 1 1
WIDTH 785
HEIGHT 1
VIEWPOINT 0 0 0 1 0 0 0
POINTS 785
DATA ascii
23.322252279575814 -61.876129372424842 -172.814009152744603
-109.085693069091221 -67.270872252339416 -177.927365200672909
23.929052655357786 -62.714004892055868 -169.399207945792966
-146.092485944084643 -68.968315844338917 -182.384965157149850
19.191220756214854 -62.305417081542394 -179.442714642519292
25.679396732410154 -62.768761849855764 -188.824290303111809
-150.728673644124285 -67.514068718604236 -192.522821905526087
22.804647385667302 -63.142786726452862 -179.379326011387661
20.325158571808728 -57.050652810048454 -183.307600806039915
-141.923701247891756 -71.902103500260722 -190.669507131603496
-150.280546133207196 -66.429077818540279 -195.145173283050070
21.446125797287763 -62.217319679932473 -191.330438737450947
20.084653292738466 -63.826774487120055 -192.877787841928040
-140.356182095680737 -70.106604477826608 -199.625747440174024
-107.256084139300668 -67.279520855448055 -202.955778455510256
25.563581401928623 -62.298148241464617 -201.445758271100516
-123.129390076201801 -67.389447432134773 -200.336381650774541
12.436129115615651 -64.274744891612727 -203.119408634952237
-128.649446960269302 -63.059761977158210 -199.904965833229028
-157.820829891153693 -66.800566685714358 -196.754812163171806
-159.743694878948872 -68.293732586723152 -202.919009402870245
-157.007538001228369 -69.778269809220149 -201.257490549303725
-18.426749532114322 -63.282828978364407 -208.304432147241755
-165.713922054490183 -71.167147371741706 -205.938100063985132
-24.995251964786178 -60.843016490911140 -196.451776195708447
-13.794216298675492 -64.562466617605438 -199.571701488860697
11.222045257698230 -58.030750038692865 -198.763410584874634
-155.949569221506096 -68.561228668228210 -210.032886791713196
-106.381514742892477 -65.544399420603185 -207.483854705737485
-15.908047695794822 -60.376841867372633 -205.272967602269006
-158.500667198000457 -64.715045544907525 -207.811945883816435
18.416574775202626 -62.115281868119723 -204.609673334209475
-167.025320560119496 -66.989454001098380 -211.346167578140268
-118.851974930267914 -69.387680002701330 -208.356722282283471
-113.650857995130437 -64.303397321852060 -212.657523930414300
-121.206311975789390 -66.315933156825508 -209.808021817505733
-13.132567942504899 -62.259552015766012 -207.236463192278109
-15.625212899988647 -63.394426528623704 -208.188483068224684
-162.396840678307370 -67.936018547518103 -217.037902591234172
-158.200735561839366 -66.515150744429135 -218.629438355852045
-162.759212549272064 -68.784148125641025 -225.878660870463023
-139.312298336905883 -69.543428241188863 -220.097722393774688
-142.659669986331323 -67.661297039659047 -229.865574098135340
-1.088537996265697 -60.622249127630660 -223.384958000691825
-7.523226006821949 -65.884324522745658 -220.576708668222864
-98.019825773666540 -64.353804470872007 -226.005102472605898
-4.721292985421748 -60.674674407725497 -235.648929763231564
-164.969490000102013 -65.929258083796498 -235.348248704398429
-104.653883022159704 -63.845322203949877 -237.590955996241405
3.455103314187896 -61.883433591463259 -230.020262559821873
4.878722659976793 -60.695429876267269 -233.203967624769518
-109.550523145392404 -66.591228054912364 -238.472678738561683
0.633190137299382 -62.592788679711077 -232.225808749091726
-115.582938008948503 -63.576503197503115 -239.739991338542239
-5.696402674436385 -59.306393455432001 -236.619004000400992
-0.070784595254652 -60.714504190948169 -238.300794494519494
0.621811902001904 -61.294544505792302 -241.087501954153055
73.693251237074534 -56.169294644172737 -238.487474089154517
-8.415255851546373 -64.808529212088246 -241.247999275342238
9.597620195150160 -61.905716434797114 -240.493126701069770
13.357731226233197 -60.240698560205637 -242.284358579382001
7.707531804017179 -61.990286485845004 -242.143644509570180
4.907876467332128 -62.804122167131304 -244.486597205134530
66.215031144575718 -55.239805266844620 -240.705094825176076
71.071002100342355 -56.081098392581687 -242.312870312669844
10.706354356351770 -60.802566945255137 -250.134783541973860
56.348590982329391 -60.317509987356267 -244.634758184486373
57.953485402087537 -62.881293128360127 -243.127667691544616
49.239866359038693 -56.456381846796020 -251.820494793863730
43.644232930106966 -57.603892859232225 -253.863433429839318
43.157232391558502 -58.480363485575296 -259.017163448518602
-129.391311896594374 -62.460350302233138 -263.513301074471826
-7.980303904688693 -61.181214433873834 -253.565324713527701
30.838642069653261 -58.802186030986732 -260.866332557884618
47.357347736310800 -58.700384785626831 -250.620129378492692
29.915950964437513 -62.375476211005768 -256.794034749152672
-100.228388310608679 -66.508296394945233 -263.997701376006205
33.753099180608203 -60.658749666628495 -259.061854870616969
-144.402985300717972 -68.501753858144738 -266.975473070191981
-113.750196608510706 -66.910443856199677 -262.320720055135610
-106.267729508163086 -65.041150409188702 -263.207705920181240
-0.954180241484491 -63.061400944681182 -262.485749641397604
-147.797193817332158 -68.097285650867448 -263.430800206769675
37.803816880394990 -59.324129195132102 -264.546298497540192
-107.256166548470134 -64.031906230450858 -261.957439229274769
28.793622779353072 -63.173915542657120 -262.153984647420771
-132.230225367046387 -67.681172525032281 -268.591400409960727
-113.885762220056463 -64.433073164038007 -269.462999372085278
-106.971198318587312 -64.474699375560277 -266.622717809404662
-112.225795162077546 -69.343160780498181 -266.989824708943956
-137.375271582327429 -67.817107777025512 -263.761116389146707
31.513873214723475 -60.252558710015840 -263.020801940270132
-114.795277878844132 -64.115189590907917 -268.448551167579524
-141.619685287810796 -67.921845585268699 -269.490159329059964
-2.492751444544335 -58.957246306441654 -274.141311054243602
-147.755278840820210 -68.561169680155388 -287.260245408533990
-5.436947546725402 -61.276354437097069 -289.748142244120686
-2.633220924351433 -58.451245821884456 -286.293288545576331
-131.344463821510374 -65.212679727105012 -293.483093132007525
-124.510457447540475 -65.486841663098403 -296.110510446672322
-132.599866710299551 -65.310953560460632 -299.775448437105979
-123.590008626917850 -63.931971608314655 -297.398990122405735
-151.729335738094193 -66.620953123340144 -300.625281594131309
-152.944343277579890 -66.385928583105056 -306.363671422533969
-144.541550067505938 -68.778984681249881 -307.066440304792025
-146.514686802940815 -66.446583078101554 -309.401497456278832
-141.933764375637395 -65.568803208356996 -305.072597115286726
-146.270520039004140 -64.925252211282498 -310.255855370030702
-142.927333026595363 -63.223645666953416 -320.763559667477750
18.722315387255101 -68.765679018342254 -30.619614663464116
48.727110451565366 -67.311876823351639 -38.483129153133902
24.991170859773760 -70.857881510899674 -40.834868352640292
31.890123363296830 -66.071366280985700 -45.426259225709138
-43.281836512491928 -62.357945137298906 -51.949333208077675
-77.062193383519471 -66.622205877280194 -55.239963707860710
79.957095272262194 -61.386606183938262 -63.508285383518810
74.211041797227082 -63.027304631811099 -64.449654864615368
71.322931894657927 -64.091653068505849 -68.480268257616316
-99.415716053076835 -68.652037287557420 -77.860479392445399
99.225960370783213 -64.396832566610755 -77.572956517848198
-30.468393878445433 -66.974816520117415 -86.575273389781742
62.843742132487733 -61.105396125527051 -78.819821282237641
-43.341144498601189 -63.475908403240659 -86.758499842663824
-54.064634408389516 -64.643262688154607 -86.932374837788004
50.868284426478112 -63.670140026550136 -93.034461272937861
102.279595204215141 -60.165247515861331 -92.091941730490163
64.048081052771963 -59.957358017917088 -96.032044883786611
56.756879474956285 -60.913382702804327 -95.320854833505436
48.751914602014530 -60.043718283399095 -103.959500498355553
56.632535320072684 -58.799405028569652 -102.757620195096280
103.111537620391857 -58.561500622566335 -99.463464454845735
69.980060683084730 -60.822102041842534 -108.501793718104992
50.386953198955190 -61.972482986279928 -108.297881094080765
77.018921167603139 -65.591922191112005 -109.170027730268728
95.724235976073601 -57.142758110002156 -109.573832188668007
-75.060876160550293 -65.219918416458569 -106.259394204088863
-86.392649303018842 -67.886497814976167 -115.129971449242234
-81.754733971193914 -67.833760583402125 -117.627649425499598
-59.708089403488074 -65.144207323758224 -123.072516282423990
-56.443365163221081 -69.085527617795378 -130.462918369221740
-94.079992131030792 -66.888389049061033 -126.782188475705098
-74.539573388515549 -67.907944247945736 -124.181067876454662
-75.876679521706663 -69.652279673490995 -137.134788581359317
-60.333417100459691 -63.603104061099543 -132.717788936092745
-88.028389925704360 -63.492725041094502 -135.257433083344608
-89.126624501124809 -66.258655239515377 -135.024377147337447
-47.302180349367227 -68.637113323284098 -139.627313698727193
-50.699654234703679 -65.892272834235911 -140.942731887964896
-76.420111465660668 -67.786679299257145 -143.248559479201305
-53.073640000984028 -66.900422955274308 -145.894459970207691
-73.404235326803217 -68.801511037142262 -148.566003799313961
21.771278955950358 -60.285612793983987 -141.733363315890813
-56.425275299043392 -69.039530722057350 -149.271017604900948
-54.242183223101279 -62.431672254486841 -149.861268761616543
10.289499864904890 -65.464972140094659 -158.421876947632171
17.579211200893361 -60.717580167986817 -154.138539491549722
-140.895443867623072 -68.295637222575621 -180.009635723285129
-108.927874879674192 -65.798859971514077 -183.391110221799181
-108.163120490528357 -63.265959720335509 -194.925416369260034
-150.788609112828084 -69.570780438027441 -197.504100077734591
-111.492049896431510 -65.838558156827844 -191.044614541592296
-150.439161278209127 -64.194783329701806 -202.158709872169396
-112.404437569940768 -64.970275684241841 -203.864674144323260
-148.542926604279273 -65.329600631184434 -206.287888350699006
-148.611404201377781 -67.596818148131717 -212.257082899819721
-150.814285107519339 -71.123761990250244 -214.046024419709426
-145.624378749678129 -66.781662090405007 -229.829488337319020
-147.956295794849524 -69.735336849861824 -231.315666632933898
-102.926309388678177 -63.253937474152686 -231.181325309885978
-99.749512973951568 -65.048967591700347 -227.583317917774735
-121.165992714063776 -61.824498465559863 -235.916668299741872
-105.873645684994216 -64.810209659384810 -231.360832332484819
-154.095350411603079 -68.240070384780637 -236.730684859530044
-0.817806974626673 -60.859077674325164 -229.424971573535998
-131.469568205973673 -67.980822798029322 -236.501445063360450
-150.959213044990690 -68.159198659425613 -241.208060376823227
-134.498502063229324 -68.626846009369245 -239.041136040626668
-8.987634773830688 -60.596085263660683 -239.593834972513065
11.246159782006947 -60.663787344463387 -246.249042669358090
65.018610193778912 -54.482955767913353 -242.902416517470186
20.830501309812639 -62.817264127635717 -251.686391823210982
58.328297582523312 -58.079253021899255 -246.008188751291272
43.755527536556492 -60.540708107187214 -252.288005408965972
61.217619582567579 -55.954171867211741 -253.840486019824283
-149.837428672090624 -66.539727329810944 -256.281704977921322
-146.625362256455219 -69.821889245566581 -260.420194649770224
45.300381886930772 -57.541093241578494 -259.344408361541468
31.938045779715615 -58.928379489378052 -258.517977635926115
50.126483318377026 -56.432496510912294 -255.155010337141022
-141.915458717422354 -68.753370258941160 -265.466646977322114
-133.765662820266812 -64.283812776364485 -260.998683875486677
-122.298220189380871 -63.103143678145365 -263.392612147207672
-131.310035860434937 -65.919405816869755 -261.734891532004951
-138.090498834560435 -66.571514077542759 -263.738647067191721
-120.977516084920850 -64.472928577731906 -264.949932829060231
-140.071505398728846 -64.351921652140760 -266.081482806331223
-123.478132011575568 -66.937919713919158 -265.070491039628905
-119.617236228033448 -65.142610405461312 -269.869683245986778
-124.753299410494265 -65.738814955607182 -270.389765398556619
-117.771096010104557 -61.993043526431251 -269.424009932083038
-2.525597309252510 -60.782007447869333 -269.436572537725056
30.498722781659353 -56.734153219883552 -264.891371682272506
-143.538739076241825 -62.402589204638971 -272.715345128814363
28.945583924366616 -59.373060622464791 -271.976964236090737
-2.225083357886112 -56.028375472067410 -277.702782832888033
20.211598950458892 -64.304883825477148 -286.691778652025107
-138.454147071466423 -65.696555903583359 -294.983158218717790
-122.307291787005710 -65.712792669240230 -292.832524543277088
-129.245275231307147 -61.200519113648944 -295.878810163338414
-155.479526082363748 -61.906827957059285 -297.948483895621507
-123.110479764935704 -60.257266970410413 -294.745788118538997
-115.074460926476817 -62.227849841782771 -294.571014288983804
-122.322463248688962 -66.084586783306008 -301.236391297888702
-147.578713234998133 -67.973295854247596 -299.628497406053157
27.151603325849294 -68.817515994358246 -15.423492840677049
30.463415580081403 -69.177960120107599 -20.342132028226988
36.859830000343003 -65.487829030299594 -22.634211941572840
46.771774326537439 -59.247167056140114 -26.023002576546485
26.580266170789933 -70.122127257951462 -30.955047060508409
19.635857760113936 -68.537638711666659 -37.588352662678069
-35.015185384233042 -67.005477416495012 -50.326252520085440
-82.870426839703399 -69.619887172364869 -57.952617354405803
-16.971134432386219 -65.275715943598613 -62.258383059874987
72.149669063819218 -60.095007571439034 -66.865480610630414
101.200276668358526 -59.723559538878860 -70.243833536868635
64.395276121622558 -60.081751069603925 -85.160270994836409
60.892267753118460 -57.168222470195765 -85.316500308153493
99.990467043024168 -60.044235201425288 -86.017096497249369
-64.227902823312590 -63.943327132405706 -94.966835044187931
-65.471096669896625 -66.258084738542692 -95.712340188475238
49.446541876886933 -59.770323559614411 -95.802580334628971
-67.113817499465824 -67.663694906497341 -100.517310497968126
-71.450103463846716 -66.030909173009320 -105.414281107390437
-96.623819336131632 -66.194530540910193 -104.841162228972479
-75.796270947834245 -63.317864014730155 -104.725695265640908
46.769243052514248 -58.606723494904593 -104.108359074462228
-67.286427432966050 -67.967758914261083 -107.987715360795107
49.436446316088727 -59.413898705396534 -105.498912586467412
96.192230473063375 -59.188527262666732 -106.369392314430783
90.906688592234545 -59.282639841318343 -112.990357053522814
-72.610063522481809 -65.544270316178768 -119.075590650060860
-84.214603753054988 -67.254263285483461 -117.303596023318320
-61.543841228329619 -65.170541426564967 -123.577614811147598
-95.967187751378447 -63.341797607808864 -124.107970864665177
-76.136731763865996 -67.409124429360418 -131.987403779998033
-93.222142651086443 -60.354411528028137 -130.195716955800890
-63.088066799676994 -63.656542029753652 -122.360368352096188
-60.094276211779309 -59.713223331642844 -124.733200071570351
-88.143915696803930 -66.497376770746811 -134.479071886746880
-62.682439482561989 -68.141718935168228 -131.951236400751810
-83.611871360171563 -64.810298607891511 -137.301186409457216
-78.930483339666281 -66.274401969632294 -138.642594911224023
-61.390660571322272 -68.211401065996938 -139.026346912070267
-60.443124084717446 -61.199269225212518 -138.949760990902803
-54.298865796303609 -59.935165054827259 -139.689604294307117
-95.840744853787953 -63.827360180972427 -137.336377103333774
-96.342888066142848 -63.450038746871130 -149.130357759463863
-87.886672399327651 -66.126784444015414 -139.873449988733228
21.435357622452429 -63.368244110558450 -151.521374077955045
-49.222881457862719 -64.736641632638822 -146.078254729848084
18.753563784489188 -60.980955613678745 -153.261365398711916
-97.030670579213051 -66.067154892759262 -169.604776164060183
-101.508137817336902 -69.476513914955490 -176.644630612669516
-101.359297422538134 -62.430869531773013 -176.394160685739138
-106.807255798623785 -61.159978840242928 -176.486554404893127
-106.102642567561006 -66.118580719116494 -184.822588001089912
-109.232136367977134 -65.274411178220362 -183.623253937499300
-140.658766402984753 -65.156397953012686 -192.877367454207217
-110.473550931613616 -64.245026740825196 -191.779140359108197
-132.082514637000543 -63.228065635354213 -205.316955939209151
-147.472698317320436 -68.566779912743357 -204.418495507643172
-124.734379007355628 -65.970965528588650 -203.634011378704457
-155.057681966287106 -68.680602290654107 -202.665281018565850
-145.306243481368341 -69.536486237130688 -208.038847592635392
-123.642238599113639 -61.283131033587473 -204.299593068718792
-132.810738065691311 -64.945626206597382 -207.169270979808744
-139.447169099621533 -70.766316994760629 -212.429866820843984
-129.857749210132368 -67.607337926529496 -229.261034123148335
-108.285677033592577 -65.922461838657526 -234.932086660915502
-141.789916141709114 -66.701970063571338 -234.288636583753600
-116.530830485032709 -63.174373447300788 -236.545971432081103
-113.666785371951491 -60.728743799950315 -236.254095475713314
-120.443391194628688 -65.630151902688254 -238.720244911966006
-128.394195588375965 -65.042462487703489 -240.122556104341157
-113.478675894592840 -61.691758354487419 -241.886726519076461
6.613020153245550 -58.840153325627369 -239.042183832117246
-149.562066773602396 -67.526242816008562 -243.831906573020120
8.724917296704231 -60.602395988260930 -238.306871221705876
7.671064773447899 -56.308413718147385 -245.344508656383397
4.252425541476290 -61.405864269328440 -244.670073469934181
16.157457720526565 -55.964609922259008 -243.780901419904382
-142.207052593692850 -64.128594574198701 -241.143719228821368
-2.591550567422141 -60.905348318176834 -250.604185007242478
21.704864765731905 -58.532850796326329 -244.272853985958392
51.951797024457790 -55.799304598312602 -252.118843481528842
53.016514571852170 -55.894290274260115 -252.728282626284596
-144.154570827690122 -66.987514390906369 -258.490469584147036
-3.368446528246344 -60.462236239539777 -255.014376559779834
25.341092129455461 -59.017291302262542 -258.809854778511465
-129.953285939178301 -59.802279193231392 -264.106585684794766
-121.577867855123387 -62.670893564743629 -264.217054010976028
-122.167224496257901 -64.995552470362057 -263.743069167224633
28.968307951871957 -57.867125625811923 -261.756653628142601
-131.362683010313702 -62.361566576732308 -271.351017758847888
33.067157703338992 -55.952387570777042 -263.409698163190058
35.120838103799755 -57.914511295396061 -266.269171184804236
-150.212560885248365 -67.245136730797682 -273.269643336780518
-143.488871917052052 -69.622063620255915 -293.145916707574827
-146.704017596806551 -61.542059583613380 -294.053311407042600
-140.971031941631935 -62.028005103784380 -300.233169430057217
15.099679053960861 -60.965218757722269 -295.491652616963563
-151.405706535019618 -62.442725056807355 -306.129982291636395
44.735459103087187 -67.781086037582554 -29.005726170832883
34.632831954757357 -69.208462229011701 -43.298437053381512
-62.336137879885086 -64.455393395180835 -50.639064673052367
-73.207159517904770 -64.922496807394424 -51.379927863375663
-28.023194578731605 -63.039497958342793 -54.650843337932088
-22.839594017778914 -67.824850766226220 -58.573066006768940
-12.236644910130588 -60.690336925248076 -70.468953922342422
-27.165012982688609 -61.260573803968931 -73.824704589481499
64.225280309758460 -60.566236480487241 -76.305611460159867
-97.529919741288495 -62.146078556486650 -83.935293140986261
-46.806157995032962 -65.178484122966566 -90.683729445585939
54.196083951599491 -61.978036519601417 -88.611871628025966
58.175388088600890 -60.710795896923919 -89.125183114220533
61.827978990263347 -61.013840896386320 -91.382102779284580
105.768320436783583 -57.786211322023526 -92.584164205964683
51.706699450553721 -58.226773761514742 -93.538432711359519
98.442706848326608 -54.421588663057747 -102.137415598293359
-82.023053101530110 -67.608977873219516 -108.362662933103564
-94.245697561304752 -66.374546462393141 -107.113715838256411
75.013648380825174 -56.074850957797096 -114.277469640513033
-77.672472009096097 -64.979972126542492 -108.755508544262028
-77.515788603907566 -69.169485838999407 -119.841097500181220
-83.690241410446475 -69.693063627046570 -124.193345074918867
-55.063507848431129 -65.211005781734499 -131.254815319973147
-77.189749160261869 -65.233513594494269 -133.844145301148217
-62.391633003540839 -61.436526432315695 -134.274338516655803
-83.457296853502442 -66.589653905025870 -140.152863022648376
-75.625574830912456 -63.572249482388081 -138.014225219101434
-79.667600740279823 -62.170610584584573 -130.401570276651853
-88.465610754877858 -63.691986784272252 -135.523481023051175
-65.382549534063244 -61.640101483525321 -139.151384007056095
-90.211911177655310 -65.019863411224748 -138.065330677239757
-49.623338959841035 -65.411858251279057 -138.077212218229334
-55.084303932564509 -67.818301733876993 -143.851371932164909
28.169153362399420 -60.337352459423379 -142.788408680179515
-56.723884621842764 -58.656333790268079 -141.570546094279365
15.905287684831125 -64.410393260587057 -147.602565326518260
16.947655501026176 -59.627089989605764 -151.531232481535483
18.263113602203696 -57.118540462180633 -156.755368529093971
-97.430789424297060 -63.855868682788127 -150.584350129763862
-90.653270973336078 -65.076277482097424 -155.369725491831446
-95.664778397610860 -61.757617430172779 -156.553653135653263
-103.946881763063473 -65.357582586992521 -166.810132146302237
-96.813737167693318 -63.706518799951667 -164.586723599511146
-150.813367167104360 -66.717055050010799 -181.857236168024002
-152.638132913691180 -66.882968694770597 -182.263723645240674
-109.283774217661644 -62.866208920819005 -187.271353231744627
-140.809549102252248 -64.131082641727431 -183.734327609414834
-108.920709388503951 -61.752082701966657 -186.842535781716037
-148.658112487601784 -60.488335553838311 -193.308239884112993
-110.281042795393674 -61.632039791545481 -197.828172731910939
-109.064824834234855 -64.924381600145949 -189.493625592472938
-142.521491757082771 -65.324997635247826 -205.116770660350966
-128.757073820785905 -66.374031736832691 -202.724409912063606
-105.743930994762948 -64.326937612625983 -203.301629496505797
-114.702242534106787 -59.861658334787570 -204.538643869572581
-111.384852555520155 -64.936782609543400 -206.058872518518257
-114.670724614938692 -60.637634237750568 -208.284745244052914
-132.868241618806650 -62.870094921309615 -203.518861885105906
-136.824380653418245 -65.019149020876100 -208.918190756329921
-129.429199889993214 -63.453040749266073 -212.980676829029960
-126.166143352092675 -60.319076370604009 -207.085999470360548
-122.910343869004663 -63.371330017571417 -210.709885755382970
-112.235476736437548 -63.189645440831711 -210.335807962078803
-146.335108980387645 -64.597043294024687 -220.208062348754851
-150.196926474239660 -65.125023067752039 -226.394711280380079
-151.212380631021261 -64.062865654772764 -228.881878154269373
-138.268000393925973 -69.101634963492359 -231.497010336429668
-130.266158692274729 -60.734684101641896 -233.069983120675175
-120.471487678403179 -65.812618068436223 -226.315282090831232
-138.788322421060741 -66.309185112687530 -235.156052444793573
-149.168729517941188 -67.034170107411072 -232.560746931608463
-132.119394727375607 -65.313807368194034 -232.386189035455942
-131.662285236716059 -61.590544123671506 -234.403197836259778
-145.682497704172334 -65.165428133549810 -235.697361814544649
-133.105139028363055 -59.155333597998215 -235.722567135636695
-125.752546402736897 -62.597579764174235 -236.532893774957358
-8.503710212469905 -61.389720677377724 -240.842589175725436
6.887645594995316 -57.204965266690813 -244.162669373427548
15.554694747743776 -53.896870547807239 -246.297135337743498
11.638764966416394 -60.509487218755993 -247.235173817839382
-6.292293576258469 -61.156566255813203 -243.861626371502894
-10.204540967843883 -59.350112480133923 -250.659019075799193
40.083162812841245 -55.344548510398191 -253.278722332114370
49.998784277344548 -55.998951869908822 -255.709254119907968
-143.703106487268457 -62.713129521087652 -260.299780777731769
44.116530927182360 -54.835115389639874 -257.835530412463640
40.593901337493307 -57.570041280205388 -256.450034286365167
-155.983457828356876 -67.699383477145346 -263.808906545628474
-148.520073236944114 -63.655301668188272 -263.585139793203098
-148.266161026837352 -67.210961847893230 -265.676103368758504
4.982895721842855 -58.910102540472273 -267.163456869809750
-148.442189028273873 -64.455260881308263 -272.930848738107557
2.071388668496165 -58.063522582838978 -277.921640571695491
-143.728671690941724 -65.858579197457459 -280.964816280648336
-145.155753502982606 -63.689797335882069 -287.752476446369428
-148.373623280089021 -63.426034575101355 -291.250829302338957
-147.411261584311205 -57.559868482351519 -289.607551644251657
-142.515542329098992 -61.676657174216245 -295.430191074099980
-152.645525803553170 -62.856642337787171 -291.525535258746856
-148.447463791707094 -63.377483800273566 -292.355339369842284
-149.009333211123106 -61.154287897218339 -293.694543003611386
-144.837640391225193 -62.653151546724516 -293.560210413252094
-141.281275275567651 -62.595404347448579 -293.270039971473409
14.085468412251180 -58.287379806372634 -288.589559413105235
-144.087002481035711 -62.583344388207870 -299.387074370147047
-154.406451106847101 -60.241054216166056 -297.706882353818003
-152.682345693234112 -59.162268460693504 -294.789410962650948
-147.898299106015003 -61.232834414570291 -299.419932021917873
-146.295163433877690 -57.804798755459096 -295.264770118991521
-143.784498950918049 -64.332856464744822 -298.059644334649533
6.836319037219651 -58.570805166668123 -296.043188548422677
-141.413579312441101 -60.797189632716986 -300.395390096482913
-145.167349752508898 -59.996016603922669 -299.434994397082960
27.275526288398261 -57.121653536032809 -19.685167697446850
41.008908329107349 -66.867030342607634 -23.574063386673103
41.142815576794028 -59.538496656294676 -24.476364940294548
16.813212190633351 -67.989066845786397 -35.030322134196460
25.154679413924050 -54.736951576811940 -38.200614672649365
36.450823010304880 -63.825315311924285 -39.034914240686682
-57.649133927220149 -63.627691883915936 -48.964515777605229
-51.847972573064304 -64.745069867522403 -46.623837027631502
89.118238809050453 -59.256539792451306 -66.474787288584125
-96.457993007394464 -64.438815991919626 -70.591398266902061
95.780760437084680 -66.194206886593250 -65.076503967285561
67.323024475229843 -60.858178112632586 -72.440851524866531
100.026896664172966 -60.227970863087087 -79.751866244555373
63.183062401756615 -63.496681569643833 -78.858765731562812
-42.464722686326652 -64.552180917742774 -82.137533972108884
59.316091359864664 -56.733443248788184 -84.376357214320450
-54.213418831750346 -61.274746474621885 -82.956902838907752
58.404773699383618 -59.033188398553087 -86.760234151867238
61.716931124736504 -56.960294886284117 -87.838796850081636
-98.666648994021699 -65.673703007281233 -88.820789813291015
51.042064423555246 -58.592190014124384 -89.012218430974059
51.777613926044459 -63.666266338901934 -95.873189988178112
64.540673619197250 -60.393787422125186 -94.671233198781692
51.969591478833422 -58.316506252500560 -99.048913492151797
-81.116849708042679 -62.906670234971443 -111.541767510970828
82.908468998539590 -61.716054349497490 -108.195391229828232
-80.655959752997106 -66.900998668642814 -122.432745594097909
-76.955940451513797 -62.400586307887501 -111.396375521217237
-79.487798034739313 -65.024114177844410 -127.404184459681304
-85.863182737193839 -63.639661916897744 -119.905528885280503
-93.680038248736338 -62.660133915832510 -124.849341643923495
-80.274373349990853 -64.846134807582132 -127.801490055741695
-52.611069725375813 -60.704664720151236 -130.124545981447852
-77.806637124887075 -61.747309626690146 -139.402408867413527
-56.687335791390616 -58.239636560858607 -134.956875547631796
-87.875367933310201 -61.660145006078977 -141.837364513441486
29.843000515844793 -58.494174276718844 -140.927093127684799
20.011127760262227 -59.775025466093190 -143.982684349942758
-92.945442489605313 -56.481808975480682 -147.104875636873544
21.420736386388093 -60.680026464378216 -151.594430194332375
-89.454532312712047 -65.718240319294608 -151.431805676814577
-93.677437667193018 -59.856186758817444 -152.564657829655118
19.575848616114726 -59.382721774931760 -161.605127426448973
-95.494060465117627 -62.723636028475660 -151.963029406774950
-97.674868203388314 -61.657116898991802 -152.644023016683491
-102.623209565186329 -62.715929107780404 -161.813374544164134
-95.180314852361832 -62.733965557740476 -166.270594736845709
-102.864554733512065 -64.811517682752992 -183.300824279846097
-107.629628560807902 -68.211736165989663 -174.331571476257835
-98.475469564454343 -63.535844377188447 -170.409313197790397
-104.535412215836459 -63.800849365735083 -174.637238294325044
-139.509534742328384 -65.836998504274504 -183.994956041885672
-108.931204103138271 -62.946154285287356 -183.461442246833514
-140.072763603372778 -64.275744860562781 -193.566909027337545
-147.389492440616408 -62.032474763334761 -196.079909636361407
-151.712939187530736 -61.574135402579394 -195.877931573797582
-121.486698632074024 -61.441996044068475 -201.991969688310206
-128.448643348272640 -65.843075897958585 -201.417175412626108
-120.967806656771813 -61.756661373700801 -205.988175658380641
-141.525667592917699 -66.245454862207055 -207.843357146481083
-121.913282256387077 -65.783785990154996 -209.433194229073223
-144.773339757090440 -65.098090218139049 -210.367292261905021
-149.771901329290756 -64.288352196099055 -211.765439885249350
-152.962417379957600 -62.310436405001568 -233.732031066948224
-140.557454377118631 -67.858861503032699 -237.596679278704755
-125.607178874524763 -60.907960610628557 -237.575405848950027
-151.893736111577397 -61.952521182759426 -236.714095624969417
-0.693159451768662 -62.057974424458024 -242.458968464242446
14.305371529814694 -54.654144201504863 -242.153189685896990
-0.239048207239958 -60.685597049757412 -246.954013045377224
-147.382275835949713 -62.134870850124493 -250.934020340988610
-5.748148593850402 -56.078816286716929 -246.885564853626192
-148.552671968941695 -66.479040663199058 -259.579702312249594
-4.255174922887724 -60.491847179510614 -253.132455468648658
-147.046534676753367 -64.237206738310533 -259.954622100846677
24.248808197509888 -58.409038654427178 -255.642832131753011
-150.184486303649948 -59.359613663398633 -261.319360585907873
-146.792572756301183 -62.458070814050146 -261.297247552138515
-150.244787577411984 -62.561779846366512 -260.333589433564214
-147.100041350073440 -61.305878294028808 -263.801036515842270
36.173902433268985 -55.902603993380765 -261.096892519785456
33.151777336464910 -55.260087658626979 -266.392178772012244
-143.610546796466053 -62.464707582929755 -262.013157523451014
-149.253787360969142 -58.992308641354967 -266.308397532909282
-151.620155009851004 -65.132500200524902 -266.168459867566696
-144.954035066425661 -60.310141466897534 -265.781099662239001
29.392692017669475 -54.688217881890139 -265.593675265723107
31.503513092880731 -55.307593336515509 -268.853091124295361
-151.416484735682928 -63.615125609853408 -269.076923944516579
-140.901137845619473 -61.731099204084330 -269.224281531976885
-147.310805650041488 -59.566603122308685 -269.263212691384354
-141.732983093188636 -61.527113216424915 -270.169958221963327
-142.238479284567660 -64.417959448212841 -269.707064974865602
-144.551385715620199 -65.693565212817617 -271.866732303971730
-145.998171435036625 -60.243468073008202 -272.002536188293391
-147.361910900291150 -58.855070483226967 -291.563742165275528
-145.362925945204410 -61.544380296372537 -288.364283463776644
-145.372063252052470 -61.943126555353153 -285.742633128005707
19.908846188340661 -55.951891545343940 -285.416907415635762
-151.373607820357421 -59.440473275395490 -291.201879092135528
-144.083509586064025 -60.660169871987129 -294.072869166279474
-1.958434802813793 -61.543433052510238 -291.151737487876346
7.874951389062725 -55.730692638206669 -295.840942042978043
-148.964073015288790 -62.433241674925029 -301.020790968539586
25.848636805382078 -68.723345526672318 -25.047287563525071
44.089765291889961 -61.731790377102989 -31.209879521485608
48.630042973046628 -66.789584703973389 -35.628633386416702
39.731647236673901 -57.842858185579864 -37.823284191775080
24.548382345925610 -68.997085106146670 -40.541988251058513
43.936337164549244 -65.390196098362466 -43.059577765432195
78.894235974769330 -56.440125353659027 -64.323050354967847
76.053740482313543 -59.130977791491631 -64.560505261169112
-16.870328351235571 -63.018664968155761 -73.101018171768416
66.340813352322769 -56.184746078956273 -73.472456508909829
-28.421194012913773 -65.333600084681422 -77.668130029271069
-34.702744664939878 -67.096909925301730 -83.975574362911104
-57.392807350130767 -62.090480473643886 -80.934046404060069
-55.083028215146811 -60.605557478320563 -83.707479670751539
63.791948120144639 -62.940919877522759 -85.006351076024742
106.606670175154449 -61.386889908432252 -91.451591593400664
-60.904673346240180 -61.054694459941388 -90.814357497275282
56.718315871712548 -58.989621468074724 -98.412068048316371
63.396305145562280 -56.509102273094584 -96.205105251760045
103.153627281329875 -56.702450474276944 -96.398243067381259
-66.117964559748870 -65.749847115149606 -98.500507878253416
54.835749319693988 -55.103934904857809 -98.516617469372179
-65.684859630118709 -66.327425916138679 -109.929680810138635
67.910788749812681 -59.193639332419352 -99.156042359754551
67.451287572718726 -57.600841167541503 -105.545904997947645
-74.895522235539246 -61.884919281089900 -113.305644559568989
-97.485650995858265 -61.719671673454840 -117.389671622095491
-70.005990737579296 -57.782747551409834 -115.548996287103691
-83.515954895128417 -64.350567622890253 -116.547484071951473
-62.675939094095490 -64.228251083060172 -119.585160946784100
-84.157440354151760 -61.214011368659335 -114.225504900775917
-76.459717295246534 -63.656331266476414 -120.159376985589759
-76.452653351978825 -64.996383772572898 -120.929486927904620
-68.008513554410740 -65.287065622480696 -124.678079610185833
-84.322289242105811 -65.373101351451595 -131.260647466716648
35.007196267798037 -58.043954503250568 -131.014767725934377
-49.496662980141650 -61.508050327709341 -133.840515360751851
31.842554794312477 -57.772228622876163 -137.226634193815158
31.065672496598253 -59.098285340902116 -135.549352957661938
31.020434958845520 -60.280676220570946 -135.336947785782115
-53.164422164545677 -59.935826989695038 -136.792045870455127
21.534772300196437 -58.468906689629236 -149.112861608550730
23.860975177811966 -58.975850907941158 -147.270558747040639
-144.448253748349288 -64.794966606757697 -183.342121759403170
-149.413633737997799 -60.781043468157719 -181.213115268403584
-151.095690699366315 -63.907987552007327 -187.715457529055499
-146.244872558041351 -61.616060201749150 -191.390018162738897
-147.192008416340229 -64.265642508625604 -198.108618886354179
-147.801539489352422 -65.786400745374110 -199.151791424253304
-139.477484975967315 -65.401820831009502 -199.042636474232722
-142.833682729916461 -60.667389440160164 -205.967032617989304
-120.526942680905293 -64.456596974811163 -205.737078145725519
-132.416479421804553 -63.779329881802902 -209.572423918540608
-145.984016462950535 -64.394502007159474 -219.296483448783988
-145.420737768423010 -57.720446964732673 -228.498993091987757
-149.930259624310054 -61.940350678434520 -232.753639852861028
-144.236885838664421 -62.661403551662815 -234.431523302245921
-150.140325153604948 -61.980017671230691 -234.457290584899653
-148.377505364059090 -59.607893054841490 -234.319765651312082
-145.852720739223713 -63.154196794720455 -236.542422098361726
-143.748113271089210 -62.838164799568808 -238.197722435884288
-140.129106839013957 -60.685074073210622 -242.709386761601337
-144.842981828104485 -63.830678249035429 -235.983202910636606
-152.663959746388969 -61.837018696314104 -240.196990406764570
12.158419309552430 -55.833952363866928 -243.159195910882971
-6.698096812273664 -61.536603884770990 -244.862609624147467
-143.508499558220905 -60.044957175294591 -246.716265856961940
-149.878675329338193 -62.956658963727243 -243.001439948912292
-150.550506308699454 -63.737564401905665 -245.201081987629578
10.853133543764738 -57.515891565418983 -246.784282818909134
-147.769263994919868 -61.248781990688151 -244.551860157400995
-146.346158774377955 -64.504213883474819 -259.525480945309596
-1.308577689440965 -57.144334556144997 -253.080773576053758
-145.715543016796914 -61.220667565772196 -257.784511681295555
-142.388278177027871 -60.753076439993166 -260.061171175674815
-139.980725583753269 -61.813109658475277 -262.232360667317721
-140.559954629477204 -61.371052017206715 -261.696836939608488
30.619378165363834 -57.515518235518186 -265.355058194676644
-146.791393394680256 -64.669697770475906 -270.551867601480978
30.193895869853634 -56.664229207690838 -274.541193130988916
17.371670080978753 -54.940363001120694 -291.219009828520598
4.401507343423880 -55.055191933006164 -291.727177019119154
11.749656246679253 -52.530822380807841 -296.775582806416082
30.437145306068523 -60.407331781897945 -22.997685421834010
42.611101173668075 -68.983419447588560 -40.885760427264373
35.156403032228852 -68.531936080510235 -42.046866794147931
-44.669477771258840 -62.118094285499026 -51.308116896848126
-91.275602284262092 -65.072968248510065 -60.135591922046174
-95.071652238712261 -64.499276281380816 -65.111244084174288
-22.539211066277495 -60.294281975651572 -70.586682493438317
101.003555301518375 -58.350264343671995 -70.657178937696074
105.680643993539036 -54.519266577306951 -77.088758703113598
104.906559650534589 -58.245596657868816 -79.093377765053589
-50.356713201811765 -63.753373381386034 -87.534401637411293
-62.631255242021176 -60.957233254764745 -89.287013704230873
58.043201593590183 -56.628274847799482 -91.427060159893983
53.921944315255082 -60.468872293877276 -93.067211704690138
-61.538445508266989 -65.737622777245335 -101.524073442571364
-96.578018348727795 -59.748024025441836 -112.417399074647705
77.557772724142836 -56.844274493764225 -110.863141887463300
-80.032915746413750 -62.316766512160740 -113.570419224658124
-67.352175010718199 -62.964552048374436 -113.815701448987710
-80.031033547348926 -65.513464929253530 -118.682334887899387
-84.599356425568331 -57.120904502979229 -120.266599974339854
-82.379809315654867 -63.249804128070679 -121.503671062831202
-69.672504437902873 -55.680859099921143 -123.149670351994146
-65.899538060632864 -61.098363935497652 -121.944294760198247
-81.653060253630315 -58.113251725378426 -122.841487497631320
-76.960902024652327 -61.725097080907815 -121.770550068247374
-62.953151530560035 -60.302080512427253 -124.518369151070189
-84.294386740131984 -61.664529388271845 -122.670121613482749
-74.818275231584607 -62.249281579094678 -125.234531124579220
-73.785417267303345 -60.805328805087122 -133.842256115539442
-79.710820898205156 -61.623693253762738 -133.583430109601949
27.944906439747633 -55.862548067234385 -127.624591735081125
-56.940529291799244 -59.080402768219415 -137.057047049163771
27.800760686684569 -58.572221837470281 -136.952377462736905
23.091516184487077 -60.968717001935744 -142.133933580884644
-141.915160061750385 -63.179533808941251 -200.328841146864988
-135.526575449136033 -63.655897216621533 -204.618383541250097
-150.933005057791917 -62.949220816493785 -208.612026023096945
-149.071670391214099 -60.269635064957185 -205.958626114261222
-154.936197990106621 -66.389279915350045 -208.604270078744463
-146.602544328449795 -59.373414409994894 -208.703098702956225
-140.264203706068258 -61.117782255025155 -208.813658420534580
-148.058307958305562 -60.266151079378965 -212.800562138983878
-146.648198629758411 -63.650053140895743 -229.445246140746519
-146.625506216419041 -61.100865408572318 -226.886668370291318
-143.072870378821619 -59.790984759233808 -229.968108293106837
-142.888160856098807 -62.016311815348338 -227.897093027438302
-148.132511464575970 -61.803896888885880 -233.060414624233914
-143.806317223305882 -60.079468762601508 -230.416340069936126
-145.133045126299692 -60.328542456377491 -233.467896457414469
-140.016072694116104 -59.687947359791337 -232.339377779719428
-140.023367192955391 -63.806947026008615 -234.281636119552672
-141.502354125191658 -60.459292960201019 -239.269759619890266
-146.834622905022883 -58.902102839978490 -241.059450632798189
-145.678830301615619 -59.279820634764086 -239.927801696675687
4.827692318536814 -57.775540076853090 -241.981848274886232
20.472758850567523 -55.267800209831769 -246.044338497641888
26.506436693544863 -50.621643781374864 -257.704442700696859
26.589578091829345 -53.466028028280860 -260.457442200096693
11.137430754933240 -56.452183806630629 -266.935183805375800
24.530051841769605 -56.784679448803260 -281.988450759018406
7.973480629302427 -56.534076268375109 -283.600111478034535
10.119882320494783 -53.325455134066644 -295.452203394119977
13.699268019878874 -56.017761131960434 -292.256672202281663
48.544404396177256 -66.624850171573016 -23.921840024533871
31.390274395956865 -57.760841660941239 -41.092874731488784
-31.012898415845825 -60.314401285462331 -53.864878598002441
-17.627090258203125 -60.348413980639528 -55.753622520946884
-13.122274311599485 -57.163848549893125 -62.789015854427916
94.264899178530172 -57.237476937488239 -63.045684484173989
-97.349304432883116 -59.952672566333725 -76.703451489773670
100.362930881122693 -58.231062494672322 -74.829355014538493
55.589951896450820 -57.363990467524367 -89.083828957764254
66.808176600823742 -55.567417381001967 -91.494855798446821
-64.901682051210273 -60.338354889063169 -96.025691391393224
53.198088396834393 -58.312429531240369 -96.173610693230884
60.441896335142900 -52.855629210178456 -92.327215857849282
103.837809409437568 -54.449417624809314 -99.386053201437761
-68.570228846570814 -60.332517891512801 -99.657572102103842
-70.961368530879554 -58.722688053920777 -101.475597407601413
78.783240022284375 -57.441530895183000 -109.959243428764864
-75.593662743006163 -62.363402732338955 -112.197491204357277
-63.295798706573592 -60.864007179852571 -112.824471857342189
38.904586846069691 -54.293631308857393 -123.328603933194742
-82.998913914408362 -62.028719854067617 -129.564115537544467
40.698115007650316 -56.594766475295337 -123.764746308809137
-89.503960825556305 -63.804474430310712 -123.179893298771148
-97.104910199214487 -60.106084951864048 -131.593004039650367
-67.738958685876256 -59.186937894329503 -127.454930766248637
35.642218457576661 -56.085235652531516 -128.117829628547440
-62.788201446185987 -62.088723487442174 -132.955670492127808
-56.783459598468241 -59.791734085287118 -138.156868230231737
-56.568599769954766 -61.610635011637122 -142.629369678988894
-142.586634820395403 -60.082145526185791 -203.885573856400384
-147.708115929599103 -58.961089635471616 -197.278914977567325
-146.258987566907024 -61.109800604410545 -200.803206582361327
-152.087929897566227 -62.178100242977479 -202.646335105615492
-146.319980516663804 -63.144544444704145 -201.371214031176891
-143.248845139306752 -58.899605302863669 -202.503001731294688
-138.378229699177382 -58.974559269139206 -205.387669339576746
-145.016510137931732 -61.396458400763507 -207.641918378662751
-144.260896790135320 -62.891748474474916 -205.037289348330148
-151.713745306475914 -59.173177744454506 -211.413865879016015
-140.885383954668328 -62.059608974261756 -209.075504561693947
-144.837721513635131 -63.269545483205953 -211.647272255799322
-145.367154626026405 -58.484629406660140 -211.311401058657083
-148.615858710992825 -59.353219287805075 -211.525974497669921
-144.205460819671885 -60.487370490990202 -229.840466813641854
-3.410948329928775 -58.488466885667812 -238.467328918382094
8.107297145340477 -53.848878512293687 -245.654966839687319
11.855632707801108 -52.795647574879787 -243.432558598754667
7.805668720201121 -54.777989256172809 -247.626812592267356
22.473424552050304 -53.495900684302889 -251.830714592533553
3.118537203160159 -57.653207093103333 -261.175666192408301
12.512612178771009 -55.258795291756527 -274.071202088743178
29.075092858318335 -57.503918631021435 -270.866990919420402
21.148860858801804 -52.918334366869594 -285.893949105237027
26.199154616238523 -59.902756637450047 -15.350069357622406
-68.979402823023847 -63.600847990366532 -45.036163460742877
-36.447119698321117 -60.319892598420353 -50.788002593276950
68.780670078388312 -54.817781201991608 -65.635397736484862
-28.357897565677661 -62.511825427769516 -73.528699615327795
-34.663698476799418 -62.576059373975234 -82.841999650096867
-43.688093760879646 -58.897569441902185 -83.959512577608123
68.126452260136702 -51.792274773415400 -95.011754941758809
105.752580197697696 -53.847160348431906 -88.414248186875284
66.281032104157475 -61.875825222530551 -90.052770768292930
-72.027568699658048 -57.064657454129744 -103.006087112969794
101.650044821170511 -53.872914155974463 -100.886235730843310
99.620572100882683 -54.499281030914659 -108.058644151935141
-65.508614406057575 -60.621638865114065 -111.954865187822350
80.968551998496025 -54.733210347306610 -110.146856531432690
92.693539865385006 -52.909674031244066 -110.296401012058951
-57.713365970434481 -62.386193732742925 -115.385222091301983
48.379524076537223 -56.621647855174508 -117.404534596934241
-60.818565024764808 -66.860346669498909 -123.624238927258247
-83.677888853578651 -60.835183034581362 -116.040006707420190
-55.203743693441837 -60.837650141821491 -126.862398372117880
-76.765965022536008 -59.968994653862467 -120.236183103541919
36.303119025704071 -57.843223791254424 -126.095388009016759
-96.745124343682718 -62.898000740617526 -132.669088016294012
-53.443950355267020 -57.706354439824189 -133.541516637377157
23.271981246639974 -54.189138316591318 -142.970399532199536
11.523463737979137 -51.673430516429377 -244.226439594692835
3.063710269202480 -55.757393294602601 -246.446731292038663
6.733202466894266 -52.755544694232391 -289.511120429067432
20.351103689824413 -61.357128331871706 -21.706368781903809
36.842799833263818 -58.430897914645676 -22.765791987202050
16.792914708607583 -60.581697392311312 -26.517331698114251
42.854505808515206 -58.860297850567790 -25.197354016944214
-51.092071123905804 -54.749151721373444 -47.749699408738884
-9.221772690388612 -60.287806053185818 -69.372346689594622
-101.811255702854865 -61.386816320390459 -91.358828426553274
66.523345430205580 -50.231281557928632 -101.697932814073098
84.814662143833004 -55.276685530268992 -108.629570435492454
-68.311886218922282 -60.607350722920344 -120.790697317938921
46.219722778864586 -54.892763382194062 -120.214329085123538
-78.295109142196949 -58.156089663568906 -124.024684063828104
-60.473424924641286 -61.850912961541447 -125.009368573427352
-65.508956820572507 -61.262671353838087 -133.697054179990317
30.131376770312826 -54.773295471698617 -142.059216869052108
-1.376465336333681 -53.015123988919143 -245.628763124254448
22.742234785140226 -56.556151781756839 -250.502717134498624
24.284980344822564 -52.011815519541528 -275.256269115453165
25.550023674123523 -51.503271185120362 -282.055864090609077
14.281334519261693 -55.320316778868872 -287.819250160572153
43.955478033702462 -62.481523739243215 -22.360160685414655
36.702373682226451 -70.811068179134381 -43.574485080449904
-54.256927341472981 -59.765382450899601 -44.072021000709995
-86.677429207512930 -63.872022734299861 -54.170433572526342
81.290553374280719 -54.642000618949545 -62.522325666677261
-16.001666854371962 -58.240194137071931 -66.105367634124491
