# This PCD file was generated using the MATLAB® pcwrite function
# from Computer Vision Toolbox®.
# .PCD v.7 - Point Cloud Data file format
VERSION .7
FIELDS x y z
SIZE 4 4 4
TYPE F F F
COUNT 1 1 1
WIDTH 1427
HEIGHT 1
VIEWPOINT 0 0 0 1 0 0 0
POINTS 1427
DATA ascii
-70.369476 -86.869057 -67.057678
-70.652008 49.438644 -67.923195
-69.349792 49.466843 -66.680382
-72.318405 -86.171570 -67.759865
-70.896988 -56.642159 -66.844406
-71.592987 -87.471779 -72.695534
-69.810211 106.220955 -73.543541
-70.662422 61.600121 -76.199455
-71.918404 -51.991070 -78.679893
-71.005493 -40.466778 -79.591759
-70.744675 69.886688 -80.282944
-71.096092 -48.712479 -80.563080
-71.753860 -45.407722 -80.262627
-71.172951 -89.697212 -81.745117
-68.944946 -40.068226 -82.849434
-71.676407 -57.328835 -83.220123
-72.202003 -49.543678 -83.036385
-72.263771 -86.977768 -85.973785
-72.180023 -91.396049 -86.697449
-72.229485 -58.680462 -88.657219
-71.369247 -93.389709 -87.275864
-69.899223 79.354927 -88.049538
-70.843147 -31.132906 -90.485985
-70.543854 -46.080341 -90.603317
-71.957489 -31.816502 -92.790993
-71.398773 -70.651253 -92.066238
-70.068680 -40.572132 -95.157478
-70.507545 -74.797668 -94.844322
-70.776321 -99.267670 -94.008339
-69.829453 108.596298 -94.104538
-72.215782 -96.345413 -98.376762
-72.952667 -95.186859 -98.226357
-70.956604 -97.052292 -98.973213
-73.395164 -100.158096 -98.330627
-72.186974 -38.861065 -100.414551
-71.420937 -24.552448 -101.647003
-69.851044 -95.670952 -102.326050
-70.781570 -33.458553 -103.317024
-69.050842 90.294724 -105.338501
-71.416374 -27.727116 -104.230682
-71.442589 -29.012730 -103.561310
-71.853134 92.655464 -105.121918
-69.715584 90.449692 -104.899345
-71.628784 -93.297325 -104.042381
-73.492325 -25.779705 -105.965042
-69.611855 -97.423103 -106.162926
-69.439514 -30.639757 -107.981499
-70.643677 -99.095139 -106.476288
-70.184906 107.483910 -108.446213
-71.130302 105.081017 -110.000557
-69.467430 94.803825 -108.528664
-70.058746 96.462448 -109.450546
-69.298164 105.039101 -108.935211
-71.836754 -97.205666 -110.415268
-71.904259 93.470749 -110.214172
-72.330254 -21.220964 -110.454544
-71.426231 -26.586035 -110.820053
-72.005150 94.093040 -111.171501
-70.853180 -97.887115 -113.439056
-70.386055 -94.216164 -112.335236
-71.198868 -98.755852 -116.281425
-70.350891 94.374863 -114.464691
-72.176292 -22.635038 -114.989555
-72.573059 98.056763 -115.553978
-71.321976 90.507622 -118.135719
-70.170906 65.647423 -118.037033
-70.300682 -21.344740 -120.235512
-71.030258 -23.630638 -119.046349
-71.391052 97.061333 -119.873177
-72.524536 -17.293509 -120.615425
-71.376366 -22.525597 -121.174164
-72.554726 -96.962921 -122.618256
-69.951630 -103.240166 -121.083214
-70.847816 72.610115 -122.652283
-69.676361 85.396454 -124.107407
-71.093735 62.593140 -127.787498
-70.989044 -24.565943 -126.538147
-70.046661 72.414162 -127.670845
-70.773140 -104.336143 -127.205658
-71.647697 -14.781861 -129.276077
-71.004959 -17.200138 -127.695419
-70.501450 -20.641796 -130.223572
-70.655853 86.090637 -129.326324
-70.178452 70.096939 -131.047897
-71.906471 -20.103069 -129.019730
-70.787605 -17.475277 -132.108353
-71.925018 87.428146 -131.048859
-71.659706 70.862091 -134.914688
-71.887726 -97.448364 -134.362259
-69.087708 87.705696 -135.539886
-70.610840 -17.878927 -135.044083
-70.569443 -22.694202 -136.099167
-69.499191 -15.653605 -136.739243
-71.327461 -105.330399 -138.225266
-71.074684 56.696701 -137.372787
-71.975555 -10.939219 -138.841324
-70.778015 -18.945557 -138.865417
-70.912682 -14.673868 -139.460861
-70.946495 -16.574600 -138.185532
-71.049446 -20.051153 -141.866669
-70.096893 78.871849 -143.242188
-69.984283 54.642792 -143.687408
-69.713364 -97.027130 -141.893066
-69.940636 -13.226774 -142.381454
-69.893501 50.599983 -142.726761
-71.634964 60.817673 -143.393005
-70.274887 84.501106 -144.887573
-68.682709 81.449341 -144.797638
-71.423309 78.972305 -145.659164
-70.324463 54.840149 -146.263779
-70.294601 80.056015 -146.626862
-71.188164 1.774977 -148.359848
-70.314247 -2.051163 -148.516846
-70.213814 -102.881721 -147.396255
-71.603661 56.097355 -150.700577
-69.423065 -8.847657 -148.680313
-70.244926 52.198082 -150.322540
-71.296944 6.781972 -150.005066
-69.902260 47.772919 -152.058670
-71.135330 -19.303095 -152.257736
-72.594086 -97.043060 -153.370270
-71.058327 -101.994835 -153.353394
-71.439316 -15.181174 -154.252274
-70.540237 49.677067 -155.014633
-71.602852 44.289570 -156.156677
-72.012909 51.187195 -156.115356
-67.862831 -16.399641 -155.738525
-70.170097 48.936165 -155.932098
-71.376175 -6.805989 -157.515762
-71.945946 54.212490 -159.073975
-68.818192 49.885338 -157.808563
-69.551750 -16.848053 -156.863327
-72.051476 -94.910233 -161.331512
-69.776756 39.811680 -161.450745
-71.555290 -101.840630 -161.281815
-71.206581 46.124649 -161.824692
-71.452339 -14.023804 -166.042313
-71.023918 -16.259897 -165.206741
-70.670212 -100.068146 -166.253693
-71.143768 41.849361 -165.600220
-70.763351 46.068016 -168.444275
-70.367599 42.568306 -168.513901
-71.985573 -95.345337 -166.896805
-70.940636 34.252041 -168.872086
-72.033760 -15.975063 -168.298859
-71.086433 -97.262360 -168.497025
-71.053627 -1.369095 -169.917160
-70.893372 40.533150 -171.148804
-70.229897 -93.913818 -169.609436
-71.886414 45.895992 -171.142151
-69.854416 -95.985840 -173.527176
-70.191338 -97.168999 -170.624924
-71.944832 164.034500 -173.175537
-71.116791 37.366253 -171.473236
-69.988426 33.105591 -174.027740
-70.650642 -13.961324 -173.900803
-69.641586 -3.265585 -174.194611
-71.130432 -0.918056 -176.684296
-72.181572 -92.194870 -176.525131
-71.097908 165.594269 -177.292221
-71.185013 36.217319 -176.577652
-71.482506 31.560074 -177.841095
-70.888901 -94.723007 -176.699356
-70.507408 162.927673 -178.366379
-69.978157 156.492630 -178.040421
-71.666756 40.298393 -178.044327
-69.744583 -90.731140 -178.762238
-69.670685 41.084610 -182.948090
-69.650124 27.669815 -182.322845
-70.184586 162.219940 -183.541534
-70.464806 163.087570 -182.808548
-69.730011 168.620758 -183.899612
-69.755234 154.543671 -183.758026
-68.461639 170.255554 -185.407394
-69.644508 -91.319077 -185.369446
-69.785858 29.124311 -183.869858
-71.344971 -86.563065 -185.862595
-71.357086 120.211472 -185.505447
-72.171272 2.621457 -187.796936
-70.230690 172.853851 -187.823868
-70.566971 122.863678 -187.563126
-69.768730 126.223763 -187.581512
-71.272575 123.121071 -186.920227
-70.306885 128.101746 -189.014465
-70.136253 25.857664 -188.222183
-70.553818 38.070797 -189.209732
-70.259956 -85.551155 -189.943283
-69.554871 -1.109699 -189.545807
-70.040756 1.382988 -192.149048
-72.204361 134.319229 -192.200333
-71.544128 152.748276 -192.699081
-71.079506 177.044174 -193.211929
-69.757317 35.664436 -193.016693
-70.706367 -88.454346 -193.092606
-69.658058 153.823059 -193.164841
-70.860695 -81.843132 -195.084030
-70.894241 24.587044 -194.910965
-70.670204 -6.853426 -194.379715
-70.045815 4.021946 -195.800430
-71.514755 156.281830 -196.730759
-70.746872 -80.278816 -196.499268
-70.562920 34.861340 -197.024719
-71.399307 -2.902199 -196.806213
-71.324898 -84.736717 -197.198639
-71.686897 21.779016 -198.910645
-70.069107 -85.245125 -198.146591
-72.011414 21.482494 -200.765991
-70.299995 -7.004394 -200.051514
-69.636047 157.553757 -202.473862
-71.696251 16.683441 -203.027542
-71.037071 -76.882462 -203.133926
-69.970810 6.606156 -202.911774
-70.647110 -82.017838 -203.257813
-69.669922 -0.507829 -205.705292
-71.291718 -4.212090 -205.598785
-70.285728 -3.024734 -206.580750
-69.841621 106.094337 -206.535629
-69.621651 102.087883 -206.335373
-71.024933 18.237373 -206.730881
-70.673058 110.653397 -207.910110
-71.127319 27.257095 -206.436768
-69.547325 103.828506 -206.628876
-70.085526 105.171730 -208.533554
-71.542252 13.196722 -209.493896
-71.396591 177.499924 -209.355225
-70.749657 26.126446 -211.471024
-70.181038 115.495613 -210.049271
-71.390038 -69.760887 -210.049362
-69.867950 156.264572 -211.548965
-70.156311 105.455811 -211.188278
-70.382790 5.078258 -209.913147
-70.062607 1.555357 -210.061142
-71.760086 -75.108368 -211.751526
-69.363380 21.668015 -212.982986
-71.169411 -4.564386 -210.695877
-71.414627 -1.224447 -214.032242
-70.560425 119.694176 -213.414536
-71.139778 -65.097412 -213.488495
-69.717484 140.680115 -214.993835
-70.561325 135.265457 -214.719543
-69.455231 31.017233 -214.654800
-70.540039 -73.555000 -214.033051
-70.502449 5.225861 -214.650528
-69.235359 129.428986 -214.904556
-68.178284 26.317631 -213.917511
-69.889069 18.570532 -215.441422
-70.609123 146.934311 -215.507034
-70.972939 22.740713 -215.847717
-71.136620 -3.873968 -216.470551
-71.692230 127.758827 -216.259155
-69.461548 178.636810 -217.700317
-69.611534 28.924919 -218.624939
-71.424286 20.770397 -217.863663
-68.866867 -60.783218 -218.563416
-71.454033 -63.331367 -220.121033
-69.680161 -69.871834 -219.231689
-69.025581 28.430725 -219.864166
-70.281052 19.326246 -222.441116
-71.245209 129.145660 -222.549881
-70.881363 22.910480 -224.153122
-70.921844 -3.138474 -222.137466
-70.826958 -60.896717 -224.098984
-70.747879 6.085689 -224.071304
-69.472816 -57.359123 -223.712982
-69.356308 -59.070984 -224.346848
-69.791321 10.037239 -224.532288
-69.102020 3.807194 -225.988663
-71.891594 157.683304 -227.521301
-71.827354 16.571241 -226.384949
-70.392738 27.106539 -227.631561
-70.017433 13.744907 -226.925491
-71.509956 -52.552109 -228.287140
-69.794678 -57.255959 -227.074341
-71.250824 0.654143 -227.276550
-72.022903 -58.676109 -227.973160
-71.148743 19.072901 -230.169037
-71.213036 16.025707 -230.840942
-70.024208 -1.227650 -229.044357
-70.933914 -2.912270 -230.587357
-70.703323 0.581248 -230.662415
-71.545052 -44.830898 -231.165329
-69.862900 -51.555981 -230.726273
-71.108635 2.641480 -230.423050
-69.791443 20.303741 -232.056870
-70.166237 -47.172428 -232.854813
-71.638222 24.112242 -232.753662
-70.153725 -48.610229 -234.680222
-70.334801 -46.100983 -234.750168
-71.217827 -4.635584 -235.395004
-70.895195 179.246750 -236.140152
-71.365257 -4.395465 -237.437515
-69.306694 -44.916073 -236.336166
-71.778114 -47.630211 -237.664093
-69.758263 -39.232250 -236.823120
-69.354530 83.393356 -238.353348
-71.856552 79.367828 -239.062103
-69.258713 88.176102 -238.480347
-70.784111 89.665588 -239.384125
-70.890900 -33.066730 -238.046173
-69.884048 82.912369 -241.002930
-71.084335 157.481155 -241.173737
-69.275490 28.876194 -242.007690
-71.756721 179.933685 -244.166840
-70.002052 -25.258848 -242.846558
-70.677803 -34.971725 -242.781693
-71.741035 155.417862 -244.297165
-69.928787 139.944794 -243.646225
-70.809868 91.858261 -244.429352
-69.952888 145.890366 -244.645081
-71.572151 25.593849 -245.129807
-72.241219 -25.903666 -245.779572
-70.666206 146.468842 -244.909714
-70.264053 135.903625 -245.725616
-71.179977 96.979080 -247.412399
-72.687950 -31.873318 -246.707260
-72.717430 120.223946 -247.511856
-71.175316 -19.840565 -248.917419
-70.370789 -23.521769 -249.354965
-70.202415 169.308075 -249.280579
-69.252884 121.966423 -251.648056
-72.214317 26.523129 -252.671371
-69.605553 126.123421 -252.338821
-69.028358 154.654678 -253.672058
-70.523247 154.075623 -254.271332
-71.945068 127.353844 -253.612610
-69.223045 166.937622 -253.846466
-72.055412 138.004028 -254.484772
-69.711166 168.947067 -253.059250
-70.937233 157.736526 -258.367218
-69.411942 165.867126 -255.122314
-70.921883 170.432678 -258.133667
-69.144127 -12.194501 -260.644226
-70.782463 25.786867 -261.255280
-68.222603 163.931274 -263.796448
-70.112686 -11.160722 -263.121582
-70.637001 179.992630 -263.953522
-70.887039 173.417358 -264.162994
-71.316811 171.598389 -264.724762
-70.753204 156.279999 -265.701721
-70.085838 165.903122 -266.789032
-72.303902 23.106934 -265.091187
-71.902542 169.574799 -268.755066
-71.126114 163.923279 -267.249298
-70.963921 157.733383 -272.550690
-72.196114 179.815659 -274.396393
-68.864815 146.604111 -273.119507
-70.610313 166.369583 -274.151398
-69.872253 153.921387 -274.453339
-69.877602 147.714447 -275.598236
-70.630623 128.468048 -278.042328
-70.193260 167.236710 -276.809021
-70.888412 119.844025 -277.348389
-71.425148 99.736397 -275.181854
-70.908157 -1.556204 -277.379120
-70.513100 173.264481 -277.374725
-70.469910 97.221710 -277.556183
-70.470215 70.792603 -277.434967
-70.155579 87.208931 -278.825470
-71.276329 76.558228 -278.395477
-70.501854 20.222698 -278.339142
-69.991646 162.291229 -278.205780
-70.443581 67.812836 -280.050934
-71.167923 63.721424 -280.359314
-71.524567 0.733519 -280.503845
-69.838516 177.076096 -279.128204
-71.299034 64.449959 -280.611023
-70.936470 4.514008 -280.808411
-70.398178 84.224785 -281.509705
-71.758041 76.513008 -280.446198
-71.460083 16.318115 -280.958069
-70.611076 174.549789 -281.388794
-69.270706 108.525696 -280.609100
-70.385406 13.869988 -280.528870
-70.804443 9.093813 -280.680450
-69.309158 105.295380 -282.167023
-71.008888 125.136108 -282.152466
-71.249763 149.517899 -282.443939
-70.921181 128.893936 -282.756287
-69.442146 169.968140 -281.460693
-71.412193 171.430161 -284.216278
-71.272003 166.211334 -284.380371
-70.417122 167.699829 -285.677338
-71.796524 165.720978 -287.572021
-70.059364 156.387466 -301.687744
-70.258324 163.664139 -301.787628
-69.489456 -24.230494 -2.403070
-71.077576 -20.448023 -2.750897
-70.131912 -30.613415 -3.928055
-70.388855 -13.618750 -5.735898
-71.778976 -35.279865 -6.975105
-70.910271 -26.770321 -10.640005
-70.150208 -35.371101 -9.813753
-69.532463 -15.679575 -11.800214
-68.684151 -14.782112 -12.858585
-69.309517 -40.041950 -17.549124
-69.813766 -31.978363 -16.028118
-70.678329 -37.892097 -18.569670
-70.146393 -33.287727 -20.979279
-69.634514 -37.045059 -21.413593
-71.119522 -37.737808 -20.637384
-68.672401 -29.767513 -22.983301
-70.596046 -36.537384 -25.097191
-71.088715 -27.173714 -27.501553
-70.014114 -35.232647 -26.563675
-69.548660 -22.858526 -27.790337
-69.592201 -32.533413 -29.835474
-69.942749 -24.057074 -28.889624
-71.679512 -33.973415 -27.563202
-67.534492 -29.556147 -29.932631
-68.539894 -30.181448 -30.586691
-69.667603 -19.496532 -29.211821
-69.283554 -24.306948 -29.753981
-69.182480 -18.887074 -30.273317
-70.188370 -19.672024 -31.883993
-69.421944 -26.429827 -32.008198
-69.399529 -26.817980 -30.706434
-68.781090 75.361786 -37.933952
-70.645103 64.123016 -38.000980
-69.021873 60.290699 -38.852123
-69.652420 82.403076 -38.612061
-69.150223 56.578964 -37.235748
-69.847115 54.475574 -39.163475
-69.858475 33.587269 -46.964619
-68.891243 97.305717 -48.092854
-68.967674 -65.261093 -56.267250
-69.033524 -65.438782 -55.870720
-69.570877 -77.558891 -56.213627
-70.043922 -62.283947 -57.242260
-69.810158 104.199379 -59.323692
-70.407104 28.058327 -60.422131
-69.779213 -57.926102 -60.649757
-69.391640 33.283379 -63.416988
-69.788727 -56.127003 -66.771194
-68.898071 106.566612 -70.256256
-70.527748 -55.185261 -68.990067
-69.472458 -49.339237 -72.490944
-69.699425 -55.173313 -73.982994
-70.695709 -45.485508 -77.369446
-70.166382 -49.987198 -78.766914
-70.584938 -88.635292 -78.651665
-70.337090 -52.648903 -79.677330
-70.359375 -48.136742 -82.328896
-69.610435 75.951080 -82.795044
-70.541183 -55.367783 -83.809860
-69.367134 -88.262772 -84.247955
-70.282913 -34.594608 -86.318779
-70.939514 -47.089478 -85.828568
-68.881104 -57.308239 -86.843941
-70.929916 -97.190521 -87.560387
-69.424377 109.059410 -88.745987
-71.309120 -93.196983 -88.099297
-68.681961 -88.138557 -88.522911
-69.422226 86.820473 -89.391861
-68.360031 90.785164 -90.945564
-71.646111 -42.453091 -89.554810
-70.683792 -61.174809 -92.177673
-69.535332 84.854042 -92.891510
-69.712891 -86.074112 -91.209412
-71.389847 -89.707153 -92.282188
-68.535629 95.692520 -92.197449
-69.488724 -93.575981 -93.036163
-69.412537 -94.697456 -93.864128
-71.409096 -65.766220 -94.845818
-68.831810 -93.308823 -93.949303
-72.097298 -29.307510 -94.569786
-69.871613 -33.073681 -93.632736
-70.534630 -82.264709 -94.073654
-69.121384 -89.740738 -94.235641
-71.331047 -41.871555 -96.875977
-70.282280 -66.088120 -96.271835
-70.281052 -73.330208 -94.390572
-69.654152 97.587044 -96.583908
-70.610229 -33.437717 -98.317101
-70.524368 -28.678148 -99.557358
-71.214256 -35.013264 -99.547874
-70.529694 88.618279 -99.801598
-69.185707 -95.716347 -100.288879
-70.041008 108.614105 -100.168121
-70.718048 91.802055 -100.600502
-70.587387 -97.066086 -100.309258
-68.799637 99.277267 -102.008209
-68.456696 89.359825 -102.984795
-70.051079 -101.416443 -104.812965
-69.964294 -33.402969 -106.110588
-69.690712 105.486305 -107.396263
-70.375786 -23.201385 -104.912025
-68.143684 -28.574909 -110.296516
-70.523354 -21.765459 -111.402290
-69.825386 -101.432945 -112.818062
-69.996231 89.241043 -114.572304
-69.071312 69.974419 -117.124283
-69.834404 -96.835365 -115.944000
-68.943237 -28.700922 -117.393196
-69.280540 -18.259876 -118.376610
-68.990433 71.779190 -119.463776
-70.370384 -96.452347 -119.460297
-70.279976 -101.703171 -118.206085
-68.576569 85.363075 -120.323044
-68.885025 64.512863 -120.675323
-69.908844 -18.340418 -121.483192
-68.716812 98.941200 -121.774193
-69.404030 102.733208 -120.532501
-69.213806 -103.033829 -122.148720
-70.548409 91.488068 -123.779442
-69.575287 87.999794 -122.826836
-69.746758 60.741043 -124.190445
-70.326523 -24.279585 -122.756645
-70.087753 88.988014 -125.151146
-69.394630 83.269981 -126.990929
-71.116653 -98.140511 -128.446442
-68.163147 86.277557 -129.996628
-69.629204 102.462318 -127.888031
-69.832314 70.940521 -130.519623
-70.681129 57.413048 -128.551056
-70.001068 -16.081730 -127.714973
-69.318596 82.470108 -128.111969
-68.187241 85.642426 -128.356110
-68.723076 85.668358 -130.213593
-70.006630 -24.634977 -130.584656
-68.913017 69.695541 -131.270966
-70.353378 -102.066483 -131.825027
-70.555344 81.741302 -132.586517
-69.400230 86.612045 -132.996231
-69.267395 -4.793931 -136.183929
-69.557213 -99.991020 -136.836380
-69.869873 79.779320 -134.699432
-71.167061 -10.110712 -136.636047
-69.563301 -22.400852 -135.846466
-70.066109 -2.793926 -137.277206
-69.059929 -100.229271 -138.505249
-68.523972 54.253735 -138.766525
-68.485191 -102.754799 -139.232346
-69.368774 86.628662 -137.783203
-70.256149 62.985786 -139.801819
-70.488701 58.144714 -139.544952
-68.315506 59.987385 -140.557983
-71.317276 0.553747 -140.492706
-69.203484 84.236244 -140.628677
-69.875267 65.398712 -139.618362
-69.376968 -3.336035 -142.128265
-69.872604 -99.519226 -143.180618
-69.677338 -102.523003 -142.566528
-69.681732 52.235954 -143.422226
-72.602585 -14.921795 -144.134537
-69.337173 57.273441 -143.704803
-71.618553 -2.425647 -144.071732
-70.633652 -9.901211 -145.329254
-70.829842 -3.791690 -145.256378
-69.878250 60.783955 -145.594376
-69.571068 5.466737 -146.192749
-70.845802 -14.852479 -145.392883
-69.139870 -1.494759 -148.055984
-69.364952 1.295608 -149.645813
-68.661041 -2.027862 -149.360703
-70.349014 -9.801462 -150.896454
-70.065536 -101.936401 -148.541153
-70.053207 -12.676463 -149.379547
-69.934341 -14.492470 -149.480698
-71.331116 60.128960 -150.199066
-69.626495 -17.562197 -150.440811
-71.363495 -102.047905 -151.265244
-69.235870 -99.502052 -151.576080
-71.098732 56.521332 -153.169037
-70.203949 -12.301116 -151.776657
-70.210831 46.540600 -153.964630
-69.653900 -99.021484 -156.814102
-70.232758 -9.543550 -156.121613
-70.773788 -99.872070 -156.915573
-70.154785 55.197140 -155.909790
-69.824646 -13.700801 -157.533188
-69.549301 -10.877813 -157.210739
-70.435982 44.256767 -158.842850
-70.527496 -5.889791 -161.469330
-69.781372 -97.635117 -161.239243
-70.769691 -98.816589 -162.540482
-71.868797 -7.570936 -163.096573
-70.802078 49.647106 -162.321091
-69.952469 163.860794 -165.968018
-69.659485 -13.554832 -166.762253
-70.065430 -95.020363 -165.690659
-69.698868 153.763000 -165.593262
-69.149864 -8.386885 -167.046616
-69.872658 36.205391 -169.020157
-70.245461 -6.593026 -169.830139
-68.942017 -8.989508 -170.070557
-68.782280 154.436554 -172.604034
-69.923759 46.193558 -171.609863
-69.686935 -93.528740 -171.699402
-69.512466 119.579582 -172.462799
-69.365211 -10.315299 -170.968277
-69.693863 36.160885 -172.670975
-69.232094 -93.247711 -175.008942
-68.697113 124.075653 -177.815643
-69.868660 121.561676 -175.883240
-69.492233 41.185593 -176.273010
-70.474335 153.052063 -179.458237
-69.778305 154.312241 -178.209641
-71.003777 -10.027773 -180.034576
-71.291260 -11.955407 -178.128845
-69.147346 36.502625 -177.491135
-69.626862 -91.682632 -181.291306
-69.663689 0.227753 -180.825989
-70.170738 124.661644 -182.269638
-69.552307 29.480898 -180.383011
-71.072227 36.931305 -182.281418
-69.403282 32.483719 -183.297943
-70.269470 -2.031940 -183.234528
-69.382545 154.591248 -182.786011
-67.971169 142.963699 -184.632553
-68.688156 136.712311 -184.232834
-69.654549 -10.108866 -185.516403
-69.241486 133.952744 -183.227249
-68.611778 29.393045 -183.045700
-71.332817 154.297592 -185.103760
-69.525917 145.850342 -186.851685
-69.464104 31.304987 -186.196304
-67.855347 125.268036 -186.240158
-69.398758 -7.374005 -187.404083
-70.440620 175.085037 -188.118408
-70.048027 -85.880890 -189.253754
-68.754539 121.784081 -188.322189
-70.068245 1.916593 -188.683487
-69.652763 -9.231104 -188.694214
-69.730911 32.901260 -190.825119
-70.401489 122.963684 -190.550827
-70.879112 28.043549 -190.685593
-69.576088 -6.500273 -190.537125
-69.572502 177.169815 -190.262619
-68.042534 -2.296801 -192.410187
-69.155998 151.707016 -193.980637
-71.171265 127.102196 -193.602371
-70.240715 -85.290924 -195.112427
-70.961433 146.013428 -192.798462
-70.149284 23.102688 -192.227127
-68.506599 145.499496 -195.401657
-70.959846 -84.051476 -194.635300
-71.140877 144.676926 -195.186600
-68.783173 139.736603 -193.066711
-69.641556 -6.879496 -195.240326
-69.946564 31.770267 -196.451965
-70.980125 24.927469 -198.595779
-70.123444 -82.830399 -196.684525
-70.892967 0.540740 -196.940811
-70.224953 0.634000 -200.874481
-71.439011 28.607372 -199.471741
-69.433006 179.355835 -200.496048
-69.818001 23.561806 -200.138916
-69.422653 -80.765442 -200.784805
-70.236374 1.351822 -200.496918
-70.470222 -0.833879 -201.928833
-69.447433 29.237694 -202.426956
-70.536324 26.545925 -205.570114
-70.141014 -79.820099 -204.070938
-69.669060 18.204702 -204.294662
-69.749969 -75.492302 -205.777435
-70.129684 -73.286652 -207.055237
-70.689331 157.081558 -209.190002
-69.486046 -77.581635 -208.099121
-70.441010 105.904663 -209.208801
-68.456490 21.905235 -208.672852
-69.915443 13.944546 -210.261459
-68.895630 -1.723001 -210.757767
-68.544365 117.018105 -211.086395
-70.686844 155.108353 -211.498810
-70.388443 15.345532 -211.922729
-69.454071 -74.736595 -213.052521
-70.491203 -70.206596 -213.126984
-69.880714 144.623428 -214.738373
-69.823265 111.324295 -215.724213
-67.923958 2.894499 -214.128769
-68.966667 17.493650 -215.404404
-69.127281 151.987320 -216.219727
-70.120872 145.039948 -214.154312
-69.159821 145.463562 -215.577103
-69.829597 136.235855 -215.484833
-68.894775 129.042236 -215.676849
-69.315689 123.046249 -215.435684
-69.270866 -2.496134 -215.604019
-70.226822 10.051250 -215.843246
-69.927185 26.178982 -217.502670
-71.122009 25.975222 -216.335251
-69.973938 -2.824518 -215.440506
-69.144020 20.866625 -216.559296
-69.575233 -69.305870 -218.655563
-70.070961 118.102219 -218.893280
-70.485077 7.909055 -217.385818
-71.718376 3.574129 -218.159561
-69.843643 24.929907 -220.760910
-72.501251 15.101645 -219.940323
-69.720352 167.144531 -219.372818
-70.449181 -67.666748 -221.227402
-69.059044 122.862579 -221.342804
-69.095459 17.259249 -221.091461
-69.512703 1.078058 -222.533646
-69.384354 -1.928522 -223.615158
-69.650833 -56.665306 -221.244125
-71.579277 18.962587 -223.523438
-68.897003 7.013536 -222.689316
-68.801544 128.016632 -222.492752
-68.764488 146.415543 -223.016434
-68.685547 180.147827 -224.703857
-69.764793 14.266369 -224.258133
-67.790642 145.935120 -222.670975
-68.307816 167.768951 -223.476624
-69.832169 165.808441 -223.879288
-69.999008 137.873459 -226.208542
-70.752373 -53.287647 -223.002991
-69.468102 -63.671600 -225.474518
-69.599937 155.819885 -224.195404
-69.338295 17.482773 -225.286713
-70.163460 13.983048 -225.416824
-71.680946 -56.054794 -223.753754
-70.858513 21.668142 -226.598343
-69.220367 154.802765 -226.245316
-69.958656 21.424961 -226.742172
-69.780273 -57.841572 -226.038986
-70.778702 -48.469326 -228.538544
-69.179001 168.195190 -227.580719
-68.687447 25.087011 -227.775711
-70.580917 4.431585 -228.346298
-70.315575 28.237825 -228.832016
-70.350449 -58.662704 -230.093079
-68.830460 8.585596 -229.542526
-71.012405 -48.778214 -230.544983
-70.178268 -50.397404 -229.161285
-68.284470 -51.485165 -231.637772
-70.332130 3.521536 -232.883362
-70.778320 -45.235764 -231.955215
-69.574303 178.229202 -233.566544
-68.209900 168.839355 -235.324799
-70.409508 -51.946507 -236.440216
-68.541794 24.452620 -235.639679
-69.644310 -35.880020 -237.592545
-69.429680 165.129578 -235.263336
-69.149696 -42.390171 -238.644394
-68.990494 -36.579224 -238.439194
-69.557388 -38.006344 -238.738113
-72.147392 179.776001 -240.030701
-70.170570 169.022461 -240.453247
-69.266556 164.823792 -239.496124
-70.358696 -10.260157 -242.809219
-68.761795 -35.592766 -240.419861
-69.313240 98.386848 -241.546936
-69.970360 90.411911 -241.116974
-69.892738 27.155931 -241.613312
-70.342491 103.749367 -242.301392
-70.103447 106.203575 -241.857132
-70.086021 93.098801 -242.413773
-70.040337 -10.976778 -243.327164
-69.602806 164.441620 -242.944260
-69.137581 168.009872 -245.642059
-70.807442 165.799332 -243.960831
-70.005127 115.603973 -246.206406
-70.414238 97.718834 -244.379395
-70.940369 27.506460 -243.601303
-69.499847 154.677979 -247.072891
-68.699799 119.132744 -245.641220
-69.172226 -10.365234 -243.865555
-69.832672 178.639481 -245.810471
-69.463989 -18.491314 -246.270584
-70.137848 102.473816 -247.665512
-70.283127 167.411560 -246.668228
-70.391953 -18.207550 -247.903107
-70.531731 109.641121 -248.485229
-69.629951 -14.658861 -248.294891
-71.281136 112.281830 -251.261124
-70.395981 -14.463293 -249.927567
-69.439247 -23.625799 -250.059479
-69.087021 116.719772 -251.793976
-69.783600 26.187483 -252.050064
-68.919998 -12.701117 -251.772766
-69.178833 -17.720173 -250.088760
-70.175087 27.538916 -252.369904
-69.521637 -15.941835 -252.037827
-70.662674 136.365784 -253.358276
-69.706039 152.024338 -252.483673
-68.738297 148.400085 -252.339340
-70.702827 179.430252 -253.934891
-68.781380 179.427399 -253.523193
-68.751198 146.719223 -255.211182
-68.149834 165.121170 -255.845337
-68.631592 172.037125 -254.912125
-67.508957 158.138962 -256.232727
-69.471458 171.598358 -256.916626
-69.547066 177.574463 -257.062531
-71.685371 -11.737649 -257.904541
-69.224510 179.150452 -258.336060
-68.971947 175.980026 -259.073456
-70.594101 157.048447 -259.076874
-69.440514 25.428543 -259.957764
-68.368759 175.206070 -263.247955
-67.904900 178.746017 -264.461792
-70.600945 24.317156 -266.019653
-70.696602 179.981750 -268.421692
-69.220284 -8.379622 -267.435730
-69.502731 173.748123 -267.501465
-69.141777 178.340591 -268.669861
-69.151649 23.016167 -270.666748
-70.380646 -5.970274 -270.658173
-69.307182 180.064987 -272.869019
-69.480118 165.690598 -274.793884
-68.695808 138.492584 -274.864227
-67.941727 174.923935 -274.245667
-70.273933 165.517151 -274.937347
-70.547020 20.910831 -274.180969
-69.968346 137.201614 -275.252991
-69.202286 135.269974 -275.191223
-69.608635 176.711075 -276.242157
-69.164452 168.874435 -275.971252
-67.754723 128.737503 -275.319336
-69.835823 127.960175 -276.686890
-70.477211 120.637459 -276.362274
-69.352760 106.741768 -277.621765
-69.925652 161.676285 -278.224243
-69.050774 101.292511 -278.283386
-68.929832 81.156464 -277.656708
-70.196251 89.020332 -278.692017
-70.689545 86.137787 -277.989288
-69.913986 175.041962 -278.406891
-69.011597 91.357170 -280.349976
-68.826591 108.909790 -281.914825
-70.095627 95.466820 -280.022491
-69.827759 89.986725 -282.391174
-69.343269 103.682953 -280.486115
-68.560272 168.775009 -281.631836
-68.459892 118.972115 -282.637024
-70.806625 112.848022 -281.100159
-69.982147 153.494293 -281.117218
-70.961090 125.107597 -281.259064
-68.378021 6.730183 -282.509888
-70.159050 168.031708 -282.693604
-70.349480 157.304657 -282.464813
-70.923294 147.352814 -283.994598
-69.377151 159.477783 -285.270966
-68.814903 159.207367 -290.816498
-69.998329 167.255173 -291.529480
-69.729950 157.616837 -291.451569
-68.626411 166.764679 -296.708679
-70.902565 167.080063 -299.626495
-69.007942 168.208588 -302.807068
-69.876297 157.537704 -303.459473
-70.638176 161.379303 -304.189819
-69.895683 -23.605972 -0.659769
-68.745583 -28.360050 -3.430204
-68.439964 -32.790081 -4.740440
-69.246201 -37.131321 -10.761336
-69.809021 -29.881134 -11.559988
-69.295944 -38.046642 -10.504499
-67.287827 -36.320232 -13.396828
-69.753433 -37.415302 -12.818621
-70.746811 -38.095669 -19.844099
-69.750786 -20.325884 -25.718168
-69.157921 -20.004303 -27.591585
-69.504753 80.822899 -37.821373
-70.040657 84.811653 -38.916573
-68.587387 52.577927 -39.346085
-67.923485 92.899490 -40.187534
-68.556709 40.001060 -41.978889
-67.448051 93.837753 -43.674068
-67.723907 -73.119011 -54.395157
-68.137138 -75.036140 -53.571289
-69.527542 -73.368164 -55.534256
-69.861427 -59.138882 -60.903072
-69.821121 -82.113167 -60.105316
-68.245277 -87.920792 -61.564800
-68.356071 107.319008 -62.181538
-70.613434 -56.780136 -63.689137
-69.463951 -87.014999 -68.373474
-69.563637 51.876419 -67.803154
-68.950478 -90.847015 -70.838326
-70.412056 57.290142 -71.424507
-68.458771 -55.648701 -72.308525
-68.516144 -52.859756 -72.794197
-68.713783 -45.464523 -75.107193
-68.736725 -89.460831 -75.090302
-68.279579 -54.481068 -76.931511
-67.990974 -41.004406 -81.460892
-68.302147 -42.903545 -78.475349
-70.607079 -53.713062 -79.850044
-68.089073 -54.489429 -81.933243
-69.158318 -50.997276 -81.788689
-69.624977 -47.236870 -86.425697
-70.428307 -88.681335 -84.989555
-68.870895 -56.566479 -85.169853
-67.567009 -35.344894 -88.301247
-68.092926 -90.329926 -88.214088
-68.117073 -93.122131 -88.139320
-67.827148 -58.263039 -88.478645
-69.752594 -95.834023 -93.430206
-69.327843 -34.993546 -93.562332
-69.399178 -60.086811 -91.921684
-70.687309 109.835716 -94.309959
-66.970345 -35.995754 -93.924149
-68.243706 -28.212343 -93.979729
-69.900513 -34.889492 -94.877174
-68.296318 -79.786896 -96.625053
-68.751556 88.230392 -97.235939
-69.063347 -91.443123 -98.904060
-68.983055 -28.398964 -98.820633
-68.027138 -37.647644 -101.396767
-68.552361 91.114815 -102.531265
-69.785400 -26.249718 -102.775635
-68.606163 87.781685 -105.687256
-69.324814 -32.339054 -105.063705
-71.341240 -100.050827 -108.637733
-70.321144 96.441154 -108.475372
-68.913742 -25.977644 -107.511627
-68.055252 -98.667526 -106.754532
-68.777855 102.535423 -109.544342
-70.738792 -27.365002 -108.761963
-69.774246 -93.903412 -109.707329
-67.629036 90.736000 -110.296585
-68.558708 105.990913 -110.708099
-68.395050 -101.617981 -111.385651
-69.095757 91.559906 -112.433319
-68.761749 -97.025787 -111.679375
-68.588882 99.707771 -112.078217
-69.782089 -26.053802 -112.939247
-67.393250 73.308899 -114.182930
-68.964211 99.646111 -114.739403
-68.341179 92.367393 -115.169556
-68.494690 74.955414 -115.355484
-67.957718 -20.390736 -116.849831
-68.684654 87.128593 -117.037804
-68.798279 -101.082703 -115.978989
-67.098351 -23.939959 -118.457680
-69.717117 -99.002731 -119.125450
-67.274414 96.395149 -119.231064
-69.680298 -22.086231 -119.664536
-70.512749 87.605621 -121.049095
-69.462570 62.281670 -121.246712
-69.580765 102.395012 -121.716957
-69.055656 -101.898216 -124.751053
-68.387123 71.516022 -124.372498
-67.637108 94.076294 -125.255234
-68.617035 73.917374 -125.481941
-69.360634 -18.572535 -125.989174
-68.316963 -20.379290 -127.060898
-67.215248 105.081306 -126.405785
-68.522041 87.411003 -127.216995
-69.273804 -101.457947 -130.811035
-69.504654 -23.248661 -127.768906
-69.475517 -101.680717 -128.914978
-68.500282 73.906868 -128.946182
-67.683495 101.262405 -131.407593
-69.169601 71.566483 -133.136124
-69.883415 61.792267 -133.057129
-68.694565 90.024551 -133.294556
-68.101425 -20.370888 -134.548431
-68.537788 -15.434152 -134.289856
-68.143631 66.034767 -134.471619
-68.739456 63.416542 -134.851318
-70.739944 61.372372 -134.664032
-69.045723 -16.955345 -135.015152
-68.536354 107.697556 -135.287766
-68.281647 104.545898 -134.688385
-69.913612 -8.195398 -135.347549
-67.663345 -101.530716 -138.374573
-68.665283 -14.532856 -138.749496
-69.026779 81.650589 -137.573471
-69.035095 -19.370537 -139.049347
-67.694748 -7.033439 -140.106918
-67.911972 54.662712 -141.488846
-67.207054 64.214806 -140.831055
-68.282066 -10.080562 -143.378586
-68.144089 108.793945 -143.993866
-67.747986 107.859276 -143.230713
-68.415825 55.057735 -144.273514
-68.656372 -18.309595 -143.757034
-69.179558 3.641428 -144.154510
-68.394608 0.668307 -145.042526
-67.952644 60.132866 -146.723694
-69.527512 4.665804 -146.998734
-68.649086 50.839695 -148.261612
-68.642395 111.796280 -149.487488
-68.627281 -10.997246 -149.768051
-67.761810 -16.409407 -149.882034
-66.843277 114.475533 -151.913147
-68.939384 49.781372 -150.928009
-68.313385 112.455383 -154.854996
-68.522934 -8.694201 -155.665665
-67.223701 115.059753 -156.256409
-69.073074 117.063408 -157.353958
-67.326706 49.299122 -157.176743
-69.951279 51.798958 -157.315903
-68.513466 116.166374 -159.673660
-68.934555 -9.489853 -159.048141
-67.677368 113.172661 -160.730301
-68.417305 -11.865684 -162.152390
-69.688652 117.792648 -162.539398
-66.868088 44.583691 -162.196899
-69.538368 43.152157 -163.216995
-68.662132 47.909393 -165.214279
-68.179787 159.088730 -166.000916
-67.750046 118.236336 -165.714905
-71.334793 -14.208042 -166.338974
-68.154205 164.352203 -166.854782
-67.964653 -9.180037 -166.544937
-68.371056 43.247105 -167.183151
-70.044594 162.817703 -169.033371
-70.171288 -3.886095 -169.059982
-67.511749 154.207764 -169.507721
-68.379326 121.520805 -169.750305
-69.116249 38.687862 -169.754593
-68.677399 -8.698444 -171.895706
-68.673241 -7.282395 -171.453323
-69.159904 -12.223367 -173.453094
-69.783836 -8.496674 -173.209290
-67.093666 42.226158 -175.537537
-69.604111 119.125427 -173.971680
-68.683266 38.537556 -173.398254
-69.132355 166.442047 -176.214142
-68.150940 -1.664521 -176.096619
-68.884430 151.890381 -177.241653
-69.266624 -5.501190 -178.640396
-67.987625 125.541603 -178.221985
-67.611320 36.192013 -179.168671
-68.931099 -9.189950 -178.121384
-68.834610 163.096649 -179.596420
-68.031693 119.394630 -181.543442
-70.313332 125.531425 -181.083603
-67.811905 -6.755152 -181.956757
-68.125732 163.911957 -182.300156
-68.031197 -6.149689 -183.748444
-69.421364 169.687927 -182.738937
-67.895500 120.272842 -182.830078
-68.180748 0.436115 -185.673889
-69.465103 38.330471 -184.419006
-69.023056 129.146210 -186.153992
-68.350052 30.274538 -188.165192
-68.924385 -5.983666 -189.222305
-70.381973 -1.084320 -188.142075
-70.612221 37.279465 -190.182556
-68.639130 25.572243 -190.083450
-68.732346 31.044067 -191.427277
-69.025513 133.961807 -193.909744
-68.738007 123.705635 -193.404572
-67.399040 -8.165290 -192.926483
-71.043823 27.853563 -193.710190
-67.860672 2.952215 -194.229111
-67.344582 170.480057 -195.571564
-68.398407 134.876450 -194.498856
-67.772247 155.912445 -195.128952
-70.570229 29.395241 -196.112091
-70.110390 35.567776 -197.508438
-68.587273 157.086990 -196.885605
-68.377670 28.165075 -197.266357
-68.549294 177.923172 -198.767090
-67.976326 -5.639094 -196.695755
-68.637802 24.818680 -198.793884
-66.899834 169.376831 -201.276886
-68.915749 19.069651 -200.735825
-66.956787 164.354355 -205.137619
-67.951523 164.511856 -202.616745
-69.185425 25.101990 -203.439697
-68.856766 -4.254681 -203.875702
-69.651909 16.080591 -204.813263
-70.059784 -3.990024 -205.225143
-70.202782 22.330711 -206.804001
-69.000504 4.320157 -207.259995
-69.293945 21.330341 -207.077560
-69.606483 178.159012 -206.998154
-69.094383 25.463577 -208.914368
-68.210754 107.413635 -209.066162
-66.969055 110.120369 -209.831497
-68.608177 171.744019 -209.253220
-69.317261 108.380714 -211.564972
-69.147537 18.182463 -209.114731
-68.463470 19.911757 -211.570969
-69.590569 -1.176596 -210.273102
-68.694969 110.513252 -212.819519
-68.296188 23.134850 -211.864075
-68.896469 168.564697 -213.141953
-67.629456 18.328911 -211.384460
-70.245689 -70.028839 -213.964142
-68.885033 163.391129 -213.804306
-67.437660 137.317383 -212.776596
-68.663300 1.336763 -214.817047
-67.880714 168.175858 -213.402008
-69.196037 146.836288 -214.788254
-68.166786 146.510605 -212.606964
-67.558296 -66.854836 -214.954086
-70.627724 137.580811 -214.924301
-69.405098 133.852631 -216.124100
-67.714630 125.700035 -216.268860
-70.460892 14.365343 -217.323959
-68.592422 8.896017 -215.880798
-68.325554 178.475555 -218.331680
-67.708160 168.012451 -216.678497
-69.424500 12.500878 -217.391266
-69.315834 -67.529945 -219.350906
-69.042145 9.865335 -219.156097
-68.892296 19.856117 -221.014359
-67.443443 11.320718 -219.666641
-68.960487 -60.301117 -221.288635
-68.995743 23.705410 -222.302078
-68.747719 177.867218 -222.726532
-68.170166 -63.313679 -223.079483
-69.084038 134.730835 -223.464340
-67.967789 144.241684 -224.882828
-67.602463 11.819015 -224.432175
-67.446632 -53.301437 -226.105255
-68.367760 162.648483 -226.195099
-69.316025 15.647966 -226.349457
-68.311661 11.515023 -228.313400
-70.245964 21.395136 -226.296707
-70.454033 3.125836 -226.395355
-68.804184 171.726715 -228.275696
-69.768082 15.037604 -227.553589
-68.331764 -60.648163 -228.399490
-69.787369 177.208298 -229.995789
-68.313995 26.055582 -227.324997
-68.738953 10.173132 -230.579575
-69.178299 -46.885685 -227.697906
-67.877121 171.400955 -233.220474
-68.486046 21.985567 -231.663330
-67.211578 164.437714 -232.143082
-70.613243 178.889038 -231.615829
-69.270882 -44.316422 -232.352142
-69.603645 170.422241 -236.024063
-68.693024 -2.210387 -234.095642
-68.496162 -46.163166 -233.247391
-68.263725 175.971756 -235.306473
-67.728203 175.241043 -233.880386
-68.789429 -3.735803 -235.051727
-67.771919 178.125137 -236.835159
-67.833527 177.251938 -237.744003
-69.943474 156.885086 -238.008667
-68.875557 -47.085747 -236.548508
-68.254021 -37.048771 -238.858521
-67.707642 172.944656 -238.384903
-67.694969 -7.016326 -239.405090
-70.028206 27.607735 -239.860733
-67.367264 -32.210087 -239.649033
-68.278740 178.600784 -239.430435
-70.192619 -28.321852 -241.258469
-66.982574 176.854935 -241.042801
-69.054482 163.286423 -242.996643
-68.472931 171.578568 -241.392242
-68.852081 157.418152 -242.465500
-68.893593 97.992569 -242.254166
-69.823936 -39.656895 -243.261856
-68.677094 100.034790 -242.526016
-67.900787 -27.960495 -242.737442
-68.637680 -32.526966 -241.782547
-68.913445 137.966522 -242.185806
-68.095772 111.165222 -244.068329
-69.048492 97.107910 -244.625061
-68.739861 -27.597393 -244.760742
-68.900826 26.234404 -244.831055
-68.439445 154.762054 -245.349442
-68.930901 146.675842 -245.754700
-67.600044 117.372231 -245.784668
-67.665810 153.224167 -245.580353
-69.233604 135.479736 -247.852112
-69.452423 128.404282 -247.620651
-68.286079 178.548416 -245.914261
-67.388153 126.344490 -245.911621
-69.080711 178.112686 -245.282364
-68.007492 105.337593 -246.270966
-70.154037 171.663834 -248.373337
-68.028427 -20.361193 -248.179230
-68.596550 106.412231 -247.347000
-69.734116 -13.387141 -248.699768
-68.361015 -25.149378 -249.860397
-68.889252 169.366867 -250.257904
-68.631332 24.272434 -248.758835
-67.669930 177.370819 -249.435287
-68.435715 171.128250 -250.926315
-67.946808 160.197540 -250.201492
-68.659706 123.132034 -251.558929
-67.225197 176.060806 -251.556778
-68.706993 121.913857 -250.564911
-68.667145 165.590179 -252.395035
-68.712204 126.949837 -252.210114
-69.784569 128.297241 -253.605606
-67.732605 23.170626 -253.427811
-69.231575 -14.580056 -253.307388
-67.775169 -17.280954 -251.610657
-69.289093 165.087891 -252.300400
-68.794174 147.391144 -254.680008
-68.697372 176.965332 -254.522034
-69.450996 157.164658 -254.574570
-68.842178 -13.419713 -253.901779
-68.157402 22.653744 -255.235641
-68.887779 19.361706 -256.841278
-68.451004 158.075455 -261.475525
-68.718124 156.761322 -261.212402
-69.269638 22.277224 -264.707733
-68.973862 163.850006 -265.561829
-69.100952 22.127253 -267.461395
-68.002625 22.016731 -268.955017
-68.992737 155.619705 -273.209564
-68.036255 146.194366 -273.770996
-69.014915 138.183914 -273.608337
-68.943901 155.511444 -275.244110
-68.500389 147.190598 -275.452698
-69.022270 21.104721 -276.874969
-68.302429 163.145981 -277.055969
-69.333252 121.799232 -278.034790
-67.599838 109.595459 -276.670593
-69.306381 160.570740 -278.334930
-67.918030 109.354340 -278.751984
-68.850677 104.128479 -277.186646
-68.336983 -0.545259 -276.357788
-68.778519 99.117485 -278.972870
-68.250771 66.212250 -279.527435
-69.641197 164.592606 -280.572876
-67.782242 111.844971 -279.890015
-69.188873 17.027557 -279.388824
-67.716721 161.605392 -280.446899
-68.211273 115.965492 -281.090942
-69.273216 111.253159 -280.232758
-67.554970 156.433746 -281.974152
-69.028717 138.269943 -281.729340
-68.683769 124.486275 -282.489807
-68.973999 14.412400 -283.087189
-67.062813 148.625717 -281.268707
-66.856354 128.733673 -281.794495
-69.129768 8.969779 -281.984222
-68.925987 138.576492 -285.753082
-68.275528 163.593628 -290.148254
-68.187508 162.218597 -290.165771
-67.395073 160.681091 -290.111542
-70.148582 156.776611 -300.446350
-68.005028 158.947830 -300.085114
-68.198723 -20.548061 -7.676651
-67.985725 -11.885340 -15.458272
-68.817696 -31.444759 -21.952024
-68.550316 -20.753855 -29.502264
-67.438484 72.348198 -35.757965
-66.339836 76.669617 -36.200676
-67.002632 66.730270 -37.042358
-67.076599 58.847229 -36.939838
-68.473885 54.790325 -37.275784
-68.684990 44.492630 -41.276997
-67.489487 96.482483 -44.769550
-66.853409 33.633701 -43.226982
-68.164314 100.654793 -49.987892
-69.053864 25.803009 -51.432182
-66.923737 -67.686615 -53.696918
-68.079285 -77.609352 -55.065933
-68.275856 -81.146492 -55.716331
-67.297798 -60.761482 -57.581902
-67.910484 -56.755005 -64.525192
-68.104492 40.010109 -66.707314
-67.042122 -51.358562 -72.663605
-67.385155 -89.654144 -75.021889
-67.329811 109.370461 -76.925301
-67.172859 65.567741 -76.577034
-68.252335 -42.024506 -77.353806
-68.463593 -43.826321 -79.236885
-66.919113 66.683044 -78.688927
-68.719185 -50.083355 -79.366837
-68.766747 -40.225658 -81.859688
-68.128479 -50.966698 -80.669472
-69.230087 -54.316044 -83.543457
-68.818260 -34.833672 -83.814621
-68.444107 -95.514763 -86.497154
-66.278755 -32.943394 -88.678879
-67.981567 -89.669006 -89.359993
-68.623970 81.478920 -88.458336
-67.940971 83.111839 -90.066536
-68.670242 90.514839 -90.688576
-67.985893 -43.582432 -91.227081
-68.365898 -60.086559 -93.039612
-67.222031 -85.194252 -92.194901
-67.017464 83.321205 -94.706779
-68.155228 -41.510109 -93.628365
-66.034401 -69.853355 -95.838005
-67.639908 87.441422 -95.537170
-68.981636 86.246635 -96.552071
-67.045387 84.359604 -96.340103
-68.201698 98.246223 -97.495827
-68.112328 -79.275070 -97.814743
-68.986816 -98.156334 -96.669800
-68.294632 -97.650543 -96.542931
-68.076500 -30.827545 -96.139191
-68.423401 -92.961342 -98.604317
-68.800697 -37.815922 -97.483749
-68.057228 -28.461853 -99.334618
-68.589737 -33.548473 -99.308556
-68.038498 -98.278236 -99.643623
-67.128593 91.687241 -98.862549
-68.418526 -92.475014 -102.422371
-67.578651 -98.970573 -101.849594
-67.858421 88.021812 -101.851677
-67.912338 -29.728891 -103.104691
-68.440407 -95.443001 -105.520248
-67.382523 96.032921 -106.178406
-67.317329 -98.150452 -107.826057
-67.620995 91.159966 -110.160912
-67.299454 -96.911369 -109.815437
-67.157715 74.235130 -112.400223
-66.976456 70.304329 -115.825165
-67.316139 -98.383751 -115.133247
-68.115990 93.684669 -116.498749
-69.208946 73.811478 -118.697342
-67.171448 68.589302 -117.830070
-68.408714 65.618042 -117.033081
-67.965027 74.992973 -119.787895
-68.124191 65.937157 -119.846962
-68.129845 62.846367 -120.307922
-67.600037 101.641266 -121.510757
-67.996872 73.866508 -121.365875
-68.264755 84.022453 -121.498093
-67.265862 74.641205 -120.987183
-67.546616 86.837563 -123.000710
-66.907120 89.440262 -122.575661
-67.527885 83.911339 -125.665131
-67.179031 71.372177 -128.162933
-68.407532 58.643227 -133.025803
-67.841591 82.790779 -131.829834
-68.072586 62.355881 -130.410034
-67.592560 -7.525490 -132.580978
-67.788269 59.128948 -133.300217
-68.504265 -8.142429 -132.601440
-68.441330 83.501877 -133.927536
-68.283897 84.975418 -134.592880
-69.413017 82.461182 -137.391296
-66.950859 56.760735 -136.135559
-68.197571 105.921684 -138.669312
-66.999428 63.533554 -138.379654
-67.938324 57.571838 -138.469910
-66.650604 -15.134472 -140.586380
-68.188965 0.108934 -140.269272
-67.810471 61.357063 -141.469315
-67.654823 -16.073931 -143.177414
-69.559052 -4.904564 -141.899185
-67.476067 1.973217 -143.464569
-66.857109 55.222359 -143.921310
-68.160309 -13.594548 -146.878479
-68.720596 55.470989 -147.228912
-67.940933 -11.914351 -149.750137
-68.432137 -10.875915 -153.059967
-66.880531 -14.265396 -152.704071
-68.326469 111.671738 -155.100677
-66.517036 -10.342406 -156.139359
-67.496376 -14.918170 -158.158524
-69.007195 -7.948935 -159.286102
-67.868118 -14.024897 -162.194702
-68.143623 114.476967 -161.935715
-67.817352 159.936676 -164.445984
-69.070305 121.095787 -166.470093
-66.959068 116.413368 -167.065338
-68.484406 -3.944591 -169.204956
-69.677460 123.901176 -172.393005
-67.471123 118.943665 -171.428268
-66.767235 -11.226648 -173.546860
-67.443626 124.172958 -174.331665
-68.800179 -10.802064 -176.740250
-67.012039 -2.121479 -177.405777
-67.520531 35.833279 -178.402847
-66.682098 38.624023 -180.138840
-68.980164 119.159477 -182.147705
-68.923569 154.836182 -183.884262
-67.707367 33.755241 -184.684647
-68.701172 155.019867 -185.413559
-67.442986 -0.743341 -183.877090
-67.810524 137.354782 -186.313248
-67.517067 127.222000 -183.724350
-67.841667 30.753700 -183.848160
-68.271103 144.975037 -183.397324
-68.305634 134.739304 -186.835083
-68.782303 153.685425 -185.816376
-68.146988 145.616180 -185.246719
-66.932610 171.819214 -186.439087
-67.844391 134.314743 -186.634018
-68.773544 -7.657893 -187.655457
-67.508865 125.923660 -186.333618
-67.464973 175.758911 -186.851425
-67.932915 119.179863 -186.513885
-67.593063 34.173328 -189.031937
-67.776085 166.643097 -189.568893
-67.273903 27.850130 -190.829697
-66.783920 176.111328 -190.373108
-66.767357 -0.552810 -192.203354
-68.512733 171.051270 -192.687698
-67.235481 -4.862078 -192.078018
-66.482140 32.800415 -193.011307
-67.435173 135.294006 -194.518997
-68.843796 146.061569 -192.843033
-66.512665 127.258408 -193.972885
-68.134712 177.929031 -194.039795
-67.910912 166.369553 -195.645523
-67.066330 137.521988 -195.269867
-67.603470 24.858505 -196.807007
-67.834541 -1.803566 -195.945053
-66.910881 155.495041 -195.347870
-67.779541 162.149521 -197.028656
-66.780983 0.607954 -195.273819
-67.041069 179.373779 -197.151428
-66.506897 169.786346 -196.040817
-67.871284 29.189186 -200.140381
-68.583710 21.475880 -201.457321
-68.154091 -1.568984 -204.103439
-68.325317 176.923431 -204.833206
-67.338646 179.630692 -203.640350
-67.253212 157.214737 -207.748245
-68.753059 22.751797 -208.277069
-68.672035 171.819946 -209.977356
-67.141502 172.215469 -210.196411
-67.070786 16.790869 -209.212784
-66.188019 176.440674 -211.278702
-66.225044 115.019821 -210.885788
-67.959404 172.050949 -210.735214
-67.160408 117.094063 -212.350723
-69.066124 156.503342 -211.308762
-66.731400 112.170944 -213.838028
-66.734177 170.428452 -215.927200
-67.253441 177.865936 -216.240829
-67.472298 113.830650 -215.562592
-67.649406 20.549900 -215.897156
-67.762314 168.088409 -215.989227
-67.730659 153.255188 -216.375641
-67.687538 146.940689 -214.912186
-66.800102 11.528025 -216.512283
-66.760216 176.712463 -216.864151
-69.286110 117.364059 -218.928680
-68.408417 169.469971 -217.202637
-66.939537 17.034828 -217.389343
-66.365044 166.271912 -218.015228
-67.169411 174.534103 -218.795761
-66.452164 157.631805 -218.344620
-68.322350 120.655708 -218.768784
-67.135178 161.999466 -218.529739
-68.371048 159.401260 -219.923752
