# This PCD file was generated using the MATLAB® pcwrite function
# from Computer Vision Toolbox®.
# .PCD v.7 - Point Cloud Data file format
VERSION .7
FIELDS x y z
SIZE 8 8 8
TYPE F F F
COUNT 1 1 1
WIDTH 798
HEIGHT 1
VIEWPOINT 0 0 0 1 0 0 0
POINTS 798
DATA ascii
-49.035164652497592 -67.907439689687521 -100.289131177969168
-50.055463849953746 -60.809056326931824 -97.232654861848005
-51.975332384721959 -64.474472920114195 -96.739776223395197
-44.632052416518114 109.095544533678179 -100.494527232491762
-47.447152421571971 -76.165113264014593 -100.409904347667890
-47.875203015140578 -81.848102929278880 -98.968463600649670
-46.565619098379585 -64.834520491652896 -102.629965333512587
-47.480631165669543 -82.529838122702728 -98.909572551989214
-47.270863464577424 -74.157753736478995 -103.093260838775123
-46.768486424883754 99.550274592042456 -103.539278412742803
-48.519951370239781 105.217243873050492 -108.758847526419601
-46.586159663895849 13.987601992029164 -236.092277711430626
-42.667590876607548 21.198494598990415 -235.379855191609494
-46.596466670559025 15.017460195823865 -231.716018909921587
-49.009729829624305 12.963743470286108 -233.526183588538771
-44.457529213941179 18.637656424051592 -234.962309043164112
-51.890271343479661 19.746742715072923 -239.614747728007671
-49.813071354413481 11.938843655370931 -234.427428491834689
-50.552576808293367 22.702853745211755 -240.867950787552388
-50.048208077913579 13.002595372612751 -240.289916946807779
-50.979187933704871 95.190472597895223 -32.808515983870741
-46.576156659300381 68.059906766092610 -39.417287353368891
-46.114873885684723 50.133016297964865 -40.831211541051076
-49.799723988146418 102.236477788522990 -45.945278008614210
-47.168698292273575 30.912036832743812 -45.539370441696015
-49.431594981042785 25.637589155190604 -46.361027993166580
-54.631116569671740 23.953227092300715 -40.389192605342139
-47.584858052399866 -63.125880598519871 -47.884898621357522
-49.507287774006564 105.812953491012451 -49.757050378303106
-47.553525986174172 -62.050165143820422 -46.700499666552837
-49.131351351627437 -64.100431750190623 -45.328085855470988
-45.301559084407202 -74.621322985424783 -45.335657192111150
-48.758929692491684 -61.578102042008766 -52.240752281475864
-46.616904727418230 -82.249472589748706 -44.607409159971489
-48.297992676909459 76.756202016478284 -49.951634177790190
-49.701966002438546 76.485962242432564 -48.543772977898932
-45.806628435464013 35.584598271661754 -45.909671744900152
-49.398863307402493 -56.292639861495985 -47.161165445752800
-49.374317091886475 42.847270484941994 -57.113695431860634
-45.385050617030814 -56.530590886727722 -55.163312568202400
-46.704422345982231 -72.394392156897283 -56.321759811413330
-50.170888840857451 -83.868776968975467 -54.849695693095327
-49.021000923722383 -79.385293210818674 -57.331987247525191
-49.255321815863979 -55.040004959008783 -59.908876679063454
-47.344704501488486 -75.797513319900503 -52.817323312457873
-48.645355454036853 -93.416251213138949 -59.019132554855915
-45.058545419480758 -82.012219175917352 -58.596766842012400
-52.350901652037749 -48.129938762349518 -61.476318412679390
-50.270478942442622 -52.708008690513509 -61.641394277025071
-44.283312481275594 114.319735810818102 -60.652623561058235
-47.637529589374900 -57.932268364635988 -62.716058726334623
-45.319887742887282 -50.197430496217187 -67.593659458918353
-43.452709364114938 -45.843189308025714 -62.965987001672076
-52.113643237943883 55.135201747197357 -62.189261824064275
-50.456409261185875 55.491731775954491 -66.702589773889031
-45.187886388874539 -47.472893337323718 -68.424222225352537
-46.205264111067073 53.264347802055546 -71.472103882906396
-48.150536635319170 -52.853389749997135 -69.242422704737294
-48.675065401625453 -49.618823331412123 -70.011083531153247
-43.188952531015218 -51.945559131264261 -66.921531697923797
-46.881958157942094 62.032426865791408 -72.852773761025290
-48.481389659561771 -52.809596820829583 -72.684971623851439
-48.748634531835165 -43.974227314555407 -79.653974663291649
-46.903717292276497 -53.556178397072543 -71.854457606904035
-46.591619161974776 -52.977217477931717 -77.303665721260273
-49.656360474193271 -52.064715128201811 -77.680314996005521
-49.548671883838495 -47.643981821368989 -80.575097360894176
-51.972100651947954 -53.536566677735152 -82.186464281420172
-44.641913554800027 -52.785996364319516 -79.676659655211282
-48.249791930680409 -56.130235831038561 -77.850405669102969
-49.117847549167628 -51.453042717769854 -77.487147248347924
-45.030579628552985 -53.216937356891762 -84.668060829644730
-52.930264869337861 -50.130709725840248 -83.013493405965008
-47.720330135566137 -53.718453174115581 -83.366362156225989
-43.622145652123940 -53.148544533541127 -76.827511233128476
-44.163571171068135 -56.033691684983793 -78.583967517614113
-48.580412133159065 -54.979976275290085 -82.808463356955116
-45.155544151492158 -47.693950507774076 -82.182502801810145
-47.278194379668903 -63.484536538485102 -85.489250351624364
-42.026751446905230 -50.391275022923566 -81.899476598810978
-43.998408923190389 112.542395039312581 -90.971820416736193
-46.503289944585802 -55.900094609911392 -85.822023991648720
-46.986413305961804 -51.728598660903280 -88.360525989440177
-40.574176405649538 -53.189448492663459 -85.161018903214639
-49.654501981261930 81.555829109636434 -86.069275629805091
-47.325329173945867 -92.223626808928657 -85.590610135961981
-49.658175387332271 -53.281622772911732 -90.466085455612259
-49.980487396519223 -53.819919020777817 -89.580297051457222
-55.172200326364838 -54.188951818132125 -91.531385372588630
-46.824510308809060 -59.812232754920174 -87.625296252779322
-44.357880448730185 -56.261462225112496 -89.292542151576683
-50.936784756830306 -51.199987335479207 -90.510247767649886
-47.724467314818654 84.909051000076417 -93.205683657876790
-45.775940045726081 -59.204682262041672 -91.163993971547569
-46.927761311250279 -85.951081358637595 -91.872527544690755
-52.185772607465537 -58.076324304631314 -89.051024420548302
-45.896545974387884 -88.216250826083723 -95.939201917592015
-49.049272203553244 -53.660757899420389 -92.851029708114538
-44.494891191560825 -63.053205045487672 -92.284114450335252
-50.568352090102024 -83.581330014040432 -94.046634824003633
-51.011999897702921 -54.058215290576300 -97.557939580007229
-46.313740192163003 -64.887332961217822 -92.294142906018763
-48.848948775066383 -81.674483734411723 -98.866707512020142
-48.180954562957474 90.025027427783925 -96.474515714663454
-50.774276083718547 -63.612671289570784 -97.653893479844299
-51.076503181088214 -81.225750822580522 -92.401561251913279
-49.306214797632883 -69.849474006092294 -98.795206976722426
-47.452556827966298 -56.399073724277017 -102.007582991717754
-49.754222577532822 95.444554083659540 -100.122015826292895
-44.476363532123138 -74.058209920211056 -98.751900241742717
-46.471163850890562 -70.949229770420956 -98.685650189791204
-46.840637811522242 -77.410154287130851 -100.777038903674210
-49.359575952609838 -80.516168937105761 -103.112803098638224
-46.982236272880222 -61.558089205729729 -105.666250342715969
-44.856749986273428 -78.644557025795422 -104.034645922798376
-47.473698827376403 -81.157304240094987 -97.139178202147932
-44.283254692370235 -77.104757009652189 -108.880668202999729
-50.420547770129282 102.877817468058282 -103.577865255438667
-47.308996005163550 95.434824819484334 -105.209476828933532
-48.965924271185116 108.722963875230974 -101.081966844608758
-45.194430351078068 84.976970223536128 -35.426256277957471
-51.732006978131999 75.226055935565796 -36.369667775678543
-44.881366550019152 61.869644059051289 -42.650551544883463
-50.668874406750618 66.388920810366869 -34.975023729580805
-47.387791935084977 74.020924475774549 -39.426833711073058
-49.749307033535707 104.012537294846908 -40.481253443262403
-45.312579893952531 58.707748812452138 -41.489161621955638
-48.083446101111349 18.548266685512928 -40.443309913925937
-45.479395203780058 -69.130264484544355 -45.754479556128423
-44.600383217928183 77.348565030299255 -46.681835112357213
-44.410311603820631 -71.002532623723880 -45.023991437672940
-47.891546778769111 -65.602755478642578 -42.445358008003929
-52.447326520421697 -77.538412335295178 -51.313135504469905
-50.037345716333348 -62.045989651304808 -50.872869813558793
-48.237506397195865 -72.082403717529445 -45.013628547411066
-47.606783389694243 -79.462358668857576 -46.823468220724834
-50.878740872868889 -60.232542418186867 -49.061882483721924
-42.183592822592324 22.925983529522295 -51.213850357393561
-45.149780409936433 -71.902998057769750 -53.044712605705698
-42.540643971865741 -81.032166400597021 -50.369477689321215
-52.314513551915446 105.004914803993941 -49.405544974639170
-46.770447280271476 -62.449099164689656 -54.885778668082821
-47.426230929262729 -61.471422502614402 -57.964078401564109
-53.569242927807451 -84.768600573464383 -47.637505351560513
-45.320189709902223 109.627166955728171 -52.581629743204601
-42.467216169205997 -55.788751317458321 -52.583751449745733
-46.702801012253524 -87.878257176473880 -48.072994280320977
-42.369744321080702 -79.770751837322152 -53.479819569288239
-48.928625400313429 -57.692676896770763 -53.003372908685691
-47.486979228925684 -66.821394646084897 -51.006642343195466
-46.467471992162743 -74.635226444729611 -56.149694332333766
-50.788680791218781 -88.195815980736242 -52.965518065322108
-43.804464573861388 -77.202040065749927 -55.291243968929933
-49.762569647420833 -54.315639638841219 -55.543731120389836
-43.718883360956902 -53.985798538708352 -56.635639579134917
-44.631800987364976 -60.531563539427992 -60.620714203129324
-46.299022205584812 -54.994528515511959 -56.339871362941579
-48.843649221419057 -83.884238094088545 -58.851827912382291
-50.025148037711929 -88.271975875328621 -60.235655061103998
-49.167275182629027 -56.372886442652529 -59.350480177485764
-47.423687842284650 -55.425748560525648 -62.131004620896960
-43.122267519164623 -55.640233879947615 -56.019499444176020
-43.376076369221934 -57.788621093568068 -65.691603455356159
-49.308340990266096 -54.098438078096649 -64.790739745470106
-50.197521230719957 -57.885571665052240 -62.809248692189641
-44.645472580486100 -93.374277300772391 -62.850640360035655
-47.570114103062721 -53.138643095316766 -62.596008391146626
-50.467802170785156 -91.865082699127882 -66.293328683125821
-46.103883287085722 -53.589598354127943 -72.035936929052795
-45.063444494885296 -95.376247333338611 -64.757460106682871
-48.141499875252187 -55.960703132059166 -66.075223239415067
-47.056192132976371 -93.889705272786784 -65.272313260874256
-49.309957731575572 -60.572085825301016 -68.839884541001766
-47.045729985147510 -56.857152335903336 -70.708946459945281
-43.783915183098010 62.669481465611369 -72.056182598907995
-50.318080774471341 -91.798033333607350 -72.312574191718028
-49.729947968055427 -61.303172893857834 -69.033906832050832
-41.989421934719395 114.479487300658036 -75.094254937946218
-43.296402392202111 -47.137416577163599 -81.248442908984572
-48.833732656017794 -59.306202818955882 -80.212232774513836
-43.189884831194675 -93.548213847157015 -84.060706338429569
-44.142807319427540 -96.619456490858710 -74.791421752255658
-47.142268650532074 72.683029763346283 -81.588271072711294
-46.852305181564702 -50.023574134342553 -79.242970004479957
-44.259087681041031 -47.794457654690035 -76.526885706493218
-45.102531129234627 -65.659014716066494 -69.922617164944725
-48.945079854118447 -55.905530021800701 -82.245944427894628
-42.205335035283568 -91.397447056357322 -74.797699542724473
-50.884832177675783 115.037591587472363 -80.194344211360360
-46.524007985978706 -67.022195404279088 -84.764069148013036
-47.477978185340987 -53.368652158765443 -82.801158427799450
-44.581027677417829 -88.986294102591216 -87.262101788820104
-49.231590307450332 -85.615956617587372 -85.434714219446391
-47.462378138805853 -96.641545709891716 -83.162616387422943
-48.069813313048975 -51.726817239051712 -86.416948414261626
-48.110519415357395 -59.560175439011630 -88.126659909252240
-45.460630927058624 -69.500858148848593 -87.458003452311885
-49.386075673129149 -66.824151121279911 -84.497977852004141
-46.090663427425859 -55.361972614812103 -89.954231792900984
-48.379317783584291 -87.574551949051767 -93.219814132534694
-45.721883067846775 -62.383968982757608 -93.321288101416187
-45.007707075607037 -68.215299455148781 -90.012701696511527
-52.940665506655208 -61.565589476167034 -94.362056726936089
-46.252254116544620 88.379547779239701 -92.748360675344514
-45.024513635986345 -56.347550468255676 -94.054698892398861
-47.075750861511004 -68.737636617698044 -91.030716223055364
-51.023095768093924 -62.732341622747001 -90.967024253841871
-45.290696285869622 -63.744594768830979 -93.272868461683842
-46.462912027307276 -56.658315736729392 -97.815698220066892
-48.508269315933184 -68.721403769741300 -98.803015346696228
-47.933648051571417 -59.223867812999544 -95.573087761359616
-51.094444362503175 -50.293473178614050 -97.203207018534627
-48.039391780274762 -62.391770793052785 -97.054650319323585
-48.701254767826050 -85.143886728013044 -98.353063250375214
-47.041169689416598 -61.695015178480929 -102.380252421256245
-43.275714434430547 -82.275370233819856 -94.855452895075828
-42.957016011491291 -85.584576121269862 -102.837969439687001
-47.353054769772079 -49.558754872109418 -96.341132838837964
-49.469878744181983 -66.748259865137570 -97.065156360771638
-46.186553336404316 -63.441814497869117 -104.292709728158201
-47.212159074484504 -71.838577554213657 -101.772059288438200
-43.372087731978176 -60.982675644523994 -105.227479107059736
-46.810233238591323 -65.345235312712660 -98.095197118547830
-47.660484640925546 -77.589382996421122 -97.256393641487193
-43.491485157990240 -72.959964212270435 -97.866128630574778
-47.535302264082162 101.890361435798440 -104.617039261928952
-49.100929145738647 81.348312904774332 -29.603455367938587
-47.437636689112139 77.693252584046775 -29.337188829302306
-42.339330031478895 94.146258226147211 -32.345335794412144
-48.428402730762961 77.671924918770173 -37.173556170960062
-48.445055771889123 67.378362413830146 -40.909153251041595
-45.468325499976487 72.334707392943841 -40.787077500635519
-48.738394636436212 76.769179190856661 -43.673778472449776
-48.759696973634682 72.009640798301206 -43.178609740918233
-45.498337710691594 71.065820288295896 -46.189817330158895
-42.510469410762667 69.086952796512946 -45.193733013780751
-46.775006050768994 23.870780412731868 -54.194249775392080
-48.661368418314154 -56.215436352950746 -43.713254277943435
-46.443436050314148 -78.585415265653452 -46.084122844783138
-47.997121604138989 -80.907466029625155 -46.910070649442879
-52.504202882905844 -74.287170138860688 -48.206813036044203
-45.636870941383471 -56.413748971563720 -55.760225497621889
-42.534786888589082 -82.379139981916978 -50.120698557183076
-44.988738282124658 -74.208887245040600 -49.285373136855014
-49.655176955506285 -80.287723441879095 -50.023339229557287
-49.043484312460798 33.981430392259782 -50.482524093786175
-42.375301802832283 -66.217049118107141 -48.963944561216870
-51.235937042103672 -82.608807266621938 -54.878338616787346
-49.960554461662554 -54.915288347924914 -48.300794484757169
-45.825511344887495 -69.595188082670191 -47.808364945887163
-46.154873263394805 -64.414329935401710 -50.864936742983730
-42.927013223027586 -58.148091699355689 -50.104195790244809
-45.955229025135452 -56.612732127578738 -48.459339474762956
-43.115527574743318 -56.251431151842155 -51.983113842408343
-44.791627759190732 -82.603901355362311 -53.951734400350666
-44.980283720064762 -57.357703726914991 -56.764128255542573
-45.728458554772828 -77.848924465416729 -52.526491281408752
-46.914662139003234 -76.060905853954992 -49.775325108639947
-47.569818968696289 -79.418650935338135 -51.011722313800632
-44.897007356259820 -54.195463122784346 -52.264317983695072
-49.288362044947476 -87.076391277359235 -51.858525848158855
-50.772162452897277 51.267871829863729 -50.283227216206370
-41.052250121283691 -82.054407975648417 -51.462667225184518
-43.239872770135790 45.911950905531896 -60.074508355767051
-43.499223259321674 -56.533287105091517 -57.930319105617500
-44.314585315827223 -67.277374400757537 -56.555291727719890
-46.438552460527745 -88.415532300118514 -55.391269448196894
-45.613944624350594 -90.024578381268356 -60.945795425482075
-51.072903919508605 -57.058057319140175 -60.366057674129266
-45.894663952762919 -55.957124843064818 -57.073390057835269
-43.154972226634364 -55.509774556229004 -62.693544112757181
-43.821296054242069 -92.293694539331057 -62.437206944211738
-48.860149494702561 -61.871786017568340 -61.295648366741190
-42.282115843647453 -69.185446978156108 -56.775434601931948
-46.068401359962003 -92.707021960927307 -66.635348225518584
-46.996271573789684 -55.578545382568194 -62.435019809899629
-48.213742736304333 -68.683467837811421 -64.578868072465596
-47.478481842539793 -69.454024592086782 -64.806913834838497
-46.111629153810732 114.637421070578469 -65.182157962146420
-46.738627426524921 55.786966907276323 -75.789629881981966
-46.540024690105405 -71.567698861353705 -69.196046608089745
-45.214776410595341 -88.898336950886204 -75.100252990272480
-45.529134941053250 67.983048073611315 -71.683146408047733
-41.753854599527145 64.230282640038013 -69.035656041046934
-45.599218664212756 -53.099131287877626 -76.850661256614771
-46.082866725035018 -76.805010319965831 -73.729645529581077
-49.553614038249080 69.802035049594878 -73.328843322812759
-41.548703222386614 -88.997429009325529 -76.395526350443177
-49.906766015597164 -57.878497386171048 -73.062455272476456
-51.463591889293340 -95.541046661465856 -74.429501740616004
-46.287082478208056 70.242898735352213 -79.628507268977273
-46.453869325106908 -69.882722733538486 -73.691218027855442
-44.196320674100704 71.797802940705424 -78.211238960013233
-48.273709330243442 -70.678976743924423 -78.049862546009464
-44.487858958900752 -74.755631337163976 -77.810444475388408
-45.703499484182835 -57.005737102354530 -82.533077903837778
-44.788902184048020 -93.488241958651855 -80.301000418597766
-48.452442894513588 -72.747274812398643 -78.820155220888665
-44.972719181941358 -53.078843436875601 -83.279881568118284
-45.651511005877865 -67.312036991702968 -87.564375071816286
-46.441331931396988 -71.246028258638631 -86.000398840446792
-45.582718892216839 -80.357263243421130 -81.802117940256338
-47.385701188953988 79.639956636588323 -83.820526984594380
-47.465719297086345 -81.703858551583053 -86.675270699731342
-48.125805509838365 -56.671584357069761 -86.605245479865317
-44.810246126980758 -87.363529997374243 -84.469388241720040
-53.138050332693467 -59.298281385129712 -92.397557799656980
-47.203230044641870 -89.279657217098688 -92.047930401148321
-46.215916325571634 -89.802723309726346 -92.584112254079102
-50.465470733431097 -67.456501358187509 -96.520809283542377
-46.755041951075931 -69.125409177886553 -95.629631463395881
-41.408800655062599 108.808166999221598 -96.198688848208320
-42.633688850674481 -61.281113991441885 -95.480647694514602
-48.736620334324627 -90.396292979690628 -98.486490901047389
-49.596217415841906 -69.712793218620860 -93.766178257997979
-46.514095697529420 -75.255363364120925 -97.437448307441130
-49.710024772596668 -87.229072528241616 -95.243344361026473
-42.305016363332825 -63.349181255896298 -97.739290334121080
-46.824719232519655 -83.401819105783900 -99.808007644034149
-45.918728070500016 -87.508478760757612 -93.630426479365440
-44.616904154533096 -68.239430506658806 -93.937687015754250
-46.731735136606957 -78.009074601721267 -99.111521654301413
-45.537486916085207 -78.980857585279551 -97.554453466473547
-44.964945286958944 105.255272421453711 -95.233441683229827
-42.413450572104878 -79.182258888773120 -99.844517339645421
-48.240409363873965 -76.272869275635912 -99.667896770522958
-45.652770337667839 -71.341599665972083 -105.407272603820104
-43.336983675453432 -70.318427236559998 -100.585817674073638
-46.326099473867430 -66.650362872001566 -100.860190128751313
-43.363251065882949 96.376337229308419 -102.062658970789073
-47.279772148344833 -70.114944664729251 -99.964260704265953
-46.415381374031796 -78.999629195605735 -102.461450432300012
-43.634771035034568 104.671349515051659 -103.402068670575929
-47.547061638700292 104.302295145868257 -107.564108087012343
-38.494626502043474 90.321886303704673 -36.711369816685746
-47.400800021552364 68.192716801877893 -41.982144230033192
-47.188497700685502 98.679969669455474 -36.748106925987003
-42.873148798994471 74.639353129566132 -40.616520425978280
-40.937027319911351 74.427231135483837 -38.694454510335760
-41.292247301225672 46.176966799998716 -44.824874372677648
-47.160053025145004 -65.345773196029612 -44.794051345767706
-45.937296745944849 -67.525967543284409 -42.864900761727363
-50.196142793558593 -58.729207146904542 -43.373156595358225
-40.189194601114970 -69.745518287388251 -48.282784003759424
-44.419344873448303 -76.863864305130775 -48.834187566273378
-47.456607305952161 -61.538188199840874 -42.413733442626857
-46.068775234870870 -76.536548397935988 -44.935393900074381
-48.698964870882442 -69.660871972561409 -46.827590557752117
-42.051574838913822 -71.520749104105590 -46.929544145082353
-43.132419948289368 -73.632894507155399 -49.809254526822293
-44.240300287562285 -56.991888325067350 -49.264531237971084
-43.417368578964883 -72.391579699109613 -42.154231029366159
-42.012212971518331 -75.923369803248775 -48.187092020015882
-40.934082210765396 -67.611417318669581 -53.399451116861897
-48.247440909713724 -66.787527663577677 -50.602569958720878
-46.517509911050738 39.189441131244500 -49.987315446841002
-49.121990117888167 -75.472892154859082 -54.503017701418628
-44.789048923240003 -76.741240656240109 -49.924254736723483
-46.261132544117693 -57.403837625365611 -49.987630693676728
-44.714423979988766 -90.510379262465662 -51.310200147104169
-47.276718792948060 -67.032277002841681 -48.574726612715338
-45.157758548564125 -89.612074529237844 -55.040266892581087
-46.358423823936626 -69.507537095659785 -51.132495130605648
-45.317158910993875 -69.429961656258754 -53.530696134833150
-42.835823487925111 -73.031825746951611 -53.392679722260844
-44.837146856637666 -88.742760936613365 -54.800266391850855
-45.825647230732073 -65.248900768149596 -56.719987520566946
-47.051021124134252 -69.170548948312913 -56.455424405464640
-44.788631986044223 -86.592376750769560 -52.910221283765694
-44.614630413991264 53.622864466352333 -63.407020266241602
-43.644646124878172 -91.844283939780922 -57.032256850206252
-44.699374371119632 -65.078789359738195 -58.777494480418426
-50.145003269876966 -80.464982016065306 -62.176888423303836
-46.549379683290567 -69.902744871278657 -65.827202040353257
-43.412435155046708 -89.253990155103722 -57.928407325370813
-43.021485562743614 -90.819460567566722 -63.459400844765213
-45.680277617607267 56.659668713227724 -60.443656265300561
-47.493397445843229 -56.883853364731650 -64.229728743509824
-51.782865652593259 -79.173768256698878 -64.703771424563712
-42.059664206271044 -73.649392756968112 -62.565073865089175
-42.544797068612255 -62.442925430530067 -65.721356204865401
-49.070047842466984 55.370171626538621 -68.651930539345628
-46.581754022222448 -90.421670887077227 -69.325307506439501
-43.973124970308476 -79.245784475306181 -67.009853762167793
-43.239184817262270 -93.911203672918660 -70.873730386128514
-42.890934169934766 -95.529487922959405 -69.346882281384509
-43.653224075702347 68.591735849657425 -71.111946455509553
-45.740916055524437 -63.455206820147069 -71.489069206968111
-42.144482366027212 -76.596503756131540 -69.707311567056749
-46.887761716779195 -74.268780150891430 -70.229340822455143
-48.008899697515155 116.528891467978880 -74.576697258200852
-40.452532296469428 -73.082052178986842 -73.777050681017371
-45.954080116503498 -87.356516644433512 -79.836396619776892
-44.327178302925894 -92.423859468483201 -77.733843019562130
-49.336191256823334 -80.588935068323053 -76.950503530749771
-48.221387827710544 -62.062007481542324 -83.136036424267530
-46.362946257456599 -92.380443268476625 -74.077925886476095
-47.776324670688325 -71.026117644210444 -79.166806864653751
-45.091797985578161 -79.176285507312215 -76.698507670823702
-41.958893253315395 109.454915924135491 -85.185570027212890
-44.702194795069651 -65.947382825370525 -82.943963833228793
-46.446968617585817 -94.526904292556509 -82.639042893034713
-43.265929875981861 74.946740062089106 -85.604930281828118
-42.342787121576656 -76.850721945359084 -82.297187161003777
-44.277065241178512 -89.107299818630452 -88.514450663140607
-46.704944019944740 -90.119799617234122 -82.713103746614721
-41.487464342646248 -74.651879662609602 -82.864721870607696
-48.083978358743984 -93.173137448016746 -80.619951358506796
-49.292663689220333 -78.675690019622294 -85.879004533931209
-49.001170727175875 -88.560748013701229 -88.233122890710561
-43.250525737562896 -86.464034346354211 -87.682124591316352
-45.292551087150571 -73.547187295170403 -88.166503574226226
-48.431306608551239 -84.843565460483603 -87.970035710992434
-43.666776025219519 -93.630944135086921 -89.592051285890250
-47.958944790155876 83.735364847812463 -92.645911645224132
-46.059601900272533 -78.879348204744574 -86.896559725454367
-44.480357322747444 -69.293499455193185 -96.814011914275738
-44.778339634793731 87.618000580632426 -94.243256234851785
-47.439247557954488 -76.765661417257405 -98.396511056891455
-44.712793291942489 96.419593422129608 -97.909440217163151
-45.487910596124003 -76.933853682081462 -97.725937450851831
-41.017712583273585 -82.428376353285600 -100.089368967519675
-42.913094026892011 -71.881029999680337 -103.605075079037917
-48.064144348164305 -77.379509446859686 -103.734464509071216
-42.539302723637888 -75.858176094485202 -106.620417160589056
-45.106530298094853 -78.596196982300455 -102.072653531771479
-41.680781977298004 110.226474117232641 -99.295076366854374
-44.013418749095266 72.846448596007747 -36.555774855392919
-45.969623654348190 63.188515121954026 -38.327873415146811
-44.553406627475155 65.987896398201912 -44.389126186345479
-42.101380749841439 76.376221776331846 -39.835254082842063
-44.786622313694707 60.140131256776428 -40.807484433143159
-41.595409777015412 -64.341606046903536 -44.670881035074501
-41.067516723850396 105.858177238931091 -47.508816861801336
-46.753226479746594 -71.792100519785052 -46.955792491189122
-50.904438731893642 -82.447620331629039 -47.381436672854655
-42.789203226250009 -73.349830511585068 -46.569109221804226
-43.364909111403797 -82.067060249588266 -45.833108774648892
-39.440186102754140 -75.526874527174627 -46.646372572817903
-45.382186468267790 -88.014306357245815 -49.041493029680851
-43.711442935231204 27.575169253906061 -46.766483113194028
-43.415147781129036 -73.590458153131209 -46.781011128898733
-41.456418377933261 -74.066183341772899 -51.745354035021343
-42.998973695609976 -83.711871356208391 -45.825389615800425
-44.563474433323464 25.015810969714003 -49.737333176960078
-47.785755191219295 -89.134747676214246 -48.873472933761185
-47.110221417183297 -88.962641753187953 -56.241574191905414
-44.016985733071685 -80.285594124906666 -56.827573018928845
-45.714493444286425 39.328167397155518 -50.060261468888406
-44.147610554644722 -65.452588864024108 -55.933208933660552
-45.135340387314592 -90.658538686242750 -58.240691396026605
-42.853554034070115 48.625723269337506 -52.850319410096681
-45.710627158191301 -69.500615245542946 -54.628870056494719
-47.550386460041402 -82.031691495619256 -52.483253991546597
-48.103778753726921 -63.652470749832645 -53.919874071196986
-46.570279151905893 108.918958111636584 -52.370258536840495
-42.029410102523627 -87.506092056923876 -53.881824922904933
-41.893335576178110 -75.953452261095805 -52.299994971999645
-47.995369578516389 -67.856904187295768 -58.044895690196526
-45.751658062845912 -91.563732414597226 -58.094535823469727
-45.598707521801337 -94.118285340821899 -55.435406655535502
-43.490090070146231 -81.372894177007979 -56.831262810217353
-47.789229845744018 -70.265446044744479 -62.121103146059241
-47.121784803515880 -88.911933441023010 -58.138748063941222
-45.096760129469835 -88.940441469025444 -60.891989591063933
-42.020902697027729 -76.280476301665274 -65.286660515477635
-46.943230358643753 -89.238720721637392 -58.380472095453158
-43.827337118697756 -94.825025712557704 -61.642745567351255
-45.023888978084038 -71.129906202158509 -66.111888345824326
-42.268576228228937 -81.923536607569915 -66.329213204488426
-44.207415112367116 -91.363954934804696 -68.117460672552355
-46.433085408362842 52.965012207742966 -71.632683655092606
-43.795747228678913 -70.938296860889352 -65.895073217902592
-42.752345130382800 -94.023744238233533 -68.154208578196744
-43.366077657007217 49.091166934160604 -66.650874516509504
-40.386301382603151 -81.861097473674405 -66.945368727999664
-42.793580548336067 -87.403896239996868 -73.277795169825538
-43.282755193102311 -92.629330691048082 -70.278983454562152
-42.065060189821011 57.584834843255258 -67.475902446803985
-45.246300813443511 -87.675465371478850 -71.549092479124567
-41.585502224904573 64.244177745015719 -69.168569804012122
-48.135406034961676 -89.566610875649090 -65.501826263994502
-40.638995368290935 66.159118976619226 -68.388401329657995
-46.412760021399407 -74.952088167791032 -68.189707744789629
-49.410051111644229 -95.244743484325056 -69.481410978491866
-45.255670250112985 69.637455218455074 -74.389152541289974
-46.027190299006882 -94.655997552933130 -70.539559930911665
-42.529953112288020 -89.499503944260596 -69.357066766315967
-43.564337862520418 -95.798531693456525 -71.705102290518781
-48.077177468781407 -88.094806411014346 -72.218414656171447
-44.813617983741899 -72.327031867093595 -72.619504329976465
-44.405461238433645 -89.782579245320363 -74.062362421796308
-46.709343456226520 -87.126781678039023 -75.573287559101303
-43.636184906319997 -95.137291774616060 -71.423340716596059
-44.077399384539504 -88.254991782966243 -75.878219690342007
-46.046083377256743 -96.037542172374984 -75.493712459126954
-39.992136887652649 -93.442593545935765 -76.551898809744955
-43.581802676540484 -93.308181202060808 -70.951742157779236
-44.586664626424664 -88.527002872480935 -77.243786028554808
-47.185061388304710 -94.683335792918768 -71.280913612578985
-43.267853973119990 -89.860316428215455 -71.754878756865565
-43.142714679714359 -92.850027355777385 -74.285597761394328
-43.380418929565629 -90.888575219170676 -75.041692134322716
-43.172147623659811 112.132003158928541 -76.962115957750001
-44.867861027999488 -88.497482175760965 -76.019093161572172
-45.982685623062430 -86.166346251807795 -73.544164943993678
-44.928370351642300 -90.977067162013896 -79.059625720638323
-46.348526738507104 -95.365261424421107 -81.678313769126433
-42.152218370762554 -98.171082698955587 -78.736343583912287
-48.368351126517013 -95.373095324683035 -83.034878988454679
-44.058763849054458 -75.012573389303284 -78.660010336618782
-47.046972435375920 -92.391955793768147 -83.263076483831597
-44.740215087747686 -89.294769313902890 -83.981999445847606
-41.798539843506781 -89.949965093350997 -78.822809211250998
-45.338956977936284 -76.999821963846230 -86.510842522832846
-42.520821986663350 -95.704394461386372 -86.735272358765513
-43.815594914044887 110.141118463855406 -88.256096717919320
-45.614592273538022 -80.308566152180845 -87.522518293929309
-45.839444339167748 -84.666134159327399 -88.819572147805260
-44.900619848759710 -89.943877214069474 -89.903899741051646
-43.269000779408216 -82.910711731062747 -86.001188426198198
-44.884069349236952 -78.446827452035521 -90.700572387047032
-42.947855779989105 -91.909535195757229 -94.916997052717861
-42.152979102132633 -85.991281859692933 -92.712965933331006
-40.517122679309360 -82.281658787878627 -93.954202488238721
-45.599132103920802 -90.321823220636290 -96.019198049401851
-44.027799330785975 -79.602856692558248 -90.084341937870136
-47.451556898685006 93.831223694907507 -95.225222208377630
-43.780614105793241 -79.284435492594525 -94.380616180758750
-45.344996111081656 -88.748819034451387 -99.458726314072337
-44.733820238419334 -85.624733382419720 -97.241969099441093
-45.317133878857113 113.238784571651408 -102.093536711779109
-44.543110744637680 -83.774159498550929 -97.954828139736136
-48.197323789706189 -82.944827881688255 -106.291638750788536
-41.446584579458978 75.375806035576062 -36.041654283198781
-46.100839875432278 73.124971805699971 -38.531993591134651
-41.887171705050655 55.362451325890440 -45.901250293533039
-42.076264614788009 41.177316752137060 -44.296140550107133
-41.019799347287822 -77.774905273627297 -46.018134411577371
-40.501327723889140 113.533638424967364 -51.768480480642410
-45.961654428498420 23.949652065004720 -45.931631834188664
-39.354720030296392 36.702014424644872 -52.417598860553603
-41.919752366669869 -75.452538124400888 -49.023346516752646
-43.740427481489803 -91.627728465048719 -53.968645323980205
-46.171306525707479 -84.214632226350489 -52.086903594398059
-44.565525392042410 -74.522426846048319 -50.690048744988225
-43.625368346239505 -90.481922638337181 -56.271965498260954
-46.603944295241973 -82.217811765540063 -53.091606674852642
-45.244901308801225 -84.168571542637622 -60.115208640654018
-43.624655973093404 -90.145176531911360 -57.002906009232746
-39.065675674818678 -69.312214671288132 -61.181646691693061
-42.996175541958152 110.723709432600216 -56.130386804220038
-35.939911424961039 -90.923937601762987 -63.144309527813277
-47.878045943110088 -87.533997193529459 -55.729122424633104
-44.444499945424830 -94.593930148940927 -59.865347854013962
-41.815693643809844 -95.850088671467560 -62.423945352876103
-43.055437612146704 -92.522544578133719 -59.025633501650020
-41.774277805353570 -80.561624421278339 -67.914317210251539
-43.167494229341052 67.269330734496720 -63.482073283065574
-41.393618274137950 -93.411426732310744 -64.303294831260033
-45.925862483156280 -93.086898672113392 -66.991955696341478
-44.926146980955664 71.642080053835016 -65.349692940973299
-39.038207003659693 67.986386946610310 -66.872534311078780
-35.587888728675424 -85.396968822192520 -68.286336342515284
-42.498578573045805 -79.256272456957475 -66.190835503622594
-41.441109727014869 -85.014858111409524 -67.803013583854536
-45.567797353887606 -94.388789582529228 -71.456258020563880
-42.965642282206566 -90.503434107730953 -68.225368700414791
-45.529254663040710 -94.818938044277317 -71.822314942677480
-43.613828420668689 -95.587067861943325 -72.780218289369031
-45.632358923016412 -91.285707277760181 -72.467195762421241
-42.673033227574550 -89.528922563102057 -73.814162979564173
-45.810901793423739 -85.495904677795977 -75.407152384483027
-44.762616270527566 -92.164700236701620 -79.201102579416741
-39.137933191548299 -89.062068771966281 -72.654963287942778
-46.112094324702561 -88.949925624279388 -73.458003465879671
-41.642264704548190 -93.024434031572994 -74.609041994428281
-41.486295330394128 69.428038947070661 -77.776047608643992
-42.019758416762507 -95.120161199676531 -75.257982732502057
-43.586634652401600 -95.113890700209794 -77.294819678600405
-41.468166718274254 -86.532817887428948 -77.414558710111606
-39.801779609282733 107.395565678559208 -75.753348047330064
-40.706172219360326 -89.893128748082518 -74.084667693867189
-48.127703986604274 -87.954131350629865 -74.901987369733490
-41.960767850772442 -92.392711495898027 -81.583139489947683
-43.489351209125353 70.773683226917171 -83.739838172389554
-48.968662854535133 -94.940360170483601 -77.754840773721966
-39.746569617123953 -89.226038552020626 -87.326962661798220
-40.291439172127660 -84.516613730354194 -84.210789491143032
-42.747741641352782 -87.334114665823307 -85.354752043844442
-42.297568812042321 109.999456066747740 -91.140835451785378
-41.769331349238236 90.108964991715723 -100.681997619126761
-40.975570112764707 93.953759410773358 -97.263709170440038
-44.404151472900473 104.477814153902941 -107.387908553634432
-38.821805258639792 84.525503491218203 -39.806340252697517
-39.829528246265305 71.459622295863284 -44.251256270613709
-43.261279979297228 52.190919098888052 -47.921916186144315
-43.210061067309901 46.690768222941088 -44.986611893448462
-42.598664535368826 25.401700918021142 -46.311171079046112
-44.153561958031112 20.530484932303239 -48.746186562756314
-40.727922188106490 33.317907373759070 -44.333888796824084
-41.376145922823675 35.372778739108220 -47.189933757183134
-43.834522397917567 21.451707495206556 -47.400249351755342
-46.258441448860630 25.378027628478371 -54.228568437865277
-43.664373960763861 41.781152113939392 -50.509046201628614
-43.013432886652382 109.367332109708329 -55.215273582275827
-37.581229285591071 46.871175371683890 -58.333134584741003
-41.475141617108598 53.597209788034512 -56.550096195566184
-42.023617485425213 -85.084533491407939 -58.787860222452835
-47.923964527674642 53.971259987719613 -58.527971677435517
-41.883364399019278 -84.673087751318008 -61.120031427778457
-45.226910318545535 -91.920009618548349 -62.874946130571956
-40.152132053027252 109.801007153792511 -63.332376340308230
-47.494320722912121 52.214973539692167 -62.811003431914614
-42.525555405240823 53.533024558733992 -65.910145905694421
-42.989473480478885 64.027130425786481 -64.990909653991835
-40.790139676638759 -87.070619612707119 -67.993659279559722
-39.322957971409728 69.224649724655279 -69.478570854791798
-48.345689288862722 111.194741131088691 -71.031739152789285
-45.699905391969182 66.070886639712285 -76.375394666175154
-39.549295072559978 73.195925705770208 -89.016584838099462
-41.398901857303144 108.583726970411163 -93.193099835235856
-42.130993339713157 80.548878306067564 -91.754258128333845
-40.169422521004172 109.518391524409779 -95.687134286318411
-37.430070634431196 103.786251792568976 -104.721504634364692
-39.314927269092721 101.219200906540863 -42.298899345031316
-38.752271662145546 78.462241425016913 -34.063768976546989
-40.913745571680288 69.621749430675607 -41.325127868918429
-43.343794010517314 102.098720784799184 -38.857648550693192
-41.924043156494172 51.231733484890427 -41.894267604963581
-42.444264521883554 26.677556922818908 -43.793115282832652
-36.693856161146947 54.498572038014494 -43.985193943423688
-42.320408355780884 49.926730221527421 -47.415286913354265
-43.463378241740145 38.574570035197581 -45.114932411036683
-41.571808242209634 24.175568315171120 -47.161228347247224
-36.556558070805245 37.573298439125509 -48.263129374682329
-39.309464233770512 22.652426813959202 -47.082250283221711
-38.633752812837258 44.972135260459545 -48.978581918324366
-45.094737396020733 49.703982647723578 -45.340675637463974
-42.418081315776774 31.189766226773372 -51.570042588121844
-42.524441856497326 32.030823926642604 -47.347831757420714
-37.445777674543734 67.889463448422731 -61.945348253786989
-43.347491898010468 57.280073928587548 -69.178335276284429
-39.960137732802124 73.466094060860115 -83.356855992951623
-40.899250136570920 82.508418497863062 -88.011955778897814
-41.418434602831233 88.197848817806914 -102.656474803875014
-38.828220147861508 107.141699886890848 -103.774149385364495
-41.948007669000191 99.844340847548636 -109.830574835808008
-37.695668550535295 86.247944018192072 -38.647642422186756
-35.239905501776292 102.831246964204624 -43.398902563219181
-37.685498781987818 65.573206207944409 -44.144706187011920
-40.095935452046120 106.904636846291979 -44.152458124564234
-42.446675003696768 33.708471577222475 -47.701229894992487
-40.362726394917587 28.410501540824537 -49.509874968766482
-39.972009117437409 38.174975436705665 -46.382391617517797
-42.361509489100534 44.120217892003517 -44.036994693502578
-38.429570946421386 46.097045049569459 -48.363166992390639
-41.189442589042507 39.655394630710617 -49.626045057232545
-39.617915380670745 111.283066767814873 -48.090773962872781
-39.911464629296582 33.127075413267733 -53.301786164717761
-40.153481856547451 54.369824863296600 -50.849187522358548
-38.351207722282268 51.896539989679788 -52.379522743793430
-43.675425804066350 66.274711336325623 -62.067546851942083
-36.480032651589980 52.912224068707879 -62.987686560381206
-36.118092207047440 65.702951715688116 -71.757634898037011
-44.881832128524266 65.160187826215008 -63.960379204192108
-30.858269793833184 62.472813571740879 -58.293771471440692
-42.099824850348263 108.574199977419028 -82.814592937735455
-37.475793512692675 111.821536941664689 -78.439649846205640
-34.164522463753130 112.025362485311831 -91.421884943898831
-43.565863952600189 84.441488891396688 -92.380064296023221
-46.011256475005908 89.083010178646163 -91.743862321011534
-43.309177135399437 96.963538815538925 -99.052518001064215
-38.111443781125487 101.031021067785574 -104.358438545981670
-35.048580949638769 61.672183279387312 -50.048756820448716
-34.525454676215126 28.561512853080536 -46.224561871813222
-35.535359062961064 39.446633080053694 -49.060266449400544
-41.313392785937992 29.887050632112803 -51.893964199966128
-40.078579973244551 39.433722857904698 -49.545507608102682
-36.802577214584410 31.378898182091497 -47.564013825738783
-42.695357336514490 59.079735671533271 -48.647493662956649
-38.513577426552132 33.761499792964912 -50.782578165645091
-37.813071631025508 57.256061686030414 -56.377641136765291
-45.997291675123947 107.994381635678508 -54.762240971634100
-33.624913806895655 54.723581006748176 -56.220188478190892
-40.276828061082931 64.264609948432536 -58.789612353317750
-35.442776112198743 61.848007571579636 -61.676835466125524
-39.954731162841021 59.431945762545340 -61.115279830425337
-39.003124166328895 61.262271835025985 -63.151283353467804
-38.773427151333955 116.472475213490142 -66.429618898726901
-36.889756545118907 116.031771601728963 -67.955061766355755
-42.580107498693621 88.403169960222087 -96.487042884089959
-41.382394318324579 105.026783363781377 -95.344712051584722
-36.539823559171097 95.247671920042563 -103.456513864415470
-34.685559155283251 103.049971401714799 -96.169193181671915
-36.052133302651427 86.839516680293258 -40.671555121177583
-43.513969355732605 92.141368698815967 -38.651864081268570
-38.463397871161639 94.183596719801784 -41.043329837347656
-34.615313426395538 98.970201431707437 -43.999394465870068
-35.506239768913638 77.498985301904398 -38.783054375793625
-33.528802488804011 70.857962458609620 -44.855535169988165
-35.570925216501742 65.947494011879613 -45.953473416440417
-38.031392173664067 55.175325053565899 -53.629314811462372
-40.323035837970629 63.598638037272067 -59.369151359341998
-41.180394121414821 110.270417877882196 -59.038793368795154
-41.754094039891299 58.782104731922573 -60.748146217303173
-40.846886387670395 74.383104965417346 -65.973542716219498
-37.319018948802622 111.327013171931682 -63.291932743203020
-41.005786660393902 68.784438371710309 -66.701402306588477
-35.871620051112863 68.057905244980446 -76.732198868784309
-40.907344487977511 109.021510924735708 -83.001850579126838
-35.556819809638135 107.473730226070614 -87.651401967577002
-39.730832538849455 84.184926922263855 -84.571472054643493
-35.095242007679317 94.059479319134411 -93.720933070628590
-36.427244329195823 108.339702063327437 -98.780930947757099
-34.716697290637640 89.082955962899845 -45.368347260168655
-38.988943564714333 70.045638561036171 -49.588664099939685
-35.681215716062752 69.157520199063072 -41.377463815313327
-36.244299420348220 62.893645099962598 -49.332647669240551
-35.666197434323422 64.219784853693994 -55.437610473740634
-39.144678360620397 66.674001952505051 -52.401669258244283
-36.872730730038356 58.887568766301783 -56.715171555830793
-36.350637721034424 62.214329240732489 -60.975605947558790
-33.450179077922648 59.030806994924696 -56.113376700047766
-40.297198853067890 68.235694968328716 -69.471459012144791
-37.298032871336680 110.286711569570258 -64.833605245609917
-35.155593289557494 108.997697874387853 -71.691737148898497
-35.209812941800649 109.948445998449884 -83.426330898839467
-34.123819455679687 100.863214296455794 -100.164162863144114
-36.449021954161232 101.203095145867962 -98.609398093431011
-36.996212201344086 94.036511845710521 -41.401540027058267
-36.536759865775714 78.044634554621553 -36.741303663063135
-36.518753409309198 76.421559326828628 -47.955957958329314
-38.667222751358409 106.615525598170407 -44.810042405577427
-35.196087813207562 65.770869713489802 -49.359573378723240
-34.211497241389004 63.587012825703709 -46.554071319934522
-34.902630753651017 56.973124077718154 -47.525353948920348
-42.378068805197501 112.294365734300087 -56.562470010161903
-37.391131854933747 66.467618232911235 -64.240642680525795
-33.628853478015358 112.727834330654531 -68.081899126699312
-35.491155743585281 72.295413936896651 -76.738233286110770
-31.755040095691889 73.965971726654033 -83.104453865831005
-29.890361314250075 76.234879534928766 -82.548114398165211
-33.348287598619621 98.277413950939930 -101.607238392142250
-35.869702474307452 94.909026081406580 -34.831706924889758
-37.564060565951202 101.227491540062161 -41.408408105776147
-34.746221797105115 69.919819644029559 -45.240406609861452
-39.076471442265813 65.141138814078261 -50.381837349268508
-31.492586196058713 71.840669170736390 -53.464493363582349
-36.724005087365299 110.350368361100664 -77.453415253226041
-31.492950980702776 109.008514310440148 -81.074078199055364
-32.918400744762721 108.840920545623192 -89.506590362666927
-34.634302042092727 75.283522583251326 -88.613914852392256
-35.440118913978758 109.698942550566343 -92.486997824228496
-34.091609332943442 78.426057840995611 -92.347015967363589
-34.671721814574823 102.691126434906153 -101.258075885194032
-37.519417417483346 101.637306442578137 -101.963012283557504
-30.742302167433206 69.612663433193944 -51.370310811782424
-37.433093727560710 109.237752509740147 -53.316483865472406
-31.391220283044152 67.909710513155233 -56.881447915355892
-35.992253327226798 66.722794056588270 -59.470752075412634
-35.151679839776598 108.778205885207655 -62.233677150766383
-35.338503832108600 112.930655094549721 -60.590598400768158
-35.864707413099573 109.374631855217004 -87.032708398480125
-34.161795731062192 84.015505808954984 -94.125490020052027
-32.538944802972949 88.845364258654939 -39.038667397696670
-33.493346192907751 98.938336094233804 -43.838872624349861
-32.858121388266127 107.798079890736176 -50.148107600804302
-32.534612864429519 110.633876093667013 -53.137662230211113
-32.042638425253607 108.457377983668707 -67.588274689649097
-33.787544271131893 116.190027356449264 -72.393234758812383
-32.522834269590959 71.032858391018237 -76.233785082234775
-30.919724500100155 108.251799845957848 -74.391724520189499
-33.349377090689835 106.160709261631553 -73.979226970826787
-32.782711094751718 106.480045956589862 -89.168502839442297
-32.294366313408254 80.156609913694368 -88.238351444852029
-31.066737401508618 96.122431770677622 -98.751858558784278
-29.644151582575727 98.478936003388739 -102.056919845687844
-28.302533192190744 83.352557593211273 -36.790881420805498
-36.435824490814333 73.208138354571076 -38.771929034420388
-35.119749715860756 74.862881978084701 -56.196834201185098
-30.397587354113778 70.438715008835644 -63.511887575762202
-34.713313858401264 69.898608510080550 -66.661961938529103
-36.062381140187277 74.189611591370195 -79.521082264601446
-34.637695603287064 103.694381814273470 -80.042957451109274
-31.763153294821603 74.059454171779521 -87.788863560531581
-35.541443050321107 83.484131533791341 -89.441508174045850
-36.461697570910260 105.223035300634564 -94.678507944912226
-34.229923717111710 89.629079342790902 -97.403821753884884
-35.063410816610428 89.128191350583023 -94.773166121660296
-30.048151830603636 100.256321082035598 -97.861658662090449
-35.540447226097612 91.994330148776271 -100.901102343591788
-36.417193877490064 82.439680140265651 -42.819624510591396
-30.260738492177328 97.376519079335282 -47.138280747816360
-32.810616240755941 98.785210313934769 -49.596496207975925
-34.598263643692896 102.007438580990126 -51.885056409957613
-29.128215547643336 74.798528181193490 -45.440310850968579
-31.003776866060257 75.669405197309530 -53.237057671140747
