# This PCD file was generated using the MATLAB® pcwrite function
# from Computer Vision Toolbox®.
# .PCD v.7 - Point Cloud Data file format
VERSION .7
FIELDS x y z
SIZE 4 4 4
TYPE F F F
COUNT 1 1 1
WIDTH 1438
HEIGHT 1
VIEWPOINT 0 0 0 1 0 0 0
POINTS 1438
DATA ascii
-80.570885 89.147865 -200.474991
-80.949059 87.378479 -204.349915
-78.751778 153.280258 -215.495911
-82.194710 163.890488 -214.974289
-81.726669 155.085007 -215.089188
-85.437904 160.654678 -214.984436
-80.565697 165.525391 -215.521469
-83.709198 157.533310 -220.831558
-81.847900 -0.474594 -219.927109
-81.706879 159.950119 -218.740646
-80.353828 154.927872 -221.190598
-82.701469 162.863129 -217.153015
-82.763763 157.046066 -221.962418
-79.467285 165.946014 -223.147079
-80.472580 -0.009880 -223.116165
-83.110672 -4.381532 -223.914520
-81.723236 159.448975 -227.546082
-81.043663 161.799988 -230.081696
-81.011925 1.794220 -227.532028
-83.162827 156.889496 -230.734421
-81.819069 162.226349 -233.158249
-83.220886 -6.685688 -233.388443
-81.273392 160.535202 -236.298370
-79.679359 -2.194859 -237.660873
-79.614853 2.723209 -238.428070
-83.837433 8.591914 -239.109512
-84.356956 6.313024 -240.164520
-81.023483 159.143875 -248.498901
-82.868935 146.954025 -245.740402
-84.246429 165.463043 -250.099594
-86.740250 160.062225 -248.250290
-84.298607 162.330902 -248.837997
-81.587868 -5.467264 -251.179123
-79.608559 22.358864 -250.081726
-79.831177 153.019775 -250.889618
-82.472580 22.251699 -250.215057
-79.946312 164.414673 -255.838043
-82.195198 18.454721 -258.416779
-79.116676 157.530090 -261.884918
-81.056099 12.672111 -264.238342
-83.073555 10.495175 -266.703766
-82.912811 3.735843 -264.430969
-81.446205 164.188553 -276.007660
-83.040718 156.569595 -274.243988
-86.833031 155.410614 -282.771271
-81.436943 71.461159 -59.269112
-82.514137 68.392212 -62.610737
-78.666946 84.417198 -59.774128
-83.851524 80.304291 -62.042267
-78.920708 62.625641 -62.332245
-81.503288 83.557007 -60.576965
-78.222954 49.169716 -62.288750
-81.299881 60.020176 -63.355392
-81.844872 54.404354 -64.179817
-80.748260 46.986443 -66.494797
-83.005920 45.916462 -65.047745
-79.856125 86.434418 -68.180328
-80.945023 45.100964 -69.586075
-84.076851 46.272667 -72.152771
-85.296593 93.494789 -72.821594
-78.921822 51.425732 -75.586136
-76.469475 54.042660 -74.996384
-78.970238 100.247849 -92.320587
-81.679199 92.285843 -92.475601
-80.025543 98.277771 -98.345642
-81.069221 -26.482737 -109.692375
-79.843994 -27.371195 -114.080788
-82.442413 -22.874580 -113.693352
-83.803673 -26.758642 -116.754471
-81.129738 -24.293720 -113.625229
-82.384125 -19.759356 -122.723251
-82.173256 -24.476358 -127.047783
-78.880775 -17.648329 -128.014587
-81.528534 -17.565863 -128.137543
-81.138885 -17.003546 -135.947006
-79.901970 -15.130853 -141.060730
-78.757484 50.163307 -153.200180
-81.432526 18.581495 -160.078735
-78.176468 68.722374 -164.397552
-83.369652 67.218147 -167.322357
-80.336868 21.666763 -167.965683
-82.036110 26.052282 -170.375275
-79.235275 37.151756 -171.248489
-79.076843 65.785690 -172.372070
-80.460068 60.811203 -175.115143
-77.836617 63.770401 -174.545990
-82.745331 35.042412 -179.549240
-79.842606 65.804131 -177.935181
-83.790161 46.332203 -181.699203
-78.394005 56.645729 -180.179428
-80.084648 39.762829 -178.119110
-79.605621 62.358585 -182.667740
-81.217506 55.426529 -181.003784
-82.354584 51.921497 -182.582565
-81.127129 155.721115 -182.615509
-84.720032 45.973064 -183.447571
-82.471954 158.039673 -184.755157
-79.543419 59.192509 -182.382278
-78.255676 161.344345 -188.148849
-82.080582 154.217651 -184.427979
-83.160637 146.720428 -186.697144
-81.634262 51.814041 -185.646484
-79.921936 53.487022 -184.172684
-79.199127 163.060776 -186.458801
-80.327522 156.329651 -184.522644
-83.024300 160.213959 -187.399368
-80.400726 166.801392 -190.068558
-82.367424 160.757523 -188.697006
-82.070595 54.815224 -186.480087
-81.318329 49.107414 -190.588058
-82.391754 160.228012 -189.101151
-81.930244 161.583481 -190.395859
-82.412979 153.641190 -193.254150
-77.374588 65.981400 -190.710281
-78.946182 51.923622 -192.581451
-81.420837 165.633163 -188.559204
-81.164047 157.402847 -194.192032
-79.987015 63.696266 -193.671982
-82.649048 72.429008 -191.589310
-80.121513 161.105881 -192.359787
-80.576332 156.920532 -195.702988
-80.632652 79.818481 -196.013062
-81.534058 65.204391 -195.846481
-78.524086 49.250988 -196.326950
-80.158821 44.415329 -196.457504
-80.738777 165.694275 -199.448364
-83.802177 156.044205 -202.376907
-83.417076 162.723816 -199.130066
-80.624237 87.817871 -201.726288
-80.222824 89.227974 -202.603577
-79.973137 91.217079 -204.777496
-80.759499 159.720139 -207.309402
-79.053185 1.115366 -207.545349
-83.548309 154.578674 -205.489197
-80.784325 162.438568 -209.011383
-81.740250 -0.479395 -211.466446
-81.609818 161.571167 -213.456650
-81.397789 0.561570 -213.534897
-79.678513 -2.275625 -216.138397
-79.401825 164.520081 -218.595490
-85.685242 147.789734 -215.169342
-83.746002 -2.929013 -220.704117
-79.465874 145.037781 -216.750290
-79.177139 4.424037 -221.647964
-80.036102 4.524860 -223.666840
-81.992798 -0.998776 -227.715668
-78.869736 162.736938 -229.423996
-80.650566 -4.967107 -228.875061
-81.320442 -0.492294 -232.948807
-79.836227 -2.756489 -230.906570
-80.928772 -5.706838 -234.613373
-83.480881 0.802576 -234.572144
-82.208855 -2.114184 -235.738724
-80.479782 -6.823925 -238.761612
-78.715256 -6.546022 -237.567230
-81.229630 -11.081363 -238.629364
-80.179733 161.192490 -237.630585
-76.920898 6.882339 -238.035110
-80.635918 2.038919 -237.101639
-82.470245 17.077019 -244.121567
-84.362839 152.957642 -249.641205
-79.274559 147.867157 -242.555832
-81.197113 -1.238542 -245.961899
-83.547935 17.840591 -245.425522
-83.314156 -7.381265 -250.628494
-80.358841 164.947693 -252.072418
-80.560890 -3.601819 -251.285797
-79.040398 22.128056 -259.375397
-83.605240 -2.479253 -261.806488
-79.411224 15.563616 -264.753448
-80.769920 9.219087 -261.526245
-78.900848 0.276916 -267.722717
-81.445412 4.959970 -272.528961
-83.609268 163.675537 -277.408203
-80.985451 164.241470 -281.136353
-80.884018 162.098648 -280.571442
-77.993362 162.041656 -279.605347
-78.458961 162.723938 -281.884369
-79.999893 150.173325 -282.895416
-82.071648 159.569016 -283.286285
-82.291039 160.765259 -291.577942
-80.782104 73.464081 -56.088840
-76.634048 67.525330 -56.116692
-79.880920 68.705803 -59.733910
-78.196335 59.796776 -57.472054
-77.804855 81.811523 -60.112186
-79.099602 77.928459 -58.942802
-79.892464 51.602730 -57.949852
-77.264511 50.552322 -59.193550
-83.668327 56.572960 -57.068092
-79.547310 85.395111 -60.138203
-80.089615 52.257801 -62.621704
-77.876366 89.226387 -67.097862
-76.875969 47.069866 -62.884628
-78.446602 91.570869 -71.352135
-78.790817 99.133934 -76.910789
-81.717857 64.283859 -75.688011
-79.987373 99.740570 -80.661575
-79.910225 64.533409 -80.813187
-84.221230 71.655464 -81.080681
-79.639153 72.073372 -86.192024
-82.452499 75.010750 -85.751045
-79.541786 74.926392 -91.288963
-79.164017 76.596817 -88.784340
-82.385704 87.087242 -90.013657
-83.478592 95.460793 -103.351494
-81.336365 -28.453949 -98.066475
-79.792282 -31.361355 -97.753197
-77.238770 -28.745363 -100.476082
-82.941353 -23.511660 -103.491241
-80.626022 -33.188889 -104.467125
-80.038193 -21.308104 -113.648346
-80.255722 -29.126959 -117.684570
-79.014328 -19.128979 -122.266571
-79.776680 -23.670040 -121.494141
-77.630745 -22.222784 -130.125610
-79.264801 -14.764874 -132.873520
-78.678612 55.798210 -139.797562
-78.870384 56.593647 -143.247879
-81.039909 -16.561001 -143.599792
-78.271126 -14.548274 -143.921387
-82.255478 53.174435 -146.439484
-81.468246 -16.926481 -147.659912
-81.181854 54.618374 -148.802567
-77.353981 58.476994 -151.172562
-82.731209 -14.817832 -150.644272
-79.111084 48.849609 -151.364105
-77.467056 -12.123335 -154.993744
-79.306534 46.082058 -158.027603
-78.611023 49.474022 -156.683197
-79.049576 71.770470 -156.677277
-78.195763 18.084637 -158.558487
-79.515701 -15.852515 -160.823715
-77.615242 45.451763 -157.410889
-81.620483 70.946930 -161.769684
-79.078583 -8.581359 -161.292328
-78.853600 16.904251 -161.079117
-81.564644 68.947823 -162.527710
-78.879875 46.753025 -161.797134
-77.878876 46.939400 -160.273315
-80.296387 73.139122 -163.001801
-80.552185 42.333839 -166.983658
-78.217117 38.936672 -168.293594
-80.998779 65.992088 -166.313446
-76.370682 45.284931 -170.065979
-80.964996 36.764652 -166.960327
-78.658943 36.178623 -174.068085
-84.775803 26.688444 -172.230072
-79.674126 36.871918 -172.280655
-76.380646 41.354427 -173.561005
-81.112373 42.156315 -174.650665
-81.249306 33.859764 -177.202560
-76.678429 164.581650 -179.434692
-79.043564 155.333008 -173.194519
-80.642960 35.272583 -178.135025
-79.060143 42.383209 -175.230835
-79.044731 163.186951 -179.817230
-80.643845 35.982410 -178.293594
-81.312637 47.955990 -181.873840
-79.732407 34.063869 -180.740494
-82.396179 56.248386 -186.330215
-79.242020 50.258728 -183.129776
-79.953583 33.702118 -182.167999
-83.160263 51.633442 -185.671982
-81.405876 31.935350 -185.103470
-81.721672 162.617126 -184.574722
-75.830620 49.549324 -185.626266
-81.148140 58.225079 -187.449814
-79.709038 159.504837 -185.135681
-80.956589 148.039612 -186.067581
-80.522980 156.978271 -185.441620
-81.156441 51.871620 -186.503891
-79.946014 147.663345 -191.343323
-77.097725 32.138271 -188.955185
-80.799004 62.765945 -186.963074
-83.246758 58.810932 -190.292709
-81.054077 28.741726 -189.777435
-81.308990 147.106537 -193.199722
-78.666451 29.375271 -191.824265
-78.866570 69.244583 -193.859344
-79.096664 59.727043 -191.064011
-80.366539 27.298395 -192.582718
-78.173912 54.227947 -194.110474
-79.616089 65.044083 -192.700760
-80.761040 44.559437 -194.598755
-83.233826 -2.601215 -196.000046
-80.312813 82.366898 -197.561020
-80.933182 70.769226 -199.113495
-80.360703 43.647266 -195.751114
-79.353500 48.881008 -199.701065
-76.977005 76.720749 -202.390076
-77.671173 24.989136 -203.478882
-79.320259 159.102509 -201.940811
-76.831184 22.550613 -198.453201
-80.961861 2.224257 -205.598846
-82.809738 85.070541 -203.675537
-75.326088 39.253544 -202.800552
-77.538414 43.473911 -201.770004
-81.317253 96.394203 -202.147842
-79.829315 88.780724 -205.962845
-79.077347 -3.688004 -205.055878
-80.313370 1.775705 -205.781769
-80.167458 -0.762924 -208.870163
-81.152252 21.800314 -210.096085
-83.653809 21.356846 -206.820023
-80.510620 14.419708 -210.815109
-80.216255 3.090527 -208.218674
-80.942291 15.993153 -214.671722
-79.946823 17.926420 -217.615112
-79.060852 13.298740 -215.959976
-81.709679 15.368763 -218.776550
-77.240761 -3.524010 -219.142624
-78.774673 10.812222 -219.054535
-82.386131 146.748062 -221.447418
-82.428993 166.566513 -218.800201
-81.595505 151.993088 -219.956543
-80.505470 162.427856 -226.553375
-77.617355 0.130201 -228.592773
-80.547089 154.569550 -222.874390
-80.962158 -4.728901 -228.577942
-81.004837 41.070522 -232.246872
-82.049355 49.620728 -229.369537
-83.292084 45.851383 -231.732773
-79.072662 57.199406 -233.259918
-81.507599 38.940742 -232.193329
-77.020119 51.191837 -231.175034
-81.029716 45.105297 -234.208450
-82.821304 55.083263 -234.676971
-79.771980 54.514603 -231.240417
-78.248657 1.136555 -239.731033
-83.095932 16.796556 -237.535339
-77.685829 12.782440 -241.090073
-78.075500 -4.529102 -240.969254
-80.296471 21.534515 -244.539642
-75.976280 -5.920680 -248.211365
-83.452965 161.684418 -246.269806
-79.645569 -6.502200 -245.491394
-79.001389 167.135605 -251.885956
-79.436081 -8.677852 -261.221039
-81.570549 162.600693 -259.896515
-81.026192 16.623173 -265.046783
-78.921906 162.053375 -265.597504
-77.299728 157.629349 -269.360107
-79.204224 164.943008 -266.627899
-80.871880 13.121402 -271.350006
-79.520653 5.334754 -269.202789
-82.438164 158.318069 -270.426971
-79.846245 157.375381 -272.342194
-79.272636 169.888489 -273.529449
-77.474480 155.896637 -276.146576
-83.288986 155.333130 -275.855316
-81.082771 170.589554 -281.505890
-81.211868 159.843124 -279.875549
-81.680634 147.751205 -281.551941
-83.623032 158.060883 -282.937592
-80.638084 167.798904 -281.361267
-83.287453 157.375198 -281.475372
-80.544495 166.723923 -280.047241
-79.715912 162.526733 -284.742096
-77.775650 163.357758 -286.825806
-80.875511 160.420090 -292.912659
-78.455399 163.197144 -288.251678
-76.746933 71.478348 -55.817474
-80.224594 64.288651 -55.929630
-79.978790 83.189995 -55.576885
-81.845078 64.303276 -52.841846
-77.453415 77.304558 -56.029037
-78.766792 59.781487 -55.708305
-77.117828 89.411270 -58.476246
-77.799767 39.559849 -63.484249
-76.996132 43.666260 -67.425079
-80.989838 40.522999 -63.163300
-77.967499 93.857491 -65.917534
-79.587029 42.922516 -67.839851
-80.956139 96.293243 -71.437027
-79.483017 101.004776 -83.448235
-81.148170 87.677719 -89.582222
-80.401489 88.844360 -91.307487
-78.334610 -36.645302 -94.522049
-80.691277 -36.868763 -93.791344
-76.988434 92.791153 -94.672981
-79.336090 -31.278744 -94.633896
-78.952904 94.242081 -96.956810
-80.668663 100.827927 -99.064590
-74.378456 -33.428452 -100.467377
-80.355385 100.500877 -101.250267
-76.212273 -25.042770 -101.103043
-82.936050 -32.183914 -106.793251
-74.901474 -30.521290 -106.625259
-79.290222 -28.145998 -111.303993
-76.617615 -22.429813 -113.773941
-81.912178 -24.777376 -112.395493
-77.683006 -25.209814 -110.417183
-78.886650 -21.080303 -119.339180
-78.651512 -23.391655 -117.673294
-79.151703 -22.461700 -120.083252
-80.798775 -16.816971 -125.550644
-80.208763 -25.372116 -126.344727
-79.107239 -20.868235 -127.037651
-77.041679 -20.206758 -130.466415
-77.055077 -17.970163 -131.048645
-77.402405 60.926884 -140.433899
-81.349823 -12.845670 -140.223251
-76.790863 -17.857861 -140.463165
-77.998276 61.773746 -138.620621
-78.281517 -14.415781 -141.068039
-81.199997 51.681973 -145.325027
-77.818825 59.061970 -140.254089
-79.788612 -8.666304 -142.918549
-78.293945 51.797302 -144.682434
-78.625656 -10.328768 -149.704819
-78.352112 77.989868 -149.389862
-80.324577 56.727394 -150.438797
-77.762421 -15.678146 -153.426300
-80.108658 77.956490 -154.119980
-78.799507 73.794243 -148.722656
-80.800484 45.845463 -156.742508
-78.848267 13.585962 -155.985855
-77.991638 72.565582 -156.988693
-77.360100 12.051493 -157.237427
-79.689606 40.201733 -161.509583
-77.785812 52.816334 -158.771255
-79.729027 75.425514 -158.253799
-76.714081 -16.371866 -160.052963
-77.989655 22.716906 -161.237244
-79.996071 -9.459723 -159.045212
-76.978203 24.270212 -163.515579
-78.890160 19.661554 -164.580811
-79.134911 49.058075 -166.483551
-81.875526 39.469475 -167.191086
-77.983704 -13.347065 -163.959976
-80.158897 19.897381 -162.660843
-81.085220 35.486000 -166.361557
-79.170555 -9.245924 -166.341690
-81.209610 -13.260648 -168.568985
-77.584175 46.397118 -166.301117
-80.573708 69.703621 -169.596329
-82.113472 -8.353284 -169.091980
-79.811966 63.204613 -172.798355
-78.555199 63.758450 -171.287842
-78.915512 65.817184 -173.332306
-81.952606 34.014626 -173.785187
-78.086182 67.114914 -174.014938
-79.122055 158.624405 -177.803497
-79.063606 58.306763 -177.953873
-79.468552 -7.565704 -177.482178
-78.019966 42.870869 -179.049744
-79.909111 44.610397 -181.818939
-80.214767 36.397533 -180.968307
-83.648018 -6.285365 -180.420258
-79.944603 40.137554 -176.817352
-76.807762 56.363007 -180.338669
-75.897667 58.786522 -183.154404
-80.505562 31.625841 -182.781982
-80.339508 155.556961 -185.791168
-76.925537 -4.440938 -186.454941
-77.298080 27.935558 -183.432495
-79.879272 57.063950 -186.896301
-78.473869 34.962078 -188.191055
-81.287605 -5.390121 -191.270111
-78.852547 0.248731 -189.614914
-79.770279 48.354034 -189.751770
-82.317734 63.552597 -189.003662
-80.208389 -0.162723 -192.594452
-76.448837 151.339035 -192.970093
-80.697937 166.279694 -191.678635
-76.116196 30.150230 -191.690704
-78.322227 62.954155 -191.874619
-78.545685 159.949173 -194.130081
-79.286972 154.128433 -195.574707
-79.332649 -2.911953 -193.651901
-78.088844 77.997780 -197.764053
-78.074097 68.403519 -197.158661
-79.339211 83.703911 -194.782211
-78.877190 71.541641 -193.520645
-80.081345 0.851489 -198.365204
-75.857574 72.746323 -198.230881
-81.192352 91.001976 -198.421722
-79.414879 22.507338 -198.137085
-77.669746 76.300819 -200.462372
-77.912506 29.574026 -197.168610
-77.882477 96.687469 -201.469391
-78.677345 20.592615 -202.994278
-79.452698 84.725143 -205.100281
-77.754349 97.065758 -203.690887
-80.781464 37.338871 -205.066132
-80.299965 4.614304 -203.512665
-79.499413 45.587921 -207.157471
-78.168167 93.545502 -206.942429
-78.518753 18.200283 -203.356674
-76.137894 -4.218999 -208.239044
-79.200836 34.142696 -205.990906
-78.229424 36.015415 -208.549774
-80.971367 1.125914 -209.128387
-79.388008 23.126595 -210.540924
-79.597885 -1.990115 -209.601883
-79.115326 10.885706 -211.103989
-78.967812 0.856897 -211.034103
-79.375343 17.693434 -214.319412
-79.057808 1.525872 -220.481613
-80.441605 -0.081262 -212.701859
-77.397766 155.206894 -216.244492
-79.131134 10.436212 -214.701569
-76.781158 157.809570 -219.422134
-77.057343 161.128708 -215.794830
-79.845573 -0.089577 -214.941223
-81.125687 161.784912 -216.730255
-82.698051 156.094574 -218.889908
-77.258270 -4.787551 -218.835114
-79.817223 162.596390 -221.164551
-80.967834 12.699461 -221.874313
-76.935211 16.925020 -221.209564
-80.946663 16.578762 -225.161606
-82.493668 7.577762 -229.060730
-79.133461 3.915058 -225.562744
-79.432343 -0.797420 -226.631668
-80.188255 2.508878 -228.756805
-81.725227 41.501297 -227.213608
-82.508842 43.806839 -230.288147
-77.836479 36.237507 -229.141846
-79.114464 52.633324 -227.012558
-80.801781 -7.445704 -233.295593
-81.051468 40.089005 -234.385086
-78.785812 2.185319 -228.524643
-78.025642 -9.172949 -231.212067
-79.075050 63.247684 -234.102280
-77.027069 47.399288 -237.881378
-78.820740 64.410507 -235.623428
-78.034454 57.394138 -232.361160
-78.203812 64.938431 -236.321350
-81.410759 59.093498 -235.938065
-80.090736 56.666756 -236.918793
-79.811180 1.804526 -238.218979
-80.010193 159.183990 -238.881088
-79.615936 159.493210 -236.741302
-82.056847 4.506956 -238.080002
-80.044762 9.452804 -236.795593
-77.246719 -10.744797 -235.203217
-79.346458 -11.744458 -237.389679
-78.933746 157.609039 -239.260956
-82.697136 157.070831 -242.580246
-78.385887 163.569794 -242.624741
-82.362816 156.443222 -245.347336
-76.924477 21.628098 -248.276306
-79.468796 168.349564 -246.704681
-80.571098 162.551834 -248.215469
-79.206841 145.950729 -248.175156
-80.592186 148.842468 -251.020248
-78.424438 148.212982 -253.463364
-78.742645 24.062227 -248.642975
-77.928841 153.632248 -250.260971
-75.552635 -6.080520 -251.422104
-76.680801 -5.255357 -251.101563
-79.624283 165.165421 -254.193268
-80.418915 158.290298 -254.430008
-79.253433 165.481247 -255.414536
-79.093475 -6.681240 -256.861359
-77.505936 164.465195 -261.130005
-80.231735 158.433578 -259.270782
-79.830811 161.582199 -262.037567
-78.525681 -5.616461 -262.481201
-82.420273 -2.964105 -265.144653
-79.458725 21.125685 -264.812531
-80.214020 155.427734 -266.494476
-79.894958 15.099689 -271.554810
-79.788528 -2.489149 -270.956329
-79.187286 10.169469 -272.633270
-80.135773 162.813782 -270.578705
-80.669678 6.195278 -273.087097
-79.135033 152.208023 -278.305878
-79.338203 148.927811 -277.332214
-76.603020 148.817947 -278.552307
-79.486664 153.325043 -277.629700
-80.018822 151.607376 -281.325592
-80.484032 158.842957 -283.532379
-78.674133 161.571640 -288.164795
-75.565414 159.757248 -286.326294
-77.869095 159.014908 -288.325531
-78.002213 162.702957 -291.858490
-75.431107 160.956161 -290.269989
-77.326180 70.977348 -49.402020
-76.004204 61.279270 -52.799202
-78.658791 77.147980 -51.861069
-75.189217 85.049141 -52.741737
-77.107986 76.577187 -50.128414
-74.270409 67.327187 -50.905575
-78.079079 54.659534 -53.626469
-79.663979 58.605381 -53.625046
-75.146057 51.754913 -54.970741
-79.893387 84.445778 -56.243732
-79.065269 85.863029 -54.520069
-76.104073 47.919205 -56.602741
-77.655807 95.879601 -56.499569
-76.989311 40.140961 -60.246483
-76.866577 36.781643 -61.851788
-78.130569 37.019508 -63.834297
-77.868774 97.527069 -66.911026
-81.523468 49.821228 -72.309158
-79.361465 -71.441650 -74.861855
-79.492210 54.743015 -74.968819
-77.907982 56.086376 -71.998108
-78.731483 -71.037712 -75.133850
-77.938232 60.438980 -78.943687
-78.045021 76.224083 -82.947937
-77.873077 -38.290138 -91.973976
-78.868240 85.876442 -91.668510
-76.591537 100.309227 -92.647293
-79.802155 -33.171432 -93.334770
-81.681549 -37.353806 -94.773819
-76.881104 -30.074577 -96.472298
-75.948654 -29.346766 -101.408279
-78.569229 -29.005013 -101.844566
-75.871155 -28.815901 -105.423912
-77.671799 -28.706173 -106.372307
-77.666130 -25.312731 -109.542068
-82.238831 -32.178307 -108.820671
-81.113609 -23.273869 -115.679672
-79.316620 -28.585842 -114.624588
-78.450394 -25.428659 -119.449814
-78.898788 -19.436920 -120.395859
-77.152260 -17.953485 -131.495132
-81.722374 59.644726 -133.274811
-77.382530 -22.151829 -134.394653
-81.792625 -16.156979 -134.380798
-79.585320 -18.938477 -134.180542
-77.847626 -15.747638 -141.331543
-79.734001 -20.283360 -140.215469
-77.477676 60.553967 -144.084717
-80.135834 -13.499403 -145.344360
-78.010445 52.910297 -141.542328
-75.468346 78.771988 -148.512878
-77.161873 76.967354 -145.374115
-80.415627 54.109711 -148.252518
-76.453552 77.987259 -149.124802
-76.997353 57.003201 -152.356812
-78.196228 -14.883677 -149.173508
-78.785965 76.675728 -149.532928
-78.295448 -13.826700 -149.610748
-78.439087 -16.671278 -150.826599
-78.774399 78.535614 -152.432312
-75.336113 53.465496 -154.962982
-75.922379 8.320274 -155.429779
-79.255508 9.907953 -158.530334
-77.954666 -11.052371 -156.651779
-75.066299 47.081074 -156.415756
-78.388649 20.256899 -158.092209
-80.646561 -11.264801 -158.063293
-78.468307 48.472599 -160.455826
-81.165489 -8.174455 -157.148422
-77.828995 45.188911 -163.929489
-78.813805 45.366413 -162.567276
-81.741211 47.040840 -161.158676
-80.774590 73.392265 -162.900360
-74.973740 73.483055 -161.336594
-77.133293 -6.728442 -164.049973
-79.799309 -10.144622 -161.629807
-77.863098 72.666176 -165.010651
-77.165192 45.423668 -166.946762
-80.313354 29.153246 -164.425125
-75.016106 40.623619 -167.221375
-78.275589 66.101563 -165.404404
-78.662003 23.564064 -164.872467
-77.311928 73.761757 -169.453247
-79.550278 42.925777 -169.245117
-75.676590 41.089668 -169.360077
-78.378235 -16.377415 -168.262054
-75.774796 31.663826 -168.738541
-79.868988 67.779259 -169.784286
-79.923546 -4.151449 -169.611588
-79.193954 63.513454 -173.256119
-77.429466 59.067429 -174.349747
-79.968430 32.568897 -171.331818
-76.781212 68.579529 -177.189575
-80.340157 41.808235 -173.222992
-77.201050 36.741619 -175.819351
-76.506866 33.725643 -175.575089
-77.668411 -4.605846 -173.427536
-79.167931 64.958626 -177.757202
-77.701843 40.440445 -175.700104
-79.805275 -11.871447 -180.817444
-76.932449 57.098217 -178.044571
-76.738220 38.682495 -180.371399
-77.709969 67.642654 -179.141174
-78.411140 -1.774394 -177.984283
-76.035980 55.355797 -182.019135
-79.935318 34.217049 -177.851608
-80.965485 35.315605 -178.472107
-82.529953 -9.429088 -181.245148
-79.101784 52.870407 -179.314438
-79.912750 161.939026 -184.162323
-81.161896 61.924606 -181.930969
-77.995544 34.212074 -184.025543
-77.726212 57.860863 -184.890808
-83.170685 36.612190 -182.087265
-76.621803 36.032444 -185.714218
-79.585045 50.203419 -187.533478
-76.122009 48.128899 -189.116928
-80.631210 33.432377 -189.084290
-76.789864 33.178120 -189.500290
-78.968704 160.318588 -187.596375
-79.782288 54.188652 -188.968857
-78.026558 1.642003 -191.944534
-75.353409 51.062267 -196.182373
-79.983719 -5.871163 -195.910431
-78.064400 26.049974 -196.488663
-79.819199 45.512524 -192.412033
-77.320168 26.282164 -195.955734
-75.490143 75.848259 -195.462997
-77.504677 49.209007 -196.476547
-78.702171 26.647522 -199.519501
-80.551941 78.532379 -198.183365
-75.801666 79.615387 -196.298676
-76.919113 48.018555 -197.695404
-80.393501 -1.428697 -195.489212
-77.846794 -4.665260 -199.334946
-78.698349 78.349869 -200.191315
-77.658997 24.307465 -201.257217
-74.698463 75.589371 -200.238663
-77.394173 25.424023 -204.176941
-81.234016 155.289017 -202.205643
-78.206070 43.513882 -202.555710
-76.550865 26.503807 -203.632675
-76.013382 1.590416 -201.222946
-80.277718 95.211021 -201.716049
-78.299637 -3.058140 -204.029709
-79.257927 87.208740 -203.628616
-76.031235 99.522781 -205.144073
-79.735374 23.543112 -205.087982
-78.184097 22.307436 -206.007507
-77.857193 156.332352 -206.220383
-78.327927 2.262094 -209.553833
-78.520187 31.719870 -210.229126
-77.085709 34.434624 -209.549072
-77.096024 6.851632 -208.040680
-79.395370 37.688900 -210.096542
-80.958832 19.138275 -209.548828
-77.273933 32.940231 -213.256210
-77.222908 157.040878 -210.418472
-78.210907 163.631882 -212.967087
-77.534706 31.806463 -213.342789
-79.595184 19.401018 -212.346344
-77.941689 11.343799 -217.180359
-78.529999 162.222427 -214.868118
-80.751274 155.447510 -215.330978
-79.977325 -5.271656 -214.294830
-80.630150 150.847519 -215.865921
-76.275253 149.620895 -219.478058
-80.266884 15.607735 -215.415909
-78.823593 2.986204 -217.910828
-77.657875 -2.629108 -218.983368
-80.510361 146.746185 -220.708328
-77.849403 157.373474 -219.021790
-78.312553 7.305425 -220.160278
-80.883537 146.318924 -218.980042
-77.346634 168.113235 -221.897247
-79.668747 151.415466 -219.564270
-76.773926 12.712311 -219.507980
-76.842354 155.383270 -221.892639
-80.465271 6.055856 -223.227661
-78.666862 169.003738 -220.845749
-79.099129 154.498215 -224.065292
-80.667313 -5.428675 -225.962891
-82.857048 -10.542670 -225.379593
-79.587708 10.711337 -226.308105
-82.315041 154.541046 -229.106735
-75.738213 37.537434 -225.105789
-77.298317 9.686710 -230.106857
-77.489868 37.518391 -227.995224
-78.585136 32.189789 -229.526382
-80.212349 162.796631 -229.122742
-75.197411 157.738968 -230.830826
-78.646950 2.783100 -228.736099
-77.119751 161.930237 -230.881836
-79.425117 36.452057 -231.745667
-76.182045 61.607174 -232.083588
-76.078903 35.262024 -229.438858
-80.079407 49.087051 -234.269379
-75.931419 70.904282 -235.989807
-79.839981 0.993455 -236.510559
-79.499207 73.668083 -234.842590
-78.863174 6.962128 -235.024963
-76.812515 4.509019 -237.470703
-78.744293 -1.152822 -238.877640
-74.658409 69.494057 -236.967453
-74.098778 161.039658 -237.101166
-77.251770 63.381187 -238.314468
-77.045280 75.670189 -237.175766
-80.268654 69.403915 -238.503967
-79.434845 -3.693456 -238.343643
-74.863022 17.909719 -239.099640
-80.749573 16.661863 -241.681137
-79.376183 162.103790 -241.505417
-77.599976 153.065277 -244.452835
-77.447601 150.156479 -249.696152
-73.517082 147.203003 -247.924118
-74.162086 23.202866 -250.516815
-79.513580 148.490341 -251.821609
-77.148605 151.809372 -251.459961
-79.388405 25.704109 -254.668945
-79.846268 22.457083 -260.148712
-80.548378 160.321960 -260.499481
-79.278679 162.534546 -263.888397
-80.732155 163.050842 -265.231659
-76.629829 163.018906 -266.907837
-79.409218 161.264832 -266.830017
-78.594910 163.774612 -265.197632
-75.163834 14.620988 -268.097961
-75.186592 -3.480909 -269.703003
-76.903221 3.791087 -270.283020
-77.200584 159.354187 -269.813995
-77.619049 163.695496 -268.082397
-78.416878 8.390823 -273.673676
-80.716255 152.687256 -278.745422
-79.971603 149.406281 -278.065002
-78.994972 28.831018 -278.265533
-74.319565 48.854420 -279.009521
-76.751625 33.311131 -276.466278
-77.716965 42.381401 -280.848083
-78.430359 40.529949 -280.889008
-75.150833 27.317024 -280.315521
-78.908096 22.001463 -276.840637
-82.661247 155.006210 -279.535339
-80.181511 -0.906674 -278.855865
-78.200249 -7.072960 -278.057861
-78.775589 155.900330 -281.912903
-79.590599 -5.022577 -280.828674
-78.838898 160.009323 -289.315216
-78.972115 165.749741 -290.664368
-78.015030 164.614212 -295.154053
-78.058357 159.484543 -296.311493
-77.117729 163.398041 -298.887573
-79.679718 157.281998 -300.173431
-78.108002 159.757706 -300.235565
-77.843399 69.657722 -49.826485
-77.112625 63.459675 -44.935432
-79.807487 57.881989 -48.748478
-77.918831 81.600288 -50.679649
-76.537186 56.907288 -52.953503
-76.539749 58.240089 -49.988007
-78.363396 49.488518 -52.664452
-76.755234 48.893055 -52.857853
-74.177132 89.036713 -55.854290
-77.241219 39.741085 -57.932110
-78.646614 38.695061 -60.562862
-77.119293 39.862057 -68.703857
-76.788109 42.300854 -70.747093
-78.197388 -67.375023 -70.655838
-79.160034 -73.337891 -70.560936
-80.520882 -75.135193 -70.513786
-77.840698 -76.889137 -74.377495
-78.894897 -68.760101 -72.652679
-77.864983 -70.412224 -78.520226
-78.316162 -71.278473 -75.759613
-77.163353 -66.365829 -81.408051
-82.976936 -75.817833 -78.192513
-76.509140 63.872467 -79.308563
-75.859207 -72.238663 -81.881638
-77.868317 -66.969894 -79.475563
-76.187386 -79.125603 -81.434288
-76.193092 66.834908 -81.582916
-78.947281 -69.893219 -82.890831
-78.319382 68.575813 -84.702446
-76.982468 -71.825653 -82.293465
-76.097183 73.415749 -82.855042
-77.551605 -39.634266 -91.142807
-79.238655 -30.610235 -96.717148
-77.962486 104.024765 -98.025009
-76.726433 -29.302395 -99.598495
-77.344757 96.874565 -99.587471
-75.844620 -39.012268 -102.115021
-75.665771 101.503296 -103.957047
-74.744690 -35.960411 -106.705116
-74.855064 -19.933651 -110.843536
-79.952385 -27.163246 -113.428413
-79.797203 -29.951027 -116.431572
-77.957474 -15.413993 -119.341431
-76.106155 -19.160721 -119.123840
-77.929626 -22.426764 -123.152191
-76.320915 -26.958784 -124.678940
-76.915909 63.667664 -132.595581
-78.312950 -12.066043 -130.567780
-80.310509 63.152153 -134.205872
-73.010231 58.612152 -134.716675
-79.098381 67.665001 -134.659073
-78.826607 -21.621241 -134.679337
-76.794083 59.338661 -138.149292
-79.008698 55.814846 -136.144928
-75.856850 58.568432 -138.250717
-76.573151 -102.989243 -136.537369
-79.425957 62.117912 -139.417130
-77.512917 58.098663 -137.570740
-77.735596 54.123592 -140.593994
-77.749153 -12.938706 -137.275024
-73.966385 55.809143 -141.792343
-77.160889 81.743256 -146.093018
-76.151360 78.929253 -147.492630
-79.203255 -102.326111 -146.315445
-75.102798 -101.499817 -144.868790
-76.604538 52.489117 -146.341187
-76.741791 -10.573069 -149.618484
-78.282364 -98.750832 -153.104843
-77.483742 43.987156 -154.644165
-74.630623 11.421972 -153.584991
-78.043427 -19.909922 -153.933105
-77.341179 -98.165291 -153.371933
-76.753403 71.327614 -151.846024
-77.133072 59.689533 -155.608505
-77.909447 73.582047 -156.063171
-78.000015 -99.540741 -158.115784
-78.015884 12.459724 -159.274368
-76.381775 -11.426104 -159.800858
-75.986542 70.285568 -162.103226
-76.278130 20.836218 -161.703140
-74.028595 75.141258 -160.341629
-79.380867 -96.878471 -161.111908
-78.502953 75.406868 -164.408081
-79.255424 66.612610 -163.773132
-75.810074 21.585260 -165.308258
-76.847946 16.808365 -159.583893
-77.077934 66.677429 -166.523224
-78.112778 -94.883537 -166.682007
-77.988480 -95.913269 -164.670532
-79.807022 43.627735 -164.377731
-79.342705 -16.858822 -164.011063
-78.078079 -94.340416 -163.604706
-78.114426 46.274380 -165.564728
-78.614464 26.823263 -166.445923
-81.164925 20.569448 -163.957184
-76.953735 39.207359 -163.160645
-76.274879 -13.919852 -161.109009
-79.016251 63.302292 -169.716904
-76.873947 -9.279828 -166.966217
-75.046257 65.999184 -168.495758
-75.677788 25.449087 -166.361893
-75.275017 -96.739662 -164.054840
-77.773178 28.641073 -169.001999
-79.254822 -94.266243 -169.360107
-75.127403 34.437984 -171.995544
-76.671700 -7.678975 -169.377045
-76.436958 -93.403824 -171.029297
-74.067230 67.617897 -174.251541
-77.833946 -96.886009 -171.172836
-77.505356 64.914673 -171.538025
-73.690742 -9.807090 -173.496201
-77.304161 69.121620 -173.424515
-75.816353 47.838306 -172.214386
-78.003151 37.826149 -170.964310
-77.661560 35.819824 -176.750122
-77.208588 -5.299420 -172.284164
-77.216156 32.639275 -178.378845
-79.575081 160.365540 -174.595703
-77.244102 64.302444 -175.977600
-75.896782 60.154148 -177.923569
-78.389214 -94.954742 -176.799164
-76.758904 69.204018 -179.995895
-78.143196 62.729393 -176.974365
-78.063896 -95.038406 -175.882599
-77.428833 42.761421 -175.167725
-78.289253 -6.586060 -177.673889
-76.667374 155.333405 -177.560287
-76.962570 -87.038338 -176.621185
-79.649223 55.084896 -181.266678
-78.669098 -9.760717 -178.798309
-79.477821 55.996796 -185.148209
-76.936836 58.654209 -186.658890
-78.850105 153.985184 -183.206543
-76.354172 -86.446022 -185.366730
-76.638206 58.642582 -185.353149
-80.566864 -3.523979 -180.837784
-76.774559 152.470001 -187.666870
-79.776161 160.357697 -185.146469
-78.206779 56.459946 -182.382019
-77.958847 -90.511490 -185.139420
-77.113831 154.993011 -188.554291
-75.617790 52.786537 -186.783569
-77.458534 151.469696 -190.045502
-79.069847 59.454609 -187.037476
-78.973335 31.245989 -186.589233
-78.298706 26.490614 -187.853317
-79.897560 -5.672782 -185.360291
-78.411858 146.235855 -187.985809
-77.156883 53.281036 -188.262863
-75.488342 47.887951 -185.787476
-77.397545 -2.695976 -189.486130
-77.825462 36.224430 -188.366440
-75.146385 -91.293846 -188.650787
-75.469322 -1.070039 -188.663284
-76.532982 -85.040985 -192.947906
-77.440430 32.143494 -191.492111
-75.520432 159.654343 -190.853836
-77.461876 -87.264435 -190.043823
-75.287895 160.556229 -188.819992
-76.541542 56.697426 -191.032135
-74.882790 -1.032457 -189.878906
-75.983269 147.755920 -192.505814
-76.066658 -1.591206 -192.376083
-78.387207 25.612745 -194.669159
-79.991646 163.189468 -194.919678
-77.972313 49.020920 -193.980042
-78.323914 48.415009 -194.549545
-77.718613 156.000214 -194.049469
-79.514732 154.925995 -196.360565
-77.178749 4.888369 -196.312592
-78.337326 163.029404 -195.353394
-76.825462 -84.270317 -193.525024
-76.534569 155.978683 -193.329071
-76.115829 -0.274430 -195.395050
-77.203880 -81.116440 -195.939407
-76.648079 -84.261803 -196.017242
-79.347176 82.227951 -199.913361
-74.678619 155.097290 -199.536057
-77.501877 86.584839 -199.911758
-78.798630 41.086056 -203.110794
-75.368782 29.022362 -197.978043
-75.959351 22.220146 -197.560410
-78.463112 48.398148 -199.817276
-76.224327 162.593674 -198.502808
-79.287422 94.626770 -201.662613
-75.651001 79.204628 -197.441788
-80.607384 37.603889 -197.899368
-77.988464 -80.667740 -201.472626
-77.572601 17.321232 -199.287796
-78.132187 -84.531654 -201.210251
-75.955093 163.444412 -200.519836
-75.962196 81.614204 -203.578140
-76.410309 47.794682 -203.831009
-78.935677 42.557652 -203.972244
-78.360275 4.442252 -202.231018
-79.831154 40.974953 -203.341949
-76.029160 36.249859 -201.332993
-79.919952 -76.303764 -201.935181
-76.159744 100.158096 -206.674576
-77.096649 22.756054 -204.153244
-76.829323 -75.915375 -204.333328
-79.456604 102.692825 -205.533493
-75.461479 96.025146 -208.255249
-77.513153 -5.158495 -202.575607
-77.292175 -7.074204 -207.138626
-74.942055 35.917618 -205.456253
-77.359261 -78.660072 -206.143097
-76.922585 163.510757 -206.906219
-77.160606 101.206635 -206.347107
-76.243034 93.225731 -209.361832
-78.963264 159.349548 -206.750763
-81.545753 15.336236 -204.647064
-78.305260 16.668114 -211.133041
-75.144142 162.467728 -208.456253
-76.572060 28.280005 -209.337051
-75.800293 22.492195 -211.597229
-78.633575 -3.316938 -211.811035
-74.956802 -8.808401 -212.334778
-79.029358 28.743578 -212.919540
-79.153648 20.941416 -213.545532
-77.456566 9.270825 -219.297470
-76.580696 165.910492 -213.423798
-77.552116 146.758896 -215.451736
-77.074272 25.651720 -215.515381
-77.393631 147.325836 -217.142807
-72.274124 11.120149 -216.530762
-74.615158 2.147565 -220.950760
-75.538216 11.133029 -219.498581
-77.555611 15.362041 -217.310974
-71.992828 153.567978 -221.824814
-77.827682 147.216888 -222.019394
-77.996040 3.982889 -224.327271
-77.732254 10.950333 -223.930511
-79.049149 7.149650 -222.181824
-78.272636 156.508682 -229.060059
-77.488861 163.516312 -224.849854
-77.383972 12.100277 -223.998337
-78.400208 3.060108 -227.256592
-77.164284 2.797773 -228.219971
-77.927063 32.947571 -227.616745
-78.100975 44.213329 -228.449661
-76.231056 7.907691 -225.787598
-80.253159 1.194415 -224.672150
-75.971298 51.670341 -228.810120
-78.749542 29.513603 -230.548950
-79.320930 57.052071 -231.909668
-75.854324 9.115586 -232.562057
-77.136986 160.634781 -234.987305
-75.885254 160.867874 -232.651810
-77.385880 29.252367 -235.349594
-77.676254 9.406581 -233.146088
-74.696465 40.605640 -235.038467
-75.738258 1.601485 -235.874634
-76.069153 69.981560 -234.089661
-76.685081 50.153896 -234.823151
-78.175125 4.315378 -236.452682
-77.052246 161.122238 -233.214249
-75.752083 159.701660 -234.061676
-79.335541 2.492208 -235.092941
-77.670860 159.216400 -238.179520
-79.062271 58.378494 -236.035110
-77.467094 76.360268 -236.163269
-78.529350 -12.389456 -237.718933
-77.149559 -2.090859 -239.851730
-77.456795 -11.256555 -236.924362
-79.934608 -6.708889 -234.840500
-79.021698 80.025383 -238.639801
-74.811729 69.794716 -240.524948
-79.352058 77.950768 -237.437088
-75.882706 -4.365257 -241.050049
-75.231522 156.872635 -241.675491
-76.618591 164.388016 -244.144089
-76.901726 152.922684 -245.944305
-79.089691 168.603592 -245.518600
-76.147781 26.045076 -246.656235
-71.881424 150.544647 -247.190643
-77.711906 24.912300 -251.905548
-77.482841 -8.874322 -247.955231
-77.908577 151.658676 -249.765213
-82.918114 23.708754 -252.277405
-79.663162 161.260162 -254.191040
-75.232269 158.087479 -253.942123
-78.096626 159.842209 -260.066071
-80.290642 -8.869007 -260.105469
-78.776794 162.426071 -259.273499
-74.488075 -5.810997 -259.844910
-75.523743 158.363876 -260.710815
-79.576256 21.263210 -266.543854
-76.657852 17.265215 -266.630157
-74.429123 -1.815125 -270.841492
-78.460327 13.689338 -271.915192
-76.604202 0.546943 -274.611389
-77.128426 12.216581 -273.765289
-76.451622 43.200230 -281.705750
-77.632233 41.841339 -280.037598
-76.126427 64.154404 -278.763214
-76.295326 51.603733 -278.251099
-74.426559 139.772247 -277.531464
-76.981361 26.577517 -277.576874
-80.485008 24.241037 -276.893738
-77.897240 145.543930 -276.739838
-80.175972 44.083008 -278.499146
-75.180229 40.471550 -278.623505
-76.530319 133.725967 -275.826843
-77.432724 69.799019 -277.723053
-78.195831 15.012961 -277.975952
-75.623848 138.043274 -281.301849
-76.062645 5.778620 -279.647095
-79.141174 0.799339 -278.380890
-77.908508 63.525253 -280.746704
-78.985832 -2.734126 -275.517120
-77.612427 137.596954 -277.314148
-80.142754 134.553452 -278.825653
-78.679878 43.519375 -280.147644
-77.129807 8.638212 -278.418549
-76.488464 1.763821 -280.083557
-75.731895 146.116028 -280.436859
-77.235390 55.814945 -279.525391
-74.326935 50.379589 -281.833405
-76.116272 43.664394 -282.496124
-77.660957 15.224059 -280.061462
-76.403305 39.480553 -281.335785
-77.029427 25.650698 -279.000641
-76.166664 19.832657 -281.683380
-78.126350 14.553587 -283.876495
-78.258423 6.202313 -281.594482
-76.577065 -0.092634 -283.952057
-76.897911 166.964981 -292.497681
-75.670128 157.407928 -288.501099
-77.800453 158.969101 -298.751678
-73.384544 168.490250 -297.490753
-76.978752 160.583466 -298.894043
-76.890900 167.196289 -302.753296
-76.596428 162.602615 -301.243530
-74.756310 77.104462 -48.518272
-76.957077 67.981812 -48.378304
-76.241127 76.469193 -47.005569
-75.718048 55.006508 -47.122509
-80.308105 54.869915 -48.741978
-76.639313 79.702995 -47.924030
-78.090904 85.390633 -48.290298
-78.075691 48.790863 -49.815880
-79.188011 49.213516 -49.554688
-74.612793 91.414894 -51.987564
-77.756477 47.288055 -52.204235
-76.707741 43.260578 -55.814613
-76.719109 95.494972 -55.381966
-75.046440 39.317684 -55.058453
-76.131775 98.392014 -56.515053
-76.448448 36.125610 -64.786072
-77.621162 34.470009 -58.479408
-76.367729 -75.423378 -68.730675
-78.200012 41.608334 -69.224136
-76.548347 -71.832710 -71.293083
-75.478416 48.552315 -69.082314
-72.989441 -77.603676 -67.711357
-75.932899 -70.538582 -70.932365
-73.831863 101.886536 -74.131805
-76.502449 50.821369 -73.461090
-73.687614 -61.496849 -73.258545
-77.322945 -77.427361 -72.091766
-74.234192 -62.353256 -72.490547
-79.336456 102.506264 -71.480087
-77.092758 57.197769 -76.215393
-78.924141 -63.547031 -77.291260
-73.592453 -82.678513 -79.249054
-74.536537 -61.278141 -78.986198
-76.454720 -79.092445 -80.689659
-78.478645 -65.867241 -81.360390
-75.749817 -65.442169 -85.143257
-76.282913 -81.611626 -79.142929
-74.071938 -78.213654 -85.664696
-77.951195 -66.483147 -84.290382
-75.383095 -36.962612 -81.406151
-78.252113 -70.195206 -88.023781
-76.611084 74.582726 -86.331787
-77.348854 -71.427605 -87.798058
-76.183685 -38.875809 -86.075104
-74.966095 -41.108482 -86.871780
-73.354874 -31.860931 -90.379517
-77.444176 82.253822 -90.848557
-75.520691 -36.982811 -90.659180
-76.294846 -33.726105 -91.066132
-76.345169 93.196732 -92.792480
-75.363464 -37.473808 -93.799774
-75.056755 -35.273861 -92.071960
-74.971947 -31.679951 -94.937279
-76.816826 -34.165077 -96.572166
-74.835243 -27.180330 -102.433693
-75.148323 -33.441792 -104.077431
-77.128937 102.489243 -103.126579
-75.303009 -23.807911 -106.247993
-76.119705 -24.219629 -112.439171
-74.308739 -30.843952 -109.529274
-75.519203 -100.437126 -118.589371
-77.453270 -102.179710 -121.494080
-78.089905 -15.274560 -124.450752
-77.661491 -26.014891 -125.516708
-76.904114 -12.704007 -126.226501
-75.853737 -100.275337 -125.177246
-77.317833 -105.254814 -126.574387
-75.057129 63.473202 -131.044998
-73.597664 -104.742165 -129.845490
-74.500198 58.704403 -132.822037
-74.775078 -21.776842 -134.834442
-75.027122 60.104877 -133.660950
-74.257248 -101.959213 -132.071442
-74.501579 -96.959793 -138.235291
-76.253075 -11.761652 -134.139755
-76.372536 -97.700821 -134.923447
-75.889229 64.503525 -137.027786
-74.088539 -10.202474 -134.046173
-76.633614 83.717796 -138.040497
-77.935211 -99.857513 -139.128067
-73.836342 82.101387 -143.894257
-78.020805 52.864830 -141.549316
-76.619934 -17.360250 -143.040909
-77.316826 -98.795174 -139.385361
-78.945274 -99.873276 -139.890137
-75.295959 64.201385 -143.383377
-75.333885 79.923622 -142.106644
-74.866760 49.823643 -144.330154
-77.151016 -20.378452 -148.600510
-77.152725 58.790684 -144.805969
-76.870857 -12.078050 -149.286972
-71.897392 79.328522 -147.174164
-73.807007 72.846001 -148.494186
-76.866844 6.381573 -149.083694
-75.292145 -101.897583 -152.968140
-77.767799 6.936232 -149.872192
-78.913841 48.633633 -150.055923
-76.482483 6.673408 -148.252457
-77.164246 -13.975564 -150.407959
-76.913284 76.068047 -153.837280
-73.983795 57.378761 -153.814972
-75.617615 83.369476 -154.877243
-76.231087 -15.721896 -154.707016
-77.501961 53.622711 -154.591431
-76.252548 -15.333637 -155.849045
-75.789078 -101.906578 -154.458481
-75.385971 72.995163 -156.457748
-73.918724 18.469893 -155.392059
-75.488693 74.286453 -158.690582
-78.506027 45.992012 -158.807373
-75.052734 -9.022553 -160.743057
-76.175606 51.168766 -163.292603
-78.053703 18.072969 -163.206482
-77.476547 69.856018 -160.482635
-73.935753 -15.691036 -163.891251
-77.358719 17.073225 -164.452087
-79.138023 50.837788 -164.929749
-75.753685 40.637730 -163.371735
-75.547691 37.000767 -166.996109
-75.746590 25.872757 -164.059189
-75.541809 64.071434 -163.291687
-75.641991 65.141594 -167.496384
-76.158951 75.920395 -167.270416
-74.575134 -6.637805 -166.423141
-79.164894 -3.908189 -169.517426
-77.718842 -16.021423 -165.631973
-75.077621 68.736961 -166.272446
-77.111465 67.645943 -166.054642
-75.352371 48.674084 -168.962814
-74.708649 -93.873833 -169.342102
-78.423019 46.167271 -171.329590
-77.728287 66.947388 -170.470337
-75.211411 60.060635 -172.606506
-76.190132 68.488914 -171.024216
-75.766319 -93.863457 -173.997040
-76.955261 46.082821 -175.136658
-73.910606 -4.980408 -169.791550
-77.819176 34.183720 -171.568253
-73.682915 -5.797196 -175.580307
-77.593742 157.830521 -179.577194
-74.300339 46.212898 -177.874390
-81.458023 33.595432 -178.552399
-74.169930 29.441662 -176.998108
-78.144608 63.605785 -180.302765
-74.074051 -3.301110 -180.288864
-78.125313 -7.268629 -181.662750
-78.999046 54.339481 -181.841019
-76.774582 37.093655 -181.699203
-76.065895 160.956223 -186.337067
-80.167595 -7.746091 -182.244659
-77.597527 161.445282 -183.563721
-73.739838 60.495800 -184.313110
-78.726341 38.119011 -185.764252
-75.919968 29.237556 -186.376968
-78.824753 56.186184 -185.617691
-76.655441 151.544724 -187.287476
-74.742317 47.402359 -189.723846
-74.894432 165.662903 -184.402817
-79.149254 147.234375 -188.913330
-77.006790 166.890060 -191.381271
-72.404526 58.341793 -189.470810
-79.152374 -10.407627 -189.345749
-76.859680 145.494797 -190.601456
-76.326218 150.495804 -189.996460
-74.470367 47.014420 -192.325058
-78.301117 24.236044 -190.438095
-73.519585 44.120655 -193.201004
-76.708839 49.791550 -196.818680
-76.359604 162.183807 -193.749069
-77.334602 51.174389 -194.571136
-77.710876 33.077778 -194.738724
-77.366455 -4.079558 -196.838287
-75.451073 54.748436 -193.053284
-74.528488 45.122868 -196.441376
-78.082291 21.699163 -197.248260
-76.306046 43.956944 -196.529129
-79.974884 -8.125662 -199.478607
-78.427307 45.220078 -201.431641
-76.400520 -84.677567 -198.837021
-75.173981 86.661308 -199.591843
-75.476204 87.936668 -202.728409
-75.373672 160.099243 -199.085236
-77.323112 95.388161 -202.665375
-76.063995 39.483395 -204.296478
-74.759995 161.621307 -202.537521
-77.034828 47.756477 -201.391678
-79.596596 -2.982418 -201.083191
-79.265785 -6.453262 -200.833267
-75.738663 85.481537 -200.915741
-79.958344 -76.194695 -204.881454
-76.031517 0.188610 -204.208344
-77.063622 89.286530 -205.881973
-78.351830 -80.653648 -202.055466
-75.674782 27.434753 -203.453125
-77.395020 25.276566 -201.820587
-74.533310 157.421783 -208.996750
-74.478401 36.557163 -206.310318
-77.942642 30.648706 -208.291656
-76.711128 106.444168 -204.678207
-75.594162 37.945732 -205.701538
-75.754227 21.184340 -206.026031
-74.984703 7.039687 -203.520828
-74.958069 -73.549362 -208.542419
-76.578896 99.618576 -207.322479
-76.861542 30.657389 -208.337189
-75.880974 -76.278542 -207.807373
-76.255539 109.796539 -207.268692
-75.178680 42.982086 -206.149734
-74.309082 -3.520956 -211.317993
-77.630104 -69.490242 -209.144440
-75.717033 27.287643 -212.367050
-75.993599 -75.027466 -209.504272
-74.937828 -6.891835 -211.574371
-77.693260 30.916870 -211.953278
-76.412674 -72.417519 -210.549957
-77.024506 156.009262 -214.465134
-79.784325 11.862570 -213.533829
-75.635826 -69.372406 -215.069702
-76.437225 7.580316 -215.926544
-75.086685 30.481993 -215.427353
-75.887383 18.174332 -213.857468
-74.319283 153.795029 -218.412338
-76.478722 -69.165451 -214.395905
-78.408432 24.136036 -221.613678
-72.253227 10.779156 -219.744781
-78.008369 150.231979 -215.271713
-76.282120 21.781818 -218.350571
-76.392944 -0.617298 -216.292526
-75.615982 166.188599 -218.825760
-75.599304 23.524902 -219.930283
-79.279510 -7.082923 -216.971420
-75.269127 147.519821 -220.706055
-77.311729 5.355800 -223.275421
-74.420898 6.538507 -223.130493
-74.339485 17.811161 -221.883560
-74.669640 8.751020 -221.461334
-79.191116 2.012542 -223.908768
-77.528374 161.392929 -226.446121
-76.007721 155.865921 -223.131271
-76.470924 -3.191671 -225.385025
-75.927643 -10.126070 -227.551971
-75.435661 41.978554 -226.966354
-78.838234 47.734627 -229.220749
-76.816017 10.019260 -231.413193
-74.341400 6.545979 -232.261002
-75.480881 162.386002 -230.721573
-72.716225 30.007359 -230.611313
-77.217949 155.724655 -229.201370
-76.993820 -3.967946 -231.236191
-77.148750 70.249893 -234.622208
-74.539703 5.521350 -231.773972
-78.603317 45.561462 -232.539871
-74.886177 7.281539 -235.762741
-75.174583 49.046173 -236.861618
-74.795357 -5.668886 -237.965195
-80.130112 75.807007 -234.859100
-76.275826 14.492122 -235.044296
-76.389641 17.701292 -238.213348
-72.207596 82.263390 -235.645798
-77.928436 64.681854 -236.783783
-77.141914 81.222534 -238.847504
-76.921097 82.404915 -239.958710
-74.348740 75.402466 -241.356750
-75.964912 88.146614 -240.728455
-76.783531 82.283180 -237.980072
-74.308495 163.875977 -240.854782
-77.878593 158.780640 -240.379837
-78.282379 153.284576 -248.051270
-74.691658 139.137329 -247.574005
-77.801376 146.128632 -249.231857
-76.137589 144.179581 -251.298538
