# This PCD file was generated using the MATLAB® pcwrite function
# from Computer Vision Toolbox®.
# .PCD v.7 - Point Cloud Data file format
VERSION .7
FIELDS x y z
SIZE 8 8 8
TYPE F F F
COUNT 1 1 1
WIDTH 798
HEIGHT 1
VIEWPOINT 0 0 0 1 0 0 0
POINTS 798
DATA ascii
-50.003801314954615 -9.131462304795186 -242.633513745575499
-50.001922830192463 -5.764571205817397 -243.437980406668999
-49.325303540073321 2.708187388130799 -245.989124216158359
-48.757185560137103 11.544618364660588 -246.147697583866204
-47.717496912657523 20.202522381607174 -246.311778740626153
-49.188853148391111 13.125431183603997 -247.015990507552885
-49.937767570438204 4.773589909912589 -250.684166502037215
-51.047532351994207 -7.662879336479183 -250.382524994580024
-51.100617024894582 8.999447325975625 -251.672015782868300
-50.603074327483661 -4.024231741183733 -251.534792587876268
-50.782573239501126 0.061202482500777 -251.421849928871836
-49.012984351285922 14.375640205291045 -253.150182453578964
-48.283635718093315 13.557120624908185 -255.419498076253717
-50.646313703146518 6.202612566007814 -255.868159405371728
-49.669137720067461 -2.602307232721051 -260.518036386499034
-50.463924955875164 7.119966276498026 -262.165985176389256
-49.413214979586655 24.738514941632577 -40.409701813732340
-46.378816151815911 71.712969208639961 -44.513759878771715
-50.109421522520655 75.990756409668990 -46.669003262887145
-48.728926327529237 -66.586422088667035 -43.994362325901740
-50.297285885493416 -63.211152736277242 -48.725481393493453
-47.220818601635308 -70.204638256481587 -46.028280121799256
-50.754721819009923 -76.370595650841238 -48.355433163356842
-49.612798838668006 110.079637071196814 -49.281875671573673
-47.808243387656717 -60.303729553904347 -47.596336508683258
-46.394780242164074 -71.247062065575307 -49.791976833838532
-49.354650798374159 -82.532996182546341 -51.418385667345355
-47.679229858808988 74.055695932313540 -51.205245727538383
-47.962553115978352 41.680976460262151 -53.304809888866693
-50.140334851549369 -53.906242649764494 -53.326817777668950
-48.020770034323988 -61.085636518026902 -52.854977634878416
-48.920938191977342 -59.898349699734936 -53.741928561022519
-50.657399057777752 -55.910556115290390 -55.121659505176893
-49.000678478621786 112.148552506757724 -56.544884783149357
-50.076989528267802 -67.965870346230432 -56.906871989991032
-48.071838080781880 -66.679885023684221 -56.149005331670864
-48.302208512123457 -54.651777845672953 -60.259212413388596
-49.036682012398124 -76.233816347459410 -57.586391349541657
-49.342079745907682 -51.917966749921575 -60.983997876709267
-48.359842634270748 -85.303225914984637 -62.163854297645528
-48.786763441729597 51.488176651619291 -65.921239214367134
-47.881125817397390 113.243276221823422 -66.335512595521806
-49.837805732373994 -52.255343422452228 -68.138056999654538
-49.483592556798847 59.907813778283696 -72.618352738446362
-47.256147277181725 -50.862542124952114 -73.890710914632834
-48.344879715677877 -49.308210143687511 -77.414153923402893
-49.799083814676109 -53.432520680066915 -80.936719102898337
-48.690146394161168 -52.081327328686513 -80.163312487380850
-48.221198211980848 -55.030035701198557 -80.288641064207923
-49.515271796852417 -54.175739356480250 -80.986838989545234
-48.093753747874658 -48.494534116426117 -82.205280616505036
-50.998506490330705 -52.109106392696603 -84.603690118608171
-50.448150062557851 -53.068092421969354 -83.257818760188826
-48.969726656406586 -53.737427303806683 -86.097136659510824
-49.232076189099111 -55.907917583581835 -90.135282581455868
-47.437489187281678 88.167876456176657 -94.173341864384625
-49.532625861964597 111.224313567927041 -95.836868318812535
-48.275083898831078 -72.186398340256815 -97.754205677261922
-48.408367955012743 -63.785374757513154 -98.351798938023265
-48.668739080996950 -67.921317161751261 -100.049917029084313
-49.102802883467518 -59.902262797568852 -97.837592520904792
-48.716736109044177 -67.053168520437623 -98.699589904354823
-48.041967960744522 110.555817193370004 -100.499157990520587
-48.926973133388650 -77.906858816175443 -100.042430391696300
-47.817665342191049 -80.708852051395908 -100.946201240661480
-48.155658539918036 -65.521700082736530 -99.725735424128260
-48.411721354133391 -81.672930372352141 -101.622520073095927
-48.869615455867084 -75.555242794754918 -101.750897998242863
-49.885742954966844 95.362028126073625 -102.577714261635691
-48.712257442158204 104.876671788368711 -107.968270237874577
-49.016623094887350 18.850886079983599 -233.735822492418976
-49.874654843990093 21.618348758410534 -233.611905988293699
-47.806249529033160 14.109129370119522 -233.653868326768816
-48.516445813499658 10.026496903610498 -236.266521149719097
-49.094642780529455 22.566168228666079 -237.978569962964400
-48.572800557557954 17.034561851606128 -235.193740324738712
-48.909815237333206 12.899932159313305 -238.654393055519364
-48.452358911301921 19.610007402102607 -241.168346909168662
-48.114134644152145 13.074861842268268 -242.778895074129849
-46.696076504669342 96.863821686574340 -36.964779770299160
-48.685314073414638 70.267575384443546 -37.406175878981607
-48.084558662908911 53.146452656371210 -41.998970646586187
-48.757429006108673 105.477434844673368 -41.804549596236164
-47.202739683789311 32.639521252833987 -43.434609970784805
-47.410176169690367 29.817265652088786 -43.845690322940243
-48.564636687305978 23.532850486620692 -43.898994029438860
-48.073800557295954 -65.489518495908314 -46.599485311006596
-45.473449207502121 107.850476198240216 -47.402059644724261
-49.380441675630216 -64.320653969554087 -47.082024308908281
-47.694369280199979 -67.934748623771753 -47.436148893653460
-46.915097719225784 -73.509347219772152 -49.263702706764043
-47.284858214650775 -60.248539932950763 -48.690086905117916
-47.817832079839121 -81.005066932058440 -49.839252814033465
-47.238172308868727 76.025152318511473 -48.222682453023772
-49.368683436563380 72.817195316296505 -50.171037025953552
-47.829340394929474 34.008568963848504 -49.591600635216473
-48.914646425114320 -57.643170863515451 -48.996201426902935
-48.002644367761725 42.445842493711510 -51.656339403637411
-48.124605726678844 -57.599201355823951 -54.795040226705751
-47.253371149715477 -71.042273262847786 -55.975002064698813
-50.312517685560735 -88.316729781363776 -55.457747690287562
-47.527356591612701 -75.960698670356294 -57.658103455832816
-46.292897383002305 -57.246525169459417 -56.830337692439713
-46.758302146775087 -78.109674186207556 -56.827425986670207
-47.155905405596521 -90.028465120884832 -59.522711309513852
-47.594909584542279 -84.834549671475528 -60.570316868421301
-47.472349772451174 -50.125919107002126 -60.463471148804643
-48.375848711676390 -56.104260907492346 -62.484015638850821
-48.620040408125796 111.989117016883895 -65.689299425843430
-47.948038552198476 -55.293869841988879 -64.950143866720467
-47.819425618136833 -50.469168875543076 -65.246005524581022
-47.703010642887136 -49.688659714420275 -67.262016842424700
-48.666875709455816 52.913886105993917 -66.980816993901868
-47.532932151933984 52.438555952260671 -68.444302833876407
-46.541807996317175 -50.467487005014561 -68.421342262255706
-47.537614595838683 54.639866098447676 -69.575360342508986
-47.852139066994496 -54.517320180992130 -68.838831333948718
-46.768217787189855 -47.522876304380652 -71.340358872766117
-48.789525735413584 -51.674424992875338 -70.068078334282433
-46.419585886099817 64.373657354142495 -72.906703932038795
-48.261612541642364 -50.061860150453512 -73.330121237176968
-46.835480194057702 -48.278055821869209 -74.807734738894951
-48.182810063508576 -53.833704223420696 -76.369646913772982
-45.164502601737553 -50.413331308944628 -77.871676578612622
-48.715572698571044 -53.022382835805033 -77.795948752622209
-46.893291874276997 -52.477022309328675 -79.284358328205897
-48.346645591317994 -54.600332261115796 -81.603960988354288
-48.390235820057022 -52.543142483106763 -78.471202168485831
-47.270327118175473 -56.401865693118779 -79.923110217374258
-46.658060997177223 -49.100590753613645 -80.837102336112750
-49.044621490550981 -51.495776469841800 -80.841353316814619
-48.103893417538082 -53.432107670462869 -80.336614519739015
-48.673773968665287 -52.581889633430279 -82.008121880165348
-49.954856668464018 -53.152733312716165 -79.110341590091878
-49.113540874793479 -55.362555543952823 -82.449621765566391
-48.421916530581839 -52.001849280825482 -80.298694281317069
-47.257023803184211 -48.213290225643263 -82.025944880509968
-47.029358196708706 -60.822178889990781 -84.385822344402740
-48.591938586720886 -54.632966017366059 -87.345660815855936
-47.245102719798474 112.783430251852508 -85.280947872471558
-47.610497618449450 -56.294404166983796 -88.966294476859915
-49.332207978546997 -49.760576120320934 -89.759531157185336
-47.824260610300385 -51.501354439610168 -88.642344069732843
-49.514522858780254 82.998680685269775 -88.650289892857657
-46.040067928949227 -89.616266625649232 -90.207457605892813
-47.910216320436326 -55.027354074113745 -89.305325522040292
-48.378608602350617 -55.424038158782892 -90.896299006846050
-47.299856589893245 -54.359730533065814 -89.492903768164240
-47.592225900833824 -56.387603218695659 -91.515423356487247
-49.074005116839608 -57.215177138368233 -91.026354631870390
-47.713044305799642 -50.438454702721280 -92.112389971906111
-48.851468698123703 84.473212177212957 -92.502540480553535
-46.247882510461309 -57.896912104263976 -92.379139820513743
-48.794358541939680 -86.075879697354964 -93.349782156160458
-47.607575033742485 -56.080054445684581 -93.100616797631631
-47.723171770285106 -87.490160924252436 -93.756976422020969
-47.947083918669243 -52.221371999668165 -96.036890174448416
-49.410312740373868 -58.501701027246881 -93.997853272676750
-47.812878496099522 -85.189216740753224 -94.172759142059391
-47.070660169821132 -56.067551770911919 -94.985342174049933
-47.593158735514457 -60.508045179707068 -94.959725233174311
-46.963421899397069 -85.987243509314837 -96.301518671379625
-48.265019485351189 89.756563890805836 -95.260436077123089
-46.629072994885057 -63.272912821743375 -96.484362389014223
-47.996362575593857 -82.829626882357530 -96.949293359298750
-49.174483599415154 -72.328737612615612 -98.894916252919245
-48.453778494158300 -54.575809591613876 -98.447037772499257
-47.386761960817786 96.086025883189009 -99.086859831184782
-48.981679936010046 -74.255035991141497 -100.550307221662308
-47.081210824146090 -69.376083168877145 -100.067826241170650
-47.431938640714428 -77.196882901602237 -99.785155111406809
-48.374289035229559 -81.504619802545520 -100.728310523989961
-49.304965799505332 -60.711058526007847 -101.040641852278540
-46.185916143514206 -77.134555202949244 -102.927390967759962
-48.465021778322296 -81.213268524846825 -103.352788771403056
-47.901527600512161 -75.346321886902146 -103.985996078610924
-46.513889313834092 109.310744589833433 -102.503888494083824
-48.321629007897783 97.740609233667712 -106.009538398891294
-47.331181188356531 106.093728900415456 -106.911205278103097
-46.355981228680790 86.104460112585699 -36.044244781046380
-46.725572194127885 74.554768831835275 -35.736188725762638
-45.668786205638042 64.587815016098929 -38.543397807659858
-47.066939368077961 61.017097775141323 -38.074708585072528
-45.847204541464869 73.414696300616669 -38.578194507404213
-46.934972614178534 100.303283936892853 -39.573511387724920
-47.582169376808402 55.561168766551958 -42.190592647836361
-48.583274462502374 22.108247234814918 -44.872086929905493
-45.344656755273661 -68.854377714616106 -45.551867148574878
-47.524380039283344 76.396173142812927 -46.972641105115564
-47.856549169377580 -72.281973905684211 -46.648557671287669
-45.786572238234591 -68.763946339455714 -47.976289427054098
-47.131058250513874 -79.730153717647170 -47.913577795526180
-46.862349997874013 -60.876502453208602 -47.715405363775069
-46.530230097096293 -71.767405496223418 -47.824739264570212
-46.939780758280669 -83.350665890809111 -48.134939085778370
-47.887734843894393 -63.527589487242778 -48.461444303160953
-46.949219253594222 25.267649246194530 -49.254218002669113
-47.676196246018328 -71.577704736784256 -48.759855056558514
-45.700483457141274 -83.356671653699507 -50.838123443754391
-47.016398464039092 110.480955558494998 -51.164656462597911
-46.686538146029100 -62.358574872291840 -51.231841611148369
-47.383544287658317 -61.389622696264723 -51.532979602385694
-47.677665684310391 -87.923467078026164 -50.468831036316800
-47.399060382924922 110.104275774892926 -52.385006522230597
-46.542264396301320 -54.084534898052851 -52.910943161789326
-46.908435927900335 -87.986986859102629 -52.500332190965551
-47.901157181304740 -84.450110846302636 -53.311879575425763
-47.004246336019868 -59.902980635195917 -52.871762122718565
-47.005305012297917 -67.711232672690414 -53.102154809408162
-46.823550846803514 -76.120522871041544 -54.050709016782335
-48.747630201726977 -88.222631624359366 -53.070032287489610
-46.366916269661282 -77.099341977886823 -54.234492203987443
-46.582182654720036 -55.421505765879829 -55.200674894623688
-47.421096703392536 -52.978246781205925 -59.425777290703564
-47.043989222635872 -55.117580033727265 -59.396148102679675
-46.148351582576524 -59.866221652608630 -58.192321245018945
-46.163725800015222 -84.546145458255282 -60.748731884586391
-47.487021073704923 -89.130974608616086 -59.439946107589009
-47.697334098655560 -52.089423203479441 -60.141132781178484
-45.930817306983926 -55.632495279251515 -60.287143919196794
-46.656432756210222 -57.702620949016236 -59.333997093681603
-46.932556418225197 -56.811403335345958 -60.810447044285922
-46.955113446408063 -50.673670946197468 -61.441360406608709
-45.469797551301419 -61.629270727403267 -61.734128127345670
-46.265353819314392 -92.793758794029145 -63.805290014513929
-46.679299177147982 -53.203068490544965 -63.863201146508956
-46.706165649024314 -91.484664282145999 -64.820949104652811
-47.604069214571929 -56.812423511235124 -65.911424240253140
-47.144331079941814 -92.270343553878789 -68.584958202074830
-47.220363082521779 -52.999816183608118 -70.571677792321836
-45.974359441487394 -94.435404002756187 -71.322360236149422
-48.391876509874173 -65.751682141215184 -73.754012605052722
-46.864849767030165 -58.495454848971548 -72.178633970210512
-45.889990152260289 69.284420093470501 -72.821697718910471
-46.382552563679148 -92.829608238693993 -75.333274209778864
-47.101250968846614 -58.471133481301550 -75.551065518960726
-46.345734742857871 112.839976633393761 -76.118169911874105
-46.823107221321649 -52.053577239311053 -78.808746657604303
-46.589465663479714 -59.930956654841467 -78.546315446382351
-46.355417977664608 -91.424160685214559 -78.857853253539687
-46.526423618526081 -92.896307845646064 -78.484179764148664
-49.439162994052381 72.178250541640736 -79.224935897449654
-47.118657761761035 -51.709531153465782 -80.082260724421673
-45.101954394382851 -52.822383773419361 -78.713694507249116
-46.354391102666341 -64.328236140343989 -79.955458535167722
-46.730853738784141 -53.506061420198847 -80.068114699313298
-48.062725286051894 -92.300827465239166 -81.005796192678702
-47.133131205007295 113.322200088903912 -80.156171395412514
-45.799150863920438 -68.536026680139514 -83.697129735735317
-46.247198654844773 -54.808178333429410 -85.391248416107317
-46.106300789392961 -89.481744739479382 -85.464585273406314
-47.603319057178695 -89.935236167109608 -83.770217224363464
-46.294906027135326 -92.182990678424133 -84.625843169751889
-47.866358806187776 -48.669615849964607 -85.869356006154078
-47.427347446065738 -60.378502452749231 -85.489960435501828
-45.751641101328175 -66.710993062689695 -86.664208063104851
-46.705726131222917 -69.556269138629617 -87.892829269053294
-45.553367139803584 -55.251887092092957 -87.529747969603875
-47.544161152603415 -88.632230663922371 -87.876522357816057
-46.432818705408899 -63.521800166164809 -88.989423324795752
-47.628044752328684 -70.514379412843795 -89.358398285901316
-47.393592751563304 -61.920085737058074 -90.186739672798140
-47.287391624135687 85.989031142962830 -92.309896055976537
-47.118212320882421 -57.516985876096044 -92.669277117820883
-46.909484388706076 -71.126961892319471 -92.988525949374889
-46.444874338139257 -63.350410216559510 -94.328257352961600
-46.638884114532850 -66.635442435517817 -96.249142552536654
-48.013889642984225 -53.506520053180211 -95.693115608552802
-47.065193361185280 -69.457244941851471 -95.896688238293535
-47.667995368308731 -59.739576993467765 -96.311115549206932
-47.870343681263229 -55.266617238993490 -97.605685138997671
-47.359434495011833 -62.356744840209757 -97.708836557267674
-46.712850005976776 -84.363714460345889 -99.932389460396976
-46.499591072263577 -56.398236961351927 -99.199971089349660
-46.845088794860487 -82.844599524861295 -98.225095208867515
-47.179515720061922 -82.504333351330843 -98.425812874217783
-46.699619994487897 -54.114059297687575 -99.785302706474909
-45.104875064270686 -69.210722537592630 -99.515032494022705
-46.891765321217015 -61.129494488935407 -100.524075959526130
-45.089537344514866 -65.727059259603891 -100.970009254363006
-46.399729443681025 -58.911825420762639 -100.102249488785858
-46.453601592319615 -63.208119691630358 -102.723692276821495
-47.151299991586818 -78.836274286411481 -101.153216097461026
-46.844754322744933 -72.848169301278659 -103.372745342402524
-47.343631313378772 100.358509485634102 -106.439983937569679
-46.101895459824306 81.482978242973800 -34.630929904833884
-43.562759768892896 78.137195787410320 -36.046921178193934
-45.230889185765314 93.927013131122237 -38.593127141384251
-44.123947349725256 72.319338073245007 -37.475570008774852
-46.695738678428015 70.439535564538943 -37.532261639787926
-47.554587854358253 72.462391818621128 -38.646010451822541
-45.620643643821133 74.042022202158989 -41.873729679762718
-46.745285479755637 70.539609404975550 -43.858743355158545
-46.731101504481856 71.231085298849294 -45.766012287420516
-46.907535593243310 73.923991279698114 -46.451943782314437
-46.857571462722234 21.788758114018819 -47.428161562497507
-46.152618563625701 -56.983689957147888 -48.925269814760568
-46.349766675791670 -77.313991913566056 -46.550581285817444
-47.511870148562281 -79.876939902028354 -48.513986395495472
-47.275414004385929 -74.948109401842061 -48.006014960226686
-47.919632195188747 -57.093475260560723 -49.957736079091617
-45.588477206465740 -84.067517420723377 -49.438872416887371
-46.964410354183009 -75.455124798414474 -50.742951681007639
-47.218779290151154 -82.473528486906417 -48.193331622444397
-45.133118587517096 30.878977246003149 -49.760518546911250
-46.690855909885215 -64.208524730992764 -49.311969093812721
-46.852041626999885 -83.160341286005192 -50.695296891289203
-46.535080262069499 -57.300177595564620 -51.769687911374206
-47.349748375165788 -68.042027860875734 -50.119156439624035
-45.097017894068486 -62.199087230195602 -51.606805439261194
-46.227176870346021 -65.152872321671282 -50.412272344669603
-47.462193035405122 -60.237198457309248 -52.349204048866582
-46.463893970466977 -60.348671111792427 -51.504623454616606
-46.976819797006904 -82.117160676439312 -53.502888969264703
-46.423934946458218 -61.481141919733261 -53.610472006843082
-46.755685323504892 -72.183316856536834 -53.103169994948253
-46.377808018946780 -75.321167131422001 -53.180343716578186
-46.722404637464983 -79.755757587607206 -51.077577248410513
-45.978455968069881 -55.180694901598514 -52.994866774750037
-44.556239819695193 -85.187779284671421 -53.244401895975813
-45.902103759190140 47.946003840202842 -51.472409925004747
-46.825768061349180 -84.544952775621638 -51.624656647940682
-46.063172734272115 47.303751368294762 -54.934390008695701
-45.624378567421275 -57.914225086731676 -54.477899811927657
-45.962345640792201 -66.435080385649570 -57.064964746279685
-44.804323404604617 -83.792314712635942 -55.604556198637738
-48.057094613136584 -91.846273319586999 -58.587497562260097
-45.880796474791083 -55.479696765378833 -58.960054378095023
-46.691862714029170 -55.316528317820897 -60.147514101550854
-46.771838241386909 -56.202718778816177 -61.459633489539556
-46.667429505623439 -88.480122581254719 -59.231773819419089
-45.622511539252322 -62.657962201461416 -60.677180045783217
-47.431362390333412 -69.509433809872220 -61.590014424219447
-46.505239195885054 -93.249552319278351 -63.756063777739939
-45.121545805474639 -55.009028879762212 -65.499284628840599
-45.532359874063076 -65.082103206653983 -64.970913919706874
-45.579655178476592 -70.444747822310717 -65.397430936401605
-46.894755934501539 113.673495174675324 -66.651392391700099
-45.152478319462872 58.249014475044767 -71.238749326370254
-46.713294143241512 -71.154523990060952 -69.843602164585533
-46.400084272365611 -92.897263648599989 -71.295332218552034
-45.409380005681307 66.751395826834397 -72.140646096727735
-46.090636568588749 62.504493659075216 -71.821946785814603
-45.808358106965713 -53.732937434086381 -72.692461869868978
-45.489910361276507 -73.776068616350386 -74.711336955715723
-45.795913810178931 67.993483720573948 -74.157600240169231
-47.147573003754552 -94.399721787862617 -76.931931210629259
-46.470955298154792 -56.539039723807548 -76.679274059595727
-45.290045996693848 -95.967124764553930 -75.709521053310183
-46.683143183886862 70.951165244823798 -76.081517945281135
-46.166442913839724 -72.011539550759451 -76.006720163347680
-48.091869275379821 71.062682485964402 -78.562093688237383
-46.329833909351329 -69.386412156748975 -78.640556709028601
-45.628123146518760 -75.347621830256927 -78.404285613310222
-45.855968782384721 -58.079449196016427 -81.505602169543081
-46.243247300094936 -93.785070213142419 -81.744591008364196
-44.853407750290884 -72.690866045222080 -83.242468247694802
-46.832848695366941 -55.407607454515571 -83.291695932135809
-46.651655156981661 -65.246625543168165 -84.878335975766433
-46.771634312063412 -71.207628134651998 -85.201289901179223
-46.136637906106522 -77.872774827833126 -84.815419030625293
-45.728839317752637 79.645993390887739 -87.518288890600630
-46.055616256499896 -77.684626454053841 -87.438116950639895
-46.777689708823381 -61.400498042898818 -88.307116563464049
-45.481358808622424 -87.884250737560919 -88.856847092799811
-47.364580149460714 -58.703202514406044 -88.480090908174716
-46.043962547870962 -88.792562625925541 -90.026029700568785
-45.483363514755169 -87.883162876135970 -89.362792696651681
-46.889382243332903 -65.830722536549828 -90.375745643310111
-47.078536254346723 -74.008487519453837 -90.939748867050326
-45.263093563099162 109.340858914034371 -92.833227265948906
-46.216749756756073 -63.786960432656016 -93.852206478154201
-45.024043536835343 -84.630397173080524 -95.709108066040329
-47.547188122355934 -73.627613808007325 -96.723341719000899
-46.711343804709685 -82.177374153535609 -96.468560500557928
-46.248894623460629 -89.234699388071888 -95.249418330227243
-47.441204799602737 -65.433676176500200 -94.911379894016179
-46.887609613768078 -82.001757348632466 -97.548187938899147
-45.055965311629350 -84.023161355110773 -95.929767641106494
-47.930458049028019 -69.083050421054423 -94.966187310074957
-44.200832652509284 -76.959824988995209 -97.855028465236700
-48.167814382592425 -76.747310480380676 -98.411104646019439
-47.938277391991939 108.376953028796422 -97.476939985377754
-44.826859111370837 -80.586006081028188 -96.891720785156735
-47.299868858522146 -75.503046335919223 -98.169462798825748
-44.165147442660043 -69.864969281603223 -100.475967175823854
-45.261796312915713 -72.504921786000992 -103.454101089993358
-45.713424924864597 -65.685993771713868 -103.243673065774360
-44.838238043220407 98.287298650422173 -101.549584930160918
-45.934841280248321 -67.073143159707215 -101.529879867880723
-46.658190718593602 -78.402876687352531 -101.708186145121331
-46.047609853644936 108.011176154143683 -103.424949050330028
-44.581010516818161 103.431635338582012 -108.415148805103144
-44.841973014980915 88.880487564398450 -36.315934002995917
-45.622902666667891 68.599218298932357 -37.927596355573058
-45.440343500254542 98.598179509438893 -38.579380165960345
-42.795487899491398 71.828611268553232 -44.132412612343877
-45.329043468861656 75.761198440442598 -43.069204884106142
-44.297786940046031 47.353723758815427 -42.991591749754789
-44.345377579131693 -69.270225198134000 -44.534205101746132
-45.282570396551208 -69.366727419382826 -44.511800190941649
-44.506889581233374 -63.381948411562163 -46.695236312446163
-43.834500140788052 -68.949345564234463 -45.448617173705472
-45.406299105907742 -72.726965516442149 -45.682570294576223
-43.371007665533433 -63.151787289946512 -46.388374470334618
-45.748499062345296 -81.247476548887064 -48.424860472882663
-45.981659098248201 -72.558196921558789 -47.193959658210012
-45.679474817563573 -75.634086184861573 -48.345978757668306
-45.033217386634171 -75.727934200677495 -47.154941113589466
-45.552213051732316 -59.879689733537376 -46.182240160580605
-43.983362215584002 -76.357347595416456 -47.361600473435836
-46.752868320599525 -73.872251742164565 -48.399847717066372
-46.083147018421371 -64.531631837030190 -50.714137994025599
-42.578204243410340 -69.953402934711292 -51.196055788619368
-45.036788727534940 36.867520686879672 -51.596125681397147
-43.896394079295206 -80.154280662168958 -52.723926518742864
-47.281940902703660 -75.294975347800147 -52.391405344426154
-46.402199789324172 -64.011086390359608 -51.614063353980661
-46.901228283155653 -89.850379383343480 -50.510962898069138
-44.769238374975394 -68.522404011103120 -52.358003199966639
-44.375893427624540 -88.817377533568504 -53.185256383066466
-44.492840358247285 -62.184949887029092 -53.890844132086499
-44.804505708368325 -72.228623112887803 -53.115247634587625
-45.122759000022477 -74.915571426523570 -54.420263840154348
-43.687347133921207 -87.393866991784265 -53.385631219630021
-44.559609905205555 -62.471237701872695 -57.546429551361015
-43.934247747555482 -69.230544702532029 -55.350284351195000
-44.499611435548324 -90.562496234002310 -56.289656476571295
-45.553999965284696 49.394714873190793 -57.656314511419396
-45.425013893361630 -91.381565480456118 -58.424606680409738
-44.278927209276340 -64.916219653916102 -60.305604984455755
-44.033777347916697 -78.209365412972190 -60.610455645346732
-45.044088310430588 -69.682642875022566 -62.874396953375509
-45.072479676069776 -93.408121387315248 -60.433010764547902
-45.014707097345664 -91.681350634415026 -60.855584953624572
-45.534138817068225 52.654941212307214 -62.014903200204799
-45.710524393979576 -60.604305374009499 -64.732776971244320
-44.118188394017032 -77.596748566540953 -64.641234936412047
-45.212818767841817 -74.960020754911497 -66.166251723671635
-45.455997179019043 -66.586037499688160 -66.958078169980567
-44.781980013778963 53.603803712163732 -67.599194018302782
-46.690721791063339 -94.424959127758100 -68.544337256549184
-44.941027418313347 -81.190253702786904 -66.829092694691781
-45.439816269689608 -89.175712273596915 -68.868781600429145
-44.409482178811260 -94.109414819543474 -70.731754569973930
-45.081087322376597 66.865081060464277 -69.589916172523019
-44.201794576441877 -59.953928853560328 -71.315811337927457
-44.980408670879584 -79.768756373139226 -70.062029077980753
-45.046842636389279 -68.637294121580211 -70.393041266656454
-45.127819163503624 112.530103031434095 -71.517878941087446
-44.609985975961585 -68.106400674055593 -74.162911738770063
-43.865088459917970 -90.006802034898655 -75.043828778473895
-43.488095180063176 -89.562431019805828 -76.409676161002395
-43.883266633597088 -82.455352426469418 -78.132219314523653
-45.104000075550630 -66.050246638654656 -77.800743068114258
-46.199396528981445 -91.489514872384447 -79.342323936307167
-45.504564408126335 -71.121073772526103 -79.704991886744509
-46.191027908642681 -79.789449813063840 -80.764304239396168
-44.228254451142966 112.118063617445230 -82.387167320317658
-45.689620391931101 -66.614761242702514 -80.620525311687487
-43.918879287537223 -90.612297105429832 -82.226925145923587
-46.012799557493672 77.031619911517240 -83.923353554057769
-44.458307032889266 -75.184339503711598 -84.819445561697634
-44.428393697120264 -87.794413922000928 -85.495134405735712
-45.164651069356978 -88.378035732879837 -85.771192501950409
-42.692651209055789 -73.108634437864580 -85.491805073770522
-45.692194908721966 -93.165922524205868 -85.599660659416088
-45.195328032829579 -81.876614019194307 -87.758468080772886
-44.622893433355785 -91.532232655156832 -87.816742095283686
-45.771298782073195 -87.923701238015482 -87.541822286189841
-45.174448858410244 -72.788651948133150 -90.243030697415747
-44.789834990811634 -87.202748066679248 -88.725011960178890
-46.671533899384791 -92.409725850735228 -92.031886440798800
-45.978262477652159 85.829765494989530 -90.418666669562285
-44.111666992961773 -84.759626182672321 -92.409282655823318
-46.795920817152762 -67.898397966520591 -92.610091113952151
-45.557525015120405 87.818714736222006 -95.019057430007180
-43.534855835742682 -72.250813243227029 -96.767776829534938
-45.162154446109270 96.679960669791001 -98.948418578342853
-45.711183261507465 -75.370904691233321 -99.873766647631783
-45.523796511603429 -84.131643004829186 -100.231848692417884
-46.025516953860567 -70.145703562444808 -102.010134337337931
-43.364375247236516 -80.531363258420825 -103.313356584199127
-46.128597537951713 -74.148483266479971 -102.891624913362762
-46.611764261978657 -76.658374447290441 -103.838560268727164
-45.087815138852072 106.475845416395529 -105.164077289743631
-43.449908575545919 73.862072065586091 -38.069930067996623
-43.753125546134186 65.870683378677825 -39.374307313006895
-42.745957628227188 71.051152560638201 -40.064456132685898
-43.179613716471160 72.805263860676519 -39.824160330279355
-44.864864738630267 57.430475965954422 -42.538455532075162
-45.282163070612164 -70.674345251670729 -44.031470188537192
-42.309748701832895 107.532639969192203 -45.155635268451590
-43.432718861510914 -72.697743406440978 -44.426783317531019
-43.470703923036325 -76.496775435423530 -44.038470425700922
-43.218354103515601 -72.093392065041286 -46.261027255526962
-44.349489910039615 -82.299970844237521 -48.081023482753196
-46.317943560422016 -77.930217126810689 -48.183494326619311
-44.315388117982806 -85.852411946924789 -48.084618591870111
-45.025460073668846 20.532138026880894 -46.942257099871554
-45.499678163079977 -72.294152841206142 -48.082288130722610
-43.669685870667067 -75.341716252173399 -48.806829547926618
-43.146226785739820 -82.806037546240532 -46.781600969829292
-45.017549639753874 26.483536299195208 -49.514946789537241
-42.935534425867395 -88.471525330313355 -48.503806286725386
-42.848793233173240 -86.853405955645641 -50.023312290877051
-45.373275461728454 -82.377567498752626 -51.259380841249730
-44.629289951129351 42.120742286842784 -52.059284112767742
-44.303441943727364 -68.928741096516092 -50.106563895042726
-43.402910127676357 -90.084245246415492 -52.131565670327525
-43.687952133896204 45.980689081476307 -53.111513812415239
-43.110088153443066 -73.402365584599039 -54.466788100032332
-43.770104625103805 -82.267246872168144 -53.708870228012451
-43.297361691844515 -67.312782078815786 -53.863103396236966
-43.753203355686239 111.093174127650414 -55.264883090052393
-44.795826884282924 -82.860409675476646 -52.524062628163698
-44.433250012714204 -78.388212464770703 -54.553427027823389
-44.735507748906443 -70.527507653097956 -55.622390732137504
-43.949183760821029 -92.102558737515153 -54.876973400929984
-44.490413930457549 -86.467629577384272 -55.484346319685002
-44.931709669667548 -79.847959442367312 -60.323955421849561
-42.848058107698449 -69.025605622086474 -60.001037643064336
-45.101824110362571 -90.515632569197763 -60.849540899253313
-44.804725144213833 -89.486772520711256 -61.123125637393429
-43.228190015631867 -74.514785352639791 -62.537866580972775
-44.745003460598653 -88.167108446981899 -62.926196364687570
-46.558752579466947 -93.642137194376488 -63.881409816968940
-43.417334448557263 -69.247451389763697 -62.338322728602236
-43.437887245777375 -80.866629264063093 -64.982587505508377
-44.480554632604893 -88.729745322520913 -64.483361796260823
-44.493919908291247 52.131563190401124 -65.954561230118941
-43.523004145648059 -71.826727311008540 -67.891747935978628
-44.848370946504538 -93.413589531508080 -66.461222422693524
-44.247285181661709 52.939782252128211 -66.595722749625494
-43.779090979495280 -84.567055157098508 -67.035771258703789
-44.415865450307045 -92.879747224578679 -71.564937710441356
-42.922631046602433 -94.526211787518591 -69.264350258232739
-44.401370942986944 58.670930723586970 -71.643618402420103
-43.654159878896714 -91.320774184728364 -69.016197295799032
-43.707330051825458 67.209871673560912 -68.919184560777111
-42.962186021052780 -90.166973087187074 -68.591636293480391
-42.670062127876406 60.582685163224987 -71.375475858613839
-45.358632338037687 -72.823806788558031 -70.040303879458989
-45.386567818323982 -89.953914340640253 -71.792274615745015
-43.779484419869831 68.340209766564584 -70.701023686164277
-44.152959029729303 -93.222741330262892 -71.405568200239969
-43.060510174044715 -90.742878428387996 -71.655421365777030
-45.219774958987436 -93.278013965964362 -72.969246666552863
-43.934746943505530 -90.584481679267029 -73.006480485273372
-44.200413918205335 -78.667808874407172 -71.130980453495710
-45.501826568336270 -91.171289668257600 -72.256964118772146
-44.736595967862861 -91.957912594370228 -74.454629964316140
-43.837913216559784 -92.463537021609611 -73.076400732983501
-43.739100029719296 -90.424233260223303 -73.542328661555800
-45.620416934446610 -92.295113446047949 -72.763640729885623
-41.874538196297003 -94.143375381255652 -73.078332263082544
-45.850919132286300 -95.743871672874320 -74.767590961624180
-46.139700664598458 -92.098364620738522 -73.154413752700535
-41.768050697383295 -90.269731665877231 -73.641190427317781
-45.473221098559890 -91.265179755145866 -75.101057969737894
-45.121981920573610 -91.177358759352259 -75.951983037614824
-43.234794999000115 -89.980935676362222 -74.482779002027002
-43.213493186377484 113.712284523398040 -77.325833259870976
-43.434154732679666 -93.902836981738261 -76.680309249026237
-45.551988552694404 -86.867912784280875 -78.177005584042263
-43.887143833711839 -89.527583275203227 -79.114451030999192
-45.692751562628494 -91.061956810413776 -79.625716182130134
-43.846337082147762 -92.117213481657032 -79.545075402927949
-45.972238811665527 -94.644573483768895 -79.582902610975012
-44.471606480693630 -77.218842328623481 -80.164480228153792
-43.353402853553611 -89.781826557822939 -80.732222013107759
-43.469258968688507 -92.369036573451652 -80.928598016466339
-45.096982166031857 -89.956363951218009 -82.539898208588710
-44.861520206529342 -81.662415035860192 -84.014940749385005
-43.476546633107901 -92.617229406679201 -87.596193787775306
-43.867481681781769 110.818366469244197 -87.750705453674129
-44.819304359879105 -75.436384846824609 -89.067210643461820
-44.699582782007589 -87.709006775223102 -88.434101050314766
-43.918595056383417 -91.367150458661243 -88.523449127210583
-44.543983117044768 -82.389658056083348 -89.465180981971386
-43.685273659639172 -76.885234643297764 -91.146063119080281
-45.933075310659454 -90.288300487143133 -90.080919748136040
-44.645366186538219 -89.623280788377471 -92.564590384641448
-44.195110789902678 -84.126469298947129 -91.778685966058447
-43.164271183861366 -86.636876547470422 -93.513793437996029
-45.749974395521640 -84.859975339901965 -95.863064107783913
-44.798199266663204 94.291524453873478 -97.438651296716671
-44.752790132319504 -77.894337166620545 -95.559907871893088
-43.535195246689703 -85.929907556956820 -97.579585126259104
-46.163793602719579 -85.187668531532765 -99.836653567847847
-43.201003487316662 108.148283190305747 -98.485045989569457
-45.446994827548579 -81.915270903178779 -102.882487442036052
-45.037842257498056 -80.120571080620365 -102.898042296739050
-42.717121458195074 79.977872989736326 -34.705221695058285
-42.423431273825685 75.724823376099408 -37.171910832407335
-41.752746420111947 55.576506085149802 -45.206580899313643
-40.499501899308669 39.337058580995972 -45.744011887064190
-44.714717655204403 -79.498090620184328 -44.906569354716545
-43.537166963047518 107.659494072409657 -48.656554214035701
-42.796617102719303 24.176512357403915 -49.173619235476117
-44.137086217704251 38.453099164245629 -51.937804701368194
-43.761618117108284 -80.295937499269982 -52.295681453724718
-44.730596877051184 -90.028526195872928 -53.428380103518123
-43.768537045929570 -84.058788560961659 -53.318420515517118
-42.005081936756376 -75.531481888301741 -51.963155294367667
-42.354898738984375 -86.014043614636790 -53.921743509986776
-43.984729663095266 -83.694915010512773 -55.912161296374506
-42.274992480534188 -87.901076869467190 -57.663416948692131
-44.411701227484315 -91.020002811676449 -57.944093199532432
-42.836532363112489 -76.396714641914443 -57.919025249324662
-44.314606970559780 111.601242747146827 -58.424244316252611
-42.801376264889804 -89.944112070064222 -59.567987894265300
-43.463694383607979 -81.620979360086125 -59.646763063740266
-43.294739417441413 -92.527154462127484 -60.590170232726905
-43.223943460473457 -94.689764744634161 -62.188634200968423
-43.080758850978356 -89.697955965440343 -62.693571454573302
-43.160883505842193 -78.058013140998369 -65.029384571489402
-42.352453000732808 65.919408030799914 -64.091417858464567
-42.313446620032714 -92.741613365106659 -65.482804096559747
-44.008063390461558 -94.280770134647085 -67.314405837306751
-42.178001107261281 67.986847220021673 -67.781896535771068
-42.007361789753951 67.115991410233221 -67.340627277735422
-44.334692165910226 -85.398899027032002 -68.003766167482468
-43.994057158149239 -80.343859640231926 -68.522317754794514
-43.005252092292189 -90.844301228541653 -68.364724182693436
-42.925058228967835 -94.552605896642675 -70.788157316509384
-44.192644056245314 -91.508253245659319 -72.397322111459658
-43.611012067205714 -92.015199313741505 -72.247763925204922
-42.593461209356533 -90.683238304464098 -71.550451838540610
-43.284782276173132 -92.535205458345544 -71.866899929733734
-42.125090593515480 -86.477897163925306 -72.987501185416036
-44.486676010143611 -91.739913124716793 -72.189455350937124
-42.790470547328965 -88.546906404118431 -72.553127456737798
-42.005582250204938 -91.639194444898862 -72.664032272983235
-44.844743760538989 -92.135167456695498 -74.457431515353022
-43.253915656207276 -92.238716454702427 -73.534241935261349
-40.997247908476979 70.476468349689014 -75.155864128678331
-45.033138264733552 -91.383727575329772 -75.273538442869963
-44.706691768472488 -94.750842865187849 -76.465597287592715
-44.765583991659490 -86.637118721013579 -76.023993062421042
-41.709080500847925 111.938331650935694 -77.291245645687340
-43.988204606124498 -89.385758083443221 -78.866745586381640
-43.287794226681349 -85.695389563408284 -80.548016898282640
-44.591881088206534 -89.237059303674016 -80.511778553541561
-43.446372014531200 73.305979236649847 -82.828460881925452
-43.000827872046614 -93.344651702519684 -83.191075978330574
-43.187006068527374 -87.904305066139941 -85.540925588573771
-44.425867442046560 -83.035392407525435 -88.211421376454112
-42.600785913888764 -85.692406758301772 -90.171392419875545
-43.280538717817358 109.839145777482216 -92.157974822561116
-43.135416944542698 93.522352505095711 -95.309634187366925
-43.401824089867894 95.913330055632613 -97.632259806592543
-42.059802706534384 100.205499911271431 -103.920435271324052
-42.013336814091069 85.784136136177025 -35.117218218706832
-43.032587707958363 73.102072063907144 -38.555240403588606
-42.235523300759198 54.430918816233479 -46.509680860306844
-43.083095562567834 44.951112047664630 -44.759042975266951
-41.495690939575582 27.419231194118922 -46.482507889178827
-42.520161924700687 25.574833441241985 -45.682709106054041
-41.307179291264951 34.937549194113870 -45.098201368185492
-42.097373428452492 37.159230414758859 -47.061028417434024
-42.920322638157458 23.526255427713522 -47.806004747932420
-43.176291562166895 27.511962000138084 -48.911900075489363
-42.861593456137058 38.439935205311500 -50.468356363970912
-39.340929238414589 110.577665179582155 -52.782030797029080
-40.175796780414714 47.748288905263522 -52.409469499255700
-42.190708109840841 48.924158687293058 -54.478855478517929
-42.293168762508593 -84.961494437815517 -57.034927621532631
-41.152926341351979 50.941960940929313 -59.430628673654624
-43.153326983117722 -87.050207820495274 -61.510144091862230
-42.130895507903666 -88.470052929245810 -61.911044870966919
-42.037266385937073 111.839142626136478 -62.968955583111665
-41.661001816649573 54.110708053815394 -63.576663186753336
-43.188213459157353 54.397440824880924 -63.382220474123059
-40.220792562661153 60.697696046400793 -66.741697874763673
-41.305640873206478 -88.500592012828790 -65.833698338812070
-42.009932781937394 68.261393387342039 -69.682927404533686
-43.287489384222368 112.276241444975412 -74.118734124091873
-41.441043654368158 69.274845902442578 -73.595164267888691
-42.038291511883486 75.823798468939771 -84.684044652113727
-41.701652670521653 110.658301891200736 -88.435721719090139
-41.993770911916641 88.041390804179073 -93.237126558212069
-42.160843316426394 109.736983489518011 -95.154169471311135
-42.116589441698139 102.218509290617220 -102.120731224698190
-42.494119740980963 94.582885288872319 -39.065566049611348
-41.706161280224052 75.789739747823717 -39.217058724467968
-41.823461957254800 70.154068415029329 -40.291924065775859
-41.243903735968871 100.271419325125237 -40.759136304527175
-40.180435542418934 57.220112193107298 -45.196026884675994
-40.933528824063977 25.619250236391082 -45.138411106759314
-41.146368468579290 53.933022845112660 -47.132696142485514
-41.347132477547795 50.499407659817031 -47.213910150954476
-40.481384706932914 41.280323160975165 -49.003561987623378
-41.468546566456602 24.293729845881870 -46.965334019801922
-40.051226861137330 40.726242100042541 -48.469607576898518
-41.913843515589903 27.399686274010591 -49.605211324153721
-41.626398818740242 48.037981181043762 -50.377985180751942
-41.178497498655652 43.805267823143765 -49.756836610866486
-41.281619301567524 31.703208773730246 -50.931465090909633
-43.412475139213413 33.810102211286519 -51.375010572668899
-41.249464135142830 66.498868937737669 -61.404585190039256
-41.324927361405017 59.076988604555240 -64.837685696170055
-41.844849076237765 75.291180570891754 -79.770193860662701
-41.310248519181528 81.022030336208488 -89.637122978276722
-40.906408414563082 95.019515647014956 -95.358251413650279
-42.596351407902112 107.203173257248750 -102.209721057106719
-41.363805915797357 101.299720911026000 -106.282955956645054
-38.929676165925599 83.931845535885287 -36.645033171147141
-40.244657856261874 103.356844634401412 -41.661857539046281
-39.055771028146815 61.723341465535036 -43.261826824504801
-40.603688830560138 104.864159863419474 -45.849058339198685
-38.612730706692439 32.676670223772177 -47.560832955856675
-41.375490178641080 27.082625648397929 -46.970096162581967
-39.999109115220364 36.642531818854444 -47.198515663955305
-40.337759250013796 43.823053038879138 -48.713043529025668
-40.338852434928064 47.974983411079350 -49.724808207843139
-40.816034711183597 41.160310967953095 -47.971593116739555
-40.673328698749948 109.500691028987788 -50.207383091583019
-40.796843419542640 30.986477478037628 -51.136854864212992
-38.986582514670452 49.628789662616065 -51.879889954496477
-39.943734607254733 50.542112463099059 -56.573645065726851
-40.788069134109939 67.803894940816861 -58.990956989977931
-39.147507695288695 53.876033428365595 -60.514108848594873
-40.725830229271665 67.102491908628110 -61.321824285108718
-39.229597024479759 62.823761769781299 -64.235109024543476
-40.580488106461893 57.899521809570480 -63.837399575779969
-39.707832644216872 111.930673349936100 -79.412012572609726
-40.853688578383199 110.015492985951482 -84.004556971424563
-39.361767713789696 109.929231904304203 -88.680851377202302
-39.118696300152230 84.519653939824522 -92.159836668869644
-41.164377520943752 89.200490290189123 -95.443034224831962
-39.846906057512342 94.921935824794630 -98.368606024910775
-38.171093648449393 102.859667803979391 -101.712750739723063
-39.064682150536925 58.903610056879899 -46.237173621565198
-39.500312169104546 30.178112195402161 -47.796715682207548
-40.818396083161844 37.375859920255991 -49.974111312402606
-39.441317225186097 28.530633240864049 -48.594756106599469
-38.937045897212457 36.317376699958928 -48.058277292317371
-39.821565131211194 32.802095917399015 -51.498047960619267
-38.407534719497754 55.410508262680992 -50.527619354830968
-41.326595751589927 33.663437703231850 -50.384960518343320
-38.332380341002455 55.589816758629539 -54.638104190434362
-38.055651531998940 110.676271118666932 -56.525139760713003
-38.185742839753864 54.329110995981594 -55.534882802660206
-38.770317013160543 64.316156588528116 -57.620064124656849
-39.787389206593225 62.373267078437976 -59.280789292583009
-38.628027697602683 55.886029448838968 -62.404486187418669
-38.563587964631317 57.848239180899668 -61.607106084223531
-39.847695698211652 111.968652791334691 -64.553000524442425
-39.170156702241144 112.718347640391386 -68.480066041492847
-39.777756652769703 87.148654843507828 -91.646063221424825
-39.315879244843970 108.027759996700354 -94.703771553881225
-40.105509327723887 97.169277430916637 -101.249189292080558
-39.289340999707605 103.823134870732147 -101.078076367491121
-37.909546958332889 87.088751511707613 -40.020389559419634
-38.558610318058633 91.601623294095162 -37.828474600260535
-37.462331881792466 95.705592895944221 -40.519389549678351
-39.312404217006360 97.688425960255799 -41.713943258128566
-38.738235687324675 71.300046192230866 -42.504579261114500
-38.095987929966604 66.788511058037244 -43.966279865170996
-38.623787624304512 63.901866965597442 -42.843023052929738
-39.040997445346875 58.658502906003029 -49.172820946860185
-38.473021459629130 67.759365275727291 -58.090215940875680
-39.051954423091139 110.251891965664754 -58.345347187409445
-37.744777136755793 57.855081193847795 -58.708097388165214
-38.153629428900331 69.625552037466861 -60.095086663969255
-38.378113193645554 112.759541235833510 -62.816451701747980
-39.299623712386889 70.341901439714661 -67.728260241774265
-39.598027092125740 70.269888645048781 -78.541102942989909
-37.405380123609277 110.834908710142741 -84.575309998458039
-37.567813882263060 110.379426700544869 -88.650631957433646
-39.610117088345262 78.637881280396186 -88.652620027865694
-38.871852232822853 92.712870596784313 -94.582770582585340
-37.349021899304503 108.446605322583025 -96.162626457500252
-37.383549475464179 89.849887012518593 -38.863894218975346
-36.720999064945985 68.636021637791231 -46.164427245968660
-37.349693132614718 66.409185211050840 -47.172765750228763
-37.285988688724260 65.956839987635846 -51.655044361123302
-36.740180205043949 56.263968287773181 -51.974272880372908
-37.141880559691572 65.991648580937067 -51.780596244637898
-38.317048314779250 58.286686440591360 -55.854424101774896
-36.787443123452107 62.683951880381699 -56.202765417829141
-37.175945772004027 61.092355627182108 -57.917184862501728
-37.907752422427137 69.170116744067144 -64.233372783179306
-35.630028220718970 111.403804613514694 -67.165008784518918
-37.173237357867755 111.550948798871275 -72.021493993804185
-37.884030319039553 110.410033469210092 -83.964460787687955
-36.776997375708689 105.678494656878598 -96.917659631235168
-36.968332030688664 99.122466271444310 -101.281609704625382
-36.052878988437023 92.166335976811027 -40.590181215583911
-37.897182728324012 79.874501080663521 -41.935044269750911
-36.560905360271995 71.463675978381445 -44.471405857996039
-36.883752491977042 104.684497237338647 -47.966830901123338
-34.632292346472475 66.274503039459177 -48.676082403202841
-37.760013872926386 62.580029353270213 -49.909437558831442
-35.886282821367956 60.965021138761173 -50.812442766260013
-35.865712964575614 110.545961911110822 -55.911331498148982
-37.835332255075585 69.878115507088125 -61.517072953156287
