# This PCD file was generated using the MATLAB® pcwrite function
# from Computer Vision Toolbox®.
# .PCD v.7 - Point Cloud Data file format
VERSION .7
FIELDS x y z
SIZE 8 8 8
TYPE F F F
COUNT 1 1 1
WIDTH 797
HEIGHT 1
VIEWPOINT 0 0 0 1 0 0 0
POINTS 797
DATA ascii
-54.498604772509175 -13.631643648429275 -252.197127681657662
-58.195398146770145 27.058767710663794 -248.803907274374637
-51.174467036099593 21.695176890497663 -253.449957582044476
-52.542284990610121 -15.894094729621660 -257.191555673499352
-50.901741968928619 -15.310902083237277 -256.078693004306672
-53.058844267339353 -19.098969113586286 -255.349962866612145
-52.545537069627706 -10.968599836507700 -258.238169806163739
-51.825916936621240 19.396563463817078 -259.296523165836163
-52.347235027348397 -11.262083567176131 -259.707722359964691
-51.163820336050023 -8.580651173282529 -260.865633498982561
-52.248417892086032 -3.395815496655711 -262.411827876042878
-49.088492284650492 -10.996666507896105 -261.952929191224371
-51.543297697426205 16.842944077042080 -262.329062840758297
-51.563921886076493 -1.845392408580881 -262.759204695016592
-51.962499104132704 -12.018232771571114 -263.914475926216483
-54.248450313468105 -9.499897714376534 -262.884588182108189
-54.318570518107272 -9.142413794694008 -263.829027631462111
-53.897353662096194 13.983077539889495 -264.468233127999554
-50.051969969195873 -12.697653918426319 -266.555450655167704
-52.652020137596253 -2.566358524658177 -267.182845496222683
-54.087547051572372 -6.847535252791694 -265.513129319165103
-54.081424095686764 -7.739353921350713 -265.824797870365330
-56.142477920413945 -9.800874220623697 -268.494180286366088
-49.466495837067946 -10.419939424584825 -266.833063269661409
-53.319873946311333 -8.894825378174261 -267.280481733885267
-54.396990793263370 -7.552577521997200 -266.624895833936193
-54.719604480237130 20.257899485183763 -270.459174494851140
-53.355898578856312 18.073162717568685 -269.764548152434259
-55.840964059726083 14.832834093815286 -268.980493413574038
-54.544501515967127 -14.470873533787103 -271.966754609267525
-51.661657605523878 18.401174798295816 -267.626020888306016
-57.040108507234386 16.028565217899374 -269.040307912059291
-51.823268530223686 -7.456982254998444 -274.236656914980131
-49.726834789927452 11.657078218866001 -270.716541604127883
-51.035414253669856 -7.988313391622249 -276.417912060608558
-51.045519675125952 -1.257941861448510 -274.476967327909222
-52.694744295536623 -9.955033494409317 -269.229131484816548
-51.853321208408389 8.884789105110226 -271.267286645693048
-53.183200555945142 5.613424661195664 -275.511593181895989
-53.884524912566697 14.304745357058689 -277.796557118585724
-52.615035728635092 1.183469818444225 -275.494790086878595
-51.876204956099912 6.807270293656711 -279.059493754352616
-52.537069230296588 -5.924302842232596 -281.881717650290511
-54.268150199621424 2.167875978503174 -280.343592539982353
-53.964859457249972 1.063221003554139 -279.971170625678553
-51.733372633068448 10.622268943881753 -281.738821380178024
-54.468295508897555 4.195170468991238 -281.593990085880307
-57.688461493295385 3.138259624335513 -285.445865304138465
-52.929303788874478 9.275808204661784 -282.772530945755932
-52.453875150180600 10.637922232568407 -282.131914290066220
-49.525931577046535 12.889465300239912 -286.254843035554416
-51.739290649362374 -24.713942223692150 0.263297060352897
-51.223659323446036 -18.676480222755107 -3.140091991202135
-49.383610976027889 -28.445732958727866 -3.393465426542846
-55.417100866296714 -15.098812485454495 -7.962760473585902
-53.623125841959109 -34.532751793439779 -1.989144377630968
-49.929362954134803 -9.416149034422116 -7.889897197422080
-55.743598822739727 -22.683265262540061 -9.089766767871339
-51.264793392608816 -26.080331687524307 -8.014357654578575
-52.400379656102508 -32.627418156615143 -7.569786086530929
-50.052988730149508 -11.486249435016326 -9.855954532695716
-50.926117464039407 -18.718646434108670 -8.850849077477658
-54.109548898739533 -7.624985923879237 -7.861018148291215
-51.444327628043524 -33.089950010953878 -8.609862149081167
-53.461885140641655 -28.138965592002904 -13.182543728174910
-52.233056173986121 -14.607936208497321 -8.784402800587131
-52.380111200592665 -36.129926364220431 -7.722127982882473
-50.940756750314925 -29.275880927629387 -10.375214626445633
-50.864242032462691 -12.664078651156569 -11.362698604468378
-52.664077554584352 -16.103874233078056 -8.455007743091812
-50.479122018478193 -8.538329553686385 -12.200161485228243
-50.551972489525753 -32.479073555385050 -13.082613960933532
-49.234256294611470 -31.881411483296752 -10.624847040397032
-49.041039621443673 -10.315095513840031 -11.107157043555109
-52.713412243000377 -40.779218331080365 -13.098308032216980
-48.866124872164370 -8.772603522724523 -14.731991434195308
-48.803694360185396 -30.134873748687006 -14.440982873604980
-50.510172535836688 -8.996984650523167 -16.702867321731016
-50.770201225322644 -12.243128812066328 -17.812474929042860
-54.251248248896765 -32.017503302303055 -19.817809918885835
-50.596167675987154 -10.288678887388770 -21.251459042434909
-49.641057332822918 -9.725428625261056 -22.533415751513431
-53.703512198113238 -37.699820476545099 -23.060328785781408
-52.719314379497860 -8.496835217119848 -21.282175458771157
-54.094320673932508 -30.302068429834570 -20.101507780200830
-53.905198183230844 -11.129081769475849 -24.389335798041230
-54.778158168575501 -15.726126305873073 -21.068394094510147
-50.891701799586329 -9.653083882975331 -23.127130482637746
-51.564245524813764 -12.603074970576888 -24.543275868079945
-49.907111243600298 -35.817923117045815 -22.517268663336338
-52.649920752104777 -25.138944457617200 -21.557535034032131
-51.060277401124004 -36.301187197630554 -28.556623366704791
-52.871240641302379 -17.499952385536059 -29.273049782230693
-53.607802286718233 -24.863233619494657 -23.404048325284528
-55.371152311293315 -36.619424569544563 -31.128443912467020
-52.797829334035256 -20.786221731511930 -27.535314177914479
-52.134483021729167 -15.221120951722309 -24.865249032566965
-52.326696611966959 -13.328000338872055 -27.503445740261206
-50.439728415827233 -19.473551264353539 -27.800334341051489
-52.928394540514546 -33.984368009332258 -26.667917007082615
-51.782307305448576 -19.041864980111402 -28.728695736537048
-51.303228511722473 -21.619680449148220 -30.209840787282985
-51.973688388378889 -30.539802067066461 -27.922399696742175
-55.265063410093283 -15.922870338878013 -31.893438887864143
-52.534094624558840 -20.534994639359169 -28.703909833311741
-54.204453506020187 -16.535369684667771 -29.432510170742809
-49.556660543457596 -27.469619925101853 -28.866880625704205
-50.535192327630000 82.905998276395252 -32.827240158818022
-51.113865291911083 77.999420764212744 -32.572942803231982
-52.864549394732663 91.019492615822131 -31.257960149966245
-51.631296418783180 47.855053326557957 -40.463849165869966
-56.275165816241568 40.403917926617410 -40.576576091899973
-52.426999601997665 19.876922554304187 -44.317065793910480
-49.782267402183692 22.591967860342788 -47.492959913990646
-54.654418259172353 -73.025616479565244 -48.504081355584582
-50.523801481983966 28.891071782505623 -49.659727511862052
-50.866784854738206 -81.507205143106631 -54.495172145045643
-51.028661922809128 37.942482658319747 -51.315971442230563
-53.442165274704777 44.626765038169822 -50.441862714437093
-51.641596149328969 70.694362767961607 -54.385531497952329
-52.407961105110488 76.843031265240541 -54.250392041939435
-48.921380246688379 79.320947602937025 -54.853132905882532
-54.310497600595589 70.166953675505482 -54.892753563520913
-50.506504573255583 -66.864575593160893 -61.601213257465076
-53.051392973228658 -68.514029242574409 -63.295486074767737
-52.767403906810578 -71.616637514688051 -65.465682442120965
-52.122170547361634 -54.987360153759681 -63.585519453479705
-52.372517440814725 -78.943674427759163 -64.818642976104442
-49.786961517652180 -80.855783973791162 -64.631519714993857
-50.267192329504830 -51.165164289492409 -66.695534716365813
-54.599574763661948 -81.972931134702037 -71.945880279567078
-49.417343755037010 -51.263722425771164 -69.366249486157912
-52.102189338548705 57.276554597953790 -68.026771591421991
-51.322156893593672 -87.097518965388815 -71.421308427666460
-51.763674958348844 -91.208158449135681 -68.604326038639201
-52.978757255744618 -53.985037059272997 -69.980370261774937
-50.645427659397306 -50.281400563188953 -71.902430574670731
-51.840359886563441 -85.521394002923984 -73.455343578391805
-50.790093932213480 -90.972130142900866 -74.994883661672503
-48.812099542602098 -90.835022439494438 -77.381045927148079
-52.590801009989264 70.636885617423843 -75.482260909202864
-52.725717755028327 -50.143142097461421 -78.110097977629223
-54.012396848123736 -91.456571627159434 -77.344607475017298
-52.459440358198044 -50.213191105540517 -79.913218958316037
-50.928047932955344 -50.584639860110798 -80.737988961553896
-51.015788512841382 -84.712917928789395 -82.279863988839523
-50.737923458031595 -86.495844320035232 -85.256702176285586
-47.338018662211041 -50.092691728007196 -82.096088040608365
-51.907667675333933 -87.995904984884049 -85.052607462818386
-49.407748566914542 79.903957393080532 -85.428597157855563
-52.024449196759853 -51.182484473448618 -89.526835994930977
-48.580742630052384 111.272106462357513 -89.130682031158017
-53.003725318161145 -52.635505568313377 -94.514970447678536
-50.861938358363538 105.852429597316174 -95.064933224597908
-52.814411486432213 74.534200766615200 -98.478108809399316
-51.517169491515837 88.995980072610152 -100.062738695697973
-53.033119053858535 78.026600930523230 -98.988763521840781
-51.671661915168407 111.832891606272995 -95.085371277717982
-50.501120127875446 81.656641508125887 -101.179651385660620
-50.919052711994347 77.586539973429041 -99.481299406988498
-53.163499299363494 89.726910451225010 -100.930875819612510
-49.858325565856916 79.589280702133408 -100.834121934556563
-51.233336566923235 76.808658110817063 -104.914769057420969
-50.135724203173140 73.697066280237237 -102.800195985575556
-50.874944395458854 110.659138279456144 -108.072682978290331
-51.809599663328093 97.669664538185671 -107.914482849571016
-45.694582964526724 107.401876927476607 -108.434605090261485
-52.536189259507346 102.642514773383468 -108.577882918552433
-50.537290959749342 10.797119546068901 -223.474904638514857
-53.668271637604377 14.833846744292597 -229.342152328636786
-49.957561469052393 6.705853243719785 -227.753047317071378
-54.726488052510248 -1.592723919725325 -230.535378543007198
-53.904304038256441 12.181679909272265 -226.313808117024450
-52.626219807965036 10.518231948248982 -226.734464196865758
-51.551882000884333 9.370053383342473 -229.164658854627334
-51.891316841843206 6.418369717655352 -229.882001783534690
-53.886331591752423 3.409395852503529 -227.961254422828205
-51.446343869617664 8.560069826003344 -228.287093805480737
-55.022949639101775 0.336670730138900 -232.231615681270426
-46.410725828680903 -7.446062881579550 -229.064899560694528
-53.776207614953847 -9.636760329660824 -231.612513079239022
-48.879963537171768 22.554392540902047 -233.802449901796791
-50.292962531362825 26.584066855993584 -232.690925957903602
-49.839723894886710 -4.194081357830321 -234.006318914604861
-46.813482406273579 -4.990377129150922 -236.478611172642445
-48.594576697803625 -7.889714134967981 -234.378302098965435
-52.932775051934463 -3.495270586134810 -237.591181488108873
-52.439355495934997 -12.273400162485551 -237.592940283693309
-51.197459379121952 -16.602347989357295 -235.506658749291859
-49.782272264753047 21.567197979496587 -235.176456997043772
-48.671497932091555 27.464661653143260 -239.921223170825783
-55.228797574317845 -19.373851282046171 -238.593025261971803
-51.161038204925070 -10.755500460903971 -236.941960860991259
-52.915458261528507 26.743537036101923 -239.039942947713087
-51.966863596605734 19.590369007483421 -240.210593990549455
-53.348569271831046 26.481897836970990 -238.786784925268392
-54.814651044351379 22.151229839220377 -237.314498044459384
-52.578360657257733 -12.172055193067287 -242.475656576712481
-53.268274851086197 22.117398134326947 -239.551331499211130
-50.637530589264507 24.385687634123862 -240.553488559060781
-55.530661444967635 -3.716700864457076 -239.994690028045511
-53.021456719412257 23.434789718988512 -240.139480017479912
-50.367525428319752 22.457647363418381 -236.389822185361737
-50.702605946092135 0.949640064012010 -241.073879602812411
-51.491709805466506 -13.837932624499050 -240.639882841163086
-52.037081768009635 24.701511737470192 -243.318977359078360
-49.479304930674914 23.145459476436272 -241.394964482249748
-51.373024994382966 -17.978907690978961 -243.457165044906247
-51.443877172928474 23.826974125820744 -245.934912296349808
-53.426919379178550 24.410263345576908 -241.707687548868648
-49.646193304538698 9.479759947260842 -241.649798027223085
-51.230876677232672 24.483405490413446 -240.560953554116281
-50.868413608652574 25.689464963738942 -247.904726291770885
-52.872376639383155 23.999225905533830 -242.795173629447874
-52.037157195193018 -2.464334732195233 -241.269117442373215
-53.693191412229822 22.613365549868874 -244.967649604198471
-53.346310935440869 -13.727990389560308 -244.798313699552295
-50.351073468475860 -21.879937109664759 -247.814493987052117
-47.886348437579954 -4.356375812775131 -244.256546736392522
-53.975898595492346 25.784407747421767 -247.074998989843607
-52.583502639738164 -3.838088804497085 -250.235778895935823
-51.269291270932229 -0.059440023704543 -251.092718232104403
-51.588935951118401 -18.498060364696027 -248.721597612709843
-52.029644364815404 20.819803401528763 -251.387611283105628
-48.150900270174326 -19.668550455029411 -249.848778314136325
-53.601313623272183 16.822044016171148 -249.475204742647179
-55.372974725751263 -5.008179879520586 -253.639688725922269
-50.052166501759721 -6.051031839547871 -251.309358708421883
-53.764080220421832 -17.696762292229124 -249.297240118273066
-52.710918030776938 9.208205137358270 -252.855922066168205
-52.243757546080104 -13.509376648606612 -251.427700143211325
-52.280497512700677 22.297104314278094 -252.547556243927318
-53.324072616972046 -19.357921249958025 -252.077776069121967
-53.812221947898365 -2.913272110546892 -257.174110049873661
-47.814610099405733 15.598336118315398 -255.273644021037398
-53.217293084069837 12.392187538905295 -256.387766393896300
-51.463154004262556 1.335232648554154 -256.367866595029795
-51.596640827532092 -16.234957821744690 -254.143491965127964
-51.886622384646060 7.364313359358997 -257.228134964493449
-49.851324445957168 22.103459131878207 -255.060344296143057
-52.892485557608737 -16.011013690690550 -260.076922623151404
-50.939750921185784 6.663850427067871 -259.433638431189877
-52.378686998479232 -4.970858040774985 -259.642224127353359
-52.600775125485598 -8.220262369331621 -262.599147321800444
-53.582849940430094 -16.531549152978510 -263.416376524808527
-50.960038166389900 14.091163585347712 -261.627088207147665
-52.408257217167915 -15.364924030441493 -260.030002657640580
-54.332892214657178 -15.398257511971927 -266.376041711337450
-56.070657315962208 17.077161678129670 -265.019872025929715
-51.542167228760825 -6.451385079618962 -263.658041210741487
-55.185240620214778 10.037224666944800 -267.448611679214366
-47.932368152641310 -4.052489977976581 -263.210339791810043
-47.139759739624971 -6.336874623113975 -267.922157844793105
-50.685760483159427 -14.442895808890690 -267.179347361775740
-53.010187104952536 18.470264351249728 -268.926077753591073
-53.927007285733715 -8.428496269049106 -269.183144074061545
-49.867663366987820 5.046392647170051 -269.565758385111280
-51.842096756352724 -13.954341268751175 -273.847695040755696
-53.460435727994067 -0.966263962005959 -271.058981511819695
-52.045750884558004 -5.312360666109363 -272.318534700796874
-53.175046398150130 15.610225104238474 -276.351355730383546
-52.247220016583178 -8.665151291395080 -277.303611025662576
-52.119279234587580 -0.840674620318214 -278.064487212195331
-51.956346257265132 12.749551574880051 -273.515765173101727
-50.036993113134649 8.573678264044810 -280.414500618855186
-54.107772248043233 -6.169660813979220 -283.637355878570531
-51.058153300481536 -6.621190207277678 -280.228973087582233
-51.466489028398101 6.887652633701260 -284.580065014565093
-51.081373335444063 3.489384904426915 -281.949924792581783
-52.538980896383826 1.159583206380180 -287.009413196873709
-53.585355683773081 8.435695261834102 -284.499989796897239
-53.361535636685787 3.313325693142914 -286.107337979333238
-48.592832787774263 -22.597014062342993 -4.742713872761223
-51.166845401274422 -28.414255351754228 -5.170909669894705
-48.663562302491471 -34.560783230235337 -7.381002416869283
-48.349920568752381 -12.986555127012338 -4.855070990382002
-50.403058283991264 -23.291655342037025 -8.265658522317921
-52.246229513348730 -25.881358177366565 -8.660958850887603
-50.459739917105296 -31.005081121362792 -7.339604825918492
-49.480339836472922 -19.025282083430014 -9.915089948292454
-52.768158544762194 -29.041912845058960 -9.799724953598574
-51.882341010907091 -32.140217860294086 -10.666544479535041
-50.345459766804758 -17.041463961717586 -14.387294995740668
-52.846188192101913 -32.057095480712455 -12.298346669484637
-50.518743521686105 -30.971551552223310 -14.463370111040224
-52.349923884482187 -36.802746546678129 -18.353352781339066
-48.504224621770668 -37.216611563930158 -13.537335098664258
-52.275609863246181 -34.278082005174568 -18.822338462526115
-51.970114659367425 -31.998639417690185 -18.887678480741549
-49.717882501987312 -35.598313862812859 -17.751155725123724
-47.319636112938468 -30.936611752806634 -23.038959103988688
-51.826155792981588 -35.795770410133763 -23.974910100060477
-47.545908149089101 -35.307384368355471 -24.673199042511300
-50.490339741449070 -27.909505452506103 -28.256670514088142
-52.725065923329431 -32.145977106927049 -29.632055346988210
-51.497561765336144 -23.642643246467003 -28.020476352742193
-49.390731082810987 -16.951941426151819 -28.468358646248596
-48.418689131934329 -27.168928281112073 -27.790499767750646
-51.422008818454465 -23.545096163659956 -29.414699105457984
-46.658653786417659 85.502428134907007 -34.060815488119019
-50.357240900416095 51.622258915788549 -41.498340404824390
-50.438106926876912 29.521722429897761 -43.486836589146598
-53.037113821130099 24.939593405489671 -41.767502910257271
-49.489502871541362 73.042966341543249 -44.631324801019439
-48.704489727707461 107.861810120236228 -46.677070951418500
-52.358666270973536 74.514668527125025 -47.254047611699725
-55.035747657612369 -61.076830380428362 -47.777636934444985
-51.256129133003938 -63.549462733555686 -45.374865216411997
-49.732313817975118 69.964107422173100 -47.362837413485082
-51.312070475639551 -79.189214529956388 -47.950100559655517
-50.701935945021219 -80.317242228286418 -48.561900785223223
-51.023735147614403 72.509312883655454 -51.374431254879468
-50.363487973578543 -56.321721548447698 -46.991622644507899
-49.666972602809480 -67.317186359974500 -49.256511062950722
-50.105611736262283 72.618251484766276 -53.218670131771340
-50.071210305091256 37.388866177114267 -51.529886868128308
-50.603181713039369 -55.677127184587633 -48.632708464770985
-52.881836266690442 -56.493904773100283 -51.068428093447153
-49.803598514769909 -88.069819937567175 -56.317820140638815
-48.880252750232110 115.759960296745845 -54.846619694779093
-53.419813949555376 -54.045841225387861 -58.727670438169881
-52.990406500705355 -52.280825906025214 -58.499224634428188
-50.099602050316591 -56.662282776910232 -59.322080816769727
-48.911350176761388 -64.976502384723389 -58.616162072032353
-51.488803806163908 -62.880082289067005 -61.990831206700534
-51.252259170785230 -72.804770880814516 -60.214525320796696
-53.672799091286059 50.738984481559640 -60.261007843961991
-51.896699267909980 -53.244284474615952 -67.343301062932511
-51.663385409423540 -75.797903777423656 -65.400496581588115
-52.634635947582410 52.512652603586680 -63.551589497918940
-51.554301675946427 -76.821707528423190 -63.378671590128036
-53.091830145111224 -50.090570912822422 -65.870313711166560
-52.236740959321239 -87.563209048346167 -62.060116073385558
-49.783889855116463 -90.166351326948202 -64.234575835287572
-50.789202126589558 -49.443023911639798 -68.238788423542672
-50.300424884737062 -83.606857820014554 -68.323714441276664
-53.024968416692893 -89.329920747001395 -70.137938098431619
-49.614314325123757 54.169076844719868 -68.412095652798854
-51.879311498875722 111.248195709224575 -77.017447388679514
-49.820991133975120 -53.008590924754827 -75.708711946697804
-52.324694186601000 70.341858649033057 -75.748954811657299
-52.364554778431760 -85.530730791062865 -79.468096421450724
-48.253337840581011 -90.431122645398744 -79.116570978067671
-52.621937681216430 -49.668073126849976 -78.979881180205609
-48.809665979456589 -89.494139961951845 -79.578426328181138
-48.594191519195974 79.735652081315394 -82.601609521684793
-50.635263292718719 -48.613591758731083 -89.021880628134653
-48.816990511266631 -52.633697578873551 -86.991045979310044
-49.044556571751386 81.688779985263707 -89.493821423222812
-51.458973817865065 -53.228360290368045 -86.970244443170969
-52.327369870655204 -51.052331844414901 -90.260401200743900
-49.928513564697859 83.240362772901804 -92.822567662247550
-49.773516767286694 -51.551648832898891 -93.159025331299176
-47.697823161097048 -54.703520119867235 -93.635075337175692
-54.284892900917704 -57.975190320990663 -94.612630456807494
-53.111902057646297 -55.266950012274322 -94.840891952502275
-47.467913783444047 -56.530014102281555 -97.003162662720300
-50.320113974581425 78.770940545908147 -98.003713853406481
-51.148807989402158 -66.884535782595890 -97.301376026491425
-49.361144953010900 -61.135822601731505 -102.119445570668404
-52.031659573515235 107.511743865118703 -106.411364390731180
-52.456011346215305 -0.032146495288506 -220.630354097454415
-50.041847612349386 5.775699397768895 -227.117490762379276
-49.578298088537679 9.827736259921750 -227.916933434787381
-50.524768082059197 3.284731743888454 -225.063649771214898
-51.939216492231694 -3.309246762386534 -225.432747786637719
-51.979533805519289 2.309303100954786 -234.054503530639352
-49.788452074857638 -10.378265165180331 -231.394084815921758
-52.514804569746509 -10.742417247428691 -231.688366340084144
-49.769730024770517 -4.768975104138768 -233.757625173474793
-52.945282443226709 21.641825992812336 -237.655219029559021
-51.916995262097032 15.737752569799339 -231.456108128622361
-50.930064590311659 18.809046466600236 -230.967286985366741
-50.519212253105742 8.512866504382048 -233.270744135056276
-51.494693734237380 21.252273411162861 -231.578635646270300
-49.400663059280163 19.437293724243286 -231.326178564096267
-49.038140607608064 3.812999230266238 -234.149339104784644
-50.036119511268147 -11.332311767540279 -232.702507874302967
-49.751855853853883 21.305407307479165 -231.930918857930891
-52.022055678238004 -3.861800029592056 -234.904097731145640
-48.741307113701190 -4.334839637233614 -234.873055694179811
-51.141743864671128 -7.120892298175800 -230.014929895621094
-47.007513160434478 5.904805358763461 -232.893230586400790
-49.606178805062875 21.352687515335383 -234.351440390700844
-48.319936647349458 10.215963331106128 -235.866413443662253
-52.192632769010366 1.451860886362216 -235.441805152421779
-49.608415529317988 -2.788655133623527 -237.338370475613459
-50.063030251457931 -6.824982357722654 -231.297134958794203
-50.036622933749733 -14.075773064230255 -237.608097297084413
-51.299927058022675 23.902910741365513 -237.759054137599605
-52.361402873843119 1.005046715586836 -236.897173716624479
-48.735690874077349 22.712570002935145 -237.033368134133383
-53.118708791456690 24.515787307421725 -236.641595832746702
-51.471821709789786 20.353834459281941 -237.249471086626556
-49.659434381853110 16.230342235515359 -237.951121546885474
-49.431874759916994 -2.959503649142762 -238.954513892925632
-51.096257618624158 -15.624982834430462 -240.982651703559100
-53.170218913776282 20.833217572816263 -240.978941210614778
-52.239990480855113 -16.216874691156928 -238.114553828410862
-51.728377422342255 21.333202147573438 -237.629726568293705
-49.888288628554548 22.244721583758512 -239.840077930088967
-50.136688888577112 -6.957872620352823 -239.243797849793140
-52.326354107582702 24.241376084150886 -238.965594874993940
-50.625603440852494 25.778779746062895 -245.443032442599275
-51.361987008802089 20.256168678635120 -239.722535155921435
-52.530997020107478 -1.084735873238451 -237.654829245132419
-49.588447176460974 -12.719497632843936 -241.134962425928251
-50.738982158706371 21.689754946518377 -241.803322785483857
-47.976000049626563 10.027119362400441 -243.309984732109911
-46.940846273594978 20.980994903360148 -242.972016179986809
-50.059511498336811 15.985297457971194 -244.101288321921800
-54.771369532370919 -14.675510364494823 -244.990875850265894
-50.092139964422280 23.778578218143977 -247.740718174690130
-46.323924626319226 -12.321700567892673 -246.987780201462613
-49.030370032450513 9.637493890454099 -247.336984285044991
-50.760970872170113 -12.533571167197309 -249.322901339156203
-53.227739751667670 -15.669751344654948 -246.944985387232407
-51.104768482437073 -12.910705902928964 -249.552417404522316
-49.863898694471303 23.590525743871297 -248.761249305412036
-52.784197225951893 9.796231873852234 -249.070997815419901
-48.005681995332488 -10.475419930605792 -249.157206994786748
-49.703475970452502 14.333802167266072 -254.538669128904473
-49.715719793515383 -9.543534469696112 -255.231142624236327
-47.620752897632300 -15.735754945351520 -256.244199202071798
-52.576592809826700 -7.623913852800595 -258.326695604655583
-52.889535182730860 19.196930656822524 -259.632680926233661
-51.610529409439856 -11.266564692529609 -262.585178498749826
-52.849345505367587 14.835249651070486 -262.628652745203226
-50.868357150301982 -6.654012205613157 -260.195357483140356
-49.417765486220844 -12.426063529657153 -260.538520352164255
-50.095563369053878 11.920212749384058 -264.282639937756016
-51.642521455695366 -12.185837271969802 -266.309873554708531
-50.814069670992360 -2.094735417762394 -264.099348853077061
-51.300916612465436 10.434635546638800 -267.629394739327495
-49.970322774184069 7.331113186504369 -267.957789624241627
-51.451358912820695 -1.678914030499044 -268.657093899821859
-50.638701943506902 -8.897451445106135 -270.616912899479871
-52.104995343627621 9.955706943801856 -271.592865595318983
-50.082045991405558 -10.949856935731841 -273.740521548184972
-50.240506648915037 -8.653550870633087 -275.137776188746443
-50.658957303378628 1.209950400515552 -274.357085671187974
-48.002755683188624 -6.725974974742424 -275.103480678125038
-48.861007859683589 -6.611483553377600 -274.859335361492299
-50.819609149554196 -10.341667020265369 -274.802780539543164
-49.242756010457661 5.041633151409427 -276.653842160916383
-55.245385373760747 -5.279246600664433 -275.743064295661839
-49.555503790746350 -6.318809508685405 -279.697633757029223
-54.793209237675647 -5.758420310467947 -282.178893413860749
-51.424789170464081 -7.235005064097713 -285.145466610734843
-48.447398716483868 -1.681318526386827 -284.282746514272731
-51.116130302757519 -0.168754417836416 -286.066612936062029
-49.808698384118678 4.011641592201737 -285.767979238664964
-51.488836563349501 4.651971106041151 -287.419932219355360
-49.078507109901423 81.686988063694940 -31.443797636542484
-50.174735416381033 86.417610665330187 -32.118531902232505
-48.711573040330215 74.198173441864810 -38.478945301594237
-52.388127335008249 66.085909330975880 -40.018142965383888
-48.298108757529313 63.067381591178673 -38.364394245741764
-51.251546932145772 100.203308999812919 -39.255326925820668
-52.985060122411177 56.271478082801913 -39.350575208114257
-50.436384842092053 45.248507485114487 -41.410147156603465
-49.611723679311950 104.612471508065340 -41.559599956644469
-50.444297910950553 31.900308333070324 -44.419446833855268
-52.276941223882467 39.822554325267674 -40.070800695426598
-49.344089076845769 74.084868809658275 -41.675611849521530
-47.778481676812149 75.620457259256568 -41.247533083838164
-49.503439548827231 -67.700759713969560 -51.267818472977467
-51.521802834352656 23.511935379506895 -48.842307673653082
-46.610783977478512 24.951846071301475 -49.205212140509062
-46.272539964655472 75.900225130176182 -51.608405058654164
-51.255255756612307 -88.054332478179759 -53.970979895271036
-50.119976797055912 72.867765625409433 -55.605216857506079
-48.642362803085987 -60.843145522633094 -55.299830525306206
-50.558404433729365 47.689279843108224 -53.918374476307228
-51.055790617764380 -58.048903180440576 -59.029478609524958
-49.574218940390324 -62.978813778337326 -55.487726875786180
-53.366445349457152 -54.967745420565734 -57.516045361823700
-48.952224896984355 48.403490049496405 -56.504876315716146
-51.095990105959906 -50.329557140693623 -58.803362907087205
-51.632053700162139 -74.272128938483462 -57.055625278071290
-47.206468220680492 -54.708323509637424 -59.135223369769747
-50.795678029080534 -74.871973042759166 -61.469253546372286
-47.737637592029586 -87.026785473158938 -65.109565807694551
-52.260454104199894 -90.110285372085912 -64.359092006594253
-51.950160074526238 -52.028758770657561 -62.574094845970905
-51.420124969072070 -48.620672735222506 -65.123624922247572
-49.274121203448189 -50.178437226292324 -65.793126138354936
-50.634857342469587 -49.473388624102796 -67.024272736630635
-50.550033395774754 -54.780968586653245 -66.683647207249976
-49.377471990438863 65.610890403559296 -73.731446099518138
-49.131916334229324 -46.809545258055977 -76.704592501987989
-50.386967967498137 -48.461930271241947 -77.147174232285423
-51.201343526336174 -53.646836527553972 -86.993110782724912
-49.778642072356128 -50.086674661662279 -84.796134660778648
-48.328527617577521 -54.599008705714496 -84.853250925600847
-50.284753638651068 -51.317457081903754 -90.217617333051820
-49.725834504148409 -52.937003670310744 -88.588254048733546
-51.400738416645012 112.911011303191259 -92.805383894839537
-46.671986276765843 -53.839066617320569 -90.812856746812344
-47.697949649365263 -56.346212554184760 -89.327634202843640
-48.403035014833819 86.853166984816113 -93.000354983343954
-48.125571714955704 -57.587567673515082 -96.907989140011622
-48.909983675113374 -58.790814469909748 -95.960294234260004
-48.765526281797683 -63.775279751906538 -95.663082083190886
-48.085933273947234 -66.575808081789589 -95.436480547032573
-51.034288279185986 110.776176292839779 -98.350379235215598
-49.045787025767169 -68.274000570960794 -99.735634872064068
-46.960665409438349 -71.013628905605714 -100.782689529869103
-51.506658622831601 -61.576243126530514 -97.401787633723799
-51.323638512635846 -63.422409187915349 -102.041282695396603
-49.223624839838365 -71.277018413988770 -99.140138393470679
-48.299464217891220 94.952316284743262 -103.430177398457758
-49.727950557795204 104.206870809770919 -111.804842025693702
-52.356245926722593 -1.208713532420647 -223.936327705452669
-48.747149032762167 -3.802162361679681 -224.372366676066918
-48.781161353835174 -4.832755735008757 -227.009685659217581
-48.534061766416542 -4.311491653504838 -228.105411929166053
-48.181413013407230 -8.299135879219236 -227.221188425732862
-51.543105471766097 -7.341839293369372 -230.601978131402035
-50.862996312627374 -11.356458099081731 -231.301994111518951
-50.018850828494529 -3.194241367574651 -231.980660756694704
-48.459558363070904 14.878406474379224 -233.016233335046451
-49.129274601891026 12.166342179197450 -229.825388008754118
-49.983515271254781 0.455797747846715 -232.058914479892792
-50.104647261720316 -6.432598262493578 -233.216706902272222
-51.092694639013310 7.390341801542303 -232.376184133851240
-47.985362991783710 19.292881200025818 -235.364562406244033
-49.471605609009870 0.511840173647501 -233.353695028800558
-52.454096362141989 -4.625482376881763 -234.687534696556611
-51.666942565958315 24.173397271148524 -235.737001946822005
-48.019255348369015 1.493287675892184 -235.325143284864936
-50.099518778135739 -4.778616890514769 -234.658388216938306
-50.478713018277730 23.853367031326165 -236.245840204123084
-48.951497301220670 6.907542817960748 -235.771470894602118
-51.633622196740525 -1.385091789452186 -236.498488170996893
-51.115011957973948 26.132532882202781 -236.721699842752088
-48.244993654602460 27.204124790191450 -241.253691740840878
-50.858757991047845 -6.271253684745357 -242.163500080305482
-50.570862232146979 24.474693314041751 -242.102096766339486
-51.199223019430164 5.463671528876286 -239.814114523543054
-49.185955218359894 13.588939304005301 -241.202497559633059
-48.825499142881121 -9.894136496678556 -237.781280864499877
-50.156365192671437 -8.911149711696901 -244.163004008377868
-50.825294640025810 4.966159338737318 -246.140428206672084
-49.400376784767559 11.923456373081603 -249.374046612213249
-50.349053653580029 21.471632002231971 -246.610432781240661
-48.452957215268199 13.542579711700377 -247.583598119185410
-51.078575582439434 1.824860175173972 -248.243653496319268
-49.739760450475707 -10.023920568737235 -251.690846560480281
-53.317104594803077 11.466574512605639 -251.878796124776898
-51.232587630766247 -5.582745511162113 -252.577873211258009
-48.065949677595803 -0.182378058138768 -254.432483529930266
-50.226368303482126 15.552693076423985 -252.213115533722544
-49.110787909481360 11.881135881538913 -251.666311213701192
-45.719909185868147 6.220528695889979 -256.904803912860416
-48.664756759672578 -2.554969993578917 -256.407902165778694
-53.215562790788987 6.611311343210693 -262.566168265033639
-48.276746727133627 23.694670083759512 -46.103183492429842
-49.330023116205929 71.939856202810205 -44.971645793397471
-50.530068932967410 72.376467325314366 -45.602512715507608
-47.074136791869492 -70.094482948560326 -41.391034058137897
-45.238950975594477 -63.649197704424182 -48.325567115605857
-49.638023720011937 -70.146049930989079 -45.035401911767707
-50.060035130003904 -77.180353174221480 -46.023605994683116
-48.457430463142025 109.675385442861156 -48.353862299295983
-53.108207618690820 -60.810962937570650 -47.487484717518882
-50.154066550238859 -71.315794169945804 -49.154002141813159
-49.632004309814555 -84.329306721271465 -48.365492142648847
-46.873285775730707 74.961352583460013 -55.731475521952319
-50.281950019039826 45.328966831018320 -53.569980810006186
-52.966654127269763 -55.252415307340044 -51.105211253544866
-48.468864558726878 -59.220544956725959 -52.122105078727998
-48.039564023202885 -58.765286570109197 -53.143979632238668
-46.064482768614319 -54.217386988243689 -53.930329421376143
-49.332700197627602 110.550895086271794 -55.424848868852223
-52.836210270814888 -65.857303885073534 -55.421438391565871
-49.626748229591399 -69.150324504923077 -56.165550403470533
-50.368501595805654 -55.777086209635200 -57.117749378051954
-48.465275145531201 -73.277054617709993 -57.351268546237307
-51.608155314094738 -49.829877574904920 -64.257308375981225
-50.195514579101250 -85.152055396237529 -63.082742473774715
-44.422729979792372 50.716388515486933 -67.553694030864690
-46.013785171695261 113.444406723800057 -66.540753098247137
-49.053294665295617 -51.768648834791499 -67.108661375868266
-49.091454285591183 59.749979333428008 -71.728948835874220
-49.599490680951568 -50.971207064862995 -76.023585711503003
-49.384539098385275 -47.899604812939515 -74.430934952114896
-50.850592567037573 -52.023997911225280 -78.049994284057917
-48.697271840914162 -54.544629111160091 -81.156212017349091
-48.801619345051911 -56.658210889184787 -81.749111003045158
-50.822757762476080 -55.171631457824120 -82.168795440848029
-47.576462366077280 -50.361638003233381 -79.174458750631217
-50.332678129709947 -50.014114057957862 -83.334255606364863
-49.094387935117865 -55.287082426766716 -85.825065481919026
-51.479778527335043 -55.824704120888782 -87.932186412332257
-48.379685766963014 -55.636960440705806 -92.486428399664788
-47.952231205967500 90.521397285034183 -95.407551556948178
-50.484941969006549 111.724744116836050 -96.816871002196933
-49.778055251693544 -70.849331421562169 -94.719728279371836
-51.877171356408574 -62.485386022280380 -97.766813262094217
-47.712142600799361 -67.079354232336456 -98.727837463849440
-52.387236112932889 -64.133691781817433 -97.000740094931842
-52.276943402057071 -65.714703661707972 -96.785632657523635
-49.885657651598258 111.189129434349042 -98.154474004929938
-49.303280480489846 -77.102040229051767 -101.078469251668281
-50.145221634910534 -82.291532229167572 -95.934233962228816
-46.569105485305585 -65.677945000752729 -100.401955995479966
-50.954345471512333 -82.720497361461014 -99.306251462744854
-48.160894548673348 -76.770301730926832 -104.323106670235916
-49.564152982149871 93.215638946972547 -103.278893471052811
-48.802759004425994 105.731171689432500 -107.529808090608114
-50.232893083607500 19.114597276783130 -235.480893627079467
-47.042992309035995 24.598814592623654 -231.077151029270340
-47.398522477973067 15.097363633375998 -233.834310149627839
-49.657028822969622 10.991780486631692 -238.435505202961195
-48.690865062166907 20.971613543875861 -234.719983524159659
-48.692117719505440 16.853216448606133 -235.266556596424778
-50.286882502925195 16.057348095994861 -238.014861334203488
-49.665334880881566 17.715160145543312 -242.210935696647908
-49.184955655103508 12.779533916585775 -242.638141104815617
-49.556467911181798 92.454313763649239 -34.615656509899623
-50.538085419067521 66.591151224081898 -35.573148287222914
-47.861323288244165 53.326671673275492 -43.779395571313458
-49.050682493338478 105.077051698545873 -45.081883522202418
-49.008676107504868 30.825029641689358 -42.162566130444880
-46.383146173325272 24.580584539363315 -43.267394430706197
-48.356661044147756 22.184555058696652 -43.193006604447007
-47.278980783602321 -62.689671311480467 -47.805260974654942
-46.896547210951688 107.913828360000764 -46.627768580393436
-49.109448330994411 -65.178210130380819 -45.824961737572650
-48.532790837790756 -70.668432610584333 -46.996031125502491
-45.489435330268797 -74.364653399536010 -47.854633606121858
-48.004767987656599 -59.037006916999616 -48.496898717168854
-52.391062098352648 -83.478843375205628 -50.330281505684042
-45.001529099782140 73.820435619578433 -50.392679241900282
-48.705795780170320 72.104175626728178 -49.626007081573761
-45.958301686020860 33.374388875253331 -47.759766832867328
-50.027818599322394 -57.519683504434127 -48.908371247933331
-46.377189718070774 42.450020903229387 -50.714503811874188
-45.561325494925335 -55.713714530095686 -54.674456342015574
-47.069885162935691 -72.416392112802512 -55.878398116204124
-46.341914777022588 -85.223155471381588 -56.224863613195197
-49.893629766492680 -73.572463016890808 -57.888049903964415
-46.825037462947790 -54.961955991861416 -56.822674278427939
-47.570365295523452 -79.138645751292913 -57.682448758567347
-48.326018306618771 -88.875244888745982 -59.083738809879591
-48.730847457093041 -81.478998679179810 -60.027416962158696
-45.360017285986871 -51.554333437474241 -63.486933972424495
-47.944392897470479 -55.535944549960576 -60.894700756745621
-47.609744877544443 111.770961297510198 -62.383589086079041
-48.792172237416132 -53.563387395716916 -63.889339114284525
-46.644323916231080 -51.429213194536523 -64.716616758119031
-48.323089201038300 -50.168663777291982 -65.222251172136936
-49.602699649754186 53.238137281382329 -67.574645111803733
-49.133820259280498 52.815006282117814 -71.480539522078828
-49.824073038617946 -48.174682027511572 -67.317894324207984
-48.794177719709275 55.010430785657022 -68.919389243714150
-46.317516262525508 -53.233854838703692 -68.989988010188895
-46.395943324706224 -45.927022510817444 -69.098769722130541
-47.514273342585454 -52.021344278711140 -69.144040929054910
-46.963924716580145 60.945579155876565 -72.319761410562734
-48.564782446824999 -47.186514238103960 -75.770297485363642
-49.276942516248987 -48.742362727957698 -73.738552242654151
-47.298387950378498 -54.693934955366586 -73.379651337154144
-51.088197301396598 -54.504574566566774 -78.153230845663430
-46.549112605289501 -55.843014727516021 -76.748285684680113
-45.123909326333518 -50.322951465566810 -80.676971776918265
-48.139711282992650 -53.607428441000195 -81.159821266353134
-46.173396637042373 -53.365680527865493 -78.510580211561319
-46.265936307087642 -58.339146550131133 -80.326878954425183
-45.674278636211405 -49.797675859018931 -79.808431420123867
-48.635023882990758 -50.378144032174852 -79.194756962413166
-46.039526424410269 -50.278466097923932 -80.723956376515119
-44.371683737638655 -51.435003015395729 -81.023478670254590
-46.470370043522429 -55.916864986827633 -81.733653875151447
-46.350950144100224 -53.566922171673625 -79.747331019629954
-47.805840421213105 -57.070764238350066 -79.651507315290658
-47.422390079349590 -46.972108150439674 -81.143106449460049
-46.222277433163470 -59.676192814638583 -84.551721710530273
-46.564164213164318 -54.992178245560254 -83.942023680700842
-51.295690496721718 113.120222478931566 -84.657754727897242
-47.234175073019493 -57.597789391735176 -87.710961183643931
-48.728532113560178 -49.480673050041062 -87.852481228340110
-47.037881374482730 -53.998776458083910 -91.140297793703340
-48.293835928333273 79.744335799721668 -89.519299410728294
-47.771406589447977 -91.907570146912676 -93.894918812831250
-50.410960519587611 -54.205724688568651 -91.818252778579705
-48.880358792547710 -58.290252695150301 -89.101847744245759
-49.269877572827085 -60.716276495734704 -94.145439794204748
-46.825997990292088 -59.288470166790248 -90.961695756997358
-48.988339603095447 -57.182692963965877 -92.248431228418099
-48.205475485157166 -49.541839145955755 -88.137854951979861
-47.109576959040588 85.348944479415323 -94.809786500981190
-48.967915623257440 -57.661192642782666 -95.376347723071632
-46.766298401183121 -86.900053288067497 -93.771229724265297
-48.441405383341596 -58.199428573993586 -94.865030813634050
-46.497152947179551 -88.367009216345508 -97.925995309950920
-45.206183818863749 -50.545315625266426 -95.054762737808915
-48.416818474616235 -58.822335775534796 -95.467873247488996
-47.163907654132352 -86.266245063198980 -95.906926070583310
-48.260657304287456 -55.403923309335909 -92.919431761101919
-46.671709983523776 -63.166111230032243 -94.899067649784797
-48.962863922092836 -85.629261637580228 -95.891615648847576
-46.015136096659653 90.238631164150377 -98.205875516473455
-45.704550627114472 -62.808915894704512 -97.333258267690198
-46.742858788817735 -84.047186744857157 -98.874569752085350
-48.653460233972659 -71.834409026392720 -98.551091148490798
-49.490479426031847 -53.266402845074481 -99.732963433813637
-45.188260961638498 91.666602765871403 -101.671336688551406
-48.589559969253173 -74.150222030051054 -102.729211799836463
-47.744687609932683 -70.320876344260668 -102.630812047133915
-45.613904891736048 -76.475669857772345 -98.333196086587705
-49.463378490398377 -80.507057281579591 -100.915265206807049
-49.366946229614904 -62.241530466205830 -98.533698656688500
-48.913486562127595 -76.503198956296188 -101.926812732424779
-48.930348260166923 -81.703241212645310 -101.561999728332310
-47.761541389354264 -77.247291930747735 -105.430229160144393
-48.545125577953421 107.783808530258653 -106.454027093146195
-46.307993688839183 99.376009100013832 -107.500304137047323
-46.691080361079905 109.069590271725673 -107.037471193371289
-47.471737431376638 86.610242648692221 -33.624004785148379
-47.825511032445185 74.046226498455752 -33.635454211200816
-46.885399864357588 62.352525600208715 -37.412383760618340
-46.201223150263345 62.740633401651436 -39.494144068920306
-47.356768652976733 77.506666208447257 -37.880486718346802
-47.491014919455452 104.255289646233905 -39.983550405801374
-47.558556437352536 56.474891687892466 -42.631829018614752
-48.842421933754643 23.107779959320773 -45.247814026520004
-45.903144288269658 -70.530706205482147 -44.754692178684344
-47.209450420166803 73.862522823840465 -46.778545634621260
-45.893530404367901 -68.757057363258554 -46.965546457329687
-47.028669346319212 -65.547372182983622 -46.474960120959601
-48.192900867506012 -82.908179524031141 -48.036202815557758
-46.347859052636103 -60.859552927652501 -45.951260439681413
-49.315250941762500 -70.455615351412291 -46.980768917407033
-46.136020558032556 -82.673031336736443 -49.106532521623755
-46.136263422292068 -64.728517394625129 -47.507748231435343
-47.101641289662922 26.080622184573883 -51.968504869847266
-48.313850345174451 -70.008235949421234 -47.315888068926157
-48.193170770191458 -83.787983156781948 -49.003527651112606
-44.842280966682445 111.254272956529391 -50.086922780317565
-47.689935215031660 -63.191701348711945 -51.322411734299429
-47.748789987310204 -64.508805613646174 -50.727993637922040
-46.018606683116602 -89.357501248812980 -51.810016075690839
-47.124010797443091 111.755090815976430 -52.134197281025394
-49.352719773868380 -55.340749239327579 -53.387341176375848
-46.778292106050195 -87.261866553042978 -49.141662163878401
-47.566485280166020 -82.723775857828485 -55.105461086554854
-47.229679034518192 -59.882874603228785 -57.409470859028062
-47.168220033653981 -68.828681218218378 -57.071750192238781
-48.988444999576330 -76.932462295100194 -56.189714001780942
-46.205867472080598 -87.974675078518587 -57.242754047830303
-45.664850024776094 -73.198362695797414 -52.939176054479795
-48.447415648086121 -53.747141602575368 -58.481465894436923
-47.370076171451920 -52.660143774664832 -57.649736193986243
-50.120843005679745 -58.061416361071608 -59.051614952059538
-47.634970251533197 -59.366400077613349 -58.454580652322576
-48.999825500410772 -83.011234916105934 -57.592290746363787
-46.344600917559269 -87.049074820828068 -61.732491681221006
-47.735133283659358 -50.839826064054726 -57.495462625523629
-47.903489008756218 -57.717389316859098 -63.239435511586223
-45.421960191996490 -58.318104242307484 -59.249687435870456
-47.578925726133996 -53.769302300652384 -59.857723185371086
-46.946959724846408 -46.023920533680254 -62.748788509411952
-44.958401289552484 -60.633900678867747 -63.322061814324059
-44.026576790473761 -91.157786327915886 -64.934040832410062
-47.439811591323512 -51.658000904671361 -62.747887826888189
-48.118190805785801 -90.292160038561576 -66.381606533810128
-48.167112352297316 -58.581115255843002 -66.202872016086914
-47.232743431458736 -92.439382005364010 -65.623208582579920
-46.504100016547895 -50.460427393865103 -70.005478253910113
-48.190100585274529 -92.067731784775177 -72.699681846279134
-45.505388437482559 -61.590164068448573 -71.246718907106910
-48.642365787004707 -54.909062085397494 -73.184929374193544
-48.989658027729718 69.017551808473712 -72.515168852357519
-46.838193974336015 -92.059201827822193 -75.489440833629928
-47.290026014789206 -56.320958428652816 -74.831891041870719
-49.912098535480702 115.801081095496201 -79.097386570683611
-46.647337964119217 -54.727875469111794 -79.371078946077176
-51.115253021891640 -58.986642439530542 -78.409010250823627
-47.341887040028951 -91.032497596542171 -77.623793409931665
-47.539409823247077 -94.562908296273704 -79.216311266333761
-48.394287694795473 74.025612526574875 -78.012458857015218
-49.398194359867347 -52.096799393009121 -79.133976680983963
-47.850298573040561 -52.390110778808605 -79.205945583220625
-48.338092633784825 -65.327671691903191 -81.233747607226363
-45.334474824712466 -54.040217389006443 -80.242274982988306
-45.881961366885029 -92.269403354431930 -78.932181529814244
-46.244982963052848 112.485829659332694 -81.609887758748400
-46.314616952777847 -69.286967590401488 -86.457626945953706
-48.648915382751561 -51.241189123735289 -85.091853066108285
-45.138778904483715 -93.865473253517237 -83.155270733182590
-45.487924666361209 -92.374711130363821 -86.230836188080303
-46.411990700743729 -91.352196806637551 -85.795179941943488
-48.478952978787262 -50.191968917972886 -85.350171242483640
-47.594414781844982 -57.578530256767863 -86.352505143525136
-44.441025505998162 -71.323126842589133 -86.075857030997469
