# This PCD file was generated using the MATLAB® pcwrite function
# from Computer Vision Toolbox®.
# .PCD v.7 - Point Cloud Data file format
VERSION .7
FIELDS x y z
SIZE 4 4 4
TYPE F F F
COUNT 1 1 1
WIDTH 1438
HEIGHT 1
VIEWPOINT 0 0 0 1 0 0 0
POINTS 1438
DATA ascii
-79.322357 86.368988 -60.331608
-84.773682 54.377205 -63.709133
-84.844025 59.897987 -62.685787
-83.883568 54.024105 -64.207840
-80.595695 44.924835 -67.200035
-79.989021 48.559147 -65.607124
-80.507523 86.199570 -61.694748
-79.831337 47.390289 -70.937111
-81.711334 47.227657 -70.225410
-78.790855 94.677986 -71.817055
-79.849525 54.127190 -72.974419
-82.604118 55.761494 -76.882622
-80.085907 103.082764 -93.639000
-81.506416 89.322586 -97.849670
-81.551903 94.962479 -99.021378
-82.822136 -26.185707 -107.999428
-79.731735 -28.365240 -114.070618
-81.793007 -19.223650 -115.783981
-79.806427 -23.722906 -119.321991
-79.031029 -24.896156 -116.953995
-81.621201 -21.131971 -120.221481
-80.139702 -22.457846 -124.433029
-81.527374 -19.853247 -124.583755
-77.482277 -16.689501 -128.510941
-80.713707 -18.744431 -136.204453
-80.180084 -17.372293 -138.936813
-79.854362 47.371788 -161.684723
-79.021156 17.520340 -158.587967
-78.588303 68.158447 -166.932022
-81.140350 67.495041 -163.768127
-83.910896 23.448753 -164.702881
-82.124893 28.273737 -170.263153
-83.627289 38.008644 -176.842499
-81.637436 65.747200 -169.614563
-81.648560 60.239803 -175.223465
-86.734924 66.963432 -176.859207
-83.967758 40.736752 -180.886337
-85.664719 62.937931 -179.798050
-82.357338 50.115086 -178.398758
-81.044617 61.136909 -180.237045
-77.887833 45.577003 -180.954742
-79.945244 59.453712 -183.032944
-82.636169 58.763336 -183.971100
-80.755249 54.229877 -184.552170
-76.144554 157.778824 -186.060150
-80.047859 43.586735 -187.426453
-81.013084 154.135880 -184.257935
-83.922737 59.939224 -182.857285
-79.798973 161.173355 -189.624802
-81.400566 153.511581 -187.394531
-81.609520 146.306961 -191.614471
-82.616379 53.048580 -185.160553
-84.097328 52.688431 -188.704254
-78.540504 160.388519 -184.983337
-82.371803 157.952896 -185.220627
-83.471443 162.646729 -186.699341
-82.424721 165.396454 -195.959274
-81.699478 154.804749 -193.719727
-81.930298 53.396603 -187.083633
-79.944237 47.046906 -191.238831
-80.298531 161.876282 -189.243027
-82.184280 155.431305 -188.240051
-81.362587 149.942123 -190.680878
-82.278671 68.278183 -190.837250
-81.393173 48.084797 -189.810043
-84.468102 166.436020 -194.017654
-81.199547 156.102585 -196.847870
-86.003410 61.541061 -194.876205
-82.765213 73.340454 -194.245605
-81.787628 160.215042 -194.165894
-83.894363 155.151001 -194.764664
-79.531532 82.778702 -202.219101
-81.571152 66.093964 -193.463135
-79.849846 47.633839 -195.947235
-81.984039 44.742123 -199.744064
-80.466827 159.724075 -203.676178
-79.322830 152.139862 -201.430267
-83.600075 159.263962 -199.121902
-78.589203 91.820267 -198.791306
-79.813858 88.069412 -206.076202
-86.782181 89.354156 -208.220947
-82.733047 157.275665 -208.041061
-83.546661 3.656063 -206.069626
-84.275040 156.731903 -209.469620
-81.498550 161.597290 -207.634918
-83.336639 -1.234962 -208.329865
-82.433334 161.527817 -216.747452
-76.944550 0.709188 -212.354965
-75.074562 -0.133889 -215.517746
-83.223053 169.892670 -214.069229
-79.944298 143.561920 -221.864944
-85.811333 0.025749 -220.769257
-78.801575 146.625061 -215.595123
-81.546951 3.527906 -219.148163
-82.620575 2.024717 -226.873062
-78.523193 -4.186136 -227.426453
-80.082657 160.829117 -232.087814
-80.669571 -1.656424 -233.740753
-81.957077 0.632268 -229.049026
-83.181595 -0.448869 -233.132828
-77.836868 -0.866391 -230.439209
-86.348595 3.741813 -234.937241
-81.789124 1.182069 -237.359009
-80.046204 -6.338959 -234.542419
-78.509125 -7.110271 -236.042023
-82.825935 -10.545558 -233.877335
-83.209030 164.097610 -237.804520
-84.597855 13.984382 -237.811905
-79.750908 0.844331 -237.294464
-78.822754 18.504759 -245.415390
-79.963684 153.997314 -248.650925
-78.571533 149.127274 -247.371063
-85.799522 -1.784905 -244.308807
-83.062393 19.395626 -248.278534
-86.747536 -4.789452 -249.245285
-80.980759 170.915146 -253.459610
-74.186966 -4.210173 -253.735886
-84.908249 21.882004 -250.103546
-80.874519 -1.882766 -262.142029
-81.276161 17.490017 -260.405365
-78.548477 13.792827 -262.546539
-82.558540 1.237248 -266.684570
-80.562263 7.694777 -271.051361
-83.486542 162.033035 -277.474243
-80.036400 159.155640 -276.089172
-75.841026 162.072113 -277.334351
-82.999161 163.874207 -281.368805
-82.315239 160.668304 -280.728333
-82.186913 149.732819 -283.128967
-75.794891 156.835770 -283.632904
-79.605896 163.856171 -292.451355
-81.732948 75.470764 -49.082085
-77.618584 61.807438 -53.735741
-76.061478 71.359810 -57.176079
-79.158302 59.147846 -56.368103
-82.611145 85.319992 -62.185509
-82.387192 76.261734 -59.235332
-80.479950 55.731792 -56.287601
-76.555977 51.973469 -53.266796
-77.906639 55.249844 -56.796322
-80.297668 83.442657 -61.088543
-83.077797 51.902412 -61.020706
-80.136497 83.800606 -62.986446
-73.328873 45.844311 -60.811108
-78.789215 99.476402 -69.560097
-80.380928 101.843147 -77.099998
-81.165680 64.017548 -78.004837
-83.106194 97.256813 -80.751282
-80.339355 66.523590 -83.415291
-81.622009 64.105301 -79.953407
-79.369835 72.539406 -85.801094
-79.745834 70.233475 -83.481308
-78.807076 77.393059 -88.108177
-79.276100 80.077644 -85.986885
-75.591652 87.430565 -96.929001
-77.809814 97.838905 -101.155830
-82.008759 -30.589840 -101.797310
-82.300949 -31.697893 -103.340446
-74.633469 -22.468966 -104.018608
-79.837997 -23.647324 -106.163658
-81.722191 -33.502331 -105.218788
-82.944092 -24.458136 -112.113708
-84.327164 -28.133198 -116.599136
-80.466797 -20.369020 -121.604858
-80.372612 -28.949282 -124.126160
-82.546021 -24.005686 -129.002823
-81.268997 -16.972361 -130.430191
-79.550613 56.687923 -137.827591
-80.618256 55.352360 -141.348053
-75.820839 -14.901067 -141.195557
-80.053627 -16.048653 -143.573227
-80.540550 53.870579 -145.134918
-83.031166 -21.800234 -150.646927
-80.623589 52.414040 -149.836258
-77.626213 47.056252 -154.692917
-79.350815 -14.196459 -149.616089
-80.746613 48.619400 -148.342712
-78.169403 -16.371178 -156.351196
-75.160477 47.404884 -158.778122
-81.202858 51.669724 -155.180328
-81.877045 68.811974 -157.585907
-78.402237 21.117226 -161.357834
-85.191811 -17.832275 -159.783005
-83.212044 41.628124 -156.032944
-84.423431 75.256508 -161.554749
-81.164177 -9.297275 -157.168045
-81.205788 17.750116 -161.467667
-80.786705 74.572632 -167.354645
-79.780998 46.977211 -161.398178
-80.843346 46.834629 -164.225357
-85.507805 72.064529 -163.121613
-78.287277 41.681820 -167.194260
-76.967018 40.402294 -173.423859
-76.856606 65.473709 -172.096085
-81.352097 48.583813 -169.355789
-81.240944 37.116531 -168.622253
-81.195564 40.123795 -173.267609
-82.008797 32.986656 -168.749191
-85.062714 39.970680 -171.540970
-81.403114 43.395702 -171.505707
-81.080391 36.855129 -177.832123
-81.789108 36.400898 -176.557144
-85.316650 163.624969 -179.471512
-79.584808 156.269089 -177.828018
-81.167763 36.177139 -183.259109
-81.388618 38.657837 -176.336075
-81.517395 162.571579 -181.743835
-82.148331 31.095703 -175.483261
-78.090698 45.249771 -179.831665
-78.277077 37.130756 -184.050201
-81.605835 51.862812 -183.656021
-81.422203 49.796700 -180.987427
-82.461052 32.444382 -185.640640
-75.903648 49.715439 -185.289566
-81.064049 33.731831 -183.979660
-78.608109 164.960693 -183.795990
-79.153992 53.981907 -187.534851
-82.327148 55.174873 -183.949722
-80.176537 158.909027 -189.025543
-78.210838 147.151230 -190.494797
-80.007217 159.550766 -184.859848
-75.875702 49.618229 -187.629501
-79.921814 142.385849 -186.597626
-78.096176 36.486526 -190.293259
-80.289108 65.298225 -187.525299
-77.371452 52.485367 -188.902451
-79.246918 24.847130 -188.717346
-78.626808 149.303955 -194.905136
-79.335274 33.076241 -188.383041
-81.358963 65.578293 -194.367722
-82.115677 62.498878 -194.441116
-75.212433 28.367157 -186.988647
-81.322990 52.321659 -196.497070
-78.554176 60.309555 -198.109818
-78.058205 42.790916 -197.829422
-80.416710 -3.497441 -196.281921
-76.578712 84.652679 -198.348877
-81.133987 72.387756 -192.219803
-79.381432 43.102333 -195.151535
-80.925400 47.601120 -197.316742
-78.497154 73.307671 -202.326218
-80.479012 26.803274 -200.337128
-78.939415 157.253967 -201.975388
-83.900368 23.705278 -199.533081
-79.586853 2.006164 -198.731476
-79.340256 84.720398 -205.343643
-75.553551 39.138981 -198.242844
-79.930115 43.558685 -198.211914
-79.577179 93.299042 -205.006851
-78.554161 88.245689 -202.931061
-78.910561 -2.108991 -209.663696
-84.815926 6.107641 -207.236404
-74.235909 -0.025072 -210.067413
-79.659935 25.097414 -208.129272
-80.373741 19.422552 -205.052109
-82.016281 15.662039 -207.882141
-79.484955 5.097249 -212.119781
-80.768654 12.432378 -211.832611
-80.514069 17.194706 -217.020889
-80.771324 11.367593 -216.645248
-81.429543 16.556450 -215.058365
-79.782463 -0.165450 -219.080307
-83.022629 13.320197 -219.784821
-78.688736 148.420898 -215.031525
-82.210609 161.987778 -219.384460
-78.664276 153.963699 -222.289261
-82.458771 163.552200 -218.236023
-78.675537 -1.170054 -220.041824
-83.903648 157.421188 -224.047119
-83.016571 -8.992543 -227.323257
-79.541382 41.024815 -229.990662
-77.699081 49.102985 -231.745895
-78.559151 45.747284 -233.644714
-84.108978 59.493813 -230.040146
-79.529007 43.840992 -226.328339
-76.999832 46.786633 -236.663315
-81.628532 47.328991 -230.931198
-78.846550 53.314915 -232.650192
-80.036217 54.296249 -231.914795
-74.861732 2.473555 -234.695908
-80.317757 17.876842 -240.703262
-81.028206 13.875088 -241.025406
-78.530235 -3.132440 -242.579636
-76.419090 15.656064 -242.911072
-77.487289 -4.196981 -247.189697
-82.033966 158.931732 -248.987381
-81.796059 -1.759977 -244.507202
-80.992653 165.492584 -249.849030
-78.183426 -3.395372 -261.087006
-78.810287 161.506119 -255.390320
-80.185005 18.564220 -264.537018
-80.197578 160.418549 -265.537750
-80.562035 161.443939 -264.881653
-78.565910 163.283066 -274.542664
-77.663437 11.606602 -270.371674
-84.614136 4.563809 -267.754669
-79.865791 153.462860 -276.911591
-84.745453 157.368744 -275.520416
-80.195702 162.395630 -269.765015
-78.660927 157.002670 -270.782379
-76.520859 154.429535 -278.271667
-82.585411 168.284042 -284.344299
-80.772797 156.201370 -280.995514
-78.140366 150.771881 -278.938568
-81.868637 155.812408 -281.276123
-82.357689 164.842606 -284.757385
-80.921860 154.725464 -283.003296
-85.154106 166.229996 -282.282074
-80.364700 166.211426 -282.178040
-76.810471 164.058304 -286.872742
-79.216202 157.257248 -292.309174
-80.387184 161.844559 -290.714661
-78.521729 70.085434 -52.819782
-80.027184 65.705116 -50.791874
-80.356384 85.489807 -51.483295
-77.389740 59.766342 -53.609127
-76.157990 80.309761 -51.165768
-82.816795 59.683727 -61.492302
-79.928589 86.727913 -62.273228
-83.207283 36.634277 -58.582443
-79.018822 41.964127 -67.491890
-77.760574 41.927849 -67.689857
-83.073112 95.323441 -67.943596
-77.966362 41.585258 -63.997356
-78.330765 98.157341 -71.148460
-80.479980 98.862328 -87.406097
-80.953659 84.470520 -94.731544
-79.935799 91.250015 -93.407089
-79.398468 -34.244343 -92.984825
-81.595245 -32.556259 -93.967804
-80.689186 88.206825 -94.261490
-82.375259 -30.206308 -97.817459
-82.555305 94.649696 -99.890579
-81.005173 102.928795 -104.342926
-79.439499 -35.667679 -98.598236
-77.091690 98.538795 -100.036827
-79.920364 -29.813297 -101.670097
-87.412468 -38.249592 -102.127235
-80.326004 -30.382389 -110.322533
-79.837471 -26.402262 -109.866829
-80.926277 -19.588610 -111.354507
-78.199127 -27.868603 -116.247429
-85.448227 -28.945560 -112.697502
-80.593399 -18.924299 -124.370285
-79.798897 -25.381222 -118.138397
-78.846878 -20.458628 -122.263603
-77.907562 -21.666069 -125.407806
-78.183746 -25.103043 -124.333488
-77.949623 -19.296173 -125.215416
-76.652817 -21.193422 -136.708588
-74.574867 -19.479338 -134.271378
-83.593109 56.893024 -140.048233
-78.393356 -14.876349 -143.132858
-77.969765 -15.421216 -135.115768
-74.686401 64.215973 -142.618332
-77.224518 -17.083626 -143.986526
-79.297775 53.375126 -139.694290
-77.777550 61.237881 -142.142349
-80.967728 -11.307047 -145.387665
-78.041313 48.022179 -146.039886
-79.425667 -10.368374 -151.709152
-79.235390 79.727982 -146.379425
-76.552879 55.519997 -152.921082
-79.468803 -20.706261 -146.894257
-79.646164 79.834396 -152.915955
-77.948303 75.754005 -151.698120
-79.845596 45.697857 -155.173279
-83.715759 17.672680 -160.811859
-79.886108 69.746758 -157.243744
-81.816017 14.356276 -154.393951
-76.430008 43.089737 -159.111710
-79.851242 54.636707 -156.157913
-73.342308 76.104179 -157.004532
-80.666672 -18.626162 -159.542648
-82.012756 23.726534 -160.379929
-80.011253 -10.477875 -162.862610
-85.207031 19.999584 -159.697769
-78.119576 20.645535 -158.320480
-80.540482 47.970314 -164.630188
-74.776611 38.955059 -166.046280
-78.798393 -14.571204 -163.850204
-79.903374 20.176107 -169.163467
-79.440872 32.822437 -168.612808
-79.670868 -9.239589 -168.626816
-82.289734 -13.406816 -161.629883
-82.847946 43.522991 -169.127136
-79.141403 70.953598 -170.943726
-81.005547 -7.848718 -165.944000
-78.902084 59.234211 -172.320114
-76.103554 71.021751 -170.978165
-77.484848 61.169712 -173.594040
-79.262947 30.117319 -172.725998
-84.220726 63.705242 -178.325302
-72.470734 155.246017 -177.198822
-77.288979 60.565758 -181.788513
-80.768158 -4.409389 -179.862564
-81.091194 44.884476 -186.311127
-80.082230 42.767948 -181.304352
-78.973206 37.894630 -181.599716
-78.042297 -7.979989 -180.022263
-75.407288 35.205666 -178.516312
-82.172997 54.527534 -180.966553
-78.269615 59.005695 -180.206482
-78.436516 29.086687 -183.699432
-79.987617 154.359512 -187.172379
-78.447166 -1.484667 -187.611771
-77.352028 29.224930 -184.125854
-80.629265 55.451611 -189.681641
-74.567810 36.457375 -188.767685
-77.285980 -8.238562 -187.376556
-80.947365 1.983393 -188.245117
-78.906883 51.191498 -188.809875
-79.330391 66.715157 -195.259064
-78.857544 -1.104028 -191.200089
-78.295944 155.830917 -189.584106
-80.022041 161.393127 -194.184341
-84.052849 28.728144 -196.366196
-78.478355 64.506416 -194.531799
-82.702477 158.377792 -193.295624
-85.497391 155.477600 -193.561142
-77.316032 -3.339756 -194.684982
-82.756203 79.026413 -195.823013
-78.382950 70.767723 -192.144272
-79.622246 84.838234 -196.814133
-81.949890 70.100204 -194.008148
-83.331856 4.806803 -196.673065
-76.863861 75.417915 -201.268188
-76.709213 85.932312 -192.174850
-78.670647 20.513353 -202.073410
-80.908104 76.973907 -200.772415
-81.861061 28.091284 -197.886429
-78.194290 92.971954 -201.395584
-77.762466 19.423576 -197.532776
-79.534767 82.430946 -205.993744
-80.910408 91.569763 -204.353882
-77.224106 41.604027 -205.271255
-81.910530 2.924891 -204.765945
-74.960312 41.759880 -206.419189
-77.617599 93.160675 -208.938980
-78.103767 14.835340 -206.968872
-81.657425 -3.964443 -207.888016
-84.101746 34.203346 -210.247726
-84.561256 37.545567 -203.843231
-83.184311 2.669580 -212.680191
-78.838692 23.867256 -210.068893
-81.303246 -2.574270 -208.576920
-84.233330 20.000803 -211.444504
-79.297585 0.628375 -212.770172
-82.633102 19.301031 -218.074524
-78.549431 8.852024 -215.526321
-82.271996 -2.856614 -217.279144
-81.094933 156.824310 -217.935593
-76.444504 13.849413 -218.779419
-81.170624 159.798981 -216.930405
-81.535011 160.553558 -216.075974
-83.225281 -0.868041 -218.604874
-76.476669 161.130096 -217.207932
-82.293953 162.494675 -217.425781
-83.905296 0.963858 -216.691299
-76.849609 157.235046 -219.887604
-76.568336 11.014515 -218.580292
-81.803612 16.028460 -219.639999
-81.133232 8.618448 -227.382874
-79.317795 11.321079 -224.699402
-80.740540 2.755902 -229.299118
-78.489494 -4.830878 -228.156219
-81.318031 4.120796 -229.740219
-80.181091 42.800980 -230.661362
-81.467049 42.503815 -226.321411
-80.880524 33.213360 -230.041534
-80.389816 48.646046 -233.983459
-76.357483 -6.476994 -229.651413
-83.748940 36.302757 -235.059372
-82.916954 -1.032152 -230.359573
-81.096588 -10.919781 -242.136932
-79.633713 64.040123 -238.921036
-80.133629 45.097347 -233.389526
-80.131783 62.998714 -237.440750
-78.866692 62.977051 -236.577911
-81.178757 62.432499 -236.892120
-78.545975 62.777473 -231.710510
-81.189194 54.652081 -236.474747
-80.756393 1.096617 -235.292709
-78.025566 164.295120 -236.478088
-79.355530 160.625198 -237.147125
-77.022919 6.854215 -236.429016
-82.758545 8.777358 -237.431107
-80.134499 -6.373487 -238.563110
-78.398689 -8.822755 -238.695709
-77.280060 164.418549 -240.933990
-79.497177 158.498581 -246.131363
-78.424019 163.115952 -241.189926
-79.716003 153.829346 -244.710800
-78.376991 20.576094 -245.737564
-80.338226 165.716919 -248.278702
-77.864197 163.109070 -250.852676
-76.905853 145.824585 -246.863541
-79.302422 145.805527 -248.506317
-77.575623 153.929062 -250.424530
-79.375931 21.771481 -254.486938
-82.488121 152.456924 -255.365662
-79.649971 -7.300257 -251.138779
-78.853867 -9.551381 -251.895996
-81.531342 163.963089 -252.628082
-80.066406 156.107285 -256.644897
-83.440620 160.848877 -252.792923
-78.646561 -8.160933 -257.504791
-80.845596 164.282410 -255.878082
-83.492172 160.224380 -260.407593
-79.708183 156.910553 -262.748199
-77.624016 -11.021351 -264.367096
-78.646263 -5.964712 -264.364807
-82.103935 16.260366 -266.687225
-78.587242 154.502274 -269.182709
-81.632263 17.611494 -266.631592
-77.459473 -0.296206 -264.503479
-80.295975 8.808017 -272.709717
-82.258720 164.413834 -274.027039
-79.483444 4.055481 -272.519867
-78.721466 147.988632 -277.164337
-75.709457 149.269821 -277.897430
-76.231010 149.895508 -282.066711
-75.658989 148.287689 -279.801636
-79.348740 153.741638 -284.405060
-81.484993 158.739243 -285.738983
-82.151619 169.369125 -286.754639
-76.196167 159.813293 -284.878784
-78.896721 162.343384 -289.190704
-79.500565 164.867493 -289.995575
-83.602348 162.572510 -289.312744
-76.144890 72.646500 -48.617001
-78.230919 64.307762 -48.190876
-79.724388 71.824608 -51.294594
-78.291458 80.283913 -51.851440
-79.545242 78.129601 -52.019924
-77.439789 65.295494 -53.495575
-77.685509 51.597565 -53.633152
-82.419891 56.439068 -56.500793
-78.012054 53.299431 -54.664356
-79.008873 86.804199 -57.146454
-82.471664 87.356590 -56.786694
-82.763420 43.561779 -56.633369
-80.353966 91.160248 -58.944584
-74.808350 43.533092 -59.113926
-79.104698 37.692322 -64.834793
-77.239441 34.775948 -62.977402
-78.026161 99.066513 -65.902763
-77.229744 46.691124 -67.014175
-75.588554 -67.211990 -72.512497
-76.220749 54.881638 -73.462502
-74.663078 55.808193 -73.791466
-77.660805 -70.316025 -76.792877
-81.058296 61.650425 -76.558876
-77.167389 78.444046 -81.388359
-77.558899 -37.337574 -91.317139
-79.217247 88.193619 -95.099121
-79.993385 99.566292 -92.627670
-76.530632 -38.327446 -90.146507
-79.990372 -41.992294 -98.999458
-79.406403 -30.413914 -101.875809
-76.788231 -26.860939 -106.446869
-77.613670 -31.756748 -101.773453
-76.149254 -30.092564 -105.731201
-80.108986 -27.854794 -107.315971
-79.912094 -21.253979 -110.868172
-78.913239 -32.753868 -112.721825
-73.929527 -20.146103 -111.705139
-82.316544 -25.915737 -118.791641
-78.079140 -27.242098 -122.545189
-78.649521 -18.119558 -122.117775
-79.685234 -13.339248 -130.217957
-78.731300 58.232826 -128.835709
-77.149315 -24.592224 -135.563858
-81.824753 -12.444171 -133.673065
-75.002762 -18.776226 -135.051147
-79.068657 -16.396891 -142.159637
-77.549316 -18.668793 -139.104019
-76.184753 56.662792 -142.848236
-78.814072 -10.687572 -143.986725
-74.055923 50.278728 -143.611984
-78.050491 80.265511 -148.475571
-76.576904 77.285896 -146.314514
-84.028831 55.280834 -150.488556
-77.849518 74.807373 -151.646622
-77.029854 50.449566 -149.059601
-80.422424 -17.536411 -148.958130
-81.433006 74.801445 -153.181946
-72.711456 -13.726254 -150.564911
-83.050591 -15.379274 -148.209686
-78.611534 82.944557 -155.551208
-82.162720 48.442150 -157.038651
-80.977463 17.363115 -151.827454
-79.593529 11.743337 -161.759827
-79.202797 -10.291543 -157.269653
-77.931862 48.386749 -158.186447
-78.756653 17.198456 -157.877625
-78.414246 -12.809148 -157.860977
-77.961349 50.031094 -158.340637
-75.598602 -7.099062 -162.341660
-79.876442 42.727390 -159.435577
-79.348701 44.359936 -160.190903
-78.077042 46.825058 -156.537720
-80.243683 74.102058 -162.937180
-79.856491 70.420494 -166.825119
-73.505516 -11.188394 -160.208099
-74.107468 -12.157417 -158.721298
-77.874985 71.743645 -166.163284
-82.000519 44.044128 -163.952011
-85.966919 30.780479 -169.028854
-79.587250 44.104984 -164.994278
-75.703651 68.551201 -162.855133
-78.754311 22.618013 -165.680573
-75.000328 71.878769 -168.943817
-76.429573 47.126907 -168.141388
-79.133354 41.915668 -169.192612
-76.387115 -15.813928 -168.923660
-76.972847 34.611870 -169.711533
-77.578445 70.124565 -171.143768
-79.359634 -4.684051 -170.725327
-75.628159 65.752907 -171.825974
-79.286842 58.544956 -171.380997
-80.807343 32.078465 -167.803436
-77.817932 70.042534 -173.980057
-71.590935 39.522747 -175.613388
-79.801155 39.349545 -174.483246
-79.271126 34.316444 -175.613968
-75.251778 -5.255248 -172.470993
-75.700729 61.527916 -173.243851
-82.873772 40.435284 -178.544128
-80.249550 -7.185539 -175.513641
-76.620354 58.393768 -177.939056
-79.396286 44.889168 -179.690201
-78.577469 62.343750 -176.805435
-76.822311 -4.736895 -176.051788
-81.758461 57.617043 -180.157166
-75.351295 32.247078 -180.086166
-80.611977 38.592457 -180.105499
-80.293633 -12.261321 -179.663116
-81.679703 52.992874 -184.534225
-76.704338 161.865265 -179.762650
-77.514153 60.865078 -185.755844
-76.993935 35.326050 -179.669968
-72.296814 56.940231 -183.265778
-84.370300 39.456829 -181.176559
-75.700203 37.898739 -183.485809
-82.234863 52.058987 -189.710236
-73.592926 47.113224 -186.657516
-81.420456 35.613457 -187.373276
-83.402031 33.156521 -187.537033
-78.696190 159.177277 -187.992035
-76.672173 53.817146 -189.246643
-75.821991 1.664878 -190.564774
-76.477348 50.585209 -190.616745
-81.021645 -9.741408 -190.119995
-77.119446 24.197783 -192.078171
-80.395302 42.352215 -193.534515
-81.687622 28.827272 -192.810226
-79.617928 72.651726 -191.383926
-75.055664 42.866844 -199.786682
-76.413307 24.079580 -197.817535
-78.954483 80.874672 -199.080566
-79.321503 74.860619 -202.911758
-78.740936 45.630669 -201.946594
-73.344345 0.618896 -196.492020
-82.258316 -6.319541 -197.945053
-74.643707 82.678650 -203.691757
-80.250412 23.747797 -199.011719
-74.209808 78.462746 -202.165176
-76.632729 23.654282 -202.178055
-78.778244 161.732132 -203.846176
-77.969940 44.437931 -202.126999
-77.985825 24.798655 -203.932175
-74.442238 4.369912 -200.643188
-79.115860 94.666130 -201.625137
-73.615891 -3.227680 -205.643799
-78.489662 87.877213 -206.992432
-77.114098 100.997063 -205.286652
-80.150726 22.170837 -202.509369
-78.664406 22.640535 -204.747284
-80.115265 149.821289 -200.516327
-78.886047 1.282000 -207.251740
-79.285187 29.200886 -206.975296
-76.090454 40.595036 -211.660782
-75.797707 2.770368 -208.196762
-74.147766 36.614262 -208.160431
-79.160217 15.798449 -214.842163
-79.178909 30.044357 -212.370346
-79.477684 157.325226 -209.696396
-79.221420 160.000580 -210.573120
-80.203308 30.477407 -210.528229
-78.716019 18.211145 -214.480011
-77.746552 14.192901 -214.876358
-81.037666 168.383972 -214.179871
-80.799911 150.220215 -213.770370
-80.211784 -2.832614 -209.428421
-78.277626 149.705017 -216.262787
-78.155663 151.744064 -219.405365
-82.251633 17.597366 -210.224396
-77.585831 8.725254 -217.298920
-82.968414 -6.638549 -218.126755
-81.281982 146.737366 -223.148926
-77.652321 160.295349 -218.937531
-73.058296 3.475942 -218.859695
-79.387817 149.733765 -221.013474
-78.790970 171.606995 -217.572281
-77.194000 152.788269 -225.101013
-76.876320 13.371872 -226.948303
-75.789307 154.779907 -221.758774
-78.381981 7.275494 -224.805145
-77.421104 169.043427 -223.073776
-74.032639 158.210434 -219.770035
-75.000900 -5.825461 -224.111877
-77.539490 -5.312496 -226.103333
-77.393494 14.170816 -224.885895
-78.243813 154.350693 -229.915909
-77.109558 37.289871 -228.751282
-81.089050 10.307601 -231.700607
-80.951065 37.470184 -232.183685
-75.931915 31.807745 -224.324371
-80.540604 161.924301 -229.473633
-79.976974 157.319427 -227.011673
-80.983803 4.909689 -234.768295
-77.011391 162.596970 -235.564804
-77.840225 35.658848 -231.373581
-77.142151 67.267151 -232.703293
-80.888138 35.389061 -234.152527
-78.776978 47.931831 -232.810059
-78.887398 66.868927 -236.660080
-77.800407 5.592131 -232.184921
-75.764511 68.445869 -235.461395
-85.060364 5.681780 -241.496887
-79.407364 0.339237 -235.849548
-79.655121 2.332519 -234.166351
-80.567429 71.351791 -238.388031
-79.626587 161.832214 -237.120346
-78.003632 65.169289 -236.544876
-77.955566 72.995338 -236.885132
-76.839294 68.833656 -240.085907
-74.620415 -3.106112 -242.754730
-78.628807 20.277475 -240.013199
-78.015465 21.763042 -244.981186
-83.085480 166.077057 -244.137878
-79.947037 158.090027 -248.654114
-77.816422 146.894669 -244.336945
-84.000305 144.587418 -248.527496
-81.152290 25.049479 -249.942123
-79.046432 148.979599 -250.636810
-73.932884 147.284500 -255.964462
-78.765381 23.234797 -256.692017
-76.177742 20.419483 -263.684998
-76.859825 161.807343 -260.087097
-79.065842 160.689896 -265.981903
-77.209770 158.212021 -267.411957
-80.927132 158.724457 -262.042267
-77.890366 160.643555 -270.317993
-74.790688 164.286469 -269.649628
-81.799812 16.083540 -269.171692
-77.240860 0.910414 -261.543915
-77.703354 2.308654 -269.758179
-78.248108 160.137512 -266.561768
-80.510147 157.221039 -271.280548
-75.115433 10.589437 -272.884308
-81.113876 157.166519 -276.314026
-75.904045 148.153824 -282.884033
-77.625786 29.049948 -278.639221
-79.545578 53.569508 -278.378418
-75.880493 36.919067 -280.225037
-77.885071 40.857193 -275.773224
-78.698654 37.225986 -278.558289
-77.134842 27.874086 -281.664246
-76.293266 21.683512 -284.764130
-75.897179 155.822510 -280.620941
-78.894180 0.225826 -280.630554
-80.618744 -5.537364 -278.541016
-77.607697 150.494858 -277.291168
-79.225410 2.927602 -278.771698
-77.113762 162.668396 -284.503540
-78.204926 162.123169 -293.266937
-78.569984 162.631760 -296.964172
-81.262436 161.836182 -290.887512
-77.051331 163.974304 -297.047028
-78.362747 160.213867 -301.384857
-73.528923 164.501007 -300.703827
-74.545959 68.597694 -46.350918
-77.644310 63.881336 -49.301983
-77.938805 55.393246 -48.505344
-70.533501 81.160980 -45.194683
-76.864815 59.420071 -50.116287
-74.832237 59.631577 -49.994911
-78.459167 50.000191 -48.031490
-78.043060 48.375874 -50.896717
-80.402916 92.029388 -54.328415
-75.390648 38.397240 -61.371052
-81.694130 43.234459 -57.575401
-83.638756 38.745735 -71.970833
-74.352585 39.270203 -71.618370
-75.791489 -73.660439 -68.401649
-79.827080 -70.656776 -73.947823
-73.608818 -67.616081 -72.025169
-77.021812 -76.234917 -69.585663
-79.144325 -69.143585 -76.231728
-77.219398 -73.514832 -72.612076
-76.637451 -73.781181 -80.655930
-78.798325 -65.529770 -81.037582
-77.241692 -79.077980 -77.227867
-80.932411 61.127533 -79.016350
-81.298225 -71.693726 -76.534401
-76.709435 -70.116661 -81.484024
-75.549255 -83.872139 -78.273880
-77.154640 64.482208 -79.637627
-83.761452 -69.937111 -82.869453
-76.254234 68.881538 -83.051239
-79.335289 -75.969818 -85.189651
-78.409241 71.503258 -83.590439
-76.119171 -40.600616 -93.327530
-74.311684 -31.481373 -98.907181
-77.539307 99.707848 -98.847694
-75.157249 -31.375549 -96.662163
-76.689438 100.124306 -101.339638
-79.209396 -35.639015 -101.194000
-76.876511 101.248863 -100.959991
-80.944153 -34.427071 -107.358505
-79.088890 -24.399712 -113.059868
-79.366463 -30.198704 -115.660965
-74.065208 -29.747147 -122.040741
-76.943436 -18.105204 -113.542709
-74.247971 -21.883835 -120.865562
-81.476753 -21.989254 -123.245461
-77.406853 -20.417934 -122.704140
-73.354843 62.662201 -132.926086
-78.431564 -13.357760 -130.900589
-75.476509 62.752789 -134.947418
-75.668411 60.653728 -135.296432
-75.749680 66.367004 -131.520844
-75.012909 -23.903557 -130.989609
-75.181190 57.719902 -139.067307
-75.713882 55.070499 -139.406281
-77.100662 54.178387 -136.052032
-80.623940 -100.388992 -139.823212
-75.797722 68.313950 -141.889450
-74.622414 56.212765 -140.927643
-76.844002 53.491676 -142.087997
-80.352249 -14.612255 -141.210663
-75.259666 59.041176 -141.542786
-74.793846 79.547462 -144.352661
-78.655800 81.694138 -141.113388
-79.050453 -101.531189 -149.225082
-79.372238 -102.029236 -146.853317
-77.715469 58.255817 -147.492371
-79.871330 -11.696217 -149.406631
-74.550964 -96.759529 -150.343353
-78.278130 46.075073 -150.779114
-76.678368 12.269495 -151.960449
-79.350609 -17.544294 -152.955536
-76.301056 -97.565773 -154.663345
-78.361473 71.548401 -156.952942
-75.874153 54.552055 -159.175293
-78.519997 70.476204 -160.409378
-78.232582 -99.918335 -158.974945
-78.678246 12.805598 -158.126358
-77.701637 -11.986212 -157.908142
-76.017265 70.339447 -159.373642
-75.941628 25.008741 -160.544540
-77.311668 72.189255 -158.649139
-74.472076 -94.462143 -159.219727
-75.389229 76.296608 -161.407196
-78.860161 66.639763 -165.001343
-78.843666 27.926767 -161.458725
-81.661514 14.155052 -162.027390
-75.042145 65.753548 -163.668625
-77.201492 -101.635780 -162.672104
-77.357498 -97.304626 -163.731308
-81.065468 43.840942 -165.779404
-77.489059 -15.940348 -162.005936
-76.201447 -97.148087 -161.485886
-78.734833 47.402393 -165.172073
-81.809097 30.191099 -162.828186
-78.258492 26.837523 -163.817535
-76.086205 35.787304 -169.103302
-78.435181 -10.087305 -164.728851
-80.422462 66.962044 -169.801331
-77.008217 -13.175957 -167.157318
-75.523323 67.416672 -164.322403
-79.572685 27.008038 -173.285370
-75.216530 -101.380653 -169.012497
-78.993187 28.698517 -165.269867
-80.397240 -91.165886 -172.749496
-76.567734 33.399078 -172.889343
-77.270943 -3.504787 -172.822128
-78.542648 -94.106827 -168.595413
-70.837364 65.768501 -170.853241
-76.079330 -95.403976 -173.570755
-77.938904 61.461292 -171.247620
-74.315788 -13.341152 -172.819885
-74.562515 68.253784 -175.927368
-77.962921 44.861858 -171.708694
-75.772949 36.657406 -174.779449
-79.157944 34.668015 -179.317810
-75.287994 -9.328375 -172.177200
-80.006653 35.255550 -172.111679
-80.054016 158.515030 -178.627975
-74.353378 63.095959 -172.056519
-78.454987 64.268959 -176.324066
-78.679909 -95.564697 -178.173065
-78.368019 69.158051 -173.206161
-80.431290 63.805958 -174.366882
-76.419830 -98.183914 -176.204849
-76.420341 38.397480 -171.285675
-72.305199 -7.828435 -177.160187
-80.126144 161.184616 -179.060257
-80.929375 -91.391296 -179.844635
-77.103615 59.214729 -177.121140
-75.579559 -11.011163 -178.641693
-79.747597 56.583965 -183.652481
-78.485680 59.117779 -184.982651
-80.785553 156.702347 -183.914703
-84.424774 -84.265663 -181.827850
-77.187767 55.123455 -179.766251
-73.234291 -0.950886 -185.302979
-75.427551 156.532394 -183.361954
-78.506996 169.783875 -182.495483
-71.148293 55.888309 -188.634628
-72.891243 -93.033752 -183.792938
-77.840172 152.749847 -184.199249
-79.925652 51.309677 -184.137283
-76.172600 151.410568 -187.313339
-75.707947 60.489017 -186.764572
-77.576637 28.810163 -186.836700
-78.157043 24.780914 -185.973938
-76.151131 -8.333429 -183.917023
-78.651443 147.973267 -185.580292
-80.286301 49.086658 -188.879517
-74.011581 49.723469 -186.887421
-74.447182 -4.932851 -185.268524
-81.453239 36.084152 -187.614426
-79.670441 -90.056564 -188.873718
-78.537643 -2.536122 -190.627396
-74.841652 -88.084381 -189.893951
-81.725975 32.997265 -186.653824
-74.979591 158.770767 -189.625366
-75.357597 -87.274612 -193.187454
-81.334129 155.189926 -189.758072
-80.840797 52.044052 -188.034195
-78.995506 1.454539 -184.709579
-74.522827 148.279022 -193.852921
-76.800194 -5.871791 -191.613968
-80.201103 24.980038 -195.182343
-75.726608 165.912659 -191.341431
-80.336647 51.213936 -188.267441
-77.502983 52.949593 -191.003708
-76.967010 156.210648 -192.855972
-75.884979 158.278717 -196.146088
-79.053726 3.492620 -195.156845
-78.930031 166.855759 -194.428543
-82.380600 -87.373245 -196.236954
-72.525337 153.636948 -197.983002
-74.278389 -0.916117 -197.657028
-72.213478 -79.752014 -193.518143
-78.336014 -81.724060 -191.297836
-77.459892 80.326973 -198.757065
-79.593010 154.441650 -197.871613
-73.613716 86.068390 -200.067200
-78.221565 41.484753 -196.303741
-73.973526 29.408907 -202.041000
-70.493111 23.491442 -204.011993
-79.377563 46.421528 -199.898911
-82.227333 161.413208 -203.700089
-76.652237 92.574921 -201.572174
-77.466797 81.021545 -201.507706
-75.345741 41.013092 -200.001160
-79.417694 -77.707695 -202.763443
-79.705696 18.246965 -201.446182
-79.081802 -82.869888 -201.988449
-79.881020 161.075668 -203.108551
-78.376884 83.848961 -203.586807
-78.795944 42.787861 -199.528137
-79.866837 39.213627 -206.364136
-78.630714 4.874915 -203.357605
-79.235939 46.747746 -205.188263
-79.560966 34.877644 -202.755630
-80.353493 -79.270813 -206.250931
-75.308952 99.630013 -201.113968
-75.682602 27.252705 -206.074005
-76.511353 -77.153488 -208.929489
-72.636307 103.311974 -206.756088
-76.272873 89.606865 -205.956314
-76.426331 -2.129844 -208.173813
-77.533752 -4.755440 -207.346405
-79.915382 39.564102 -206.621216
-77.987892 -76.270729 -206.453629
-75.453430 162.361542 -207.231369
-77.157562 101.230011 -207.488281
-77.455246 95.133560 -207.735382
-79.039696 157.210144 -206.316833
-80.856384 13.914698 -212.513977
-81.336433 17.291187 -208.988358
-75.472984 158.399033 -208.629791
-79.516251 27.222460 -205.932053
-75.849174 22.798803 -208.642776
-81.819191 -4.188331 -212.554352
-77.488174 -2.921090 -210.939804
-79.886543 27.729467 -214.185684
-76.977783 25.166269 -212.532089
-78.099861 9.219691 -216.189453
-76.893280 167.227112 -218.812271
-73.905128 147.271271 -217.294601
-76.838921 25.780111 -214.502350
-78.867096 148.932877 -218.907928
-80.711639 11.116696 -215.696808
-75.758186 1.369312 -218.472122
-74.589348 12.944450 -220.819016
-79.309013 17.061123 -219.769165
-72.418159 155.029846 -217.050934
-74.665260 150.120453 -221.362930
-75.116478 6.928440 -223.046936
-75.585388 12.951423 -221.938889
-79.693436 6.718599 -223.651276
-78.233307 156.370682 -226.393066
-72.129395 161.780441 -220.397690
-75.710991 14.646249 -222.743729
-75.054512 0.202028 -223.076324
-72.783264 10.696888 -233.649918
-73.858704 28.244823 -229.009201
-79.730019 41.129536 -229.612000
-77.725601 4.364760 -230.581894
-76.820885 0.665305 -227.985260
-76.933861 51.568810 -226.819504
-76.052361 29.318619 -230.230637
-80.091293 62.398838 -228.178284
-79.167442 3.818865 -226.491531
-76.060303 161.078262 -232.039078
-78.556412 162.037827 -233.359360
-81.085136 32.968506 -233.544662
-80.819458 13.780267 -232.778580
-79.702362 37.451870 -232.461929
-75.575050 2.620772 -236.156036
-77.067947 70.626755 -231.597260
-79.403389 49.525070 -238.613419
-76.824562 4.012249 -235.362732
-83.382706 158.186401 -236.586090
-76.201187 161.573685 -234.758499
-79.820496 -1.233247 -237.551270
-77.918701 161.146378 -235.189346
-79.257530 61.481220 -235.932343
-78.895279 77.763313 -234.535461
-74.931282 -6.282413 -238.466965
-75.009438 -4.952782 -244.662125
-76.849144 -7.019944 -235.871719
-80.604622 -10.823454 -234.463928
-72.434387 78.045433 -237.623199
-77.172775 72.945602 -238.551056
-77.459328 80.268822 -238.738327
-77.521851 -7.964098 -241.251434
-79.079689 158.912827 -241.227951
-80.225067 164.701202 -239.466766
-81.516899 158.130600 -245.046875
-78.544930 168.598465 -244.090836
-76.618988 24.773794 -245.653000
-82.134216 152.369919 -250.168549
-79.216530 26.429659 -247.591232
-79.230591 -6.971749 -253.856125
-77.606255 150.953323 -245.593796
-72.344398 19.846628 -249.306763
-76.202744 162.923355 -255.018906
-78.083374 161.772614 -254.711044
-78.407059 160.657700 -255.736298
-73.420158 -8.290127 -260.202881
-80.722237 163.055176 -257.688629
-78.322472 -5.404728 -254.913986
-72.731361 160.220581 -260.471436
-75.662804 13.645802 -267.670715
-74.981934 16.256193 -264.957855
-78.807716 -1.336483 -272.116180
-76.012596 14.965281 -269.057404
-76.679489 6.344736 -268.152283
-72.168716 9.745076 -276.674683
-77.788605 46.660603 -275.941162
-77.226334 41.116234 -274.395508
-75.883362 64.946114 -273.839264
-78.113899 50.954292 -276.699341
-76.607094 139.183105 -277.177368
-79.316422 27.420712 -276.712097
-77.712402 19.461109 -275.411743
-74.961189 148.145676 -279.116028
-81.139519 43.387180 -276.455872
-78.232018 37.932121 -280.012878
-75.229256 137.028351 -277.931671
-80.102257 57.215202 -281.330475
-79.553368 13.038216 -276.862427
-79.746117 138.792191 -274.118927
-77.772842 7.739106 -283.259064
-77.740547 -1.013385 -276.629547
-77.815971 64.334068 -284.199097
-72.175964 -6.474658 -279.776764
-79.959068 139.554016 -279.117706
-75.409897 136.409607 -281.946655
-77.019630 49.583199 -283.986267
-74.090111 11.558193 -282.195953
-77.599083 -0.480718 -280.842224
-81.976990 143.851959 -280.718903
-81.484261 54.716454 -283.450806
-77.249969 49.191902 -280.140198
-75.793030 41.855057 -277.800385
-78.351891 12.441331 -278.281586
-74.634277 34.752495 -286.036041
-77.880592 25.434490 -285.103943
-79.884995 17.605268 -281.430695
-80.335526 17.388355 -279.711151
-76.604012 4.420908 -280.237732
-75.602783 0.480921 -283.015747
-76.175056 168.136612 -291.575012
-72.814362 156.880173 -292.726196
-80.940842 157.838196 -296.969788
-79.189865 165.385223 -292.191467
-72.322792 160.329086 -300.570282
-76.432732 166.250107 -302.942078
-77.320885 163.541702 -300.380676
-77.474823 77.733192 -47.502766
-77.717361 67.835281 -48.546631
-76.080872 77.695724 -49.650543
-73.482948 57.586628 -45.520153
-71.286942 60.249050 -50.162167
-78.711967 79.382179 -48.967144
-77.263222 87.449211 -45.925102
-79.679527 49.228466 -51.928478
-74.053299 53.946396 -52.875431
-72.907143 90.221992 -52.788479
-75.792267 42.753170 -51.707001
-75.638611 44.532478 -49.965363
-72.007652 90.425995 -59.298920
-76.874023 33.603321 -63.210831
-76.535988 92.752403 -59.147907
-76.580711 38.684978 -63.289967
-71.908325 35.772713 -59.952858
-78.913536 -75.688789 -67.110100
-78.062057 43.127945 -68.691147
-78.133224 -75.192703 -69.951859
-80.480408 47.115940 -71.057663
-77.606339 -81.078690 -70.474503
-73.854362 -66.074165 -72.645958
-75.526001 100.577232 -70.185524
-80.142776 45.715427 -73.364853
-77.953194 -59.621574 -69.960526
-72.193329 -77.308670 -73.503273
-78.838188 -61.593025 -71.741760
-74.486870 102.415993 -74.910652
-79.499115 60.941757 -72.015579
-70.896629 -62.694248 -69.173714
-76.746384 -79.752441 -76.765388
-73.287697 -63.164356 -82.159538
-74.777885 -83.220741 -77.857536
-74.338272 -61.453392 -80.127769
-80.512993 -62.855900 -82.436501
-78.172722 -76.954521 -79.046333
-73.160713 -69.118309 -83.369751
-74.672523 -68.354530 -85.453461
-77.318695 -42.653294 -86.298950
-76.694946 -69.622391 -85.006737
-78.214531 75.437721 -87.758316
-78.007118 -79.478569 -87.854927
-77.945183 -40.547623 -86.382378
-74.387955 -43.386635 -88.778152
-77.047310 -37.920658 -93.603752
-76.007729 81.929756 -91.271858
-76.572670 -38.160599 -91.814072
-76.307770 -33.748764 -90.732239
-74.454498 93.892326 -89.583893
-74.882706 -36.287373 -94.924232
-80.118553 -33.778950 -96.473831
-76.876312 -31.352743 -97.949387
-73.579979 -39.910988 -95.085747
-77.682701 -24.507591 -99.664848
-82.392220 -35.381527 -102.871216
-77.003258 100.092522 -105.785728
-74.903542 -27.457411 -104.077415
-78.538315 -24.354288 -110.063950
-74.768867 -31.129063 -114.157898
-77.650047 -104.210205 -121.364166
-78.148216 -96.603157 -124.924576
-70.489441 -13.476821 -122.514824
-74.237747 -29.391375 -123.284164
-76.667229 -9.933358 -127.122414
-74.688736 -100.125351 -127.022720
-77.183701 -104.438057 -126.949852
-77.145187 58.576900 -129.284073
-72.842430 -100.912865 -130.205078
-75.557594 64.259010 -135.079590
-77.169647 -26.790232 -131.900467
-76.805420 61.172592 -133.431381
-75.237053 -104.295380 -137.260544
-80.542160 -98.767769 -135.729126
-77.238182 -10.737294 -133.389877
-74.785843 -100.747421 -133.514099
-72.111847 62.860840 -135.527374
-72.779778 -7.899357 -138.355865
-76.208961 81.584686 -142.126999
-77.331505 -102.001190 -141.593475
-75.885048 79.174553 -143.734528
-73.144051 49.038540 -136.812469
-74.746506 -23.624395 -143.841217
-72.301743 -97.075531 -143.996902
-80.279327 -103.681602 -139.090866
-78.935165 63.024559 -141.215988
-75.681236 86.941154 -138.665939
-79.913376 49.915173 -146.970642
-75.012283 -20.204437 -149.342957
-73.783958 61.909679 -148.647186
-77.750031 -5.901766 -144.793182
-78.269714 77.064583 -144.445129
-78.196587 76.204071 -150.799164
-76.498276 13.732515 -146.832962
-76.064201 -106.529686 -148.186462
-77.263443 7.358293 -147.293732
-75.355354 48.458141 -150.813797
-74.726616 7.416597 -154.295578
-78.026695 -9.919971 -147.800217
-79.459938 74.554161 -148.933899
-69.841240 58.221638 -151.655106
-69.707840 80.722382 -154.147476
-79.157997 -20.478758 -155.535919
-78.487770 57.371059 -153.018173
-78.219200 -17.365154 -153.340454
-76.959473 -103.453194 -158.157394
-75.572456 76.418480 -158.397812
-75.621986 19.792654 -159.197647
-77.259483 69.535133 -158.280533
-79.042595 43.106499 -154.673233
-76.704056 -6.679828 -156.539978
-80.103287 52.021004 -159.945038
-78.745438 18.560844 -165.488571
-76.431541 71.851212 -164.888123
-75.353706 -17.562532 -163.525116
-78.665016 21.455553 -164.954514
-75.327576 55.955551 -171.155914
-75.766075 42.265781 -161.907257
-72.715996 39.523697 -164.227005
-76.253700 20.565611 -168.667770
-73.218704 64.427887 -163.176834
-79.680191 70.361832 -166.796219
-77.035927 77.774864 -169.629837
-74.410667 -8.105691 -166.958176
-78.257362 -7.099672 -170.476334
-77.190392 -16.195450 -164.139389
-71.724731 67.811241 -169.863785
-71.726486 67.221466 -173.025253
-72.271820 49.191334 -168.077255
-76.146317 -92.646027 -170.300690
-75.528793 48.695118 -172.693375
-75.720650 64.339592 -168.574356
-78.380341 63.689655 -173.035583
-75.831688 66.746948 -171.734329
-77.859932 -89.406029 -173.577805
-79.763664 43.024319 -172.793533
-77.141167 -6.190492 -169.821732
-76.717995 37.281391 -170.443634
-76.773155 -5.531901 -173.029724
-76.646706 159.208069 -178.416702
-78.071068 42.730946 -176.409042
-76.335846 34.510986 -179.286942
-76.229332 31.298929 -179.317841
-77.297516 60.183651 -182.230118
-81.308502 -9.698192 -179.181351
-73.287872 -10.284251 -185.048874
-74.187935 50.138783 -184.278351
-79.794868 41.613567 -185.184189
-77.203117 162.415909 -186.813995
-75.449928 -7.829480 -187.345764
-73.503654 164.075287 -186.826111
-81.257133 63.228943 -188.886566
-78.301758 37.142914 -182.606918
-76.715134 31.867949 -186.959808
-73.940628 53.409496 -183.867828
-78.411758 155.523132 -182.266815
-75.321892 45.734917 -190.229965
-71.755669 168.510422 -188.643936
-82.198219 149.044312 -188.493591
-79.810593 166.714981 -192.125763
-76.553917 54.818192 -185.652313
-74.985413 -10.060493 -189.248871
-81.064217 146.025818 -189.537506
-79.464348 151.804337 -186.077698
-77.532524 45.559425 -190.675552
-75.466751 28.346342 -194.582916
-76.538925 40.880783 -194.295029
-80.760147 48.509773 -190.464249
-77.575722 162.756271 -194.835068
-77.371399 48.406860 -198.264862
-76.172607 28.204014 -194.853485
-75.917557 -3.913679 -192.104736
-78.331825 47.993229 -199.945786
-75.853897 46.203449 -191.683823
-81.206688 19.181927 -198.730576
-73.024406 43.046951 -199.644669
-79.869049 -10.104272 -194.732086
-78.991310 42.180244 -199.335739
-77.511101 -89.007591 -204.883575
-80.856155 85.527275 -193.771851
-79.296936 86.551018 -197.999710
-76.133232 161.271835 -200.710663
-75.999031 94.966324 -202.166168
-78.099884 41.388348 -200.810165
-80.439011 159.491730 -202.052521
-76.644279 48.273003 -195.454636
-77.776085 -5.314764 -200.626114
-76.880714 -5.972176 -201.246124
-74.267784 87.970055 -199.719803
-76.710663 -80.059570 -203.522629
-75.693878 2.117368 -203.109299
-76.433716 86.947708 -206.579895
-76.065247 -80.022041 -205.667633
-71.334908 31.610188 -204.909485
-78.437576 27.749018 -207.288300
-71.043762 159.571411 -210.034760
-78.059334 41.834251 -202.246368
-76.203331 33.144115 -205.790634
-78.577797 103.623260 -205.023041
-75.939911 42.031796 -205.876770
-75.179733 18.142752 -207.075272
-75.394966 7.036585 -209.336182
-76.859596 -69.832764 -207.381073
-77.078964 99.705498 -205.512848
-72.224258 37.358929 -210.496124
-73.766533 -79.853691 -212.035492
-80.623764 103.962952 -208.148788
-76.058960 42.095226 -207.267670
-78.294441 0.405111 -207.473480
-74.615891 -70.952225 -212.142715
-72.309723 28.119261 -212.678223
-75.471161 -73.771278 -215.287735
-79.455360 -6.239114 -212.939651
-79.065674 29.937340 -212.466141
-75.253578 -75.221535 -209.188507
-77.938797 159.331451 -215.251648
-73.896446 15.076113 -213.483841
-74.644096 -69.534531 -219.451355
-77.897408 7.822395 -217.057205
-73.007385 29.113844 -212.983902
-74.583893 17.012972 -214.643372
-78.246796 158.470093 -220.336777
-73.640480 -66.751099 -214.622696
-71.033173 22.561562 -215.987885
-73.959587 9.739305 -216.708801
-74.952156 149.357422 -220.827408
-78.141350 22.034075 -211.579453
-75.687653 -3.171040 -217.278275
-76.018883 166.571533 -218.485153
-77.839211 26.704121 -220.385223
-78.435921 -6.074620 -222.521683
-80.967766 148.876328 -222.652267
-79.082138 2.841178 -224.812225
-75.086296 10.803743 -223.952347
-74.142227 14.065715 -222.457489
-77.647247 13.053784 -225.824417
-75.803726 1.609923 -224.240936
-74.661499 164.285049 -226.914108
-75.852448 157.447144 -227.664856
-77.359276 -5.783467 -225.331909
-73.888710 -7.421538 -226.612274
-78.241997 42.560516 -228.859741
-76.153625 45.371914 -226.468430
-78.716118 13.193460 -228.697693
-72.249680 5.950455 -232.749176
-76.500557 163.335938 -228.600739
-74.197784 31.307430 -234.626389
-76.407524 156.231445 -233.125687
-74.487679 -8.503455 -232.780548
-78.803513 65.717293 -229.818359
-75.418495 3.040612 -230.914368
-77.888702 42.116951 -238.417999
-77.013252 9.139289 -238.006516
-75.729622 46.959126 -240.664719
-81.584541 -11.518871 -235.104568
-80.375313 78.339050 -236.509293
-81.633087 15.544156 -239.462173
-78.602303 14.871651 -237.610855
-76.161728 80.912018 -237.193939
-77.184799 69.207672 -240.581589
-77.666412 86.111801 -237.071716
-76.383057 82.874489 -240.971130
-73.731575 72.346039 -242.715622
-78.092209 90.359276 -241.115112
-73.287247 81.514984 -244.122940
-74.214836 160.971863 -244.107956
-75.662621 158.102188 -241.771866
-74.546066 152.539032 -245.802399
-74.806740 135.469284 -248.207031
-79.512505 144.003204 -249.104660
-66.801338 149.202240 -247.252350
-75.447495 139.231949 -250.485016
-76.485870 154.409302 -253.217712
-79.249611 30.606600 -251.895035
-79.241264 155.298874 -249.947922
-76.540520 164.597916 -259.166412
-80.588799 -9.715723 -255.270767
-74.336197 22.879234 -263.697601
-74.497017 162.764633 -262.473328
-77.008553 156.252670 -267.816040
-73.676193 19.530432 -267.199127
-71.958778 155.401474 -273.487549
-76.020004 15.367610 -275.970642
-77.649628 143.071548 -278.729218
-74.436142 137.563721 -278.757965
-79.522957 9.305494 -276.202393
-74.392769 6.444132 -274.336395
-74.542992 68.863831 -278.151459
-77.035843 60.161705 -273.456177
-79.681587 23.344849 -276.135681
-74.624878 76.861526 -280.075073
-74.856049 18.809750 -272.680725
-77.045509 153.686478 -276.345734
-74.979141 75.299683 -276.750458
-78.254845 4.453945 -276.055878
-78.960876 134.849365 -278.538788
-71.706276 85.094223 -276.550720
-79.884201 91.060120 -279.954132
-74.701736 70.675690 -277.668060
-74.387924 130.948349 -278.967560
-74.322235 79.383186 -282.603851
-74.595215 172.021500 -280.622528
-76.119225 157.952896 -280.774506
-79.367294 138.352798 -277.381744
-77.038940 65.568565 -282.051056
-77.386642 24.076832 -281.046906
-74.883438 140.654190 -280.181396
-75.942772 7.477874 -287.445496
-75.221550 -3.994326 -284.590454
-71.177376 163.397263 -285.831512
-72.750877 159.372772 -287.570129
-76.707596 165.933655 -282.901215
-73.038300 164.114761 -283.292938
-82.983574 160.372925 -287.785858
-75.432716 69.296837 -46.836502
-76.344093 70.488335 -44.622330
-74.956482 64.020340 -46.050526
-78.330948 63.020187 -43.372845
-73.641777 76.825577 -46.700825
-73.490379 56.296368 -49.989910
-71.566833 51.971508 -45.073669
