-99.398193359375 -67.499671936035 -151.348205566406 0.345337212086
19.909139633179 -67.873382568359 -150.961807250977 1.550794363022
13.999234199524 -69.867752075195 -155.882980346680 0.778202772141
-96.243530273438 -67.657562255859 -157.479934692383 1.492138147354
-102.237854003906 -67.932739257813 -157.377655029297 1.207509636879
-99.948516845703 -67.951927185059 -168.528121948242 1.430727601051
22.854984283447 -65.129043579102 -170.052383422852 1.931528687477
-106.003288269043 -67.632011413574 -171.292175292969 1.669281363487
19.786727905273 -68.016586303711 -168.285812377930 0.977380335331
-146.589859008789 -66.652290344238 -175.701904296875 0.554401516914
16.892278671265 -67.616638183594 -177.819366455078 0.866850256920
21.898859024048 -67.548088073730 -185.179412841797 1.372574090958
-153.412826538086 -67.685646057129 -187.220794677734 0.630689620972
21.485435485840 -66.514030456543 -179.755630493164 1.207226872444
19.252935409546 -67.713607788086 -180.107025146484 1.683347105980
-140.814529418945 -69.009826660156 -187.017807006836 0.481126040220
-150.772689819336 -68.861503601074 -187.433731079102 1.016549110413
19.380434036255 -67.846290588379 -188.375656127930 1.736357450485
18.229820251465 -65.638618469238 -189.564147949219 1.135782122612
-142.454940795898 -69.652496337891 -190.754714965820 2.699894666672
-106.849426269531 -68.038810729980 -196.716156005859 1.408795714378
18.449167251587 -67.289604187012 -198.108764648438 1.780885577202
-124.979423522949 -68.195297241211 -193.976776123047 0.914428293705
12.610096931458 -66.920532226563 -197.796798706055 2.317305564880
-133.093505859375 -67.008300781250 -192.403594970703 2.916339874268
-154.485443115234 -67.625633239746 -194.233139038086 1.226746082306
-163.131942749023 -69.662223815918 -196.565216064453 1.687785267830
-161.924148559570 -65.894012451172 -197.908523559570 0.604038774967
-18.903118133545 -65.449455261230 -198.291809082031 1.342347502708
-165.795669555664 -67.546951293945 -200.391220092773 0.609510660172
-23.307161331177 -66.247230529785 -190.325286865234 1.760977506638
-14.171308517456 -68.293174743652 -197.803939819336 1.990988492966
14.390505790710 -65.407844543457 -195.384368896484 1.528924345970
-160.632781982422 -66.944168090820 -200.518981933594 1.857153654099
-110.582038879395 -66.821456909180 -200.875518798828 0.828886508942
-18.899770736694 -66.605506896973 -205.254379272461 2.003484487534
-158.375274658203 -70.053642272949 -203.511016845703 2.367764711380
15.512541770935 -67.027709960938 -200.735351562500 2.078390836716
-165.599777221680 -67.368896484375 -202.948532104492 0.289675295353
-122.826133728027 -69.388221740723 -202.047286987305 1.314865946770
-112.774963378906 -66.701080322266 -204.504928588867 1.103081822395
-122.703369140625 -65.744735717773 -206.227706909180 1.742843627930
-13.398721694946 -68.212997436523 -206.375503540039 1.839958429337
-12.526653289795 -65.639053344727 -205.908004760742 2.447799921036
-163.575027465820 -67.130805969238 -209.189529418945 1.866249799728
-161.345031738281 -67.749595642090 -214.147369384766 1.972323894501
-165.286544799805 -65.874961853027 -219.796630859375 3.402528047562
-143.823089599609 -68.175613403320 -214.921218872070 1.153639435768
-143.819458007813 -68.372512817383 -221.052093505859 0.945569217205
-6.922299385071 -65.598442077637 -220.665695190430 1.577950596809
-11.474478721619 -66.721412658691 -216.750427246094 2.025827646255
-98.853614807129 -69.465782165527 -222.268371582031 1.012168765068
-5.725795745850 -67.316894531250 -227.782623291016 0.555992484093
-165.086303710938 -66.458694458008 -228.022628784180 1.682555675507
-110.865142822266 -66.910530090332 -230.456542968750 1.233552813530
-0.143708571792 -66.365722656250 -226.346450805664 0.590305030346
2.986718177795 -66.061935424805 -230.161483764648 1.508952856064
-111.865226745605 -68.222785949707 -231.601776123047 0.910431683064
-0.453280925751 -66.989875793457 -230.681335449219 0.828469574451
-115.874923706055 -67.602882385254 -232.998413085938 1.288998484612
-7.061680793762 -66.473464965820 -237.385543823242 0.504237055779
-2.387619733810 -66.957878112793 -233.953887939453 1.362521052361
0.063546061516 -68.200218200684 -235.202758789063 0.392670184374
68.996101379395 -66.673362731934 -235.641998291016 1.962252259254
-13.297883987427 -69.265151977539 -237.645751953125 0.402110517025
1.465294480324 -69.410140991211 -239.824813842773 0.850895166397
11.925102233887 -65.953117370605 -240.051544189453 1.583519458771
5.825175762177 -67.190200805664 -239.027603149414 1.045675635338
0.683682322502 -67.241516113281 -239.659378051758 1.238105177879
65.050491333008 -65.266967773438 -235.923583984375 2.410503149033
69.975196838379 -66.860527038574 -239.487396240234 1.454810142517
9.217202186584 -68.351112365723 -244.528930664063 1.700351357460
56.652042388916 -66.878318786621 -243.041946411133 1.479761600494
56.086986541748 -67.986305236816 -241.598342895508 1.348908185959
46.435531616211 -67.808540344238 -245.639511108398 1.453682780266
40.817367553711 -67.866958618164 -250.696716308594 1.918399930000
39.869152069092 -66.512008666992 -251.720642089844 1.107816219330
-133.870529174805 -67.304443359375 -254.606689453125 1.160640239716
-11.775195121765 -68.670097351074 -253.737060546875 2.075547456741
24.738674163818 -66.780914306641 -258.500488281250 1.476200819016
47.724697113037 -68.625152587891 -251.070953369141 0.731690883636
22.740924835205 -67.346763610840 -256.332489013672 1.967277288437
-100.934837341309 -67.601867675781 -256.539245605469 0.852262198925
34.374141693115 -67.081657409668 -255.289581298828 1.563571810722
-150.679031372070 -67.539726257324 -259.341156005859 1.642167687416
-116.078544616699 -67.574554443359 -258.474945068359 1.207484245300
-106.046249389648 -65.261398315430 -258.107421875000 1.596506953239
-7.122361660004 -67.148483276367 -258.704193115234 1.437214016914
-147.613922119141 -68.876632690430 -257.000701904297 1.012325167656
32.833614349365 -66.109199523926 -260.005004882813 0.859577119350
-109.410636901855 -66.651161193848 -258.317108154297 1.690935015678
25.678348541260 -65.953811645508 -260.766265869141 0.636611759663
-135.770690917969 -65.040596008301 -261.167602539063 1.570719242096
-113.401847839355 -66.414131164551 -260.415710449219 1.343562006950
-106.502548217773 -67.953338623047 -260.183013916016 1.192674994469
-117.345420837402 -65.862442016602 -262.447357177734 0.268047899008
-136.692001342773 -67.282852172852 -262.468688964844 1.235861897469
27.292541503906 -66.432617187500 -262.105743408203 0.510842382908
-116.648376464844 -67.944885253906 -264.540863037109 1.516090631485
-144.730865478516 -69.409484863281 -263.454650878906 1.072968125343
-6.318871498108 -65.704711914063 -271.281982421875 2.065382242203
-152.660964965820 -68.054199218750 -282.921386718750 1.233294606209
-8.732761383057 -66.937606811523 -280.592834472656 1.382834911346
-5.076633930206 -66.878517150879 -284.915161132813 0.935970842838
-134.544433593750 -66.492790222168 -285.898315429688 0.656012713909
-124.669052124023 -67.892456054688 -286.604370117188 0.728323042393
-136.059646606445 -67.567062377930 -293.190399169922 1.565850377083
-126.832649230957 -69.958885192871 -295.554321289063 1.022130370140
-152.821426391602 -69.282981872559 -297.199340820313 1.465578556061
-152.194274902344 -66.491020202637 -301.076019287109 1.526146650314
-147.931228637695 -65.785743713379 -299.161224365234 2.138502359390
-152.125808715820 -66.315879821777 -301.831909179688 1.655166268349
-144.379409790039 -68.653602600098 -302.938629150391 2.310372829437
-146.642700195313 -68.363769531250 -301.877471923828 1.597460150719
-147.792037963867 -67.263328552246 -313.021240234375 1.014413475990
19.829378128052 -70.385635375977 -29.562606811523 0.792940080166
48.863746643066 -69.072769165039 -34.522972106934 1.002309799194
28.310243606567 -69.550338745117 -39.303077697754 1.500812053680
34.095741271973 -70.950538635254 -40.811523437500 0.690132677555
-44.026939392090 -66.548500061035 -46.641059875488 1.021710157394
-78.215217590332 -67.490562438965 -52.183227539063 2.437343597412
80.288246154785 -65.044113159180 -60.385070800781 0.912129700184
76.377632141113 -66.251571655273 -63.801773071289 1.361198544502
69.562873840332 -65.118141174316 -67.495666503906 1.795450210571
-96.924888610840 -66.723533630371 -74.527885437012 2.220068693161
101.164085388184 -67.398742675781 -77.281974792480 1.958637952805
-34.112731933594 -63.526947021484 -78.116256713867 3.182064771652
65.226966857910 -65.429069519043 -77.851089477539 1.248864650726
-46.253044128418 -63.791549682617 -79.821334838867 2.305609941483
-50.540454864502 -63.636360168457 -82.965156555176 0.808373153210
51.526096343994 -67.886276245117 -91.317817687988 1.517938613892
102.180824279785 -68.459579467773 -91.525993347168 0.803322076797
66.528312683105 -64.969093322754 -95.453933715820 0.545200347900
59.083663940430 -66.010650634766 -94.846679687500 1.037422180176
50.953033447266 -66.811408996582 -100.184463500977 0.698110044003
58.565338134766 -66.534866333008 -96.982109069824 1.779662609100
104.159545898438 -64.864425659180 -97.804008483887 1.042176008224
70.326812744141 -66.243904113770 -102.947570800781 0.899185299873
48.517650604248 -66.178802490234 -104.379173278809 0.584972500801
79.007728576660 -69.202499389648 -105.654876708984 1.634672045708
90.849723815918 -64.154022216797 -108.883766174316 0.842292547226
-76.978721618652 -65.490066528320 -104.502861022949 1.660141587257
-85.555046081543 -67.889335632324 -111.869979858398 1.994466066360
-81.653625488281 -66.983482360840 -114.019760131836 1.522564411163
-59.788360595703 -63.745361328125 -116.813201904297 1.573558568954
-57.012634277344 -69.305686950684 -125.884468078613 1.686802506447
-92.949127197266 -67.974357604980 -121.120079040527 1.289195775986
-76.913795471191 -65.741294860840 -119.200706481934 0.706476986408
-75.621818542480 -67.318832397461 -131.095138549805 0.991137802601
-59.643127441406 -66.752929687500 -128.779235839844 2.036564588547
-90.141914367676 -64.892265319824 -128.929489135742 1.779953002930
-88.893951416016 -68.238166809082 -128.522399902344 1.230614781380
-48.151615142822 -69.579872131348 -135.899902343750 1.727768540382
-51.966312408447 -65.296340942383 -134.325561523438 1.041248440742
-75.834403991699 -64.072616577148 -137.782348632813 2.598403215408
-52.996398925781 -67.697074890137 -141.719451904297 1.041942715645
-75.624633789063 -66.303596496582 -141.767166137695 0.787646770477
23.701965332031 -65.013481140137 -138.044952392578 1.778053164482
-56.191844940186 -68.719490051270 -145.593292236328 0.438740462065
-54.519985198975 -65.957031250000 -143.638763427734 2.339209079742
10.868792533875 -66.704734802246 -154.751953125000 1.150297284126
14.240193367004 -65.074569702148 -151.712280273438 1.731913328171
-143.884429931641 -65.891731262207 -174.012908935547 1.960098028183
-108.504341125488 -67.666755676270 -178.877029418945 1.991206884384
-106.460441589355 -65.952606201172 -189.625793457031 1.857448697090
-151.185852050781 -65.935874938965 -192.719757080078 1.204001069069
-109.887626647949 -65.300003051758 -185.905654907227 2.241450309753
-153.022354125977 -65.179130554199 -195.858520507813 1.009052515030
-112.940498352051 -65.621177673340 -197.600830078125 0.939765572548
-149.071365356445 -65.436340332031 -199.805786132813 1.303093075752
-151.952224731445 -68.175415039063 -203.492324829102 1.077740192413
-150.977951049805 -67.114334106445 -212.909698486328 1.743508815765
-146.023818969727 -68.039337158203 -222.796783447266 1.949378132820
-151.367446899414 -68.709228515625 -223.117294311523 1.182553410530
-104.594833374023 -66.114433288574 -221.052764892578 1.686593890190
-103.509391784668 -66.448089599609 -223.600265502930 0.635722160339
-124.061546325684 -64.869567871094 -227.579452514648 1.124111056328
-109.950325012207 -67.120399475098 -227.056549072266 1.740602731705
-154.438217163086 -68.971672058105 -230.069595336914 0.658713102341
-2.121645212173 -67.270645141602 -227.035385131836 1.160471796989
-135.353775024414 -65.671730041504 -231.649093627930 0.650988698006
-150.677932739258 -69.430633544922 -234.621154785156 1.506220936775
-134.277450561523 -67.241661071777 -235.596527099609 1.452103614807
-12.474891662598 -66.335998535156 -237.676818847656 1.776489138603
9.483975410461 -65.390769958496 -240.280105590820 1.567701101303
63.397655487061 -66.632980346680 -240.521911621094 1.403269052505
19.907981872559 -67.500114440918 -247.696960449219 1.064206004143
59.281391143799 -66.782272338867 -245.250000000000 0.583385288715
42.553417205811 -66.476844787598 -248.379913330078 1.722604393959
53.745456695557 -67.924079895020 -247.789672851563 0.447743356228
-150.311187744141 -66.366233825684 -252.802551269531 1.058471322060
-152.066528320313 -69.341567993164 -253.392913818359 0.732971370220
41.321971893311 -66.552330017090 -256.530242919922 1.079057574272
32.945545196533 -66.419860839844 -257.293090820313 1.251155734062
47.923435211182 -67.131401062012 -252.022888183594 1.110450625420
-144.385284423828 -69.813690185547 -254.129333496094 1.637923479080
-133.276840209961 -65.735305786133 -258.644042968750 1.215203166008
-123.457527160645 -65.699241638184 -255.747680664063 2.135189771652
-134.858627319336 -69.739013671875 -254.963226318359 0.694469690323
-141.203628540039 -66.690635681152 -259.847808837891 1.095945954323
-125.050941467285 -66.798446655273 -259.863464355469 1.487635016441
-142.138198852539 -66.205650329590 -258.612213134766 0.375183284283
-123.612693786621 -66.807060241699 -261.195129394531 0.912408173084
-125.062004089355 -67.007347106934 -262.255401611328 1.032713532448
-126.341987609863 -68.457382202148 -263.590209960938 1.357288002968
-116.424987792969 -67.145805358887 -262.658355712891 0.780339717865
-4.187734127045 -66.431632995605 -265.310394287109 0.596475899220
25.015689849854 -68.287857055664 -263.448333740234 1.682762145996
-146.096206665039 -65.705665588379 -265.171905517578 1.628977775574
25.797790527344 -65.893882751465 -266.556182861328 0.907820582390
-2.974753856659 -66.261009216309 -272.945648193359 2.572908878326
16.689859390259 -68.954376220703 -283.994720458984 0.566817760468
-141.147094726563 -67.078979492188 -288.508605957031 1.323096156120
-125.868797302246 -65.061279296875 -286.495635986328 1.257382392883
-135.720962524414 -64.833206176758 -289.209106445313 1.793610692024
-156.363433837891 -64.234245300293 -291.353240966797 1.120907902718
-126.931419372559 -65.749923706055 -289.164154052734 1.619877696037
-119.802497863770 -65.683998107910 -289.221710205078 1.334615111351
-127.837013244629 -66.971061706543 -291.094360351563 1.745686769485
-148.049118041992 -68.127067565918 -297.237884521484 1.561649680138
26.715227127075 -72.867729187012 -12.766657829285 2.526340484619
35.910434722900 -71.606163024902 -16.369617462158 0.622614979744
39.090023040771 -70.280143737793 -19.004776000977 1.542633771896
50.249744415283 -62.964019775391 -24.790233612061 1.780365467072
27.681343078613 -71.066368103027 -28.394458770752 2.308837652206
22.968378067017 -71.719123840332 -37.164642333984 1.388315677643
-34.374435424805 -65.374290466309 -48.889408111572 1.813671350479
-82.090187072754 -65.054031372070 -52.467609405518 2.804296970367
-15.456032752991 -66.495994567871 -54.352210998535 2.516684532166
69.673889160156 -65.212203979492 -65.731330871582 0.842897593975
99.431304931641 -66.730911254883 -67.450805664063 1.494007110596
65.501205444336 -66.432731628418 -82.404716491699 1.245580792427
61.414085388184 -62.763023376465 -80.840759277344 1.918613672256
103.388183593750 -64.749107360840 -84.260749816895 1.392247438431
-62.623786926270 -64.107711791992 -89.981788635254 1.108174681664
-63.529102325439 -64.966194152832 -94.070518493652 0.936873555183
48.557796478271 -65.994827270508 -95.935173034668 1.729399442673
-65.616851806641 -64.639877319336 -96.694755554199 1.015677571297
-69.854751586914 -65.602043151855 -99.520553588867 1.277323484421
-97.721252441406 -63.985404968262 -96.128982543945 1.733491778374
-75.726043701172 -65.638877868652 -102.096115112305 0.826785564423
47.271728515625 -67.400566101074 -99.806579589844 0.773125588894
-69.250427246094 -67.109237670898 -102.038658142090 1.958062410355
53.756786346436 -65.052886962891 -99.555366516113 1.024936795235
97.676933288574 -66.907234191895 -103.353149414063 0.827958405018
93.769798278809 -65.149436950684 -107.042350769043 0.937965273857
-73.631584167480 -65.129463195801 -114.649688720703 2.525038719177
-81.334060668945 -64.630432128906 -114.091964721680 0.943913877010
-61.698818206787 -67.382507324219 -119.746101379395 2.565410852432
-97.616111755371 -64.688308715820 -119.660911560059 1.440131902695
-76.189888000488 -67.351264953613 -128.817337036133 1.316735625267
-90.295036315918 -64.256767272949 -122.512794494629 2.187182903290
-61.784812927246 -66.046302795410 -120.308616638184 2.399559020996
-61.038066864014 -62.357810974121 -119.075508117676 1.607668876648
-86.892272949219 -64.679267883301 -127.574501037598 1.571335434914
-61.387458801270 -67.920616149902 -128.874191284180 1.485357880592
-83.770545959473 -63.675735473633 -130.910354614258 1.545243144035
-73.490287780762 -64.891281127930 -131.163116455078 1.870589256287
-63.398555755615 -65.314079284668 -131.605697631836 1.548500418663
-60.715057373047 -62.735237121582 -137.173431396484 1.320489645004
-54.345634460449 -64.775047302246 -139.276550292969 1.867688179016
-90.419448852539 -65.197868347168 -134.290237426758 1.506698369980
-97.164726257324 -65.816131591797 -143.175949096680 1.926742315292
-83.932739257813 -65.030609130859 -131.297317504883 0.737089157104
23.636966705322 -66.993942260742 -145.616394042969 2.053428888321
-48.947959899902 -65.160888671875 -144.749694824219 1.473236918449
16.736873626709 -63.869873046875 -148.787567138672 0.881908297539
-97.731056213379 -65.135787963867 -161.440963745117 1.432544231415
-102.108436584473 -66.589973449707 -172.017379760742 0.836243033409
-101.578720092773 -65.685928344727 -170.276077270508 0.352341175079
-106.364120483398 -66.088050842285 -165.305313110352 1.449144482613
-104.126426696777 -65.052719116211 -180.497985839844 2.082252979279
-111.170234680176 -65.380622863770 -176.436721801758 1.037369966507
-140.547653198242 -65.396392822266 -187.770553588867 1.230739235878
-110.434143066406 -64.241577148438 -186.587219238281 1.786542773247
-131.917297363281 -63.539093017578 -196.253021240234 0.953945875168
-144.488281250000 -66.043624877930 -198.553451538086 2.261330842972
-123.325599670410 -66.592010498047 -195.973373413086 1.490309357643
-154.423416137695 -67.752426147461 -198.161605834961 1.208740234375
-148.069335937500 -67.282081604004 -202.099929809570 1.377357244492
-122.272270202637 -65.310379028320 -201.784133911133 0.994356036186
-132.750579833984 -65.952339172363 -204.252578735352 1.256712317467
-144.317672729492 -69.358169555664 -203.189498901367 2.614727258682
-133.085769653320 -68.055412292480 -223.213729858398 1.644661664963
-114.058395385742 -65.931961059570 -227.946548461914 1.539395451546
-146.260177612305 -67.105545043945 -228.794860839844 0.759799897671
-116.783607482910 -64.670608520508 -228.820831298828 0.968483865261
-115.240676879883 -66.907600402832 -232.125274658203 1.586454033852
-125.417602539063 -65.509757995605 -233.022247314453 1.279830574989
-126.906387329102 -67.045173645020 -234.956008911133 0.495592385530
-115.529266357422 -64.757080078125 -233.143814086914 0.815338432789
2.766109228134 -64.479621887207 -234.220046997070 1.956200957298
-149.873794555664 -67.475425720215 -235.097198486328 1.497620463371
8.332534790039 -68.621093750000 -231.830734252930 0.864170968533
7.355582714081 -65.704536437988 -238.373809814453 1.128118872643
2.074650287628 -65.243873596191 -239.307159423828 1.053262591362
16.880838394165 -64.384910583496 -239.050048828125 1.821910381317
-146.477874755859 -67.691215515137 -236.471298217773 1.211358666420
-2.209939002991 -64.485542297363 -243.475067138672 1.309579610825
19.639333724976 -66.411880493164 -243.075439453125 1.417904376984
45.847942352295 -63.392143249512 -248.914428710938 1.461149811745
50.817420959473 -66.280838012695 -247.204711914063 1.700218081474
-146.676712036133 -67.614891052246 -252.497406005859 0.707739174366
-4.698090076447 -63.903686523438 -253.429656982422 2.392053842545
25.979522705078 -65.282493591309 -258.409820556641 0.618060469627
-134.634109497070 -64.295021057129 -261.674652099609 1.827976942062
-128.534759521484 -63.372215270996 -261.683044433594 2.016658306122
-124.869194030762 -62.309387207031 -256.778045654297 3.351164817810
25.688819885254 -65.868751525879 -259.950469970703 0.207926705480
-134.878097534180 -67.671684265137 -263.874633789063 0.932152032852
29.262504577637 -63.133064270020 -262.009155273438 0.475365191698
30.537275314331 -64.908493041992 -263.289123535156 1.951534390450
-152.736465454102 -67.600799560547 -266.318176269531 1.646646618843
-147.433074951172 -69.396316528320 -287.595581054688 1.120707988739
-149.379074096680 -64.736274719238 -289.514801025391 1.696125984192
-144.011352539063 -62.253303527832 -293.128845214844 2.311191558838
7.298382282257 -68.332077026367 -291.733917236328 0.676953375340
-155.195190429688 -64.006446838379 -294.532440185547 1.106029629707
44.326335906982 -69.013549804688 -25.278137207031 1.551859974861
36.779220581055 -70.147972106934 -39.186733245850 2.302076339722
-64.680702209473 -66.012863159180 -45.159126281738 1.577674746513
-72.131286621094 -61.884696960449 -45.778240203857 1.983817338943
-27.497701644897 -64.995559692383 -50.668701171875 1.593142628670
-19.614440917969 -65.690246582031 -52.758594512939 2.164842128754
-15.960022926331 -63.071434020996 -68.063629150391 2.541439533234
-22.619220733643 -63.388595581055 -68.291511535645 0.908114910126
64.963150024414 -64.569633483887 -71.633453369141 1.025470852852
-98.059494018555 -63.985855102539 -77.087898254395 0.962319076061
-46.938217163086 -64.480148315430 -83.514587402344 1.648814320564
54.858547210693 -64.944328308105 -85.851303100586 0.501425147057
54.724494934082 -63.785896301270 -88.505439758301 1.923081398010
64.449874877930 -64.761688232422 -91.517356872559 1.060493588448
105.577278137207 -66.477241516113 -91.629821777344 2.170249223709
51.585338592529 -63.248306274414 -95.136352539063 1.892841935158
101.476051330566 -65.537353515625 -102.299995422363 2.343146324158
-78.071746826172 -67.724281311035 -102.225692749023 2.180498838425
-97.657676696777 -66.035797119141 -104.165855407715 1.336714744568
76.786445617676 -63.057220458984 -108.964515686035 0.205404862761
-75.794364929199 -62.695465087891 -103.548507690430 0.626840651035
-75.685829162598 -67.683906555176 -116.899276733398 2.413539409637
-82.840690612793 -64.871086120605 -117.834899902344 0.926879703999
-55.619041442871 -67.110221862793 -126.705177307129 1.519410133362
-79.232902526855 -67.590995788574 -128.921676635742 0.653405964375
-60.212272644043 -65.634635925293 -130.403976440430 2.338243246078
-79.955024719238 -65.366981506348 -135.148300170898 1.239976525307
-74.380668640137 -64.928031921387 -133.710571289063 1.143286347389
-79.370262145996 -62.486236572266 -125.262916564941 1.901143670082
-87.764739990234 -63.563156127930 -130.693878173828 1.120323896408
-62.555236816406 -62.191680908203 -131.640182495117 1.477992057800
-90.595191955566 -63.628845214844 -135.506729125977 1.116300582886
-48.890731811523 -65.634170532227 -135.246932983398 1.226881623268
-57.526035308838 -65.832572937012 -139.823608398438 1.317844748497
27.325618743896 -64.173202514648 -135.431411743164 1.063513398170
-57.031612396240 -63.664505004883 -136.659774780273 1.444862723351
15.259217262268 -64.920036315918 -147.444183349609 0.646257340908
20.121307373047 -66.015304565430 -149.409637451172 1.485738039017
16.518701553345 -62.381141662598 -151.301010131836 1.929423928261
-96.938331604004 -62.068397521973 -145.215866088867 2.451631069183
-93.128273010254 -65.670562744141 -152.024749755859 1.328596711159
-95.682998657227 -62.787086486816 -155.041137695313 1.740743756294
-101.951881408691 -64.311401367188 -158.103942871094 1.528622865677
-95.815513610840 -64.995597839355 -157.217987060547 0.741626083851
-151.243789672852 -68.939712524414 -175.476852416992 1.472594261169
-153.387100219727 -65.539802551270 -177.056243896484 0.983759582043
-104.497009277344 -63.143348693848 -180.525314331055 2.067315101624
-142.907714843750 -62.277870178223 -176.772201538086 1.341452598572
-110.096176147461 -64.624671936035 -179.197372436523 0.686141550541
-151.166671752930 -65.122451782227 -187.207336425781 1.115493416786
-109.411399841309 -63.073326110840 -193.713973999023 2.960696458817
-107.536247253418 -64.630302429199 -187.528442382813 1.070007920265
-141.125320434570 -63.866821289063 -196.939620971680 1.188437581062
-131.982162475586 -64.574234008789 -195.726196289063 1.066639900208
-109.594917297363 -64.685646057129 -196.925796508789 0.374503225088
-114.120887756348 -64.122047424316 -199.373596191406 0.543259203434
-111.964637756348 -63.564544677734 -199.005050659180 0.438933074474
-115.153137207031 -65.825790405273 -201.654693603516 1.770173549652
-134.338592529297 -61.666290283203 -199.306167602539 2.400554895401
-133.627593994141 -64.650245666504 -201.878433227539 0.158545017242
-132.214294433594 -65.739341735840 -203.792739868164 1.065341949463
-126.182243347168 -63.629325866699 -203.692047119141 1.489234805107
-128.041687011719 -66.406707763672 -206.544174194336 1.981331944466
-115.388038635254 -62.529312133789 -204.726257324219 1.919343113899
-145.821426391602 -64.746879577637 -215.166320800781 3.139051675797
-151.586929321289 -67.843826293945 -223.843322753906 1.009361624718
-152.730178833008 -62.968803405762 -223.939788818359 0.509196937084
-142.245712280273 -67.668518066406 -226.631225585938 0.862688243389
-132.475402832031 -63.608703613281 -225.327789306641 1.648501753807
-123.919593811035 -66.584587097168 -224.768569946289 0.851901471615
-141.464706420898 -65.960494995117 -230.110748291016 0.819733500481
-148.038055419922 -66.653785705566 -228.106384277344 1.025017738342
-134.238754272461 -64.576232910156 -227.369155883789 1.310360312462
-134.204772949219 -62.681137084961 -227.898071289063 1.553201913834
-147.293884277344 -67.984558105469 -230.916641235352 1.248416900635
-132.372772216797 -65.126922607422 -233.477966308594 0.688073396683
-124.960807800293 -63.473686218262 -227.526397705078 0.860314071178
-5.937062263489 -67.209884643555 -236.215759277344 1.056632995605
5.137173175812 -62.914566040039 -239.744201660156 1.231702327728
13.097901344299 -62.545570373535 -242.976470947266 1.501481175423
9.171721458435 -66.590881347656 -243.770660400391 0.597641646862
-9.475427627563 -65.503524780273 -242.698287963867 1.238578915596
-11.791465759277 -66.574264526367 -246.677429199219 1.659362435341
40.383449554443 -63.672805786133 -251.873107910156 1.817849755287
50.339897155762 -65.069671630859 -252.971740722656 2.683031797409
-142.663742065430 -62.647071838379 -254.709197998047 1.214721083641
41.101791381836 -63.793769836426 -256.708557128906 2.256798744202
35.101146697998 -62.879898071289 -252.430786132813 2.264269113541
-156.120162963867 -66.015937805176 -259.051300048828 1.725959062576
-152.879806518555 -62.734146118164 -260.778320312500 0.900116741657
-146.298187255859 -68.955772399902 -262.643341064453 2.300297737122
2.154888629913 -63.658203125000 -264.201721191406 1.296083450317
-151.320404052734 -64.954055786133 -263.680816650391 1.490998506546
-2.004181385040 -63.065536499023 -273.996734619141 2.836566448212
-146.672256469727 -66.669868469238 -272.507934570313 2.346711397171
-146.636581420898 -63.055160522461 -282.526489257813 1.267271399498
-150.470825195313 -64.674339294434 -283.333984375000 1.286096811295
-148.547882080078 -65.664726257324 -283.600097656250 1.803323984146
-146.284484863281 -62.879821777344 -285.944183349609 1.318782925606
-154.565460205078 -65.321487426758 -287.242431640625 1.920636177063
-151.322143554688 -64.630081176758 -287.010742187500 1.481269121170
-148.913543701172 -65.511161804199 -287.594299316406 1.454063892365
-148.152481079102 -64.054008483887 -286.672637939453 0.675600349903
-143.033798217773 -63.992538452148 -287.258789062500 1.308163881302
14.223715782166 -64.775375366211 -289.677520751953 1.368470191956
-148.179870605469 -65.971702575684 -290.670776367188 1.347572207451
-155.653503417969 -62.499664306641 -289.496887207031 2.325087308884
-151.655303955078 -62.945564270020 -290.666839599609 1.072383522987
-151.959884643555 -63.777824401855 -293.432281494141 0.995923221111
-151.515457153320 -63.332778930664 -292.601440429688 1.634890198708
-147.623855590820 -63.559326171875 -291.951629638672 1.275829672813
-1.019163966179 -66.575263977051 -292.211639404297 1.266692399979
-144.775573730469 -66.578491210938 -292.821105957031 1.845466136932
-148.059219360352 -60.904815673828 -294.455749511719 2.676911354065
29.021612167358 -58.072494506836 -19.920658111572 1.829511046410
42.734161376953 -67.519187927246 -20.086566925049 2.285312891006
43.652778625488 -62.986351013184 -22.725357055664 1.074462294579
20.147407531738 -69.614875793457 -33.054489135742 1.947194933891
30.608547210693 -57.986228942871 -35.658885955811 2.489901781082
39.932544708252 -69.895935058594 -35.515842437744 1.099203586578
-56.830528259277 -64.396057128906 -44.034847259521 1.426183700562
-49.633083343506 -62.644363403320 -44.047988891602 2.273946046829
88.480316162109 -64.305503845215 -62.887847900391 1.978935241699
-95.957389831543 -63.158584594727 -66.541519165039 1.468977928162
94.736053466797 -67.262924194336 -65.017089843750 0.595866382122
67.712959289551 -64.052459716797 -65.837257385254 0.842049658298
102.931533813477 -63.060157775879 -76.374305725098 1.725255012512
65.397682189941 -64.889770507813 -76.886970520020 0.746575713158
-41.040729522705 -66.201072692871 -78.281387329102 0.941937565804
58.301963806152 -60.480789184570 -81.290931701660 2.745500087738
-58.791370391846 -62.811660766602 -79.448173522949 1.749854922295
63.371101379395 -62.602935791016 -86.392959594727 1.133681178093
60.570430755615 -64.137420654297 -82.844047546387 2.047862052917
-97.074569702148 -64.964256286621 -82.135772705078 2.078180074692
52.384201049805 -63.901863098145 -89.650825500488 0.981841921806
52.560440063477 -66.093498229980 -91.528816223145 0.618796586990
63.567375183105 -64.110069274902 -92.340545654297 1.026047229767
52.842906951904 -62.252014160156 -96.615821838379 1.352533936501
-80.756034851074 -64.028640747070 -106.081771850586 1.856981635094
82.805015563965 -66.673652648926 -104.342201232910 1.090323567390
-75.075477600098 -64.139022827148 -112.870048522949 1.991085290909
-75.107917785645 -62.158775329590 -110.522636413574 1.662931680679
-78.364173889160 -63.577590942383 -121.769264221191 1.761683583260
-86.597259521484 -65.082420349121 -111.969909667969 0.640824019909
-90.252899169922 -66.013801574707 -119.892189025879 1.471217393875
-79.478080749512 -64.939262390137 -124.812583923340 0.487582772970
-54.202735900879 -60.995681762695 -127.486885070801 2.366774320602
-76.518547058105 -61.972824096680 -132.348815917969 2.339650154114
-55.542236328125 -60.790885925293 -135.144165039063 1.256879329681
-86.580627441406 -61.459365844727 -135.595520019531 3.079326629639
30.212825775146 -62.672454833984 -137.049880981445 1.195672512054
19.349384307861 -66.539535522461 -140.341140747070 1.354230523109
-90.709365844727 -63.244125366211 -138.621383666992 0.534017086029
19.750247955322 -62.771812438965 -146.829193115234 0.825281858444
-89.909690856934 -64.678344726563 -143.527481079102 0.896061539650
-94.795501708984 -62.145156860352 -147.859222412109 1.453463077545
21.380891799927 -63.333168029785 -152.473007202148 1.271150469780
-95.040351867676 -64.119735717773 -144.503875732422 1.303208708763
-96.534065246582 -64.093544006348 -147.256378173828 1.080162525177
-102.614433288574 -62.312019348145 -160.288406372070 0.997675716877
-96.296783447266 -64.687919616699 -160.648345947266 1.505362987518
-105.786796569824 -63.643089294434 -173.680557250977 1.087076425552
-105.914199829102 -65.032188415527 -166.670196533203 0.964966833591
-102.158767700195 -62.964981079102 -163.107803344727 1.100573420525
-106.606910705566 -62.656501770020 -173.531066894531 0.719666481018
-142.295822143555 -65.016990661621 -177.260864257813 1.078276872635
-106.445014953613 -63.589935302734 -178.794937133789 1.410918951035
-144.330566406250 -63.881820678711 -187.454177856445 1.233070135117
-147.921646118164 -64.183029174805 -187.475906372070 1.307901978493
-148.018630981445 -65.095977783203 -191.968322753906 1.765602946281
-124.883209228516 -64.708404541016 -195.567718505859 1.458348512650
-130.830032348633 -62.253860473633 -198.863494873047 1.480425953865
-122.272331237793 -64.418205261230 -199.525634765625 0.574782967567
-140.235839843750 -65.338531494141 -203.334701538086 1.316353321075
-125.349777221680 -64.535552978516 -204.591506958008 0.773936271667
-144.873977661133 -65.642265319824 -205.970382690430 0.441332668066
-149.595748901367 -64.578384399414 -207.125366210938 0.856173038483
-155.665771484375 -61.727668762207 -229.161117553711 1.392266392708
-141.277725219727 -65.765083312988 -231.131454467773 0.562282502651
-125.822372436523 -64.087158203125 -232.613830566406 0.716347515583
-155.805938720703 -60.799865722656 -231.207748413086 1.588910341263
-3.254097938538 -66.111503601074 -238.018005371094 0.832049548626
12.733931541443 -63.781921386719 -240.517990112305 1.325736761093
-3.532839536667 -65.246475219727 -245.457031250000 1.052933216095
-146.378082275391 -60.556770324707 -245.220962524414 1.886581301689
-5.641219139099 -61.789848327637 -248.135253906250 0.793875098228
-147.101425170898 -61.475227355957 -253.109069824219 1.163438200951
-5.147182941437 -62.352561950684 -247.653411865234 0.761886417866
-149.542617797852 -62.367835998535 -252.998016357422 0.720078289509
22.478685379028 -67.526565551758 -254.472259521484 2.026491165161
-152.823150634766 -62.676048278809 -256.294403076172 0.435034185648
-146.601882934570 -62.456909179688 -252.695068359375 1.136802434921
-154.440124511719 -61.642723083496 -254.692016601563 1.886903882027
-148.182373046875 -60.999969482422 -256.961914062500 1.403825163841
34.090324401855 -64.932693481445 -256.040771484375 2.064185142517
29.471851348877 -60.912490844727 -262.118896484375 1.912833571434
-146.045349121094 -61.989997863770 -258.551330566406 1.142678022385
-150.650115966797 -60.982238769531 -261.505218505859 1.769432425499
-155.143417358398 -63.919624328613 -260.270477294922 1.143668174744
-148.630767822266 -62.313133239746 -260.067016601563 1.625237464905
25.703001022339 -63.900070190430 -261.852661132813 1.327827572823
29.799690246582 -63.919403076172 -263.694946289063 1.170625925064
-150.471618652344 -63.458602905273 -265.381835937500 0.584671258926
-141.832351684570 -64.202873229980 -262.621520996094 1.584203600883
-153.439559936523 -61.969261169434 -264.431488037109 1.385708570480
-145.444076538086 -63.611228942871 -261.562500000000 0.600238442421
-146.486694335938 -65.838027954102 -266.922912597656 2.000510692596
-151.026763916016 -64.220596313477 -266.214843750000 0.548945903778
-148.885513305664 -63.280677795410 -265.703552246094 0.996740400791
-150.169250488281 -64.221847534180 -283.744567871094 1.019564151764
-150.589706420898 -62.873115539551 -283.089233398438 0.697935998440
-147.989807128906 -62.243614196777 -282.356933593750 1.600098252296
20.119459152222 -64.497390747070 -283.618255615234 1.775994300842
-152.620849609375 -61.960525512695 -283.659545898438 1.984415769577
-147.764907836914 -62.035957336426 -284.409973144531 1.210250616074
-5.198520660400 -65.779510498047 -288.747711181641 0.873632729053
6.083584785461 -65.988494873047 -292.709930419922 2.235795736313
-148.451568603516 -66.156654357910 -296.743011474609 1.416323661804
27.429676055908 -69.732109069824 -21.124538421631 1.279164314270
42.849006652832 -63.184700012207 -27.470951080322 1.243070363998
50.035839080811 -70.467063903809 -32.578586578369 1.116671919823
41.365882873535 -61.260581970215 -32.340095520020 2.676501750946
24.617534637451 -70.802833557129 -39.004943847656 1.687712788582
43.576370239258 -70.482475280762 -40.824871063232 1.763673186302
82.167022705078 -62.529998779297 -60.256431579590 0.561992585659
75.335418701172 -63.324119567871 -60.697692871094 0.992248713970
-11.354205131531 -65.847030639648 -64.375877380371 1.598575592041
63.509075164795 -61.709121704102 -70.930412292480 2.463891029358
-29.042324066162 -67.315284729004 -77.155799865723 1.810227394104
-30.802682876587 -64.956176757813 -79.125038146973 1.871269583702
-53.659690856934 -60.914176940918 -78.118431091309 0.916159749031
-50.005104064941 -62.951744079590 -81.249046325684 1.709401845932
64.617378234863 -64.572608947754 -83.528511047363 1.385522127151
103.669776916504 -67.099700927734 -87.211486816406 1.651486635208
-61.816310882568 -62.781265258789 -88.348678588867 1.079058289528
55.025760650635 -64.910896301270 -93.595314025879 1.664843320847
61.318050384521 -62.445655822754 -92.061813354492 1.229317903519
103.950866699219 -66.089248657227 -95.607048034668 0.830653905869
-66.618270874023 -62.525009155273 -95.382827758789 0.896109521389
55.925144195557 -61.978393554688 -97.046577453613 0.993337929249
-70.508232116699 -64.907882690430 -105.579803466797 0.723880350590
67.446586608887 -67.553382873535 -97.163642883301 1.226847648621
68.328849792480 -62.315811157227 -101.745758056641 1.615119099617
-72.110916137695 -64.169059753418 -107.960754394531 0.814327657223
-98.775405883789 -61.230842590332 -109.339851379395 1.759299874306
-70.901626586914 -61.498252868652 -108.019073486328 2.055868625641
-83.536926269531 -63.485305786133 -112.381774902344 0.539588510990
-63.926551818848 -62.483932495117 -110.988769531250 1.745591640472
-84.847198486328 -62.228157043457 -112.289634704590 0.699171721935
-77.881462097168 -62.969879150391 -115.710029602051 0.916976869106
-75.541954040527 -63.280784606934 -120.715904235840 1.666839241982
-65.234756469727 -63.894294738770 -120.896141052246 0.890932738781
-83.436561584473 -64.848472595215 -123.280876159668 0.799859583378
34.840911865234 -62.013916015625 -126.240165710449 1.581890702248
-53.876037597656 -62.412391662598 -127.854545593262 1.536168813705
30.891380310059 -62.906250000000 -130.199691772461 1.361282825470
31.446638107300 -62.867187500000 -133.557846069336 0.980957508087
33.961380004883 -62.253929138184 -134.310470581055 2.118830442429
-50.133079528809 -63.142417907715 -136.092056274414 1.552048206329
20.417596817017 -63.014923095703 -144.532852172852 2.286258459091
26.562099456787 -63.258224487305 -143.785064697266 1.767891526222
-144.024032592773 -61.761848449707 -176.844253540039 0.888083457947
-148.497192382813 -61.616752624512 -174.492782592773 1.879076838493
-153.674392700195 -62.827972412109 -178.689788818359 1.955508232117
-149.829223632813 -63.434341430664 -185.686248779297 2.030269861221
-145.854141235352 -62.175224304199 -186.169189453125 1.303385138512
-147.100784301758 -64.577049255371 -193.632949829102 1.102207303047
-143.832839965820 -65.994033813477 -192.657806396484 1.091082334518
-145.126312255859 -60.030357360840 -198.405883789063 0.843251347542
-124.597991943359 -62.917304992676 -200.360748291016 0.936489939690
-132.964096069336 -62.694381713867 -202.650344848633 1.505706071854
-146.386260986328 -62.488647460938 -209.574493408203 0.794840216637
-147.625656127930 -60.355995178223 -224.656631469727 0.584727346897
-151.989212036133 -60.069046020508 -224.961059570313 1.384401440620
-147.191284179688 -59.186553955078 -226.934448242188 2.332822799683
-153.513504028320 -61.993873596191 -227.246582031250 0.773548781872
-151.976745605469 -63.278610229492 -228.818481445313 1.971449375153
-149.140396118164 -60.315841674805 -227.009155273438 1.436383843422
-146.788604736328 -61.499107360840 -232.010223388672 0.902613520622
-143.023529052734 -61.179145812988 -233.441543579102 1.303089499474
-147.563171386719 -61.302391052246 -231.858322143555 0.546038985252
-153.952835083008 -61.561393737793 -233.432495117188 1.183895707130
7.352712631226 -64.783721923828 -241.611862182617 1.284986257553
-11.735461235046 -67.388542175293 -241.295684814453 0.909324228764
-146.605178833008 -61.784576416016 -236.959106445313 1.265449047089
-151.670303344727 -63.282775878906 -235.967559814453 1.295187354088
-148.111114501953 -60.646003723145 -234.340347290039 1.164566516876
10.379464149475 -62.840820312500 -245.235641479492 1.033921122551
-150.302780151367 -62.982940673828 -241.698638916016 1.196977972984
-147.530807495117 -62.835823059082 -253.983703613281 0.897042691708
-1.116006493568 -62.288917541504 -250.288665771484 0.935406982899
-148.853012084961 -62.844825744629 -251.120788574219 2.083277940750
-150.644760131836 -60.782127380371 -252.015899658203 1.688627481461
-145.211334228516 -64.142250061035 -255.031188964844 1.391824483871
-142.603118896484 -63.532608032227 -257.865325927734 0.654637515545
26.654825210571 -64.164169311523 -260.311798095703 1.721737504005
-149.390335083008 -62.778198242188 -265.685913085938 0.404159247875
25.470922470093 -64.508087158203 -269.420074462891 1.286665558815
16.866661071777 -66.758850097656 -286.618560791016 1.834213256836
-0.441946089268 -62.398307800293 -289.875946044922 1.452956438065
6.344655990601 -60.536712646484 -292.206726074219 1.131218194962
31.171773910522 -61.242820739746 -17.663742065430 0.556991040707
46.549064636230 -69.916564941406 -38.477428436279 1.387790560722
33.562553405762 -72.090950012207 -38.413887023926 1.832912445068
-43.670661926270 -61.682876586914 -45.672119140625 0.966928005219
-91.086730957031 -59.688758850098 -50.614875793457 2.505585432053
-94.602447509766 -61.215423583984 -58.445350646973 1.220744252205
-18.465007781982 -62.874649047852 -65.510055541992 2.223427295685
102.392646789551 -63.607116699219 -70.333122253418 1.143802285194
106.610740661621 -58.784912109375 -76.173645019531 2.406414985657
103.733818054199 -65.732292175293 -77.232460021973 0.969847023487
-51.686893463135 -64.792663574219 -82.826843261719 1.098267197609
-63.098186492920 -59.999084472656 -83.818336486816 1.788834810257
59.261707305908 -60.355590820313 -87.524581909180 0.778681755066
54.624767303467 -60.123863220215 -88.513031005859 0.838128983974
-63.590103149414 -62.778236389160 -94.423126220703 2.125340938568
-99.091270446777 -59.845603942871 -106.118400573730 1.684452056885
79.471511840820 -65.257141113281 -107.932357788086 0.494622617960
-77.863998413086 -62.641433715820 -111.317108154297 1.187775492668
-67.559066772461 -59.550384521484 -111.134338378906 0.914752840996
-80.829017639160 -62.789665222168 -113.985847473145 2.021117448807
-85.597290039063 -61.800498962402 -112.836341857910 1.453801274300
-80.757781982422 -63.320030212402 -116.079490661621 1.354818224907
-68.808303833008 -61.818496704102 -114.040184020996 1.920280933380
-64.340644836426 -63.261680603027 -119.634117126465 0.402552574873
-81.295707702637 -62.345680236816 -116.898635864258 1.036171793938
-78.523750305176 -61.342620849609 -117.587661743164 1.711942195892
-66.727035522461 -61.422195434570 -121.879096984863 1.737942576408
-85.971969604492 -62.687530517578 -118.702919006348 1.718827843666
-76.968894958496 -62.879707336426 -121.119987487793 2.258527994156
-74.820701599121 -63.003387451172 -126.607917785645 1.851793408394
-76.426101684570 -60.832847595215 -130.702468872070 2.654657363892
29.452226638794 -60.421348571777 -128.985656738281 0.897094964981
-56.070926666260 -61.595329284668 -130.638107299805 1.295829296112
26.529853820801 -62.639144897461 -133.822616577148 0.984321653843
22.900152206421 -63.225044250488 -135.421798706055 1.373728990555
-145.239685058594 -62.051483154297 -194.598754882813 1.620256066322
-139.636505126953 -65.011138916016 -199.289169311523 0.947478711605
-154.757217407227 -60.151596069336 -200.756546020508 1.571874737740
-149.817306518555 -61.565299987793 -200.454833984375 1.185366153717
-155.724533081055 -62.516639709473 -202.424591064453 2.102381229401
-148.308868408203 -60.519622802734 -204.223114013672 0.928267002106
-143.748596191406 -61.618545532227 -202.996765136719 1.870553374290
-149.263549804688 -62.911659240723 -205.865249633789 1.578866124153
-149.310577392578 -63.586540222168 -221.519805908203 2.011981725693
-148.358886718750 -62.080940246582 -225.207260131836 0.559614777565
-145.258590698242 -61.029579162598 -221.969238281250 2.120522260666
-146.322387695313 -61.841827392578 -221.189331054688 2.071739673615
-147.680175781250 -60.734436035156 -225.861282348633 0.878070056438
-143.244628906250 -60.118408203125 -225.429168701172 1.437829494476
-144.574081420898 -61.460685729980 -228.024246215820 1.161151766777
-142.563934326172 -61.064956665039 -225.729263305664 0.966350197792
-140.610733032227 -62.577064514160 -229.779556274414 1.158120393753
-141.683090209961 -61.179954528809 -233.620834350586 2.051673173904
-148.074569702148 -61.700508117676 -236.130661010742 0.839519798756
-148.879898071289 -61.076896667480 -235.096511840820 1.185192584991
2.341547966003 -60.626960754395 -239.310958862305 1.720548629761
18.906467437744 -63.018821716309 -242.288192749023 1.244940042496
23.103315353394 -59.518608093262 -253.202880859375 1.569861531258
25.978044509888 -58.417068481445 -258.467895507813 1.510952353477
6.080881118774 -60.123504638672 -264.120971679688 1.552712559700
21.126241683960 -64.574501037598 -276.898132324219 1.500018954277
2.708642005920 -63.820587158203 -281.301666259766 1.168788909912
3.605029821396 -60.396972656250 -289.239074707031 1.473481416702
10.694139480591 -63.427749633789 -291.619628906250 0.760170936584
50.648265838623 -70.900100708008 -20.323928833008 1.848083734512
33.418243408203 -58.945312500000 -37.093330383301 1.414602279663
-29.496402740479 -62.449760437012 -47.609661102295 1.000818610191
-18.206447601318 -60.776321411133 -49.142974853516 2.011721611023
-10.931158065796 -62.170852661133 -57.045745849609 1.491334438324
95.746673583984 -61.977439880371 -61.673828125000 2.075296640396
-98.999244689941 -59.476974487305 -68.717102050781 1.587732553482
103.081954956055 -61.482048034668 -72.540557861328 0.842094302177
57.289611816406 -61.186935424805 -83.596687316895 1.424915432930
65.045654296875 -61.534034729004 -89.911109924316 0.463093072176
-65.826377868652 -60.457145690918 -90.026741027832 2.202286243439
54.366184234619 -64.448287963867 -92.786285400391 1.401331543922
63.080387115479 -61.158973693848 -94.556152343750 2.231370687485
104.860931396484 -60.761039733887 -96.919700622559 1.653428196907
-65.796707153320 -60.719810485840 -97.087791442871 0.836758017540
-69.253639221191 -60.516914367676 -100.149307250977 1.623304367065
74.128616333008 -60.968811035156 -105.998603820801 1.384217023849
-76.910171508789 -61.868949890137 -104.788909912109 0.761933386326
-62.784572601318 -62.890571594238 -112.446968078613 0.403373241425
40.859012603760 -59.742660522461 -116.752182006836 0.622964978218
-82.145233154297 -61.888862609863 -122.734931945801 0.893491446972
39.317897796631 -61.446800231934 -119.994346618652 0.713859617710
-89.074508666992 -63.774208068848 -117.523620605469 1.520279049873
-94.672485351563 -62.346832275391 -123.070838928223 0.586680114269
-66.349319458008 -62.531730651855 -122.924095153809 0.487532198429
38.649597167969 -60.154502868652 -124.413002014160 1.518720984459
-62.348255157471 -59.682472229004 -128.909118652344 2.198961496353
-58.318603515625 -61.648971557617 -133.110885620117 1.469679117203
-57.217617034912 -63.528427124023 -138.186477661133 1.254155158997
-144.309707641602 -61.811462402344 -198.269866943359 1.604874014854
-146.255859375000 -58.556907653809 -192.446563720703 2.355168104172
-149.216445922852 -60.779785156250 -195.822036743164 1.056715846062
-154.199737548828 -60.702865600586 -196.987060546875 1.008838176727
-150.042709350586 -60.376953125000 -197.127929687500 1.236055493355
