# This PCD file was generated using the MATLAB® pcwrite function
# from Computer Vision Toolbox®.
# .PCD v.7 - Point Cloud Data file format
VERSION .7
FIELDS x y z
SIZE 4 4 4
TYPE F F F
COUNT 1 1 1
WIDTH 1429
HEIGHT 1
VIEWPOINT 0 0 0 1 0 0 0
POINTS 1429
DATA ascii
-67.525627 42.488590 -197.640839
-69.027443 39.439774 -203.307922
-70.138382 67.952362 -200.780121
-68.991173 62.036549 -203.191193
-69.832596 -37.970169 -205.972092
-70.383163 57.177513 -205.299377
-70.432022 -38.285877 -205.690186
-71.132294 -37.018070 -208.183868
-70.371216 191.728821 -207.177139
-68.677589 -38.293221 -209.929764
-71.549751 143.524841 -210.039948
-69.306892 62.826717 -209.165863
-72.976883 50.066788 -209.614258
-69.813637 35.519199 -210.497147
-70.272125 157.920578 -213.312729
-68.566071 194.736008 -213.317062
-69.676758 53.692451 -211.363693
-66.768700 -35.299297 -212.048950
-69.097450 -29.936693 -214.735703
-69.537651 183.356903 -212.450378
-69.792778 149.194977 -215.368317
-69.051353 40.636169 -214.706635
-70.552811 55.995590 -214.576736
-69.768456 191.301193 -210.797745
-70.171707 186.121674 -214.779999
-66.463646 182.220581 -214.549118
-67.771393 172.063965 -215.563446
-69.293243 165.995621 -214.822357
-68.876846 162.247116 -216.336258
-71.691109 37.135101 -214.647644
-68.608963 49.401657 -216.321426
-69.876411 68.457779 -217.743713
-71.063934 63.445263 -217.775177
-67.657272 35.738464 -214.942276
-70.005676 56.925957 -217.110901
-70.808197 -29.197098 -216.036652
-68.452492 155.481949 -215.936539
-68.826797 45.360516 -218.793732
-70.741020 42.679958 -219.308990
-68.472054 63.218529 -219.803177
-70.734825 51.266304 -220.812347
-68.690453 204.881943 -221.613800
-72.522446 -29.194777 -220.349075
-70.722382 162.431793 -224.260071
-69.073189 53.091785 -223.453522
-68.574287 39.185368 -220.855469
-70.190453 35.819447 -221.267807
-69.369858 -20.824112 -219.848663
-70.093552 58.060337 -222.012085
-71.074364 44.557827 -222.354156
-67.667290 167.620422 -221.062042
-68.160606 184.169144 -223.883667
-69.199921 218.856079 -223.313385
-67.710861 56.038765 -223.317215
-69.703522 183.383255 -225.600388
-67.028801 207.456421 -222.871475
-68.572586 204.500534 -224.613846
-68.649727 175.237076 -225.453522
-68.631096 -14.674655 -224.597107
-69.350067 -26.952826 -223.520996
-68.741570 193.419357 -224.208511
-67.819031 55.931602 -225.379227
-71.355568 53.557495 -225.831406
-68.936081 -17.355009 -227.655121
-69.755341 61.135220 -225.964523
-68.335793 193.340454 -228.138596
-67.445602 55.608414 -225.063812
-70.278008 -16.360645 -226.777985
-68.766594 -10.020224 -226.569687
-67.275749 207.911423 -226.806229
-69.167130 62.642334 -228.430252
-71.551735 40.312607 -228.049469
-69.303246 66.010605 -229.269806
-69.945869 -20.216928 -230.911118
-71.560570 45.617405 -231.444504
-69.733376 -11.321877 -230.498154
-69.274879 -11.354678 -232.642685
-68.308319 -14.893595 -231.075089
-71.540230 41.634987 -232.998123
-69.810425 -9.854841 -231.993225
-71.714432 218.035324 -233.939911
-68.532890 206.898315 -234.335449
-69.878128 -14.104578 -234.759247
-70.721626 62.285919 -234.674500
-71.531181 1.623749 -234.076141
-70.664581 200.923172 -235.633011
-69.184509 -3.863524 -236.471497
-72.187485 -2.116433 -237.895187
-68.377304 1.569483 -240.037247
-71.319023 218.156754 -239.859055
-70.510574 207.285355 -239.760452
-67.882256 203.253738 -239.891541
-68.673386 27.500881 -239.602371
-70.401588 1.139124 -239.801666
-68.096275 136.350204 -240.070480
-70.132515 126.663818 -241.887177
-68.461853 66.116516 -242.756821
-68.687904 141.906921 -241.231125
-70.828659 144.319290 -242.939896
-68.780373 131.982361 -242.073395
-69.787750 28.126448 -241.567581
-68.025040 204.031677 -243.033844
-68.755661 205.422440 -243.252243
-69.782089 207.301895 -245.996414
-68.180901 153.770630 -243.299728
-68.909859 135.897705 -245.984924
-71.080261 65.169823 -245.399261
-71.036880 190.652252 -243.444107
-71.910477 155.489777 -245.246124
-68.239944 27.767820 -247.730820
-69.645386 218.137650 -244.194305
-70.012978 18.188856 -245.920441
-68.675011 139.664108 -247.131943
-69.270790 204.150238 -246.401855
-71.788353 21.163532 -248.102493
-68.989311 147.848434 -247.677719
-68.093124 23.654970 -248.872879
-69.625908 151.718719 -248.973877
-69.768448 22.504765 -251.938812
-70.852112 16.796320 -249.997482
-68.774139 154.836380 -252.017853
-71.368607 63.846672 -251.855301
-70.199966 24.476814 -251.509460
-71.538765 19.266029 -252.970901
-73.318794 66.516388 -252.425476
-69.395500 23.430080 -249.786591
-71.867874 175.118729 -251.851074
-69.327637 190.363861 -251.609833
-67.533554 185.297989 -252.497528
-71.591133 213.260040 -254.755981
-68.468491 217.971237 -253.520401
-70.078522 185.565582 -252.119919
-70.938362 201.951096 -257.367035
-67.615959 209.057556 -255.637756
-66.591087 196.710266 -257.033905
-70.258423 208.734177 -256.631165
-68.420425 215.963196 -257.717987
-70.668526 26.772551 -255.397934
-68.130798 215.709778 -259.140167
-68.605614 214.711823 -258.054657
-69.430168 195.186508 -259.032532
-67.934685 63.449032 -261.049286
-67.815376 213.265213 -263.428528
-69.708328 214.595673 -265.131348
-71.313705 61.049870 -265.471741
-67.338303 217.938873 -266.277252
-70.442871 30.340654 -268.257019
-71.538589 213.127197 -268.352722
-69.754959 216.328812 -267.923218
-70.317108 60.450298 -271.328156
-69.520996 30.225718 -273.878998
-70.123245 218.995041 -273.515564
-72.287659 202.500824 -274.452728
-68.448425 176.134995 -273.310577
-67.734695 215.614136 -271.088623
-66.937546 206.974014 -276.068726
-69.690804 56.368999 -274.586914
-69.561684 177.782013 -276.087402
-70.117165 175.890121 -276.228973
-68.017029 214.400650 -274.898102
-68.729630 205.966141 -275.158630
-69.263039 165.683777 -274.946899
-69.835190 165.817398 -277.430542
-71.332886 157.780777 -275.726532
-70.950546 147.372345 -278.605988
-68.738121 199.466019 -279.005524
-71.038506 138.686569 -276.208984
-69.855141 119.939735 -277.970276
-66.780449 127.242233 -277.640106
-68.373222 120.935074 -278.216431
-68.979698 211.645096 -279.935455
-68.451637 131.189301 -280.417847
-68.454712 145.303741 -281.311035
-69.683617 134.024979 -278.430023
-71.944107 127.145798 -278.999695
-69.788971 141.265182 -281.056549
-67.701279 205.512161 -279.894165
-68.658440 157.193802 -282.518005
-71.248222 150.174591 -283.344666
-70.678329 193.199203 -283.325104
-70.966652 164.541107 -281.297028
-66.002838 42.613071 -282.877136
-69.734077 205.080460 -282.850677
-68.015518 194.849731 -283.585022
-71.086357 183.130234 -284.229706
-69.317177 194.951691 -283.747742
-71.339066 196.328293 -289.686493
-68.773888 205.101013 -288.911224
-70.585739 195.402390 -289.286713
-70.623474 207.188995 -295.730072
-68.138260 206.224701 -298.363373
-70.172272 204.019745 -298.949860
-71.217125 196.219284 -303.926697
-69.552559 197.871719 -302.298431
-70.160828 11.278193 -3.288582
-66.949081 9.453397 -5.312573
-69.505669 5.823443 -2.309423
-69.311707 -1.026980 -9.590935
-70.957733 7.066220 -10.577740
-66.119537 0.716461 -8.901316
-69.320778 0.929632 -11.283987
-70.252197 0.054305 -12.833747
-72.261681 1.219479 -20.258055
-70.202606 16.970303 -24.849945
-68.064896 16.844927 -27.142355
-68.529892 121.858429 -37.597183
-66.997490 125.925751 -39.685688
-70.531258 88.617630 -38.068378
-67.625336 128.853287 -39.123028
-69.842285 77.197716 -44.003094
-68.039024 132.283066 -42.214531
-66.686264 -33.482040 -54.631767
-67.916580 -35.785217 -56.381374
-68.966721 -36.624428 -54.763485
-68.288643 -21.717445 -59.670174
-69.044289 -47.064560 -60.673046
-67.371376 -47.036484 -61.329292
-69.535507 146.825363 -63.550259
-70.724640 -18.145397 -64.845398
-68.743828 -50.255222 -67.682251
-70.218773 89.915443 -66.367996
-69.993935 -54.282131 -69.661118
-69.211578 95.045700 -70.601524
-67.882202 -15.482604 -72.522720
-67.455276 -14.420986 -72.391998
-67.261070 -6.909369 -77.170181
-67.714630 -51.870453 -74.874039
-67.180786 -15.043055 -78.678238
-70.911903 -2.378267 -77.023079
-68.061592 -2.907356 -78.792381
-68.366539 -14.926693 -80.426292
-71.247650 -17.418530 -80.027336
-67.728531 -15.239978 -81.253845
-70.104576 -10.558683 -86.975121
-69.776558 -51.125561 -84.938484
-70.006065 -18.258982 -86.018494
-70.279099 1.653191 -89.504028
-69.606155 -51.130013 -90.698494
-65.963814 -53.586830 -89.284988
-69.818588 -19.145006 -88.658157
-69.226616 -59.731602 -92.580902
-67.325790 5.092665 -92.348740
-68.789330 -20.089243 -94.435532
-69.360847 146.053879 -93.205399
-68.452751 2.333377 -94.883560
-68.479729 9.958683 -93.289589
-67.615562 2.314180 -94.371353
-68.057907 -45.399338 -98.756210
-66.223076 125.343147 -96.622246
-69.052376 -53.802734 -97.815742
-70.034386 10.246038 -100.078346
-68.533844 0.054349 -100.060188
-68.222542 130.640823 -100.974236
-69.104446 12.338288 -104.240990
-68.384621 124.120651 -103.034378
-67.192047 7.234962 -105.536064
-71.286133 -65.242134 -105.784401
-69.184906 131.750702 -110.925301
-68.440964 10.202881 -108.105667
-67.683578 -61.950817 -107.597488
-70.431702 141.787582 -110.564407
-68.728607 10.432222 -109.353516
-70.795403 -60.994450 -107.794456
-67.990486 129.061844 -109.978645
-70.022972 144.791351 -110.994637
-68.388794 -63.545906 -110.073830
-69.555458 131.654907 -113.383606
-69.400169 -57.903038 -112.469269
-69.586998 139.282364 -112.552933
-68.588890 12.852035 -112.360710
-68.944824 109.172707 -113.173500
-68.614594 139.166763 -114.942673
-67.431702 132.874603 -115.943016
-69.611206 111.501274 -115.933128
-67.507767 17.493301 -116.454865
-67.639687 126.950401 -115.083328
-68.698570 -64.093353 -116.258842
-68.197250 14.843899 -118.436455
-68.082771 -60.360252 -119.335884
-70.386597 133.327682 -119.317184
-65.426453 14.099038 -116.460243
-66.765892 125.481026 -120.383301
-68.565910 97.940315 -120.615036
-72.324013 139.474289 -122.237442
-70.073807 -60.883873 -123.705635
-70.548897 109.881226 -125.027802
-68.716652 129.230179 -127.086212
-67.684143 112.010513 -125.641563
-69.935600 19.263372 -126.089592
-69.008057 17.004393 -125.808060
-67.834251 142.669250 -125.003296
-69.667175 125.022781 -127.212723
-69.493050 -63.086506 -130.341690
-68.705673 17.446173 -131.359924
-68.485458 -64.221542 -128.888336
-65.453560 110.915337 -129.183563
-66.838257 139.772736 -130.062759
-67.489288 108.479485 -131.405716
-68.125839 99.274574 -134.155396
-67.193367 126.040642 -133.637436
-70.481621 16.147614 -134.875946
-67.783775 23.390331 -134.723373
-68.407776 103.515968 -137.752441
-69.151627 100.959381 -133.577972
-67.902786 100.167397 -136.354370
-67.010406 22.105488 -136.626953
-69.154892 144.761353 -137.456512
-65.995842 142.549606 -135.998932
-67.971863 27.817211 -136.030258
-69.883469 -64.878242 -135.873810
-68.256172 23.953865 -139.885559
-70.364822 118.213943 -136.602005
-69.245094 21.064276 -140.650253
-69.594925 27.731621 -140.104248
-67.869522 94.253716 -141.866516
-69.646309 101.779945 -142.510315
-68.643181 27.425344 -141.718018
-70.497086 149.749374 -145.430664
-66.810104 149.213989 -144.831207
-67.109741 92.339668 -140.412292
-68.285950 17.793795 -143.280655
-70.490723 42.174206 -146.756668
-66.450012 37.874851 -144.667618
-68.448944 96.978951 -147.044052
-70.017593 41.300037 -147.380951
-68.037895 89.709274 -149.658646
-66.806763 148.203476 -150.234299
-69.293991 28.297743 -147.764511
-67.278633 21.103670 -148.636398
-67.716972 152.154221 -151.144836
-70.747513 86.726776 -150.033569
-68.829498 151.860535 -153.281418
-67.836197 29.271233 -156.559021
-69.173462 150.564606 -155.182236
-67.035934 152.871002 -158.003479
-70.208237 87.862831 -157.569565
-65.858147 88.586113 -157.626770
-68.537468 156.348007 -158.249863
-68.863747 25.312309 -160.835342
-67.392296 154.391724 -163.615738
-69.175964 26.742146 -161.395920
-69.466331 156.795654 -162.608765
-67.399910 83.228424 -161.570343
-66.973709 85.204910 -161.140320
-69.757835 84.797516 -166.357574
-67.449333 196.839264 -165.573166
-67.993446 157.442505 -165.307434
-69.315079 22.387840 -168.160065
-67.735840 202.937515 -168.427124
-69.068016 28.395016 -165.995132
-67.014793 82.508369 -166.467804
-70.130798 201.299255 -168.635590
-71.892128 34.357212 -168.045532
-68.610168 191.380386 -169.526306
-69.206406 160.086746 -169.598877
-69.752914 76.847740 -169.984207
-69.401871 29.474606 -173.903595
-67.368256 30.354275 -170.613800
-67.946327 24.625162 -171.577499
-67.169830 26.006659 -171.567429
-69.627884 79.238625 -173.050873
-67.124748 157.803223 -174.048584
-69.875023 76.971878 -176.178375
-68.666306 201.831726 -178.349442
-69.981552 37.125057 -177.585312
-67.956665 189.705444 -175.228622
-69.925743 30.842747 -176.850922
-66.319199 163.842163 -178.395752
-67.744797 70.558289 -176.830765
-66.343987 30.336218 -180.372467
-66.749802 202.288193 -178.800552
-71.705872 155.793137 -181.303329
-69.728584 162.462845 -182.110992
-69.547440 32.239571 -184.137848
-69.706909 201.114960 -183.042023
-67.393250 30.821754 -183.082520
-67.996422 201.976761 -183.459824
-67.694534 156.831207 -184.096436
-68.826431 38.933968 -183.209488
-68.583435 77.103775 -184.456390
-69.657295 169.774368 -186.588806
-68.864914 67.411041 -187.392624
-70.221230 31.201555 -185.611206
-68.971664 34.237499 -187.586914
-70.269699 73.150955 -188.163223
-69.302139 65.382263 -188.172424
-69.821327 69.656898 -190.865662
-67.491188 172.698746 -191.591919
-70.260300 162.799149 -192.196686
-69.795792 31.102495 -196.125565
-67.492088 64.314484 -195.487137
-67.621246 40.106510 -193.513794
-69.258812 206.687988 -195.111771
-69.309486 174.577515 -193.616699
-68.678101 190.855408 -194.295731
-69.443153 66.621643 -195.453384
-68.829437 69.422997 -197.516296
-69.142410 192.444016 -194.535660
-69.182465 65.646820 -195.530212
-68.467506 216.330093 -198.348755
-67.759529 31.793411 -196.275879
-67.587761 62.129189 -198.980820
-67.005547 206.742569 -201.100616
-69.823029 55.584110 -203.628784
-67.461212 203.687897 -204.058487
-69.127975 200.305389 -204.101517
-69.160927 65.070999 -203.604401
-70.851540 33.737862 -204.164474
-67.565224 55.340302 -205.447708
-68.647774 35.710373 -207.368332
-66.850052 58.951420 -208.011505
-67.733826 40.275459 -207.932388
-69.574348 60.211201 -210.095062
-68.324928 215.843582 -207.200546
-68.762596 65.316025 -209.037918
-67.736145 147.943039 -208.393341
-67.398079 147.638992 -208.525131
-68.043175 210.650558 -211.101074
-68.801338 147.891098 -210.559219
-67.076859 56.845295 -210.261658
-68.450500 57.503178 -210.154495
-67.940117 36.727837 -213.425659
-67.518776 148.119888 -211.869278
-68.525101 61.711731 -211.814697
-66.957336 209.446030 -211.044479
-69.998833 54.933983 -212.378555
-68.769623 -33.124237 -213.133057
-68.053513 202.695099 -212.445267
-68.913803 176.650787 -214.398849
-67.395844 38.357452 -213.612427
-68.458618 204.779312 -216.322708
-70.148186 184.701843 -215.478409
-68.383041 186.146759 -214.123703
-67.897644 -29.613314 -213.331909
-68.281769 176.835968 -215.007965
-68.933853 172.740967 -216.291885
-69.498459 163.744888 -216.370697
-68.742317 51.598869 -215.587128
-70.352577 45.520237 -216.739655
-67.226913 217.794510 -216.495438
-69.299774 205.615723 -217.820877
-68.693710 50.717552 -218.396973
-67.746857 -27.744007 -219.490631
-70.606773 45.917267 -218.599991
-67.842499 57.264343 -219.351669
-67.816811 49.139446 -221.003525
-67.494705 -23.174732 -222.614548
-66.179527 60.146152 -221.058182
-66.686516 216.784790 -223.216324
-65.757523 -26.891283 -222.895325
-70.258766 173.787903 -222.201767
-69.678940 179.579102 -224.656311
-67.947777 50.354198 -224.861115
-70.812584 -15.599760 -224.753326
-69.545837 204.811600 -224.792175
-67.266655 53.866249 -225.027267
-69.181870 49.127346 -226.184738
-68.570480 58.492027 -224.334091
-69.287605 42.372334 -227.812836
-69.314674 210.525833 -228.321716
-70.436928 52.788990 -227.110519
-68.174812 -20.686817 -227.334885
-66.037102 216.055588 -229.516998
-69.343620 63.664711 -229.371094
-69.624222 47.170918 -229.130173
-68.554718 -8.285902 -229.031982
-68.334526 209.359116 -234.131531
-69.046654 61.611622 -233.373230
-71.619232 203.629333 -231.311340
-70.824844 218.514359 -234.060837
-68.465508 -6.139611 -232.256790
-67.184624 209.039566 -232.990753
-67.720192 36.569008 -233.474152
-69.846687 -8.146622 -234.189621
-68.470863 214.064835 -232.849915
-67.812485 211.093155 -236.113388
-67.363762 34.413528 -235.731628
-66.723579 216.933151 -235.243500
-69.775345 215.692947 -235.443756
-68.646912 196.726608 -236.271790
-70.364838 -8.702244 -239.143295
-68.726425 0.113658 -238.260864
-67.500587 209.331955 -239.501984
-69.321548 29.138874 -241.099091
-69.549515 66.481682 -240.489151
-69.161751 5.536941 -238.705002
-67.180916 213.784576 -241.751556
-68.012932 8.787848 -240.374176
-69.028351 213.698608 -237.990845
-65.165657 201.924515 -242.180466
-67.979706 210.586426 -244.257080
-67.478630 196.292938 -241.419083
-66.415039 135.543777 -244.798309
-67.388504 -0.842220 -241.396790
-68.790161 139.234512 -241.267548
-68.135666 8.176445 -244.410019
-67.274284 4.707847 -244.841354
-70.371674 176.791885 -243.301041
-69.139168 149.238815 -244.298477
-68.853905 136.877075 -243.035706
-70.194038 8.485959 -244.253815
-67.838097 61.305138 -246.734116
-70.709846 192.682541 -247.104141
-68.380669 185.047577 -245.956345
-66.700691 155.137711 -245.924973
-67.324982 191.789841 -247.043045
-68.767395 173.739655 -244.894043
-69.070633 164.421051 -244.453659
-67.811691 215.868088 -246.909622
-67.988281 163.176147 -248.394791
-68.015015 219.057007 -248.618027
-67.856743 145.680099 -247.427979
-70.351845 208.348938 -245.838287
-67.183868 17.652760 -247.076126
-68.306908 145.849945 -246.664444
-70.725586 23.899708 -250.223389
-68.678490 12.695428 -248.781357
-69.804489 205.818344 -249.432114
-68.431435 63.492340 -248.259567
-69.471176 215.473160 -248.787857
-67.382622 210.268326 -248.652283
-67.963135 199.101761 -251.197723
-66.424583 160.359329 -248.984695
-65.609520 212.528152 -251.361908
-67.643715 162.066406 -252.232025
-68.572548 205.511673 -250.187851
-68.119339 164.345673 -253.412903
-68.547630 171.088562 -251.659790
-69.065956 64.676872 -254.516037
-70.324318 23.570766 -252.427155
-70.100510 21.489563 -252.959198
-70.406479 200.930817 -255.200211
-69.488907 187.356430 -256.295990
-70.408722 214.998093 -254.074432
-68.002090 195.519272 -252.491852
-68.861458 23.353767 -253.963379
-70.790833 62.592415 -255.255417
-70.620804 59.554337 -257.258301
-68.290916 196.920441 -260.611389
-67.912308 197.259079 -261.454742
-69.136292 60.059467 -266.085632
-70.597908 202.477371 -265.249725
-70.175247 59.698250 -270.405884
-67.314392 62.002388 -269.310120
-68.700905 195.816574 -273.255493
-67.878464 185.686066 -271.924866
-69.676537 177.056503 -276.902771
-68.758965 191.524811 -275.682220
-66.576729 187.824326 -278.084686
-69.485886 57.954533 -278.143219
-68.821068 201.693481 -275.815155
-69.780785 159.954880 -276.914734
-69.001472 148.510330 -277.164215
-66.839920 199.729645 -279.088196
-69.357704 146.778580 -278.547516
-67.803886 142.804672 -278.847534
-69.513657 36.139610 -277.150085
-68.212952 138.541809 -278.602112
-66.857826 104.271179 -279.828644
-68.413673 197.906982 -279.762970
-68.556137 153.062683 -280.313416
-70.791641 56.734974 -279.391327
-68.841309 198.462708 -281.162598
-67.470215 154.378372 -279.789276
-68.421066 149.458862 -281.569183
-67.829201 194.106262 -280.855072
-68.725372 174.028839 -282.023560
-68.034065 161.895401 -283.592407
-68.921387 51.317268 -282.380615
-67.971634 183.992050 -278.903259
-69.245857 166.734390 -282.978668
-68.828133 46.173096 -281.406219
-66.578430 175.676575 -286.234497
-69.653816 203.616302 -290.506409
-65.957947 202.882965 -290.277954
-68.327995 199.344116 -291.974060
-70.573273 194.774292 -300.358398
-66.332703 197.792831 -301.336609
-66.710091 18.428930 -9.250313
-69.008919 24.721333 -14.736914
-68.669838 5.619839 -22.418015
-66.867424 19.448893 -29.358547
-67.675247 112.337212 -36.418209
-67.472069 113.117630 -33.975632
-68.986771 104.534813 -34.576725
-67.365410 93.789352 -37.746384
-66.745186 93.596031 -39.001820
-66.422600 82.811790 -41.734158
-67.679489 135.082901 -42.736244
-67.734726 71.070633 -44.638016
-67.583900 138.533676 -50.566063
-67.910934 62.867912 -51.410881
-68.676590 -29.613377 -53.575798
-65.419617 -41.118744 -53.970589
-68.233025 -40.560997 -57.936398
-68.844261 -24.862436 -57.653973
-68.613541 -19.314905 -64.891830
-68.963470 79.735252 -65.418549
-68.216537 -13.867080 -73.707047
-68.223320 -49.799652 -75.155853
-69.289902 147.723175 -77.572952
-67.936874 100.975670 -77.166389
-67.331238 -5.492115 -77.153030
-69.573357 -5.162645 -78.230118
-68.035782 106.088669 -78.933022
-68.972633 -14.449408 -81.977058
-67.507118 -1.616410 -82.245438
-67.046700 -11.265211 -80.617363
-67.017715 -18.207296 -83.511871
-68.629059 2.505877 -85.135384
-68.651588 -56.186146 -87.669739
-68.070839 5.655932 -87.485619
-68.224510 -51.970806 -90.420479
-66.343269 119.474869 -90.437950
-67.534660 121.894211 -90.751137
-66.773239 129.328033 -89.181290
-68.760460 -8.034674 -89.187286
-70.490463 -21.598774 -91.777763
-69.982697 -47.289627 -92.634079
-69.560974 123.489700 -91.180046
-68.961281 -2.388257 -93.914513
-65.892517 -31.884693 -93.067398
-67.889214 126.456390 -94.350014
-68.970055 123.861290 -95.141937
-68.203499 123.227531 -95.081512
-70.020912 135.812469 -96.302612
-67.448151 -42.284363 -95.007385
-68.574066 -61.800858 -95.600029
-69.807297 -58.875771 -96.409195
-66.518242 7.305896 -97.005722
-66.204918 -52.128727 -98.089912
-68.731979 1.720806 -98.202187
-66.880119 6.970546 -99.430313
-66.917656 3.594076 -99.293709
-67.793747 -61.557541 -101.068626
-68.149689 128.761459 -102.963684
-67.217873 -57.798973 -97.014465
-68.685661 -59.865086 -101.965363
-67.895561 125.026550 -100.344299
-68.445244 8.443197 -102.344925
-67.806519 -58.649773 -105.615799
-67.539604 134.539490 -106.198662
-68.284294 -62.527519 -107.716484
-68.987404 128.169510 -110.299461
-67.081535 -59.181633 -112.548706
-67.878632 110.707695 -112.482697
-67.241966 108.665627 -117.929619
-67.568977 -60.589943 -115.388931
-67.763763 134.476318 -115.117126
-64.639977 110.427460 -115.663521
-70.427971 108.100853 -116.335686
-67.986710 104.806358 -118.536575
-67.682442 111.790466 -120.077957
-66.800179 105.579987 -121.835258
-68.515053 101.053345 -120.478455
-67.639404 139.017685 -119.872269
-67.264618 109.595795 -123.641777
-70.345238 123.002190 -122.862488
-67.261276 115.447769 -122.811142
-68.456299 123.473846 -125.065506
-65.856956 125.277847 -122.807373
-67.209259 121.137062 -124.747276
-68.119247 111.086494 -128.931168
-68.948875 96.066757 -128.790344
-69.433701 120.038544 -134.588272
-68.315033 101.099243 -134.751007
-68.246437 28.492922 -133.295349
-67.964798 97.183083 -133.434067
-68.917336 28.908178 -134.172272
-67.514610 121.463860 -134.467194
-65.646881 124.493210 -134.619934
-67.739456 118.600487 -137.613541
-67.553818 96.063568 -136.182358
-68.443428 142.296539 -136.231430
-67.370247 103.713455 -136.579514
-67.997360 97.079689 -137.028275
-71.492256 22.196995 -141.533371
-68.395233 40.675228 -139.884995
-66.463394 97.368973 -140.130127
-66.739388 21.005322 -141.541183
-67.928917 34.932026 -142.989792
-68.124771 40.964493 -142.784225
-69.514771 92.933609 -146.354248
-67.596939 22.981319 -145.329712
-68.811661 95.004196 -143.875137
-68.849663 26.485321 -152.370926
-67.639763 25.480024 -150.657806
-68.419556 24.347418 -153.772980
-66.751587 148.745758 -154.621811
-65.946167 26.551947 -153.669632
-69.295441 22.910521 -158.797318
-68.092361 29.652714 -159.268112
-69.790131 24.497120 -161.383972
-66.972092 152.936966 -165.677536
-68.232887 200.886353 -165.026184
-66.404137 156.464035 -166.812347
-66.018204 154.338013 -166.488129
-66.993881 31.850218 -167.626144
-67.942673 159.286713 -170.809433
-68.133453 154.999405 -172.638245
-66.311829 25.353401 -174.048096
-67.562576 161.546463 -174.968231
-67.545441 27.838758 -175.645294
-69.081024 34.081970 -177.030869
-66.317780 73.703339 -176.611282
-66.830414 75.025375 -179.578049
-67.159073 158.051743 -182.321625
-66.298012 195.152344 -183.661224
-67.107086 70.457436 -184.414200
-69.331253 191.526550 -183.673965
-67.817184 37.982033 -183.693344
-67.598961 172.999893 -183.577026
-66.174820 166.461670 -185.154739
-67.867607 68.544739 -183.676285
-69.034065 183.856323 -184.785385
-67.100113 172.534317 -185.567017
-65.979080 190.547623 -186.749939
-67.056328 183.724564 -185.115204
-69.442917 210.668610 -183.530045
-66.891319 172.223633 -187.078033
-66.949348 32.514221 -186.497589
-69.246178 165.940887 -187.763519
-67.627579 214.493500 -187.578186
-66.914291 157.642761 -187.555008
-68.328484 71.683060 -189.483810
-66.464935 205.747787 -191.222534
-66.576050 65.149544 -189.064880
-66.685410 215.094620 -189.994247
-65.632751 38.039978 -189.673462
-70.033890 209.163284 -192.711716
-69.994362 32.494495 -192.289658
-67.699944 70.958778 -190.385117
-68.493660 170.708344 -194.177444
-67.758430 184.965881 -193.939835
-68.913155 167.688675 -194.005173
-65.062454 216.355835 -191.590637
-67.712372 202.213257 -193.639084
-68.943489 174.760208 -194.393906
-67.252815 62.885540 -195.157104
-68.930374 35.810913 -194.331314
-66.303505 192.105362 -197.003815
-67.910110 201.502213 -195.203339
-68.702042 35.145390 -198.482788
-67.990334 215.913071 -193.987991
-67.455643 210.983002 -197.084045
-67.032867 66.728607 -199.766098
-68.088585 58.530407 -200.343079
-67.794067 37.339512 -205.696930
-65.422775 214.756119 -208.054871
-67.559326 215.882736 -207.167389
-68.311478 195.521561 -207.162277
-67.829330 60.602467 -208.996384
-65.090416 209.922409 -206.433273
-65.043007 211.246994 -209.108582
-68.129250 52.754150 -210.928558
-66.378906 214.177658 -210.067749
-65.592873 151.365143 -212.482620
-67.674980 209.897079 -212.239380
-67.013023 157.314941 -211.773590
-68.623116 192.723755 -212.725342
-67.559616 147.597153 -212.969711
-68.744614 210.749405 -213.305145
-68.093094 217.078705 -215.456711
-68.242584 150.883301 -214.175354
-68.116104 58.519978 -215.483154
-67.176605 199.593216 -213.841751
-68.577522 192.378006 -215.205734
-69.523010 186.698410 -217.843613
-70.085152 49.314514 -216.471176
-68.327835 216.806641 -217.718643
-66.190147 156.390488 -217.398911
-65.502411 207.290878 -218.370316
-68.475258 53.957844 -218.045013
-68.180069 205.237595 -220.067474
-67.296097 214.575745 -215.917953
-65.805618 197.281113 -217.529556
-67.704407 156.657898 -218.763611
-66.935555 199.859268 -219.624496
-65.709106 197.227600 -219.418625
-68.204803 -26.197599 -220.085815
-69.979027 204.823822 -222.437408
-67.686890 163.070145 -221.772476
-67.646538 58.990276 -222.764252
-65.608078 -24.761049 -224.487564
-69.562706 202.374023 -222.705597
-65.749649 192.735001 -225.026657
-66.825470 186.273895 -222.695251
-66.194695 161.876297 -222.445953
-67.606773 46.929775 -222.495102
-69.523468 40.467873 -223.552078
-68.718620 48.620682 -225.075104
-64.737091 209.769928 -223.708633
-68.676620 45.818924 -223.804016
-65.886536 213.639389 -223.655579
-67.399391 58.787903 -222.826157
-68.610428 173.516754 -223.467148
-67.592934 201.585403 -223.640335
-67.209816 -19.043196 -225.202042
-66.957291 -20.395609 -224.137527
-67.352318 -20.024370 -224.805969
-65.845528 213.876114 -228.320145
-67.762573 -12.723481 -225.263474
-68.355431 210.070480 -227.539200
-65.686340 52.690842 -228.158722
-67.422218 39.837467 -228.323730
-66.322411 212.044189 -228.207504
-68.106369 50.903606 -231.181351
-66.631508 47.235149 -229.070877
-68.654488 212.194138 -231.814560
-69.360153 62.777199 -231.911179
-67.232971 41.782944 -229.644150
-69.006432 -16.618868 -232.703659
-67.393776 196.798645 -232.367081
-67.371193 59.806976 -235.738449
-68.089241 61.759628 -231.436813
-68.391365 41.109055 -233.319946
-67.328400 34.054806 -233.240295
-67.543106 -0.744723 -233.053452
-70.478210 -13.246210 -234.147186
-68.331680 -6.702034 -235.581177
-70.133316 4.129839 -233.565704
-69.265846 34.541039 -238.288589
-68.800026 -1.412151 -236.265656
-68.269203 -0.861750 -237.352051
-64.789726 210.411942 -236.991745
-67.673218 29.197289 -239.281860
-67.962982 -0.541104 -237.796509
-68.127205 209.540588 -241.156967
-66.934067 4.577699 -240.996613
-67.744270 -1.543396 -241.213989
-68.927910 -3.621531 -240.755402
-70.269325 12.799005 -241.143829
-67.181969 7.046673 -242.384033
-69.494461 2.310111 -243.338669
-68.694427 142.969620 -246.428131
-69.474403 184.825180 -243.469147
-68.997284 62.228790 -245.235107
-67.901535 173.316177 -246.306808
-67.140495 146.754318 -245.289932
-66.053200 143.290298 -246.446381
-69.046379 18.210918 -245.908020
-70.351524 62.110241 -245.310089
-67.966309 26.965227 -243.618637
-67.622444 9.703409 -246.861313
-68.192657 203.691635 -248.159317
-67.007446 187.204529 -249.255737
-65.190048 155.431595 -249.670059
-68.024017 145.937866 -246.316528
-69.543510 174.198395 -249.053299
-66.026466 164.460983 -246.070099
-68.938171 201.755859 -248.700851
-69.062836 201.056381 -246.986572
-67.505974 164.891586 -251.011932
-69.184731 149.413467 -247.181122
-68.659653 15.277647 -246.714249
-67.126984 9.523418 -249.578583
-66.305069 197.084274 -251.109802
-67.889954 150.213135 -248.042694
-66.234077 22.322515 -250.141281
-67.839424 196.848541 -251.255005
-68.317513 202.470520 -251.001389
-66.001762 155.939178 -252.134537
-68.326248 22.363321 -249.970184
-70.570969 23.834795 -252.961304
-67.667984 192.050583 -251.745041
-67.781563 161.863098 -252.769180
-66.954758 194.634979 -252.330658
-68.154404 186.602127 -251.197235
-67.868744 23.824715 -251.592865
-68.421295 17.731153 -253.562927
-65.749359 62.222034 -252.718124
-67.527824 173.059662 -251.774246
-67.615646 57.984322 -254.295700
-68.267746 183.328690 -253.392120
-66.613480 174.862213 -256.519379
-67.967369 176.497787 -252.057465
-67.296005 200.847107 -254.487686
-66.027504 58.034904 -255.895615
-69.036804 25.567837 -258.738831
-68.350006 200.796783 -266.163574
-69.964325 30.240053 -269.451935
-69.079689 202.855408 -271.558289
-66.953331 60.399620 -272.180634
-68.114410 197.406769 -271.585754
-69.327293 57.933846 -274.622467
-67.880379 31.559156 -276.807556
-66.116135 175.671143 -277.974121
-65.678482 36.059189 -276.619659
-67.013939 190.885132 -276.667358
-65.959045 189.129471 -274.669128
-67.364021 174.641403 -275.722961
-68.405571 174.463608 -279.061310
-67.003265 190.933517 -278.661713
-64.331963 166.964447 -279.273804
-68.345924 157.852585 -279.679565
-66.899513 185.880371 -279.852661
-68.139366 158.912537 -280.926392
-71.124069 37.885281 -279.700897
-67.909630 190.919098 -284.435699
-67.998367 184.776855 -280.342621
-66.618233 167.763458 -283.028320
-67.876709 166.280838 -280.342133
-66.546608 174.227814 -279.979431
-68.063873 174.402100 -282.714264
-67.989716 199.214432 -283.808197
-70.290260 201.763168 -286.167175
-67.500107 199.172577 -286.358582
-67.065666 204.445999 -289.223419
-66.076714 195.244431 -291.757996
-68.238869 205.161621 -296.517517
-67.007248 203.755264 -302.207458
-65.954109 197.693420 -302.230774
-68.009521 201.175095 -303.493286
-67.198593 14.552119 -0.292053
-65.330322 5.909838 -5.854648
-67.958923 24.014542 -10.122419
-69.366341 5.845976 -19.672188
-65.317673 1.504538 -22.313322
-66.668091 22.607294 -26.856598
-66.913963 129.074799 -40.863831
-66.784042 66.165215 -45.608524
-66.993919 141.827515 -53.792381
-67.683426 64.124153 -51.596233
-66.305840 -37.996197 -54.128540
-65.633934 -28.315531 -51.344349
-67.226768 -35.020695 -51.234425
-67.413826 -23.764544 -54.115726
-66.169838 -45.170151 -55.969128
-67.768639 63.410133 -55.427975
-67.047058 63.454094 -56.941921
-68.497467 -47.025185 -59.473774
-66.257813 71.514763 -61.142330
-65.234238 75.436996 -60.565884
-65.546242 75.760178 -61.405201
-65.084404 146.058182 -65.622208
-66.265930 85.102699 -70.216751
-65.110809 90.135544 -70.345726
-66.130028 83.248566 -68.701286
-66.620789 -16.260977 -68.766335
-67.306946 -12.313623 -73.685745
-66.612671 -14.301497 -75.617363
-67.932228 100.561890 -76.866760
-69.053169 -52.488922 -77.587929
-67.070114 -0.161046 -77.960403
-66.013695 -51.946869 -80.345749
-67.493835 115.007767 -81.017548
-65.073494 113.778091 -85.472450
-67.165337 113.426643 -86.102867
-66.923729 -1.491448 -88.048256
-65.032898 -6.515293 -84.615051
-67.174141 -51.790279 -86.563225
-66.591202 -56.808968 -87.008453
-67.874557 -49.944550 -86.360985
-67.170181 -3.034599 -88.903358
-66.468773 -9.898490 -89.758575
-65.723000 -50.794971 -87.308167
-67.297989 -54.545540 -88.442055
-68.509148 0.861672 -88.494438
-64.195534 -0.619240 -88.860878
-65.476852 120.575272 -89.987267
-66.427505 -3.608914 -91.252968
-65.879311 -52.450226 -89.589066
-66.886635 119.715820 -92.957428
-68.038300 -50.568539 -89.758072
-66.549149 130.744385 -91.156296
-65.971336 121.022240 -93.628250
-68.530266 5.729584 -93.700974
-67.188477 -21.120789 -91.996315
-66.944862 -55.647808 -92.971329
-67.510696 2.979682 -95.650398
-65.975388 -27.099892 -97.648193
-68.039421 -29.083609 -96.178474
-67.704559 148.226624 -96.722420
-68.027252 -59.384708 -97.012894
-67.260963 3.567077 -97.893723
-67.296471 -57.571198 -98.971649
-67.355858 -57.839043 -104.050224
-64.979904 133.018204 -104.078079
-65.439423 145.726700 -106.612122
-66.770912 144.125473 -108.722366
-64.926720 137.543716 -116.830925
-67.404922 128.497238 -116.168625
-69.679413 113.689438 -116.195549
-65.315147 128.529053 -120.564697
-67.359222 130.857788 -119.987030
-67.395187 125.421982 -119.032265
-65.453529 135.463150 -121.478294
-64.882202 126.232315 -121.018303
-68.930450 103.169914 -121.414474
-66.082703 99.147591 -120.325668
-68.653969 133.839920 -125.947128
-67.448616 100.517242 -123.493690
-66.165855 132.491470 -127.394966
-66.595901 121.169563 -125.062195
-66.495071 97.465981 -127.942245
-64.844772 128.111313 -127.534576
-66.976952 126.157532 -131.004898
-66.524590 125.022751 -128.852066
-66.637840 106.405807 -130.490433
-66.760529 146.992737 -128.937698
-65.617203 27.768431 -131.296463
-66.767052 139.593399 -132.602783
-65.961990 104.437508 -132.107498
-67.823799 27.412579 -131.616333
-65.191132 122.122551 -134.071014
-66.460121 103.524284 -137.975494
-66.967079 35.383087 -135.138657
-67.214325 105.188858 -134.754181
-66.790245 142.265411 -135.676514
-67.815872 28.805792 -136.813004
-67.701241 148.078125 -138.255737
-67.385208 35.531437 -137.047882
-66.129807 100.675720 -141.454880
-67.869392 39.467564 -143.961884
-66.584404 148.745834 -145.066254
-65.133720 35.946053 -145.382553
-66.652443 37.940262 -143.619675
-65.642418 143.947556 -143.668945
-67.101379 154.196915 -149.263000
-66.735924 145.409134 -148.475189
-69.098885 152.319336 -151.461441
-68.413361 149.078659 -159.162430
-67.700722 158.828705 -161.532578
-67.696625 28.598618 -160.753540
-68.258247 27.993202 -162.091675
-69.087593 190.834824 -164.531158
-69.847504 196.524063 -162.243637
-65.737602 197.479309 -163.828125
-66.299019 193.074005 -168.201767
-65.264755 30.187683 -166.732300
-65.525719 27.695131 -165.959198
-68.096588 156.409302 -170.578415
-65.537186 204.237640 -172.685806
-67.959717 31.099609 -172.545242
-65.540581 30.458658 -173.445099
-67.409874 157.721420 -174.777206
-66.174988 29.778160 -174.238907
-66.716072 203.543564 -177.503296
-65.645699 194.067642 -177.674316
-66.687935 30.475210 -178.285690
-68.785263 163.203766 -177.638580
-66.072067 156.949310 -179.643951
-65.700180 208.079102 -181.616257
-66.382195 201.268845 -182.326721
-67.629257 205.987762 -185.156616
-66.920891 29.835629 -184.759598
-67.569588 180.928802 -185.113190
-66.895645 36.874676 -183.431442
-65.399246 206.927429 -185.320847
-66.228035 34.340759 -184.375549
-68.574814 189.039307 -186.658081
-66.301414 69.876221 -187.777145
-65.284416 210.912796 -186.054657
-67.235184 71.049934 -189.058701
-65.394669 203.459442 -187.547974
-66.687363 198.588150 -188.393311
-68.141182 212.584549 -188.634430
-66.049347 215.515793 -190.939590
-67.163322 209.880905 -188.751907
-67.688477 196.886093 -192.998016
-70.218979 159.485733 -191.569473
-66.319374 66.793205 -191.132217
-65.669128 203.893036 -192.072311
-68.116028 32.419563 -193.086166
-68.307671 191.225342 -193.076187
-66.452362 34.823185 -191.958252
-66.760010 213.741974 -192.687439
-67.190941 210.646454 -196.596436
-68.253075 203.849426 -193.573807
-65.605606 67.576515 -192.687546
-66.837593 214.024200 -193.611755
-67.038094 201.902191 -196.218979
-67.607384 68.087814 -198.132309
-64.046532 60.984322 -197.234924
-65.473854 200.049576 -198.638840
-67.710289 64.588074 -203.735550
-67.384697 215.679886 -201.457565
-65.894241 61.944832 -202.092178
-66.610336 210.587921 -203.674255
-67.503876 58.059971 -210.272110
-68.136131 57.346001 -207.408615
-66.354782 154.374222 -213.280945
-66.096115 195.584351 -211.433685
-67.182236 154.733383 -210.805191
-67.382675 176.671707 -214.699799
-69.415192 55.073299 -211.617981
-67.945900 182.292511 -212.267059
-67.546982 173.973923 -215.189377
-66.160561 161.935837 -213.796570
-66.625320 55.056156 -217.281555
-66.121246 213.184937 -214.920288
-66.224937 52.120136 -216.301224
-66.245949 183.138504 -217.694153
-68.351952 166.723602 -217.248901
-68.193375 165.505646 -215.312531
-67.072830 197.844589 -218.284866
-66.563721 198.691376 -219.509720
-66.642311 157.167923 -219.124191
-67.022926 47.032661 -217.984421
-65.923294 50.678883 -220.911026
-66.467171 47.271118 -219.307785
-67.517494 200.081528 -220.987259
-67.844681 41.920429 -222.190384
-69.461533 188.856888 -225.492950
-66.603439 39.590080 -223.890320
-63.356960 193.219604 -225.009674
-66.890770 184.872726 -226.278320
-66.288887 182.359604 -224.408417
-68.035713 166.837921 -227.747879
-68.566483 175.940628 -223.856064
-67.392014 50.105221 -224.887436
-67.003716 48.856049 -226.371170
-67.045410 55.966755 -225.506302
-68.326241 60.789188 -228.043747
-66.623314 60.275883 -228.438904
-66.697815 53.439743 -227.514435
-68.034607 44.508270 -229.199722
-67.578339 -14.602630 -229.619644
-67.315628 44.729183 -230.459579
-68.511055 39.999676 -228.618179
-66.763687 -16.139441 -231.099670
-67.709091 -7.453237 -229.891754
-66.269180 40.264290 -230.945633
-67.634766 -14.877509 -233.499634
-66.123024 35.766571 -231.631607
-67.313049 38.989216 -234.540985
-66.305527 32.810509 -233.074661
-67.888443 61.170517 -234.418304
-68.026604 -2.447257 -234.964462
-68.495499 -10.253152 -235.854187
-66.243690 197.048233 -234.073807
-68.388298 4.858039 -237.497452
-70.153923 -6.533057 -238.497314
-65.538223 60.562378 -241.055222
-69.345093 2.524013 -241.109619
-66.428894 197.661179 -241.658905
-66.620682 201.472107 -244.761749
-69.103928 196.401825 -244.966644
-67.112732 10.583482 -244.304626
-66.494095 8.762903 -245.002075
-66.222229 61.167614 -244.169830
-68.399338 14.440033 -249.272507
-68.855179 149.908447 -247.031082
-64.901810 191.634674 -248.141418
-66.481323 186.394623 -247.412582
-68.093712 156.629959 -247.160599
-67.830368 153.616394 -247.670517
-66.929962 23.308687 -247.219437
-67.275261 12.793618 -247.803711
-67.364708 163.254883 -247.729950
-67.473701 56.162750 -247.780212
-65.175034 189.931381 -247.847961
-65.814713 175.930664 -246.400803
-66.171150 170.327469 -249.304718
-68.397888 162.872604 -247.875519
-67.145042 159.302887 -250.122589
-65.573814 190.536270 -250.438248
-66.120552 186.548874 -249.345917
-66.867592 173.869171 -251.719711
-65.506752 19.906551 -252.791138
-66.830788 164.861893 -251.076630
-67.154144 54.522091 -252.292358
-66.105515 173.934158 -251.818497
-63.767605 167.855743 -253.989960
-65.423561 167.234680 -253.557526
-68.682899 56.664696 -252.933807
-66.409004 168.499954 -255.541672
-66.195648 24.050789 -255.205795
-67.605164 200.759903 -257.317993
-67.722237 197.609146 -255.560989
-68.023636 57.473427 -260.502228
-68.266449 55.463989 -262.961884
-69.797134 25.822052 -263.462708
-67.675896 54.719437 -268.373291
-65.597702 52.662560 -275.807617
-67.155022 184.619186 -276.890442
-64.550713 183.205353 -277.746246
-68.890327 57.330475 -277.716736
-66.880524 166.315140 -277.404236
-67.608292 191.794815 -278.859222
-66.858315 207.398285 -278.528290
-66.480583 177.103638 -281.077362
-67.417122 183.972626 -280.816071
-67.425446 42.735298 -282.719818
-65.008110 176.076172 -282.237885
-66.870918 199.215103 -291.470734
-66.631325 198.762024 -288.947418
-65.527969 201.631454 -294.059235
-65.726974 199.338104 -294.066193
-66.352760 200.018143 -301.638824
-65.498581 29.024065 -12.660436
-65.927582 -3.190422 -14.133611
-65.241425 23.482609 -17.228230
-65.352219 29.684059 -20.574322
-65.580765 17.866924 -25.035166
-64.312996 5.177232 -26.216188
-65.488289 114.960396 -35.165356
-65.360870 108.433350 -35.569416
-66.443268 116.120850 -34.034950
-65.277542 121.444206 -37.733940
-65.789734 126.323524 -38.318226
-67.115837 84.860077 -37.144955
-67.281143 127.525024 -37.553013
-65.260056 75.290604 -39.877914
-65.188499 64.611221 -44.648716
-66.742920 -31.486261 -52.045216
-66.468178 -35.192013 -51.908768
-64.218132 -20.236565 -56.054211
-65.036690 64.805542 -58.303432
-67.117279 -19.458530 -60.246506
-66.819962 -46.731110 -60.396328
-66.484383 -16.528572 -62.414295
-67.034508 -52.928711 -64.767906
-66.331955 82.209351 -66.785210
-63.863499 -14.150024 -72.007515
-66.419273 -51.242195 -71.419853
-65.835625 99.140602 -76.931938
-64.753540 -12.259519 -76.349693
-66.600937 -15.074415 -76.426865
-66.256752 103.900795 -75.192360
-66.132904 -8.189598 -77.278419
-65.079308 148.073364 -79.655991
-65.820198 -3.776285 -80.677238
-64.761299 110.179718 -79.371895
-66.662888 -53.911831 -81.142731
-68.094994 -13.544539 -80.621277
-65.514961 -2.253788 -81.118225
-65.591652 -14.614252 -83.438599
-65.857552 146.811096 -83.818054
-66.154274 -6.604655 -84.097542
-67.255882 -1.004486 -88.046646
-66.023010 -17.308790 -88.637527
-66.655602 -55.762405 -90.336502
-66.380707 2.160465 -89.566185
-67.144775 -19.677471 -89.824203
-66.589127 123.877304 -92.680786
-63.987587 116.075478 -92.495979
-64.537888 130.846634 -88.742561
-66.108398 126.186745 -90.569458
-66.537926 -2.000815 -94.339981
-67.363953 3.291720 -93.410866
-66.695129 -50.083218 -93.757813
-64.529030 146.700577 -95.622322
-64.567635 -44.759857 -97.112442
-66.154037 134.544281 -95.592133
-65.690041 -34.923508 -98.321777
-68.264061 -39.238388 -96.388977
-64.294487 -28.526276 -95.899933
-64.642738 130.599396 -99.784966
-68.278801 135.551346 -99.601089
-66.519455 126.002228 -104.028481
-65.001213 139.345016 -108.490585
-67.810440 112.901649 -107.687500
-65.973976 108.702614 -109.299309
-66.484131 114.213089 -108.556648
-65.242493 142.881943 -111.932838
-64.907082 110.660347 -112.292915
-66.483101 141.250031 -113.112404
-66.115662 126.770233 -113.158684
-64.747093 127.844200 -114.428238
-66.671036 106.973915 -115.930107
-65.873383 130.426559 -114.738113
-64.931404 123.606110 -117.171310
-65.190010 132.672501 -118.462891
-67.002937 137.880920 -117.522278
-67.701019 127.636642 -117.156433
-66.123009 128.798172 -122.133690
-65.082596 126.897018 -120.821167
-66.422844 98.812874 -119.020355
-64.958649 99.244530 -125.116783
-63.820049 142.646179 -125.100166
-67.430717 123.687622 -125.254234
-67.777267 101.782646 -128.226440
-64.606071 108.021027 -129.325455
-65.722565 23.127512 -128.564575
-65.126930 100.498520 -130.384354
-63.784554 29.794973 -129.419556
-64.923325 100.777489 -131.517929
-66.875404 23.437721 -131.065521
-66.742569 137.527908 -134.598633
-64.906593 98.323586 -132.984726
-67.996140 27.271152 -138.626740
-66.060646 140.712341 -138.200623
-65.549515 32.030384 -140.703979
-65.285561 150.009491 -140.419998
-66.835175 30.904226 -140.678894
-65.733330 149.673218 -144.505981
-65.855042 142.256836 -147.642578
-67.079170 148.531799 -156.064255
-68.631783 151.839844 -165.953583
-65.773735 160.593796 -166.948547
-66.759727 203.639847 -165.598389
-64.650238 205.434280 -169.936981
-66.962730 161.325317 -169.822769
-65.825439 192.026581 -169.675156
-65.435150 155.459610 -171.379074
-65.415817 161.712036 -172.805130
-64.753296 190.466034 -176.228485
-65.923119 155.260071 -178.791183
-63.689461 193.818771 -176.678024
-67.295174 200.862259 -178.681183
-62.645706 157.829956 -180.801636
-64.983955 202.992371 -184.983276
-67.582024 190.872849 -186.065750
-65.499962 172.547852 -183.926270
-65.218094 160.533691 -185.611191
-66.276802 185.134308 -185.592148
-67.786987 172.381424 -187.793472
-65.294556 163.877075 -187.182678
-67.935661 197.102173 -189.239395
-66.523697 196.065430 -189.902725
-62.307728 192.302994 -194.061279
-66.467079 185.452438 -192.977280
-65.818253 163.122391 -193.725006
-64.318436 193.463409 -195.592621
-66.171829 179.433640 -197.365158
-66.260124 165.261871 -192.079956
-65.089058 202.740433 -211.217926
-66.480919 197.224304 -212.210297
-66.412338 159.915649 -214.634399
-66.203972 158.354156 -215.365768
-63.305943 192.203384 -216.084778
-62.555786 186.821320 -217.276764
-66.728302 174.946045 -216.572357
-67.024345 172.520203 -216.725067
-65.135330 164.685181 -217.657776
-64.895866 160.217606 -217.755447
-65.602249 163.337906 -220.952423
-64.375519 187.466965 -217.472931
-64.992218 172.871887 -220.192337
-65.266357 191.395935 -222.250793
-67.050346 185.314651 -222.666992
-65.539352 163.848160 -221.360947
-63.815128 50.515644 -223.427017
-66.232376 165.443390 -221.626312
-65.762306 168.758759 -224.983810
-64.485710 174.119293 -224.931839
-64.240013 45.561737 -224.271637
-64.837372 174.764343 -222.288681
-65.602150 166.207642 -224.675156
-66.653160 176.309265 -224.289749
-65.396591 202.070984 -226.648132
-64.517998 197.657150 -225.395370
-64.009521 56.436020 -225.106567
-66.613441 56.702133 -225.257034
-66.697441 48.578934 -228.051941
-65.243698 39.127270 -228.643539
-66.771698 62.053833 -229.537186
-65.705261 49.928822 -228.868713
-64.860168 39.433025 -230.760132
-66.690598 195.998016 -232.978470
-66.017906 43.261585 -232.321396
-65.669083 31.820938 -231.309952
-63.436394 56.682030 -231.956284
-66.712578 -8.752023 -233.726791
-66.040329 61.662506 -233.210678
-66.726418 -1.224684 -233.771667
-66.434448 200.912964 -235.001221
-64.546509 29.549448 -238.154282
-65.756889 4.699655 -238.842682
-67.551849 -5.548216 -237.886002
-64.762085 202.253036 -240.498184
-67.676697 -0.321783 -239.118210
-67.245461 13.824325 -240.202728
-66.648407 5.571853 -245.268204
-66.116516 176.407822 -246.515167
-67.784081 14.551579 -247.053619
-64.680511 182.187576 -245.871246
-67.082207 173.417831 -246.224503
-68.023361 14.845654 -247.705856
-68.771362 23.491377 -249.499084
-65.477341 18.866291 -248.271820
-65.821907 56.648682 -251.108536
-67.461105 16.704973 -247.911804
-65.907288 12.634918 -247.926773
-63.959351 192.108765 -248.949783
-66.368660 187.421082 -248.918304
-66.750931 25.149929 -249.387222
-66.843506 174.944077 -255.156967
-64.920677 21.415997 -253.186172
-66.651108 180.654144 -254.913193
-65.421509 176.462036 -251.252029
-66.939346 170.897156 -253.726944
-66.191216 168.414063 -254.439606
-68.096146 53.095341 -257.949127
-66.030724 26.448706 -259.145844
-65.433121 51.123264 -262.678802
-68.465584 54.066666 -263.658051
-64.923279 27.985113 -265.383789
-64.425240 203.789490 -276.719299
-67.154121 177.459213 -277.749207
-67.866722 52.796364 -279.518677
-66.133842 35.813114 -277.821747
-66.326958 185.244324 -278.924896
-65.198196 176.922440 -277.172913
-66.761391 176.586105 -279.451813
-63.729050 168.259964 -280.198975
-65.167992 199.220215 -281.217957
-64.018494 174.232834 -279.066742
-64.730202 177.024277 -280.473755
-65.641487 52.393555 -279.516846
-66.596733 206.173767 -281.600342
-65.101151 179.314545 -281.057831
-67.788399 42.777050 -281.237976
-64.167213 194.121414 -285.279694
-66.339294 203.798309 -283.929962
-68.121147 9.579878 -23.139061
-66.616577 9.027221 -24.046780
-66.603432 13.895038 -26.699986
-65.437546 25.510111 -27.509842
-66.186272 8.186572 -31.695139
-66.091492 115.564590 -34.836384
-66.363007 102.011589 -34.960590
-64.083611 87.072006 -35.541466
-63.436958 69.193871 -43.230431
-65.510849 -40.122707 -52.675323
-66.186157 -30.672123 -53.063675
-64.357887 145.337128 -56.532768
-65.705139 71.459320 -59.819725
-63.961819 145.088684 -58.447411
-65.801735 78.739716 -64.074600
-65.362495 81.471390 -63.869354
-63.419312 -15.000290 -63.535580
-65.280411 -52.709763 -68.545387
-65.662018 147.133423 -68.327225
-65.410797 -15.617633 -68.600967
-65.847130 96.956940 -72.505875
-65.466103 -9.165461 -73.276680
-64.874123 99.215065 -72.763817
