# This PCD file was generated using the MATLAB® pcwrite function
# from Computer Vision Toolbox®.
# .PCD v.7 - Point Cloud Data file format
VERSION .7
FIELDS x y z
SIZE 4 4 4
TYPE F F F
COUNT 1 1 1
WIDTH 1428
HEIGHT 1
VIEWPOINT 0 0 0 1 0 0 0
POINTS 1428
DATA ascii
-69.784348 122.624802 -139.973755
-69.893524 17.751640 -139.762497
-65.222687 30.444193 -142.854233
-71.474716 93.095177 -141.079193
-71.000137 103.779274 -142.480698
-69.215256 23.968922 -142.792511
-67.008499 147.788742 -139.386078
-72.849915 145.883713 -148.929199
-68.385948 93.346931 -144.531693
-68.537666 22.598690 -144.272919
-70.430534 47.140285 -145.985046
-64.010925 39.976936 -146.185974
-66.653801 99.922142 -146.918915
-69.095802 39.750446 -143.878555
-66.953987 90.769745 -151.165207
-69.551743 148.246490 -151.599899
-71.603050 30.653629 -147.858459
-67.728737 19.992020 -147.017715
-67.349098 151.571640 -154.201736
-69.792824 88.392776 -154.442978
-65.930534 153.014938 -153.905563
-71.464035 26.643066 -152.292725
-62.843845 152.170944 -157.348877
-68.644409 153.013443 -153.081345
-66.632004 90.608467 -160.265335
-70.291817 92.119080 -160.844238
-67.379822 149.427811 -155.089859
-67.565323 24.752359 -159.257050
-62.699703 158.680420 -162.884476
-71.021591 29.086184 -163.001831
-67.363258 157.011932 -163.503799
-67.306679 79.547569 -159.343079
-68.034363 79.684174 -162.082993
-70.690262 85.269341 -165.608047
-70.000694 200.810913 -161.365494
-68.064034 154.538559 -163.417770
-69.880417 24.987823 -165.377335
-68.425308 199.899689 -168.149475
-67.700584 31.416077 -167.670456
-69.388992 78.041237 -169.393463
-66.551163 202.738770 -169.897079
-68.742561 34.364769 -170.753418
-67.263062 191.060593 -168.877258
-69.511559 157.503418 -169.095245
-65.601425 72.911575 -167.753922
-70.234116 30.428858 -171.305466
-71.127289 32.572037 -171.013031
-64.277328 24.717125 -172.154922
-67.775459 24.335463 -170.969101
-66.083466 79.937363 -175.803299
-71.788567 157.052475 -172.408936
-67.776573 79.591728 -174.631226
-68.468735 203.720642 -173.518814
-70.326660 34.454506 -177.399948
-70.070213 193.311447 -177.930664
-68.248711 27.170712 -176.355911
-68.510376 164.379959 -177.859940
-66.522171 74.229385 -180.348846
-74.546410 30.529716 -180.049225
-68.365883 197.705521 -177.825317
-64.375465 157.565186 -181.415695
-71.187431 157.980148 -180.809937
-68.084908 30.170546 -181.039230
-66.581078 205.927261 -184.047424
-69.643082 30.724751 -181.878342
-70.801567 206.491959 -183.070282
-65.322479 159.675110 -184.931946
-72.368958 40.486282 -187.357727
-69.332985 74.922569 -188.403992
-69.860992 167.548126 -185.200653
-67.143333 70.651649 -185.363953
-69.109200 35.077068 -188.195892
-70.128716 29.352144 -184.414825
-68.525673 73.286209 -186.563553
-67.629524 60.871216 -191.399216
-64.970757 71.865967 -197.061005
-71.363228 173.469254 -189.755417
-69.546753 160.454285 -192.356934
-65.349838 34.954941 -197.244293
-67.822441 63.368942 -195.353485
-66.303696 44.096439 -192.784729
-68.309708 208.137115 -195.396683
-68.165726 172.863342 -194.382813
-68.978203 190.026169 -194.131485
-72.296036 67.491905 -195.015198
-71.969299 71.708649 -191.090652
-72.691895 193.330811 -198.638245
-70.459198 68.755760 -197.639816
-68.341225 216.990753 -202.496429
-68.746948 30.199053 -197.201096
-69.670952 61.689693 -199.049942
-70.683815 207.597122 -200.514923
-70.048187 57.944962 -201.064438
-73.877769 203.617416 -207.168015
-72.777878 201.221268 -203.767303
-67.926537 62.656204 -203.372925
-69.487312 32.994534 -205.833099
-67.623367 60.204979 -207.144135
-64.092178 35.708298 -204.922318
-70.970863 59.631683 -205.978668
-68.745384 40.772331 -210.523376
-64.360367 56.341183 -208.033783
-67.810730 213.300934 -210.061905
-70.362671 63.093483 -205.086441
-69.936943 148.069824 -209.807144
-68.537346 147.717682 -209.403717
-69.141876 208.648666 -208.661713
-66.313187 146.016098 -210.859177
-71.928200 58.541004 -210.825745
-67.232513 60.140415 -212.411819
-66.652336 40.857918 -209.636276
-68.190712 147.384232 -214.452271
-65.051590 60.935337 -210.448654
-70.694016 206.137939 -213.183807
-67.669418 58.170429 -208.531357
-65.315125 -35.891693 -212.403152
-68.634102 209.522186 -214.532944
-65.278999 175.628937 -217.427383
-71.197952 41.211716 -212.774658
-67.788841 203.267868 -216.496552
-69.342369 186.151764 -214.464737
-67.037041 190.945908 -218.040985
-66.969543 -27.144287 -214.283798
-65.997803 173.663116 -213.967758
-66.021049 172.259323 -219.047592
-74.097176 159.842789 -216.356430
-71.847618 51.824348 -220.627060
-71.747780 46.694389 -215.180862
-70.050171 216.787781 -216.419144
-68.034950 207.857742 -214.334335
-69.303413 51.234581 -219.427109
-68.112602 -31.561529 -223.915314
-63.234344 45.853840 -219.428162
-68.938110 59.580193 -222.194931
-70.459824 41.385120 -220.206497
-69.677826 -19.355873 -220.836090
-65.914902 59.960896 -222.043076
-68.599480 215.521851 -222.481110
-61.708519 -25.926708 -221.286163
-67.747604 172.749878 -225.961273
-69.550293 180.535904 -225.468475
-68.877502 49.316277 -224.284866
-71.781342 -11.273454 -225.275604
-71.171051 203.166443 -228.297394
-68.853195 52.664948 -224.719986
-73.923370 51.095009 -225.332993
-68.079056 60.816723 -227.036057
-72.785851 42.071709 -226.884293
-74.779022 207.869720 -225.738861
-69.701889 54.021198 -229.377869
-71.271866 -24.026381 -228.992203
-70.231018 218.998505 -231.988541
-69.524338 63.128654 -229.545044
-69.859520 48.359299 -231.039368
-70.039078 -6.440352 -228.256592
-67.772949 213.881531 -234.369461
-69.376343 60.911835 -235.535690
-68.502045 196.465485 -231.038574
-70.028572 219.235321 -231.434082
-70.046555 -5.745046 -230.015121
-65.637962 212.981903 -230.040771
-70.062943 36.285736 -233.147919
-67.669357 -6.900240 -234.841400
-66.524414 214.844345 -235.160431
-67.510262 210.044098 -234.639511
-67.108139 36.804138 -238.048843
-68.791023 216.813019 -236.798157
-68.328300 219.743179 -237.089188
-71.674843 191.020020 -239.682343
-67.090469 -7.576135 -239.866516
-69.367683 1.102969 -235.823914
-68.234505 211.796097 -241.301208
-67.975792 30.022772 -239.248856
-68.258713 63.254173 -237.249817
-69.099495 -0.295903 -241.780823
-61.116310 216.394501 -243.328918
-68.392326 11.035320 -237.245270
-69.780197 214.089630 -236.696945
-65.128540 204.360550 -246.234955
-73.696182 210.951218 -245.885391
-72.208633 198.081787 -244.007828
-70.812119 139.221085 -244.104950
-67.392349 -2.992514 -240.693222
-66.648903 137.552032 -246.332062
-69.241737 9.263255 -245.116272
-67.956749 3.414816 -242.141846
-74.065727 179.016052 -243.715866
-64.496742 146.708847 -247.037354
-67.297562 136.988571 -241.783493
-69.746941 8.288913 -242.831665
-68.621979 61.907467 -247.345245
-67.932922 192.124344 -246.743927
-65.109512 185.504150 -238.903229
-67.826515 157.404419 -246.778534
-64.204437 192.539993 -245.726273
-70.359657 174.633530 -244.655823
-66.425026 165.306320 -245.207962
-70.514801 215.221619 -247.768707
-63.105141 162.333206 -244.277634
-72.794197 215.427765 -246.518875
-65.903206 144.056030 -250.703339
-65.777832 210.422943 -249.565414
-65.465347 15.459224 -248.881958
-70.411469 141.763000 -248.975952
-69.660896 28.078936 -249.127731
-69.386765 15.257833 -249.480301
-71.643784 207.906708 -249.999588
-69.504921 62.868027 -245.587967
-68.283195 214.878448 -245.434616
-69.025887 212.277451 -250.595047
-64.228645 195.267715 -253.623505
-69.704514 159.424393 -252.964981
-67.315170 214.155350 -249.868103
-68.321831 161.165482 -252.552673
-65.486115 205.774887 -252.573059
-74.529121 168.549011 -252.860504
-69.825645 164.721085 -251.015961
-65.843803 64.063622 -253.120255
-71.892578 21.438995 -253.985062
-69.621330 19.847324 -254.048706
-64.227829 204.133179 -254.329300
-64.308586 184.594696 -252.275635
-68.449959 214.710526 -258.951416
-68.671555 192.284592 -257.733124
-67.661667 23.173782 -256.256500
-68.819901 58.790768 -255.895416
-69.035477 58.050091 -258.715363
-67.515923 199.085205 -264.491119
-70.375969 198.276489 -258.389374
-71.249016 60.204224 -265.576385
-69.018257 199.572327 -262.600800
-72.347343 59.502850 -266.417267
-65.978722 60.261490 -267.573456
-65.952164 194.627701 -273.110413
-68.140602 183.454025 -276.577789
-68.936157 175.349350 -278.213745
-67.065674 197.991592 -276.594513
-65.118042 187.807144 -271.757904
-65.980080 58.193192 -276.093109
-66.831993 202.181274 -276.375244
-68.641418 165.047256 -277.821350
-67.727440 147.103439 -279.414825
-66.249657 200.239548 -279.120239
-67.588043 146.462952 -275.468903
-74.102013 149.519821 -279.021576
-70.312065 37.244499 -276.339294
-68.156990 139.304443 -279.065857
-69.134285 101.858337 -279.841736
-64.020309 200.306702 -280.778107
-67.936974 150.708099 -275.397888
-69.981323 54.055698 -278.387939
-70.164993 200.686508 -280.495056
-64.362236 153.897217 -275.767212
-72.538956 143.801941 -282.261932
-63.568806 190.860580 -284.743530
-70.385414 174.713974 -281.088989
-66.324028 165.081665 -285.437836
-66.166534 55.219509 -280.883118
-65.864136 187.185516 -283.732819
-66.459732 167.584793 -283.417480
-69.268562 47.869598 -282.945740
-65.683044 172.778122 -289.110382
-67.799889 205.302551 -288.654175
-64.412949 204.207596 -286.950500
-69.122154 199.279602 -291.316895
-65.923485 195.741425 -299.036072
-65.471443 198.794174 -299.456787
-71.614418 17.352762 -9.453091
-67.582733 22.683554 -11.718907
-67.659409 7.409325 -19.923744
-65.808548 15.834222 -28.155556
-67.603729 107.647575 -38.952629
-66.013313 115.732254 -36.596855
-69.017731 103.260124 -35.545094
-64.530342 98.544609 -37.569420
-65.350670 94.211174 -33.491768
-62.610142 81.516281 -40.016769
-66.756401 131.728134 -40.993290
-73.129311 75.074074 -48.304539
-64.424423 139.736755 -52.728474
-68.886818 63.502422 -50.450832
-69.503296 -27.868271 -51.600666
-63.622169 -42.514057 -61.037045
-63.736645 -45.548309 -57.742912
-63.581734 -23.963396 -58.100853
-70.150566 -20.869078 -64.952995
-66.752228 78.950325 -64.036514
-70.812790 -11.700539 -73.289047
-68.113708 -51.405811 -71.571617
-65.906265 144.575851 -76.460815
-72.728859 104.594772 -75.938736
-66.560524 -6.914601 -74.808220
-67.709351 -2.363423 -76.625458
-67.695908 105.553062 -79.198204
-65.598434 -16.766863 -79.443192
-69.645248 -3.744358 -79.320175
-68.850777 -11.077164 -81.702698
-66.709267 -14.781924 -79.214638
-72.531975 1.550372 -92.738541
-68.139717 -57.378235 -90.845215
-67.534225 0.829598 -89.274147
-68.251816 -51.933403 -88.433777
-62.580475 120.271751 -86.911537
-68.616234 119.841583 -86.348228
-70.251511 129.853043 -89.459846
-68.911621 -8.027338 -89.240555
-69.325554 -21.728661 -87.466461
-68.488808 -46.061893 -94.653839
-66.908363 126.676689 -96.736656
-66.108810 -0.295041 -97.224823
-71.947594 -28.746210 -96.104156
-65.321007 126.781242 -93.016953
-68.417931 122.348549 -96.086815
-70.139885 118.449768 -95.633354
-72.025681 137.329422 -102.498138
-70.364861 -48.098312 -98.107346
-70.070244 -60.256271 -99.886505
-69.400444 -62.727211 -95.071152
-67.627151 4.117915 -96.398048
-72.377335 -54.540695 -97.364304
-66.728966 1.726770 -97.916473
-64.617325 12.648965 -102.604134
-70.278168 8.189742 -97.169418
-63.545567 -58.726482 -96.130096
-69.986061 129.704575 -98.121597
-73.518669 -56.721558 -101.821785
-67.536018 -59.607391 -98.654938
-68.466148 125.322723 -103.313232
-71.440514 4.003899 -101.811859
-73.961807 -57.605137 -104.099808
-71.479736 135.173721 -108.491859
-67.720665 -66.016312 -109.883354
-66.850121 128.623276 -112.931969
-64.985901 -61.945366 -105.540382
-67.111832 108.638885 -106.355736
-67.037743 107.834297 -110.927963
-69.320068 -60.870277 -116.560806
-66.158073 134.506546 -118.749474
-68.458931 112.794662 -115.843925
-66.051796 112.850296 -118.892883
-67.358353 104.841003 -118.130287
-67.782394 113.456848 -118.670601
-69.965721 107.871941 -122.116997
-65.693680 97.885292 -121.225594
-64.306099 137.193268 -118.932854
-71.880898 113.774780 -117.661064
-69.818192 128.877960 -120.695450
-69.655228 113.998291 -124.620911
-68.781754 126.137733 -124.880493
-62.043129 122.307762 -128.426147
-67.894806 123.939346 -126.083649
-67.538521 109.338196 -129.299622
-66.778732 99.612038 -131.065796
-67.635757 125.485649 -127.590752
-62.495625 106.403999 -130.748947
-68.923065 34.375839 -138.251556
-66.647141 99.524887 -137.081573
-71.285645 34.471813 -137.728912
-66.157394 121.298164 -136.264618
-68.821251 117.263321 -131.264969
-66.736992 119.862289 -138.748169
-66.846245 102.722046 -141.035645
-70.857216 139.811707 -137.323181
-63.400154 104.222809 -136.676743
-64.914246 100.799095 -140.018234
-64.419266 22.368940 -139.583496
-70.757057 34.829639 -147.102051
-69.404778 99.056282 -142.526688
-68.623505 24.105795 -143.352325
-68.382782 35.386734 -142.947998
-71.137978 37.430935 -139.110199
-68.881134 92.465622 -146.901871
-68.744904 25.028755 -143.881287
-64.535667 89.431778 -148.431976
-67.949760 31.249702 -149.489059
-69.394623 29.294405 -152.816055
-71.962959 24.333284 -158.159225
-71.067619 150.890167 -153.735931
-71.250175 25.730070 -151.977982
-69.384277 23.536297 -152.168274
-66.215530 25.728418 -164.060181
-71.155205 27.994768 -164.578430
-62.304760 154.938171 -161.308151
-68.721535 197.527573 -170.500198
-70.262436 153.494827 -165.785126
-67.877251 153.789520 -169.887131
-68.131714 33.139259 -167.505447
-71.942619 163.067627 -170.865219
-64.471138 154.707825 -171.828735
-65.580833 27.517958 -172.295532
-69.255516 162.780014 -173.785629
-67.660652 29.123026 -178.873260
-66.732925 36.505760 -174.879440
-65.052277 72.940407 -180.028671
-69.532623 75.600006 -181.276245
-67.957283 153.763611 -177.476776
-63.978291 196.235504 -184.284943
-68.102043 68.544525 -182.667831
-67.248077 189.737473 -184.364487
-68.168091 34.342930 -182.668213
-68.196632 170.909424 -183.982407
-71.074692 162.740158 -183.392456
-66.112808 65.865585 -183.949295
-66.960739 186.255447 -182.451691
-64.084480 173.407516 -189.946625
-71.211006 187.856781 -184.880295
-70.059990 185.743027 -185.878616
-68.823929 208.458145 -186.172012
-64.467590 172.875336 -181.085236
-66.661232 30.916069 -191.250900
-70.837379 159.047775 -183.853333
-63.746902 212.656845 -188.430481
-71.096947 160.800781 -184.985931
-68.940025 72.553261 -188.803436
-66.451050 201.901703 -189.117981
-71.352509 67.084435 -189.578888
-66.720543 212.371841 -190.468918
-66.131706 34.486504 -192.414337
-61.846630 206.519531 -195.371017
-68.830498 32.238716 -193.224945
-67.924004 75.486137 -192.690552
-65.457817 173.028351 -193.843002
-67.198593 184.453842 -197.298676
-65.082054 166.623779 -194.079010
-67.449242 218.631790 -189.457703
-64.284447 200.134705 -194.896851
-64.610603 173.457016 -195.292618
-67.612961 62.162643 -197.904800
-67.428528 33.312977 -196.889572
-67.310928 195.187744 -195.969162
-66.103325 200.940216 -194.358826
-65.731262 38.364964 -196.640045
-65.660797 216.642471 -196.194855
-63.979588 210.466431 -201.678375
-68.214905 66.870102 -197.517853
-60.984459 56.676727 -191.285889
-67.361954 32.754662 -206.127243
-68.054039 220.593124 -204.195496
-71.560341 216.418365 -201.196198
-67.659454 192.539719 -201.118591
-73.971832 59.710232 -208.209610
-66.468796 207.657913 -210.573929
-70.372093 211.360977 -214.288010
-68.135246 54.118053 -209.077560
-66.315865 214.009079 -209.826111
-64.335220 151.449615 -211.537399
-64.534645 210.006989 -213.555756
-65.315536 159.817017 -215.032822
-64.024254 193.912888 -212.545425
-66.070465 148.308884 -210.587967
-66.645157 209.092117 -212.321365
-66.470596 218.412216 -213.537552
-69.206223 156.890244 -213.611450
-68.661003 54.088593 -214.477463
-65.157562 204.998276 -216.129654
-67.785088 193.835159 -215.556900
-70.017662 183.460373 -213.918320
-67.319717 46.221848 -217.931076
-68.386269 215.464050 -216.077423
-66.902786 153.572769 -213.878021
-66.774620 208.413651 -219.093628
-68.810249 53.151367 -217.537354
-71.040878 202.968323 -217.281967
-70.668579 213.044922 -216.879120
-65.699883 198.562820 -217.592270
-68.284637 156.965775 -220.000977
-64.604240 200.160965 -218.923798
-71.190475 196.833405 -221.407623
-68.623146 -30.322651 -217.712418
-71.147850 202.601578 -222.689102
-70.946022 160.723022 -218.617661
-70.664055 64.317848 -224.542435
-69.664543 -26.810705 -226.670975
-65.538094 207.546417 -223.407501
-68.856018 192.928894 -222.755554
-68.947838 185.441696 -226.738693
-65.364502 162.987701 -222.750458
-68.362778 41.473690 -220.537491
-67.395256 42.527592 -221.616730
-70.697639 44.448406 -221.909149
-64.827904 205.247284 -223.075256
-66.005775 44.344276 -217.843536
-69.854614 216.988556 -227.104446
-69.128448 57.377972 -227.091583
-65.164848 175.028580 -223.074631
-65.158630 202.202682 -225.323059
-68.361481 -11.856616 -227.038162
-66.902412 -17.414143 -225.583557
-69.797295 -24.290142 -224.374451
-64.919548 213.771637 -229.385834
-67.578781 -14.443495 -231.212860
-65.461945 208.557175 -229.151733
-68.379753 53.417175 -227.132874
-69.423233 41.049122 -229.708374
-64.907410 220.098022 -226.838364
-66.682800 50.994476 -230.683838
-68.103455 44.811443 -227.849457
-65.495956 211.240601 -231.514786
-65.964462 64.657082 -231.859589
-64.603226 38.717499 -231.942596
-66.715492 -17.016459 -233.327530
-69.867348 197.323380 -230.131592
-66.451996 59.310459 -231.514099
-67.097664 61.391766 -230.586014
-68.729294 38.864521 -233.317383
-68.827972 33.140961 -229.885864
-66.089111 -6.320341 -232.307724
-66.729446 -12.345172 -237.347366
-70.958542 -1.537550 -235.016968
-65.643219 2.021198 -235.197632
-67.400833 34.909256 -234.406067
-66.515266 -5.515394 -240.266754
-70.900909 -1.258831 -237.099426
-70.210297 214.525269 -238.299500
-65.521255 26.178061 -235.749237
-67.627739 2.101174 -235.543884
-64.108284 208.826004 -240.970337
-65.578102 6.118012 -238.040649
-70.354881 0.200247 -237.330444
-67.299545 -5.750436 -242.479767
-64.538971 11.878772 -239.946777
-68.105942 5.845007 -239.589600
-65.956512 2.585100 -245.168945
-66.882118 148.925781 -243.547623
-66.743645 179.982132 -240.111237
-62.663704 62.638229 -242.932907
-72.889931 175.345078 -242.781036
-69.823631 151.144882 -246.795593
-69.769485 144.501038 -246.442093
-68.254135 16.064383 -241.731857
-69.899231 64.265289 -243.974152
-69.389053 22.981255 -240.457336
-67.152092 12.271162 -245.006287
-70.981178 200.716049 -245.984268
-69.647644 184.459793 -243.173264
-67.695175 156.998154 -251.226700
-68.162437 147.231125 -248.380249
-62.454403 170.822540 -249.376877
-66.828529 164.514023 -244.375916
-66.551384 200.138107 -246.979233
-67.423737 201.758270 -243.505554
-73.553711 162.086639 -248.568832
-69.734505 148.799805 -248.786148
-71.789124 13.426486 -248.495117
-71.135277 8.428036 -248.774460
-65.964279 197.291290 -244.000122
-67.052460 150.246689 -244.160217
-66.414276 22.737259 -251.539536
-71.002304 197.934601 -247.825699
-66.470444 199.054306 -250.952637
-66.738518 157.294937 -247.222977
-67.295166 23.454294 -250.450638
-65.339859 29.448828 -254.083878
-69.059990 191.130783 -248.108322
-68.216415 166.142380 -255.814117
-69.557808 191.907410 -254.243851
-65.212547 187.652298 -248.984924
-64.731773 25.691263 -252.239334
-69.320206 15.006888 -254.588669
-67.611847 57.055180 -251.376953
-66.978813 172.094131 -252.743713
-70.857864 56.310413 -253.933334
-63.799801 183.042648 -253.732895
-72.551682 169.646240 -257.819183
-65.380318 178.942261 -260.276611
-66.993408 201.141708 -261.587219
-64.223442 53.655384 -259.604645
-69.620018 28.031078 -260.224823
-68.255539 200.216263 -267.400330
-68.320824 25.026968 -266.170959
-68.184959 205.242950 -270.568878
-68.378578 61.507763 -273.606812
-71.413147 197.446930 -268.757904
-68.454033 54.816017 -269.844543
-68.805229 33.995544 -279.085602
-66.015137 176.774628 -276.264893
-68.434181 32.083496 -279.900116
-70.833557 195.126572 -275.865204
-69.290756 185.461273 -276.112305
-67.447067 176.878937 -278.141418
-65.976799 172.669434 -272.443970
-70.918350 194.290451 -280.362793
-65.573586 163.409500 -280.647400
-70.332687 153.498489 -279.026642
-67.396133 188.359253 -282.341858
-71.335915 154.554947 -283.164856
-73.636513 36.041374 -279.122040
-67.149315 191.788055 -278.278137
-64.836891 184.563568 -281.075012
-63.760960 166.012115 -279.286163
-73.023407 166.485153 -283.679901
-67.950287 171.349960 -280.532623
-65.772675 174.911438 -283.808350
-70.228966 197.449203 -285.895081
-65.161766 204.193832 -285.315308
-71.719711 198.281281 -285.687775
-68.795090 204.336655 -294.387268
-70.287560 197.370819 -286.113922
-68.313728 206.362457 -295.908173
-67.121964 206.079422 -298.317657
-67.735832 197.822205 -298.972107
-70.103325 204.931610 -306.244598
-64.237694 19.006149 -0.268669
-67.860641 2.432681 -8.909615
-64.902565 22.328693 -10.003480
-68.154037 7.872617 -21.850185
-68.733742 1.426541 -22.359200
-66.689377 27.918852 -31.287497
-69.034805 132.831772 -43.038654
-67.383392 63.745739 -43.150650
-67.657684 143.872437 -56.624943
-67.279724 63.037064 -49.550751
-66.794205 -35.988060 -51.765907
-68.854897 -27.711159 -53.894272
-63.319939 -32.985100 -49.506443
-66.598839 -26.420145 -55.152340
-65.652847 -45.291439 -51.188663
-72.271851 61.444935 -58.237862
-61.348946 65.066063 -58.873478
-65.631142 -53.254627 -57.570389
-67.205070 64.211067 -58.519699
-70.023003 78.075928 -61.410172
-69.507996 74.638672 -59.436771
-68.105492 144.396347 -66.498528
-68.621628 86.145042 -71.323341
-69.392349 92.744812 -67.949059
-65.675812 82.114059 -66.722534
-73.665543 -15.425113 -62.378090
-69.081848 -13.697789 -72.099373
-66.886101 -10.035671 -68.154839
-70.841888 102.735237 -74.780807
-64.566978 -57.524029 -77.582802
-67.531891 1.693143 -81.900978
-66.437668 -53.981556 -83.456909
-69.209076 110.446060 -80.617760
-71.129135 109.923195 -85.116707
-64.705681 113.567841 -82.367142
-64.241058 0.889523 -81.485115
-69.741974 -5.406127 -85.509270
-64.630325 -49.248547 -86.823463
-68.138321 -52.553188 -90.050728
-63.544285 -50.040596 -87.518471
-63.304691 -5.189244 -91.669250
-66.242447 -9.887364 -86.476074
-68.132164 -53.627724 -87.561531
-65.331131 -54.702915 -91.472359
-64.875862 -2.903080 -92.645500
-66.604126 -3.797582 -87.774040
-63.421364 123.334259 -92.589226
-71.456184 -5.874044 -90.478706
-66.332787 -47.168209 -91.105980
-67.978310 122.571129 -89.087372
-66.841965 -54.777073 -92.092926
-65.429092 125.787323 -91.597511
-63.713676 122.414543 -92.833977
-68.726311 4.799603 -90.922417
-66.200562 -15.869099 -92.939034
-67.710121 -57.466415 -94.990021
-66.847588 1.819920 -96.668251
-71.118896 -28.446701 -93.880180
-65.486053 -27.273441 -97.510414
-68.109558 153.690903 -98.548958
-65.000549 -61.053711 -99.016716
-68.910568 5.513089 -94.238045
-67.962730 -58.925175 -103.130165
-67.465408 -57.073730 -102.151840
-62.803555 132.041626 -99.431793
-68.920631 147.894333 -104.998764
-68.916641 144.841492 -111.114174
-65.533203 135.996262 -115.433060
-72.118896 125.207718 -118.566330
-65.710526 116.660881 -114.304932
-70.386253 129.991608 -116.086823
-66.845879 128.947083 -113.397690
-64.115990 125.660423 -119.496719
-68.122971 133.548080 -118.174614
-65.697456 128.456360 -121.291847
-68.166504 104.742905 -120.357727
-71.124344 96.934265 -121.681633
-70.407784 136.642426 -126.904259
-69.396187 98.145935 -122.923492
-71.361473 130.799072 -122.187561
-72.068123 124.115654 -123.277946
-66.009666 97.297920 -128.440979
-63.587536 131.521912 -127.560364
-68.078590 120.615433 -123.649948
-64.768486 126.950417 -128.071075
-71.226967 102.813164 -128.536865
-63.548332 143.934830 -131.273056
-64.618050 29.831318 -134.998550
-65.968231 142.105469 -128.828888
-65.761543 101.638062 -133.429504
-65.091324 28.105791 -133.431870
-69.418015 123.267929 -128.188828
-70.090019 110.354988 -129.978729
-68.288811 33.260529 -133.360397
-67.715157 103.525452 -137.873489
-66.125885 138.190369 -136.624207
-67.544479 34.525948 -137.541458
-69.667961 149.552795 -138.928680
-68.585266 37.158058 -139.533997
-65.878906 97.758987 -136.106018
-62.744125 39.249393 -141.791824
-66.008034 153.664764 -145.420654
-66.596169 36.978386 -141.330185
-66.149117 36.803989 -144.476456
-72.622643 146.929947 -142.169662
-68.296776 156.219467 -148.524109
-66.944687 145.046860 -150.094131
-67.001228 157.612244 -155.467026
-61.872417 151.771805 -156.697662
-70.392670 154.868805 -161.670349
-65.419182 27.798553 -165.773056
-66.391602 24.088964 -164.780365
-71.634384 187.925369 -168.559860
-64.853455 197.277740 -169.287430
-65.088661 198.620453 -170.207733
-69.833389 192.595551 -163.342087
-65.844315 30.853493 -170.109726
-62.862759 26.940924 -164.034592
-67.968719 153.949081 -169.354889
-64.716866 205.718216 -169.364853
-64.182487 35.903442 -174.835785
-70.399971 32.427475 -169.782120
-67.760696 161.840210 -179.637329
-64.292847 31.695040 -174.686935
-62.256992 202.985977 -177.975403
-70.766029 193.002594 -176.141464
-66.999931 30.173668 -179.120087
-66.265694 159.367477 -178.753830
-68.594620 158.283279 -178.665421
-63.367233 204.300644 -185.492340
-66.450691 201.977448 -186.451035
-63.235413 206.294907 -186.510895
-68.623390 28.823893 -186.789795
-64.592361 181.914078 -184.609909
-67.371353 38.938728 -186.771530
-67.383942 208.513916 -186.653244
-66.102684 32.264297 -186.376587
-67.137680 191.684341 -188.845779
-66.031265 69.821297 -183.914536
-68.135826 212.809280 -184.738419
-67.307922 70.092110 -193.318329
-62.201469 209.955460 -186.648621
-69.596901 201.330704 -189.669189
-63.558781 214.103058 -193.812286
-66.039482 212.834457 -191.828537
-60.607548 207.662445 -188.953522
-60.935223 200.169373 -194.110641
-69.150154 153.673233 -188.372528
-62.152561 62.874062 -190.974182
-67.955566 202.243256 -188.941376
-68.805069 33.346439 -189.433914
-70.036209 185.711166 -196.303513
-68.568596 34.938049 -194.919800
-67.596634 212.421326 -194.489090
-66.102844 214.076141 -192.121399
-66.556938 201.997208 -192.612045
-66.061089 68.124710 -196.801819
-67.944641 215.981323 -193.790405
-65.785522 204.798828 -198.353592
-69.774361 71.358963 -198.883575
-62.257832 61.752842 -199.868317
-65.922195 201.822006 -198.274185
-67.865494 62.515419 -203.129654
-65.938950 214.551605 -195.742279
-67.167526 62.169147 -199.046997
-67.252655 210.353256 -200.401627
-62.887802 59.859459 -209.547928
-60.805008 59.854313 -213.804092
-66.220749 157.855240 -214.630966
-65.612968 193.803864 -215.311829
-64.805969 152.533371 -212.236877
-73.892784 178.153519 -212.623489
-65.130966 51.047207 -214.506424
-64.365318 182.082916 -217.077332
-65.716087 175.394791 -219.690033
-65.459717 160.497910 -216.710678
-66.306129 55.825020 -208.626297
-64.937042 210.006607 -215.260605
-67.766304 49.154877 -213.247467
-67.804718 188.651886 -220.482483
-68.597275 166.966843 -220.155334
-70.060173 163.796539 -214.625854
-64.031418 198.235611 -219.228699
-67.381966 202.709717 -220.853638
-65.646759 158.987762 -215.353409
-68.366333 48.994732 -219.888062
-64.140182 55.621658 -217.845352
-67.607491 48.668041 -218.724976
-68.664070 195.608200 -224.561188
-64.984222 45.207691 -217.801620
-68.157288 191.338242 -224.888672
-70.152924 38.002235 -218.991013
-60.463490 191.021393 -224.820282
-68.969879 184.880478 -222.380341
-64.617599 178.860519 -222.932907
-69.357193 168.736176 -221.145706
-64.993629 177.855072 -227.704697
-65.951256 51.675472 -222.285751
-69.350769 49.426033 -222.064926
-74.716835 54.175499 -230.868164
-62.126789 59.015865 -230.289886
-65.327980 61.315941 -225.180679
-69.107285 49.565258 -225.866119
-70.149529 45.044346 -227.203827
-67.238319 -10.516980 -223.431000
-70.495964 48.996471 -226.151825
-72.321495 39.752197 -234.808868
-67.894348 -12.983748 -235.601517
-67.578979 -9.901779 -231.931213
-68.754128 37.880604 -229.841873
-67.618835 -11.801257 -233.690201
-70.043938 35.490376 -231.997330
-72.322517 35.031288 -235.381027
-65.606483 34.381947 -233.503540
-68.800308 59.406227 -233.948624
-64.098091 0.435089 -235.646255
-61.838764 -10.063315 -231.994904
-67.058807 195.275467 -232.014923
-67.676376 1.692236 -238.100906
-65.460396 -4.752007 -238.021729
-64.535774 59.467770 -239.761246
-68.601837 6.330469 -242.600296
-70.801605 195.591171 -241.848480
-64.845886 199.375977 -242.539566
-71.588036 194.539139 -242.291580
-62.429165 10.819409 -247.068542
-66.797600 7.163706 -244.463318
-64.163200 62.704536 -244.271805
-67.476059 15.332254 -245.816788
-68.414642 146.726227 -249.551682
-65.653809 189.520447 -244.946732
-65.569557 189.057663 -247.449738
-69.704712 155.358475 -244.935730
-65.038574 159.042175 -248.066925
-68.414505 22.640652 -249.745239
-68.933159 10.597648 -247.123932
-64.689133 164.446121 -251.228165
-67.254791 55.937859 -252.109360
-74.172050 189.437332 -242.172470
-69.999290 176.555008 -250.646439
-61.969543 171.598404 -250.633301
-63.399837 160.943756 -248.605881
-66.456497 160.711273 -247.943085
-62.748466 192.983185 -254.449295
-68.622490 184.747757 -250.937622
-68.879799 176.372620 -255.333481
-69.453011 22.022470 -247.276291
-64.077011 165.351257 -250.349457
-66.826149 53.695713 -251.085342
-67.972458 176.063889 -254.153259
-68.685219 170.758636 -253.634354
-71.754807 165.696808 -251.915314
-70.434105 52.837696 -248.934891
-66.701157 164.229935 -254.017822
-68.812492 24.334003 -257.205811
-69.298950 203.921646 -256.868622
-65.043877 198.579117 -253.868347
-63.156979 53.371914 -267.840576
-69.121735 58.403332 -262.616333
-66.535782 29.600657 -265.103516
-67.062599 59.453106 -267.476532
-65.627052 55.385071 -272.931488
-63.647064 179.179810 -275.497253
-64.117653 183.206131 -274.573303
-64.587357 55.389263 -276.597351
-65.707390 169.117798 -277.901550
-63.801857 189.622360 -280.871338
-67.969521 208.855896 -281.607788
-60.848351 175.364273 -283.147614
-70.548737 181.211304 -282.353638
-65.037193 45.202190 -285.248474
-62.024765 180.728760 -282.928314
-67.897163 203.762512 -290.462769
-70.917252 200.752228 -293.004181
-62.205212 198.514481 -290.198608
-66.490219 198.882477 -297.546448
-69.251007 197.003708 -301.611481
-67.349564 28.860010 -12.265248
-63.002483 1.724419 -15.494612
-67.013237 22.375780 -15.690990
-65.962944 29.852564 -16.541765
-66.261803 17.580704 -29.742218
-64.673897 3.826156 -24.717819
-64.838051 113.553650 -38.286625
-63.884167 107.019043 -33.726715
-59.605984 116.430122 -35.329708
-64.972252 120.704720 -38.166862
-64.276192 123.586113 -37.116802
-60.220966 88.286293 -36.693291
-64.611389 128.368835 -39.436661
-68.427849 74.185410 -42.573849
-70.461411 64.920357 -50.034561
-64.356277 -28.932386 -51.602451
-68.362930 -34.768581 -53.177036
-68.424782 -18.505161 -55.018970
-68.224419 63.721733 -60.312481
-65.711060 -18.918331 -56.315395
-65.906105 -47.810265 -60.157280
-66.726662 -15.797001 -61.272076
-64.368790 -50.219574 -60.834614
-68.783318 80.162544 -66.038330
-66.446945 -16.534801 -71.033478
-66.937759 -57.314129 -70.087982
-66.452477 101.973053 -73.917389
-71.074226 -7.681763 -73.276863
-65.265610 -15.563487 -72.643280
-56.757065 101.144234 -72.443192
-70.359749 -6.599421 -76.928658
-66.234261 147.625549 -74.202339
-71.725281 -6.450133 -82.843811
-63.896500 111.256653 -81.240601
-66.693611 -52.575306 -77.910172
-62.340214 -9.763762 -79.799850
-63.230961 -4.500356 -81.974594
-68.412743 -16.563131 -77.537567
-66.530624 149.998077 -81.754211
-67.191887 -12.879288 -86.719635
-68.215004 0.105564 -82.438347
-60.880714 -16.761436 -88.509506
-68.690247 -54.462170 -89.076431
-66.966644 3.084304 -92.601517
-64.178787 -17.901888 -94.084732
-63.915737 123.914970 -92.447418
-65.672691 112.510063 -91.464821
-62.523224 129.550629 -87.249023
-63.185474 126.615990 -88.683479
-67.842484 -2.043268 -93.167572
-67.666977 1.507482 -97.398804
-66.323174 -44.384239 -96.458748
-63.615856 149.127182 -91.543579
-68.039619 -43.955719 -92.174606
-67.684090 127.454460 -97.253113
-65.304939 -38.161205 -96.432968
-67.431641 -39.962826 -97.727783
-65.582954 -25.518997 -96.317871
-67.906113 126.846825 -96.982544
-67.424774 136.299683 -100.939316
-66.472710 128.024414 -106.233147
-68.387894 141.631210 -105.541702
-62.582867 110.159439 -109.901779
-62.323387 110.007141 -106.902107
-65.731369 115.717346 -109.215927
-68.156769 138.077515 -111.524551
-63.848537 113.253380 -111.868553
-66.108902 147.254623 -112.935814
-67.805588 126.470764 -109.911835
-66.471695 131.289246 -114.286087
-63.830048 108.303703 -114.283478
-66.750275 133.243927 -112.550133
-64.368195 125.592041 -120.506165
-62.566273 130.332199 -116.585777
-67.135376 140.834976 -119.286278
-69.780045 127.391907 -121.140427
-65.187950 128.862320 -119.859734
-62.335541 131.444855 -119.090126
-63.745491 97.890869 -120.300735
-70.879005 99.640564 -120.768013
-63.381878 145.653168 -123.665482
-69.112061 122.207390 -126.175682
-64.976578 104.460617 -127.444092
-68.509239 107.019989 -128.664261
-69.516212 19.743244 -126.224716
-66.136398 102.239609 -130.005280
-68.194160 30.046364 -130.616745
-71.799103 99.966003 -129.268494
-70.454529 19.576181 -128.975204
-68.575974 140.354340 -136.398071
-64.594879 99.924355 -136.037125
-62.428204 31.721228 -134.328751
-61.672516 143.142181 -137.155899
-65.459290 32.227592 -139.217194
-69.921478 144.446182 -141.132019
-68.954124 33.399334 -141.989578
-63.217075 154.808365 -148.789307
-66.914543 145.004089 -149.378220
-63.177555 145.958969 -152.224533
-69.628586 151.360550 -159.979401
-67.574394 158.178513 -164.055588
-63.532948 202.368378 -165.764923
-66.471352 211.436508 -171.438461
-63.714241 166.874298 -171.184875
-67.113747 189.077942 -169.826721
-64.375893 154.946075 -169.483215
-66.576241 158.797546 -172.518677
-68.483803 193.520294 -174.490295
-62.745949 154.254135 -182.434677
-66.083382 195.610352 -178.368042
-72.257553 203.504898 -179.898315
-70.434967 161.427246 -179.928085
-63.269062 200.840500 -181.363846
-64.947716 194.400452 -185.738831
-66.830391 173.223495 -188.194122
-70.891304 154.082291 -188.862640
-66.501854 185.083954 -186.868759
-68.349831 171.745636 -187.764267
-66.990692 164.138611 -188.695496
-66.860916 197.631607 -184.369629
-67.515823 196.871170 -186.623337
-66.463234 189.961960 -197.339798
-67.568336 183.940262 -191.816635
-68.351105 164.387024 -196.112549
-65.582886 194.627457 -196.427155
-68.435501 185.197479 -193.991241
-69.535370 161.294098 -188.109039
-67.237221 198.227585 -211.194427
-72.352829 195.888672 -213.429962
-63.277470 161.462296 -217.903000
-64.910919 155.018326 -215.773956
-69.098862 189.506973 -218.054932
-70.049744 189.835129 -219.348251
-62.625114 172.253693 -217.350983
-64.104485 170.403183 -213.832718
-69.297630 161.674988 -219.440781
-70.679268 157.549286 -218.951019
-63.075127 161.931671 -223.596115
-62.401127 184.237244 -224.394653
-67.013771 171.264694 -220.108734
-64.522011 190.603851 -219.759903
-62.753170 186.918411 -223.876999
-64.510338 165.886856 -219.410080
-73.487541 48.963512 -225.343719
-65.326042 165.807083 -219.219467
-65.116165 167.139420 -219.189743
-65.219009 172.963715 -223.970581
-71.493156 42.978508 -226.006424
-66.995697 176.427994 -222.847427
-64.815117 164.059692 -225.241623
-64.202690 173.883057 -223.576462
-65.023773 207.049011 -227.823105
-61.771599 196.541611 -223.350739
-70.503082 57.805569 -228.958817
-66.820137 52.754852 -226.182220
-62.985161 44.926395 -224.055328
-74.744087 41.531971 -230.343399
-65.866425 60.155022 -228.634491
-65.225189 51.265606 -223.741043
-65.569946 38.873821 -229.913605
-63.643276 198.565933 -229.371811
-68.149300 40.123234 -230.764282
-68.310028 30.207407 -234.833435
-59.779808 60.102959 -233.192017
-68.637779 -8.921366 -232.054932
-69.302345 64.959572 -236.043076
-63.524136 -0.494627 -236.888809
-66.050079 200.405960 -233.477951
-66.115952 27.652061 -240.875076
-63.828548 2.296757 -240.765839
-64.504890 1.422942 -234.896622
-64.117401 201.530975 -242.263992
-64.914139 -0.905503 -242.166519
-66.491844 16.644857 -242.385406
-69.419731 6.856622 -243.833099
-66.870377 181.051529 -242.458237
-68.059013 13.501189 -247.481995
-63.288486 182.221222 -245.169235
-65.365349 176.466980 -244.213242
-69.736794 13.523712 -246.689468
-61.641590 28.998360 -246.019623
-64.935684 16.787914 -249.369659
-62.786541 57.891678 -245.788498
-67.661331 11.634644 -253.313339
-68.216400 10.855205 -247.006577
-63.222580 192.099518 -247.683716
-66.753311 188.552322 -247.928391
-66.078926 23.324081 -251.470627
-66.693169 178.907745 -255.929489
-69.904160 19.158495 -255.192719
-63.036556 178.289856 -256.070862
-62.873634 173.888901 -252.100021
-66.853470 172.090210 -251.273956
-67.165253 169.126678 -251.945175
-64.501045 49.812958 -261.333008
-66.569328 30.094347 -258.412018
-67.139458 53.881237 -262.902954
-71.237671 54.505627 -265.703430
-69.781212 25.034172 -265.692902
-69.079376 206.087189 -278.674164
-64.996887 176.076675 -276.610138
-72.172958 51.454521 -276.224426
-69.720016 40.037624 -278.581055
-65.620010 180.840546 -277.632263
-61.287514 174.837326 -277.835205
-63.976208 171.352585 -279.127777
-64.369247 168.592682 -275.962677
-65.592819 202.372681 -276.558167
-65.693413 175.047821 -283.643219
-63.885185 179.356094 -280.938019
-69.431175 54.230042 -279.686127
-68.909325 208.064331 -284.011383
-67.611008 180.183563 -284.789978
-64.808006 38.316685 -287.587830
-66.523178 200.017380 -282.882660
-64.463463 202.927399 -279.214233
-65.606934 10.640647 -21.841810
-66.572533 11.010673 -20.595079
-65.100548 8.438636 -26.124846
-65.455406 24.808840 -22.096663
-67.824188 7.338340 -29.853655
-64.852821 115.151604 -29.494188
-66.605255 101.437187 -33.312256
-68.650131 82.973427 -40.809284
-61.652493 68.662102 -43.000961
-69.052025 -42.737476 -49.875515
-64.792274 -27.183027 -54.584076
-65.641914 142.645477 -54.487064
-62.733463 74.229919 -59.183826
-63.808174 149.720779 -62.755013
-64.674057 83.536545 -62.442261
-65.136597 84.955116 -60.317379
-64.809731 -13.699164 -67.777435
-67.145088 -53.984207 -68.396576
-59.874149 143.159714 -71.308701
-67.602036 -14.708348 -69.786598
-62.835728 100.889893 -74.457878
-65.929169 -13.173486 -71.536934
-64.542458 99.888031 -74.074890
-62.978340 -52.727776 -74.688522
-67.129692 -53.727901 -78.485779
-63.578125 -7.641515 -77.679169
-66.024361 -5.076302 -77.564125
-69.402496 -20.049879 -76.387001
-64.177162 111.267128 -82.731979
-67.903625 -11.720552 -82.076408
-64.849976 -14.442554 -77.161873
-63.464569 4.003567 -81.862015
-62.356045 116.069344 -89.595047
-72.643478 -14.518886 -84.059052
-63.858398 115.867722 -88.066055
-65.052422 -3.769136 -91.009834
-60.887745 -53.445004 -87.289154
-67.102448 0.630147 -88.296974
-62.344856 -4.118880 -91.699951
-68.300705 3.076545 -88.591942
-66.445702 118.559433 -94.603775
-67.102371 151.467270 -91.251312
-65.627251 125.233772 -97.564262
-63.625999 -18.752373 -97.255577
-69.018005 131.040466 -96.189568
-64.784836 116.579491 -92.844131
-63.545280 -33.606464 -94.855896
-61.821449 123.565033 -97.304184
-61.152779 -35.516281 -101.507713
-66.240311 -44.072952 -96.117523
-62.774403 134.752823 -98.239410
-66.170624 140.327835 -101.502769
-64.604378 128.086014 -102.599266
-66.192421 133.059158 -107.548546
-65.059624 113.914139 -105.050209
-65.108589 124.800476 -110.701897
-64.600700 141.602692 -110.439537
-62.554665 117.512184 -109.081627
-64.239304 133.086853 -112.253273
-64.875221 113.252243 -109.353409
-67.676720 129.242981 -112.169350
-64.662148 125.515236 -113.902336
-67.924927 136.480042 -115.769547
-68.649117 131.810822 -122.946960
-67.074600 107.426872 -113.173943
-67.862251 130.889282 -111.982498
-67.149124 107.561050 -121.732559
-65.328133 126.913269 -117.600777
-69.495399 102.062996 -121.548790
-61.727654 113.973557 -117.710541
-65.932312 134.802353 -116.719215
-64.837021 139.547806 -117.196709
-62.360603 141.300278 -116.115921
-63.574825 136.440964 -120.586143
-68.113655 144.014313 -121.232277
-65.001358 140.730087 -127.523766
-61.471771 128.937271 -124.737366
-65.736229 125.880821 -128.083389
-66.279938 116.759460 -120.628601
-62.864166 126.376358 -123.282227
-66.069687 22.889326 -127.298553
-71.000809 110.758492 -123.799507
-62.756092 107.667755 -128.634048
-59.065659 100.239838 -123.771843
-64.765976 22.861105 -125.960869
-64.473228 146.603088 -126.220078
-63.457817 110.260017 -126.383682
-59.399090 101.363724 -128.062149
-62.935699 145.519852 -131.659775
-68.028160 34.145222 -132.837326
-67.323471 143.034409 -135.647583
-67.560730 34.713516 -135.991074
-67.648071 35.989922 -136.094971
-63.171665 32.991425 -141.108063
-68.376724 150.326401 -145.099030
-63.973232 144.942917 -139.098022
-62.130943 154.999466 -146.269409
-64.859581 153.052689 -148.508255
-63.807308 159.331207 -154.925232
-64.231316 152.784058 -155.693832
-65.092506 157.690399 -156.337112
-63.942600 150.037766 -162.586700
-65.052185 154.805191 -162.868912
-61.875809 194.356888 -165.863297
-60.389999 188.436050 -168.500595
-59.874611 157.623260 -163.635941
-65.087860 161.611725 -175.610626
-62.752796 153.546326 -174.691574
-67.810478 164.290527 -176.974335
-66.759399 200.768860 -175.871689
-64.488365 191.078613 -175.185318
-60.456928 167.189133 -182.422577
-62.566807 191.712418 -178.550552
-62.992241 160.682693 -177.001404
-69.538544 196.438339 -182.890442
-58.848125 196.102600 -185.561035
-64.133484 155.951828 -183.793884
-64.169228 203.485214 -185.478210
-62.232128 175.173660 -189.991653
-63.062984 165.190887 -187.105896
-65.398918 194.092987 -187.232117
-66.770210 189.555557 -187.287521
-62.151485 161.784958 -185.227112
-64.393661 161.863220 -189.724152
-65.141151 167.320557 -184.691772
-60.670715 193.866486 -191.932205
-66.356956 175.099976 -190.315521
-62.229599 156.123459 -192.515533
-66.868538 161.403992 -193.107605
-68.430763 180.565933 -196.128616
-64.467979 170.339920 -190.673874
-60.862457 165.692581 -192.370041
-60.809845 167.880539 -193.749405
-58.991703 174.968521 -193.259750
-63.472599 175.353180 -199.049225
-68.200111 175.330185 -194.637466
-69.868645 171.003555 -194.455887
-60.645302 204.248642 -193.574036
-68.325691 196.876678 -200.234772
-66.739151 201.995407 -196.391785
-65.503731 195.527832 -200.760040
-66.559990 198.718552 -210.751175
-66.926071 173.743195 -214.649811
-66.469482 184.929230 -219.617783
-62.126503 179.899185 -219.009796
-64.079407 185.184372 -219.730759
-64.911880 167.770645 -217.715118
-59.469349 179.911575 -220.966110
-66.416809 168.959763 -219.127182
-62.937004 192.019974 -225.288086
-64.460167 182.491760 -217.412643
-64.836861 188.537048 -223.834503
-65.708992 176.271912 -221.613235
-63.644909 171.300323 -225.911819
-65.429131 43.447899 -225.768158
-67.339035 41.827209 -226.484436
-67.367821 33.697945 -233.079163
-68.497604 60.436966 -227.784744
-69.024750 41.218418 -234.030884
-67.092171 28.746716 -233.581161
-63.958313 63.401939 -240.145721
-65.615128 -5.842488 -238.582825
-67.036537 5.686090 -238.376419
-61.763222 11.211720 -239.075653
-68.567924 1.045129 -238.058472
-64.760017 15.824256 -236.631577
-63.325199 54.147522 -244.483932
-64.683899 23.850260 -244.452164
-61.578815 179.232132 -247.192322
-64.523354 181.744186 -246.938278
-62.864552 15.935592 -250.686401
-64.191795 174.294815 -250.717682
-66.406525 209.400421 -248.364670
-60.984554 198.723770 -250.212738
-64.634644 181.428970 -247.927795
-64.094627 176.975784 -246.805939
-61.555843 28.820133 -250.988937
-66.583435 53.166279 -251.471252
-68.071251 24.008600 -253.221008
-66.107582 14.677743 -253.749268
-67.031799 52.697430 -251.338058
-64.209816 20.992243 -256.535706
-64.162392 22.877768 -252.032715
-67.542618 49.985462 -256.888214
-67.138351 200.357651 -262.576904
-63.564758 53.524895 -264.170471
-64.928101 196.008240 -267.517914
-68.084496 29.465494 -273.982483
-64.766853 195.711823 -269.695007
-65.662613 57.582829 -270.623444
-67.415634 198.449814 -275.574921
-64.106636 207.076965 -277.017059
-68.204231 36.323166 -273.965057
-64.616638 197.703400 -276.878296
-61.358833 195.576111 -271.841064
-66.813881 196.459351 -278.860962
-66.748817 199.685532 -274.982941
-60.786934 199.381165 -277.477173
-65.101967 192.576843 -279.487457
-68.319969 211.810028 -280.511932
-61.990765 167.425629 -277.233368
-66.433075 202.342743 -278.812286
-65.121788 195.286819 -281.130676
-63.870258 193.417099 -282.147461
-65.175232 46.333977 -285.498718
-66.479279 45.449146 -276.814026
-60.499722 201.062454 -285.527924
-65.204460 202.129593 -280.688782
-69.687027 205.122482 -284.437958
-66.468636 195.830383 -287.070709
-62.890137 15.988662 -8.297322
-60.719738 4.794939 -2.054833
-63.663605 9.970881 -10.435034
-65.901970 1.121871 -10.435971
-63.264591 9.855698 -9.801392
-65.285202 2.765386 -13.950949
-63.496433 32.107258 -20.858822
-68.444336 28.659939 -25.017935
-63.914894 13.683455 -25.927893
-63.665543 26.246731 -24.768639
-60.736923 16.621536 -26.625715
-66.101234 12.152803 -30.308035
-63.832058 96.596764 -32.677990
-65.419815 94.253822 -35.210751
-59.801441 78.600609 -39.005253
-67.306442 61.266483 -50.236736
-68.754326 -29.369244 -43.893417
-63.924046 -27.832071 -48.681461
-64.809242 57.481068 -52.942421
-65.118752 -35.928391 -54.712914
-64.847923 -46.567913 -55.896957
-64.088844 -45.131443 -54.703026
-64.483986 -21.394989 -60.305740
-65.353073 -22.165247 -55.011497
-64.292130 -15.323230 -62.495686
-61.239246 88.830551 -66.367973
-65.663956 -53.804798 -73.503098
-62.377560 91.542603 -73.818535
-61.653881 -13.086717 -73.340691
-65.532791 104.179527 -72.382439
-62.045677 -53.055878 -72.297935
-64.097015 -13.040298 -74.939171
-66.704483 95.218948 -73.247124
-56.483997 102.426910 -68.913467
-61.776821 105.960861 -73.462440
-63.435204 -0.901928 -75.218102
-67.815178 -54.258408 -75.044914
-63.216393 -56.186543 -83.524323
-66.049599 -4.093372 -87.356956
-65.671303 -3.662537 -79.251945
-66.071846 -6.866283 -79.021233
-67.262146 -7.718379 -87.361504
-65.373993 127.015724 -87.360428
-64.414070 -19.861338 -91.686920
-61.372364 130.142502 -90.292397
-65.677483 118.692825 -95.783424
-62.577370 128.825348 -98.848785
-63.653526 124.137169 -107.829247
-68.407585 142.532364 -101.503059
-62.245861 128.536240 -101.397141
-64.214096 126.690834 -101.835793
-66.252335 127.480980 -107.033150
-64.668694 147.400803 -106.195099
-61.942310 128.791458 -102.126862
-61.258724 129.900162 -111.059914
-60.353615 119.799835 -109.709129
-56.468174 130.138794 -108.204781
-61.463375 107.506538 -110.743973
-64.442574 147.906387 -109.559715
-65.286049 131.162064 -112.350609
-65.102203 102.342018 -111.735435
-64.188484 113.653793 -117.442787
-60.932053 130.217743 -120.453438
-65.400345 131.652283 -118.739220
-63.514782 138.439011 -116.725220
-65.785202 117.771912 -118.449112
-67.972595 112.970078 -120.556564
-67.568230 126.553017 -122.533813
-63.477467 103.389442 -123.646530
-60.886963 20.209478 -118.754257
-59.771221 137.868393 -126.504578
-62.239712 140.051941 -125.430046
-64.061920 22.071609 -126.022141
-63.570538 103.307411 -124.633438
-63.467850 142.941071 -129.533966
-62.304417 137.880447 -129.456100
-66.805328 137.232986 -129.417648
-66.078499 147.243195 -124.352562
-63.010574 109.463646 -129.082245
-65.057510 100.760803 -133.664032
-69.111572 26.430126 -135.711334
-64.821968 27.602457 -134.424683
-65.909470 140.481232 -135.696487
-64.435272 31.614828 -138.797836
-65.875565 143.583862 -133.488693
-65.007050 29.814768 -137.030579
-61.433884 146.225281 -137.673233
-64.873764 29.029062 -145.512680
-66.437263 28.274561 -140.438263
-66.317863 142.513977 -140.460846
-64.524124 143.464523 -151.170593
-64.971191 153.376465 -148.730972
-62.351654 155.625305 -155.242493
-65.000786 160.046768 -163.151260
-62.148987 150.916763 -163.731277
-59.748608 158.006500 -163.295532
-66.814949 194.079514 -164.978485
-63.141850 194.099869 -166.539383
-61.182404 159.616470 -164.509430
-70.274567 204.210983 -168.184860
-66.740433 158.133514 -173.245438
-61.835506 160.789551 -174.749619
-61.283192 157.620193 -174.473785
-62.323265 202.113220 -177.424088
-64.483307 193.202682 -176.814697
-65.480186 199.814209 -179.432404
-69.167480 159.142471 -182.756256
-66.565521 199.844986 -178.792526
-64.362465 157.871429 -184.073181
-56.538830 183.249893 -186.457825
-63.132847 174.299072 -187.204895
-64.969200 174.706192 -185.314072
-58.475403 183.568176 -189.129150
-62.404701 167.088455 -188.530701
-62.553368 157.045486 -188.711334
-65.776184 163.877472 -188.605896
-64.027557 192.432816 -189.120163
-65.553314 184.983093 -192.549744
-66.817154 171.437515 -192.643066
-60.764477 186.481094 -194.799545
-63.379589 182.915314 -190.283569
-66.783859 169.613586 -188.384232
-66.268044 200.187973 -214.088638
