-10.682936668396 -67.330505371094 -259.029479980469 2.588847875595
22.801364898682 -70.836250305176 -270.737213134766 1.792337298393
-6.329007148743 -70.317283630371 -265.947662353516 3.139425277710
20.627420425415 -69.650344848633 -279.341430664063 2.136961936951
-152.058975219727 -67.524230957031 -283.121154785156 1.841148376465
-10.033747673035 -67.482734680176 -280.409698486328 0.885519266129
-153.028656005859 -69.604682922363 -283.769989013672 1.609490633011
-124.206504821777 -67.413589477539 -285.538452148438 1.709045886993
-158.203323364258 -70.979286193848 -287.087829589844 2.468270778656
-114.075256347656 -67.054176330566 -287.632537841797 2.240761756897
-104.531143188477 -66.979629516602 -289.502899169922 1.957291245461
-6.490931987762 -66.813812255859 -285.660156250000 1.960760831833
-108.241661071777 -67.580871582031 -290.164642333984 1.341405749321
-115.723648071289 -65.100921630859 -286.840698242188 3.663916110992
-118.242515563965 -64.714111328125 -291.842315673828 2.990532636642
-136.617294311523 -66.100624084473 -290.151306152344 1.598374128342
-125.167633056641 -65.867454528809 -292.310607910156 2.221770286560
-156.693908691406 -69.727256774902 -290.884246826172 0.838812172413
-146.115173339844 -66.009529113770 -294.224822998047 1.340698719025
-154.089843750000 -65.042655944824 -301.622924804688 2.586314439774
-153.366119384766 -65.080841064453 -311.786773681641 2.586632966995
-156.476608276367 -65.948913574219 -301.581085205078 3.167900800705
-142.584091186523 -67.282226562500 -311.441436767578 2.888109922409
-149.442993164063 -66.415397644043 -313.806274414063 2.391557455063
35.199935913086 -72.130348205566 -9.626425743103 2.612523317337
45.349857330322 -74.000297546387 -15.395252227783 2.784789562225
24.213291168213 -67.248146057129 -23.998353958130 2.994050741196
49.805759429932 -71.808120727539 -27.684200286865 1.581354975700
28.255607604980 -73.079750061035 -34.042797088623 0.982921361923
33.396797180176 -72.347824096680 -34.966781616211 2.630615234375
-57.977283477783 -66.700683593750 -46.479461669922 3.053189754486
81.477745056152 -68.307701110840 -61.439208984375 2.107805490494
80.107460021973 -71.487426757813 -65.602935791016 2.306692123413
-90.840232849121 -69.339881896973 -61.858436584473 1.087116122246
-12.444339752197 -67.905853271484 -62.141643524170 1.762269854546
-92.473556518555 -70.947418212891 -69.045578002930 2.540151834488
96.257713317871 -72.054779052734 -68.805870056152 2.765268564224
-14.767381668091 -67.166694641113 -68.036788940430 1.440194368362
67.646781921387 -72.302276611328 -76.538619995117 2.684313774109
-40.617153167725 -73.165855407715 -77.936859130859 1.879884004593
-27.814874649048 -73.349159240723 -76.523490905762 1.193644046783
56.587314605713 -68.588592529297 -85.245506286621 0.536711037159
-44.689662933350 -78.807807922363 -84.711181640625 1.800182580948
64.857444763184 -65.299003601074 -85.903663635254 1.078788042068
53.301578521729 -73.072212219238 -88.138954162598 0.551634132862
52.683101654053 -70.939308166504 -92.482948303223 1.313513278961
60.527320861816 -72.703964233398 -90.259391784668 2.055169820786
57.360485076904 -68.821624755859 -95.056152343750 1.405070424080
100.359741210938 -68.614479064941 -96.399566650391 1.614624381065
105.399734497070 -67.887878417969 -96.954017639160 0.779015004635
59.292995452881 -72.157943725586 -98.671691894531 1.664554476738
106.515281677246 -67.350967407227 -97.870819091797 1.423703551292
-76.262062072754 -68.599578857422 -99.350250244141 1.666175484657
-72.108665466309 -67.825904846191 -101.073837280273 1.456193804741
100.445930480957 -68.127754211426 -97.615066528320 1.174373388290
53.302906036377 -70.190673828125 -99.988151550293 1.979685783386
70.593086242676 -70.973182678223 -98.728393554688 1.266299843788
-73.078208923340 -68.651634216309 -106.193756103516 2.505379438400
-84.646789550781 -67.444007873535 -106.460281372070 1.453162074089
90.660018920898 -71.876899719238 -104.168792724609 2.341131925583
41.096099853516 -70.061019897461 -104.502616882324 1.322035670280
104.226654052734 -67.764762878418 -103.842323303223 0.553879320621
45.674106597900 -70.940933227539 -112.682350158691 1.824558734894
109.697113037109 -70.038269042969 -103.419662475586 1.131750822067
-79.125152587891 -67.599960327148 -110.120597839355 1.231082320213
105.587997436523 -67.091522216797 -107.412818908691 1.945052146912
-84.780242919922 -66.446685791016 -120.657211303711 1.072045922279
-58.564796447754 -70.279212951660 -128.510055541992 1.500007033348
-55.059650421143 -67.221725463867 -125.088157653809 1.502303838730
-73.056953430176 -68.874000549316 -129.294647216797 2.007955551147
-51.118259429932 -69.580101013184 -130.405105590820 1.303093075752
-84.004951477051 -69.459709167480 -131.919036865234 2.432326316833
-77.297004699707 -66.237152099609 -133.527389526367 1.369655966759
-81.275947570801 -67.755172729492 -129.600769042969 1.317983031273
-59.454341888428 -71.746009826660 -140.721008300781 2.490826606750
-72.026603698730 -67.473815917969 -139.863113403320 1.780527114868
-59.583076477051 -69.667373657227 -136.009826660156 2.481833457947
-59.346069335938 -68.817611694336 -140.905715942383 1.642288923264
19.263151168823 -66.512039184570 -142.132720947266 2.087056875229
-90.665176391602 -67.920082092285 -142.933120727539 1.261409759521
-47.079551696777 -70.442131042480 -144.966384887695 0.997388541698
-97.407623291016 -66.007232666016 -149.434570312500 1.717644572258
-100.176712036133 -66.263275146484 -150.131683349609 1.946904778481
18.622285842896 -69.964706420898 -152.507110595703 2.623657941818
13.710100173950 -69.794937133789 -157.018386840820 1.749833106995
-96.111511230469 -68.474647521973 -159.017440795898 1.315898656845
-102.964019775391 -67.389495849609 -155.657196044922 2.035922050476
-100.639343261719 -66.698211669922 -168.732086181641 1.659230828285
22.527399063110 -67.883483886719 -168.861419677734 1.277039170265
-109.408477783203 -67.142829895020 -172.267028808594 1.865433335304
21.542066574097 -68.931846618652 -166.783615112305 1.783541679382
-147.229675292969 -66.985641479492 -176.529220581055 1.055371999741
17.812585830688 -68.482894897461 -176.012390136719 0.786750257015
23.833040237427 -68.805931091309 -185.142120361328 1.832572817802
-152.469741821289 -65.968566894531 -187.213119506836 1.306975483894
21.789522171021 -68.491966247559 -176.665405273438 1.446664810181
19.287220001221 -64.832267761230 -179.231826782227 1.990295767784
-142.517639160156 -69.677444458008 -186.254379272461 1.995699882507
-151.641036987305 -65.585884094238 -189.348937988281 2.047426939011
20.183908462524 -67.973518371582 -188.124542236328 2.914220809937
18.552003860474 -68.836997985840 -188.961181640625 1.479836821556
-142.316146850586 -68.250434875488 -193.710922241211 0.594345152378
-108.467079162598 -67.534469604492 -197.851348876953 1.542119979858
22.727331161499 -68.837303161621 -197.309173583984 2.214260101318
-124.253913879395 -66.363372802734 -195.057449340820 1.941367506981
11.579906463623 -69.344223022461 -198.665130615234 1.835840344429
-130.820404052734 -63.864158630371 -194.851837158203 2.190421104431
-157.505737304688 -65.001861572266 -192.406250000000 3.363791942596
-161.954177856445 -66.792823791504 -197.421401977539 2.064241647720
-159.842483520508 -66.822555541992 -196.774154663086 2.531444549561
-19.250562667847 -67.368446350098 -202.528259277344 2.209438800812
-166.600494384766 -68.304496765137 -200.421539306641 2.272986173630
-25.400512695313 -65.995201110840 -192.182373046875 3.040248394012
-15.095061302185 -68.904739379883 -196.938522338867 1.638107419014
11.913559913635 -65.243820190430 -194.869247436523 2.714668750763
-158.186920166016 -66.148719787598 -202.717712402344 3.470010757446
-108.827117919922 -66.354835510254 -202.064163208008 1.656170725822
-17.761095046997 -65.714141845703 -202.598663330078 2.626653194427
-159.185287475586 -64.432289123535 -202.572662353516 3.370688199997
16.521600723267 -67.863967895508 -200.445114135742 1.892149448395
-167.150405883789 -64.983596801758 -204.911071777344 3.455693721771
-121.158370971680 -68.933479309082 -203.352264404297 1.883362293243
-114.796730041504 -64.845428466797 -206.462295532227 3.160009860992
-122.907058715820 -65.673789978027 -204.907653808594 0.763572573662
-13.901841163635 -67.359069824219 -203.886032104492 1.019013166428
-16.016696929932 -67.593666076660 -204.751800537109 1.298125267029
-164.193389892578 -65.743591308594 -210.730178833008 1.003731369972
-160.016464233398 -65.191780090332 -213.526321411133 2.891457796097
-164.598907470703 -66.500831604004 -220.204666137695 1.174812793732
-142.303787231445 -67.865234375000 -214.911727905273 2.548242807388
-144.151245117188 -67.223739624023 -223.722305297852 1.366260170937
-3.827239990234 -66.443489074707 -220.192123413086 2.842396736145
-9.746871948242 -69.429450988770 -216.510299682617 1.510068893433
-99.089530944824 -66.142662048340 -221.313491821289 1.933318257332
-5.930984020233 -66.715965270996 -229.894439697266 2.291417121887
-165.593215942383 -64.790885925293 -228.606552124023 1.736874222755
-107.619621276855 -65.017868041992 -231.506454467773 2.419844627380
1.172451972961 -67.418441772461 -226.288406372070 2.172735452652
3.685911893845 -66.436485290527 -229.734970092773 1.124987363815
-111.388877868652 -67.630477905273 -232.865097045898 1.307126641273
-1.081493973732 -67.807136535645 -229.365966796875 1.820641994476
-116.781791687012 -64.808845520020 -234.795883178711 2.186877489090
-7.113078117371 -65.621665954590 -233.738037109375 1.948951244354
-2.143553972244 -66.683570861816 -234.441818237305 1.821107745171
-0.597567021847 -67.620941162109 -236.458267211914 1.079735994339
71.522850036621 -66.418136596680 -235.413284301758 1.850544810295
-11.170087814331 -69.783927917480 -237.243881225586 1.208698868752
6.019561767578 -67.984375000000 -237.588073730469 2.423521757126
11.467825889587 -66.743576049805 -239.481430053711 1.828033208847
6.040666103363 -67.601020812988 -238.477157592773 1.702391982079
1.923413038254 -68.386428833008 -240.338485717773 1.727108597755
65.257316589355 -65.543952941895 -237.039474487305 2.088210582733
69.470046997070 -66.665710449219 -239.074417114258 2.266706466675
9.908143997192 -67.671371459961 -245.327148437500 1.366951465607
55.924633026123 -68.154449462891 -241.190658569336 1.145753383636
56.196163177490 -70.425811767578 -240.129638671875 1.714324593544
47.497352600098 -65.898994445801 -247.516433715820 1.043654084206
41.120075225830 -66.838027954102 -250.358093261719 1.227622389793
41.164726257324 -66.877082824707 -254.222259521484 0.473122775555
-132.526901245117 -64.293960571289 -256.979278564453 1.526216149330
-10.887146949768 -67.203941345215 -251.154281616211 1.168141245842
27.511713027954 -67.188636779785 -257.767639160156 1.560642480850
46.377796173096 -67.425338745117 -248.937332153320 1.696596741676
26.535570144653 -69.136871337891 -254.024154663086 2.784656763077
-101.662979125977 -67.186408996582 -258.409637451172 1.158707022667
32.490589141846 -67.944580078125 -255.776535034180 0.812526643276
-147.965408325195 -67.695037841797 -260.817108154297 1.429077267647
-115.773590087891 -66.720130920410 -257.700378417969 1.585588812828
-107.081199645996 -66.096733093262 -257.736480712891 0.753928661346
-4.258234977722 -68.148094177246 -258.767822265625 3.015172243118
-148.991073608398 -67.256027221680 -258.012634277344 1.005140900612
34.620269775391 -66.866668701172 -260.415863037109 1.574321866035
-110.463523864746 -65.373359680176 -257.543670654297 2.042595386505
26.886119842529 -69.280487060547 -258.937316894531 0.934596955776
-134.689987182617 -66.517417907715 -261.961029052734 1.541255950928
-115.929244995117 -65.221000671387 -262.834686279297 1.460939168930
-108.137031555176 -65.590629577637 -260.771728515625 1.545678734779
-115.270835876465 -68.092826843262 -262.047668457031 1.825101733208
-138.514495849609 -67.014289855957 -260.066589355469 2.515346050262
28.977212905884 -67.692260742188 -260.368591308594 1.657193183899
-117.227920532227 -65.546119689941 -263.689941406250 1.058160424232
-143.653274536133 -67.451019287109 -263.981018066406 1.746313691139
-4.684640884399 -65.751068115234 -270.495941162109 1.782536029816
-150.875213623047 -67.849273681641 -282.374481201172 1.433894276619
-7.487216949463 -67.264610290527 -284.073547363281 2.347606897354
-4.761644840240 -65.126441955566 -283.555511474609 1.387515187263
-133.801193237305 -65.942443847656 -287.077789306641 1.667262554169
-125.890296936035 -66.225418090820 -289.713836669922 1.206180453300
-135.259796142578 -66.302543640137 -293.756622314453 3.497916936874
-125.959030151367 -65.955497741699 -293.377746582031 2.291649580002
-153.672668457031 -66.688583374023 -295.172271728516 1.663660526276
-154.488265991211 -65.798156738281 -300.997741699219 1.873330712318
-146.954559326172 -68.016525268555 -301.123596191406 2.581295251846
-149.552856445313 -65.534545898438 -302.972076416016 1.117044210434
-144.641098022461 -66.000671386719 -300.357879638672 3.256723165512
-148.112121582031 -64.824264526367 -303.607757568359 2.387147426605
-146.052673339844 -64.251007080078 -314.273742675781 3.973815202713
19.147850036621 -72.836982727051 -28.004667282104 1.752582311630
48.179576873779 -72.591194152832 -34.826068878174 2.334859848022
25.728401184082 -74.456420898438 -38.042640686035 3.672941207886
32.412269592285 -71.627258300781 -41.186893463135 1.639498114586
-43.424213409424 -65.340507507324 -47.268192291260 1.032562971115
-77.993041992188 -67.783515930176 -50.774929046631 3.305731058121
80.286918640137 -68.312324523926 -60.778503417969 2.691337108612
74.849288940430 -69.751457214355 -61.958545684814 2.530156612396
70.713691711426 -70.210014343262 -66.465744018555 2.598727941513
-98.574394226074 -67.691238403320 -73.560363769531 3.773837566376
99.574913024902 -71.635017395020 -75.134559631348 2.638766288757
-32.217636108398 -68.494262695313 -80.744293212891 3.010082006454
63.820339202881 -68.319061279297 -76.699150085449 2.868202924728
-44.050613403320 -66.072761535645 -81.777565002441 1.002619147301
-52.936790466309 -66.025840759277 -83.282531738281 2.208619832993
50.152034759521 -70.343833923340 -89.857177734375 1.283312916756
102.079101562500 -69.790023803711 -89.449790954590 1.488480687141
64.560745239258 -66.981498718262 -93.779121398926 1.387300610542
56.996631622314 -67.727676391602 -93.207908630371 1.822328805923
48.967109680176 -67.246070861816 -100.420845031738 1.951574802399
56.715812683105 -66.066650390625 -98.646896362305 0.789413154125
103.301780700684 -67.604942321777 -97.093444824219 1.502652883530
70.149421691895 -68.232109069824 -104.620124816895 1.714001297951
48.898574829102 -68.192481994629 -104.990562438965 1.987882852554
77.002380371094 -72.095077514648 -105.864334106445 2.605306863785
93.513687133789 -66.258811950684 -107.272483825684 0.614422500134
-76.145011901855 -66.566726684570 -103.260597229004 2.012926101685
-87.086952209473 -68.400054931641 -110.352058410645 0.929658591747
-82.500129699707 -68.419723510742 -113.280136108398 1.841299533844
-60.001083374023 -66.217933654785 -118.417259216309 1.502704858780
-57.176559448242 -70.338378906250 -125.684104919434 1.519049525261
-94.644302368164 -67.098030090332 -122.074111938477 1.630571365356
-75.928489685059 -67.869125366211 -119.809257507324 1.971821427345
-76.591293334961 -70.028984069824 -132.001739501953 1.740368723869
-61.167488098145 -66.148048400879 -128.643112182617 0.882135748863
-88.943473815918 -64.375717163086 -130.323104858398 1.515908598900
-89.810707092285 -67.053077697754 -129.705291748047 0.852616608143
-48.011554718018 -70.982841491699 -135.386245727539 0.995404541492
-51.957080841064 -67.320190429688 -136.010772705078 1.330019235611
-77.042228698730 -67.530220031738 -138.622924804688 1.901885032654
-53.514076232910 -68.424041748047 -141.554809570313 1.736970186234
-74.875625610352 -68.710807800293 -143.054107666016 1.405413866043
22.151151657104 -66.161369323730 -137.829162597656 2.542063713074
-57.146972656250 -70.159500122070 -145.125503540039 1.856122255325
-54.512245178223 -65.197914123535 -145.096908569336 2.062455415726
9.395471572876 -69.749938964844 -154.632034301758 2.226879358292
16.350286483765 -66.276763916016 -150.799438476563 1.140943646431
-142.675384521484 -66.300132751465 -175.063552856445 0.962115049362
-110.320198059082 -66.396972656250 -178.553100585938 1.093450784683
-108.457336425781 -64.223320007324 -189.533462524414 2.027527570724
-151.985794067383 -67.329177856445 -192.686553955078 1.984464526176
-112.670532226563 -65.815780639648 -185.648941040039 1.691929936409
-152.213333129883 -63.512294769287 -196.339675903320 2.109145164490
-113.787818908691 -64.920387268066 -198.431167602539 1.593147754669
-149.550628662109 -64.530288696289 -200.278137207031 1.783481836319
-150.765975952148 -66.478996276855 -206.446731567383 0.759595692158
-152.075424194336 -68.565849304199 -209.942001342773 2.902401685715
-146.616210937500 -65.592559814453 -223.860046386719 1.691312789917
-150.554031372070 -68.056968688965 -225.051681518555 2.090976715088
-104.470581054688 -64.995094299316 -224.781066894531 1.443277716637
-102.626419067383 -65.896041870117 -223.646606445313 2.396875619888
-123.043342590332 -62.957218170166 -229.663864135742 2.049206256866
-108.213081359863 -65.185165405273 -226.696395874023 0.682253479958
-155.550643920898 -67.197036743164 -231.045089721680 1.581071138382
-2.262737989426 -66.568916320801 -226.480682373047 2.457075357437
-133.848327636719 -66.378051757813 -231.603271484375 1.068215608597
-152.804824829102 -67.315711975098 -235.353302001953 1.271926760674
-135.304733276367 -67.204246520996 -234.097061157227 1.456027865410
-11.229224205017 -66.593894958496 -236.914306640625 2.458720207214
9.299345970154 -67.324768066406 -241.912231445313 1.183985471725
63.413848876953 -64.761260986328 -240.274490356445 1.937340140343
19.022371292114 -68.771476745605 -247.517761230469 0.994150102139
57.615577697754 -66.688095092773 -243.762329101563 1.738246440887
42.217708587646 -67.724685668945 -248.881195068359 1.280088663101
57.627258300781 -65.941749572754 -250.187728881836 2.365710020065
-151.369323730469 -65.522819519043 -251.589355468750 2.558692216873
-150.279983520508 -68.730819702148 -254.607025146484 2.766804695129
42.795143127441 -65.944694519043 -256.361480712891 0.981441497803
30.957773208618 -66.258415222168 -255.979156494141 2.507328033447
47.819477081299 -65.835708618164 -251.342819213867 1.375610947609
-143.934692382813 -68.006248474121 -257.920227050781 1.493991494179
-134.976379394531 -64.218544006348 -256.117706298828 1.585192918777
-124.863815307617 -63.895496368408 -257.347381591797 2.061732292175
-133.886840820313 -66.169395446777 -256.474792480469 1.639430284500
-140.804550170898 -65.896362304688 -258.171936035156 2.773345232010
-123.479515075684 -65.096771240234 -259.443267822266 2.035503864288
-141.934020996094 -64.385467529297 -260.736633300781 1.115318298340
-125.051856994629 -66.547744750977 -260.656768798828 1.233412504196
-123.212554931641 -65.161895751953 -264.207427978516 1.739999651909
-126.001991271973 -66.221267700195 -264.756958007813 0.570355653763
-118.708610534668 -63.457397460938 -264.164733886719 2.559002399445
-4.714724063873 -66.814353942871 -265.263092041016 0.672253429890
27.688901901245 -65.537239074707 -261.963836669922 1.809724092484
-145.960830688477 -63.625091552734 -266.950866699219 1.851359128952
26.779888153076 -66.207466125488 -267.249542236328 1.573324561119
-3.515727996826 -63.709194183350 -272.729888916016 4.091455459595
17.413692474365 -70.908882141113 -283.317108154297 1.140233993530
-141.299118041992 -65.721900939941 -289.332214355469 1.266776919365
-125.285324096680 -65.513229370117 -287.699340820313 0.615648329258
-132.493652343750 -62.725093841553 -290.379821777344 3.171199083328
-157.101516723633 -61.952850341797 -291.771514892578 3.229060411453
-124.968711853027 -62.153720855713 -289.468688964844 3.445436000824
-117.489837646484 -63.480506896973 -289.607269287109 3.116266727448
-125.570594787598 -66.079627990723 -294.766876220703 3.106076955795
-149.309417724609 -67.056312561035 -295.089477539063 2.367419242859
27.088369369507 -72.957511901855 -12.532825469971 1.786797046661
32.218235015869 -73.370681762695 -16.609580993652 0.863840699196
37.748008728027 -71.444602966309 -18.479711532593 1.763852000237
47.932632446289 -64.685974121094 -23.038394927979 2.122810125351
26.021057128906 -73.865142822266 -27.332437515259 2.003398656845
20.785959243774 -72.728431701660 -34.540279388428 1.344609975815
-35.157199859619 -67.779907226563 -46.566429138184 2.978816747665
-83.620292663574 -68.421989440918 -52.791931152344 0.835064232349
-16.366098403931 -67.771591186523 -57.720771789551 1.655564665794
71.537582397461 -67.315040588379 -64.056625366211 2.111422061920
100.075469970703 -68.070014953613 -67.590126037598 2.492390632629
64.507522583008 -67.721565246582 -81.598693847656 2.171199321747
61.205795288086 -64.644737243652 -81.624336242676 1.596425771713
101.427261352539 -67.881019592285 -83.262306213379 1.565000653267
-64.088851928711 -65.137855529785 -90.083038330078 1.590911865234
-65.236366271973 -66.753425598145 -92.067428588867 1.783740878105
48.497711181641 -66.663093566895 -93.505149841309 0.462150931358
-67.040161132813 -67.268005371094 -95.863548278809 2.849230051041
-70.840827941895 -66.755310058594 -100.091552734375 1.013243913651
-97.915863037109 -64.970214843750 -98.403984069824 2.045031547546
-75.727516174316 -64.712623596191 -100.505844116211 1.050127863884
46.601428985596 -65.747695922852 -100.530670166016 1.884169340134
-68.922164916992 -68.197753906250 -103.284179687500 3.319061517715
50.234252929688 -66.097602844238 -101.536209106445 1.786274909973
96.386955261230 -68.154472351074 -103.546463012695 1.500835776329
91.312248229980 -67.396499633789 -108.762924194336 2.903683662415
-73.859413146973 -66.429954528809 -113.648124694824 1.471000909805
-83.381431579590 -66.841018676758 -112.652839660645 1.582567095757
-62.018806457520 -66.630836486816 -119.155326843262 1.587720036507
-96.660308837891 -64.219718933105 -119.588462829590 2.073058843613
-77.119873046875 -67.562370300293 -127.226127624512 1.450890421867
-93.219917297363 -61.780178070068 -124.477981567383 1.984687447548
-63.005203247070 -64.747924804688 -118.447456359863 1.903616189957
-60.365177154541 -62.074375152588 -119.529098510742 1.359464049339
-88.007759094238 -65.899482727051 -129.007537841797 1.503083586693
-63.135707855225 -69.415664672852 -127.875686645508 2.964985370636
-84.411087036133 -65.369987487793 -131.864562988281 1.009943485260
-77.224700927734 -67.115058898926 -133.215911865234 0.765137672424
-62.844909667969 -68.414619445801 -133.034927368164 1.600514769554
-61.297782897949 -63.038604736328 -134.826141357422 1.823331713676
-54.493354797363 -63.458473205566 -136.347106933594 2.763082981110
-94.693161010742 -64.480186462402 -133.150131225586 2.944626092911
-96.788925170898 -64.906219482422 -143.795898437500 1.635573387146
-87.120590209961 -66.557067871094 -134.193984985352 2.146274328232
21.397418975830 -68.512153625488 -146.617065429688 1.975466966629
-49.774345397949 -66.823036193848 -142.536437988281 1.730145812035
16.911712646484 -66.004402160645 -148.849761962891 2.201018571854
-98.200469970703 -66.132926940918 -163.963470458984 2.780190229416
-102.572708129883 -68.315422058105 -171.894485473633 0.626851916313
-102.319816589355 -63.336925506592 -171.460510253906 1.413713812828
-107.372756958008 -62.928939819336 -169.723953247070 1.817384004593
-106.427490234375 -66.228668212891 -180.237533569336 1.864551663399
-110.423828125000 -65.224182128906 -178.079193115234 1.082642436028
-141.665451049805 -64.586997985840 -187.721817016602 2.335484027863
-111.922058105469 -64.328453063965 -187.072967529297 1.846751928329
-133.141128540039 -62.729564666748 -198.651290893555 1.822016358376
-148.086303710938 -66.414894104004 -198.751846313477 0.863496601582
-124.758453369141 -65.359680175781 -198.036849975586 2.044239282608
-155.652465820313 -66.338478088379 -197.634841918945 2.515494585037
-146.927597045898 -67.228507995605 -202.176544189453 2.772318124771
-123.922569274902 -62.046207427979 -200.081420898438 0.827281057835
-134.076248168945 -64.914138793945 -202.740737915039 1.579363226891
-142.348907470703 -68.241142272949 -206.736923217773 1.950761079788
-132.402450561523 -67.201530456543 -224.274414062500 1.526734352112
-111.136657714844 -65.847869873047 -229.128356933594 2.576436281204
-144.714248657227 -65.886375427246 -229.329391479492 2.790083885193
-117.327789306641 -63.639083862305 -230.616226196289 2.142587661743
-114.592529296875 -62.506866455078 -231.273040771484 1.745895981789
-123.028717041016 -65.295127868652 -233.919067382813 1.645132064819
-128.612960815430 -65.284446716309 -235.034072875977 1.643118262291
-115.574211120605 -62.969512939453 -235.538375854492 3.201615095139
4.346917152405 -65.167320251465 -234.794570922852 1.791163325310
-151.126831054688 -66.139060974121 -237.407501220703 3.005211591721
7.327335834503 -67.227302551270 -233.538940429688 1.676835536957
6.970117092133 -63.535938262939 -240.168289184570 1.012824416161
2.121036052704 -66.923713684082 -240.035522460938 0.980292141438
15.161889076233 -62.868328094482 -239.932006835938 1.126433014870
-144.650482177734 -64.347297668457 -235.918838500977 1.888429403305
-3.897270917892 -65.847640991211 -245.840423583984 1.865561008453
20.048589706421 -65.305046081543 -241.765884399414 1.886522173882
49.151203155518 -64.656158447266 -248.332443237305 2.028704166412
51.290000915527 -64.625778198242 -248.631881713867 1.024670481682
-146.253662109375 -66.036552429199 -252.937728881836 1.739754319191
-5.655240058899 -65.783805847168 -251.421569824219 1.115677833557
24.522594451904 -66.025329589844 -256.079956054688 1.534789323807
-132.540893554688 -61.235301971436 -259.138580322266 3.303223609924
-124.763046264648 -63.152866363525 -260.081298828125 1.739697694778
-124.921234130859 -64.505180358887 -258.400207519531 1.412942290306
26.658330917358 -65.563758850098 -258.873077392578 1.417786002159
-133.787048339844 -63.719135284424 -265.357910156250 3.251497268677
29.579853057861 -64.212593078613 -260.728546142578 2.085494041443
32.089027404785 -66.030067443848 -263.026733398438 1.642804265022
-151.875076293945 -66.412322998047 -266.977142333984 0.557371497154
-146.716781616211 -68.945411682129 -287.973144531250 1.076637864113
-149.719390869141 -62.526031494141 -288.978607177734 2.076879501343
-143.294937133789 -62.032520294189 -293.810699462891 3.402188301086
11.100660324097 -67.916282653809 -291.783233642578 1.672211885452
-153.918441772461 -62.392055511475 -298.195251464844 4.768338203430
44.471321105957 -72.922752380371 -25.651729583740 2.193558692932
34.446422576904 -73.615669250488 -40.039619445801 2.746976375580
-63.360816955566 -65.768402099609 -45.626548767090 2.106915235519
-73.379631042480 -65.151840209961 -46.206260681152 1.727798223495
-27.974733352661 -65.923110961914 -50.202426910400 1.328954100609
-22.314016342163 -69.467681884766 -54.255516052246 1.883887171745
-13.171930313110 -63.959568023682 -66.299438476563 0.533635914326
-26.081546783447 -64.510437011719 -69.363769531250 0.941326260567
64.540931701660 -66.988548278809 -72.674453735352 2.370798349380
-98.019104003906 -62.548553466797 -78.542701721191 2.629902839661
-47.382518768311 -66.573936462402 -85.211334228516 1.841055274010
54.110980987549 -67.933738708496 -85.369216918945 1.313194155693
56.811332702637 -66.926673889160 -86.535522460938 1.649480104446
62.838130950928 -67.547454833984 -88.514419555664 1.329399704933
105.050460815430 -66.714546203613 -90.146736145020 1.638990163803
51.576065063477 -64.363899230957 -91.471221923828 1.009007096291
98.904380798340 -65.079681396484 -99.805015563965 2.305930137634
-81.511802673340 -67.470573425293 -102.909812927246 1.435057163239
-96.047676086426 -66.414970397949 -102.650909423828 1.934920549393
75.378280639648 -64.420768737793 -110.276931762695 2.352258682251
-77.285682678223 -64.790992736816 -103.762481689453 2.856481790543
-78.200881958008 -68.895484924316 -116.275543212891 1.689780354500
-84.166183471680 -68.214500427246 -118.887191772461 1.671211123466
-55.728412628174 -66.844116210938 -126.863029479980 1.147793054581
-78.506851196289 -66.553871154785 -128.637252807617 0.887154817581
-62.335987091064 -64.210113525391 -130.535354614258 1.191659450531
-82.733757019043 -66.901100158691 -134.686782836914 1.913610458374
-75.934501647949 -64.681800842285 -133.254226684570 0.329145789146
-80.364212036133 -62.208988189697 -125.678207397461 1.423257827759
-88.293785095215 -63.955318450928 -131.033721923828 1.489111781120
-64.889137268066 -63.588199615479 -133.828796386719 2.556723833084
-90.871818542480 -64.717819213867 -133.853607177734 2.361362218857
-50.076930999756 -66.996131896973 -134.106781005859 1.451229691505
-56.348793029785 -68.401878356934 -139.272567749023 2.596235752106
27.412317276001 -66.219314575195 -137.920150756836 1.039403319359
-57.655612945557 -61.533962249756 -137.576034545898 0.943369686604
14.882697105408 -68.626022338867 -144.663803100586 2.002206563950
17.614589691162 -65.781745910645 -148.312896728516 1.747385859489
17.780994415283 -63.463237762451 -152.617858886719 0.853417158127
-97.644912719727 -64.076606750488 -145.422164916992 2.839960336685
-92.378425598145 -65.590339660645 -151.206802368164 1.570960640907
-96.084976196289 -62.235900878906 -152.185943603516 0.909433245659
-104.080795288086 -65.139030456543 -160.209259033203 0.717427492142
-97.155944824219 -64.354019165039 -159.074279785156 1.806013584137
-151.658401489258 -66.468498229980 -176.022003173828 2.648399353027
-153.622756958008 -64.934059143066 -176.878952026367 1.881316304207
-108.670738220215 -63.341625213623 -181.937362670898 2.050490379333
-142.330596923828 -62.538658142090 -178.625381469727 0.850816130638
-110.056747436523 -62.420921325684 -181.171142578125 0.830272674561
-150.598327636719 -60.639999389648 -187.754287719727 2.410069942474
-111.485176086426 -62.457202911377 -193.625381469727 2.766818523407
-109.887207031250 -64.245971679688 -185.864654541016 1.948187828064
-142.777450561523 -64.285202026367 -198.684844970703 1.642159938812
-131.537307739258 -65.302474975586 -197.313156127930 1.546890258789
-107.944755554199 -64.612083435059 -198.199935913086 1.247883915901
-115.709106445313 -61.269756317139 -199.774703979492 2.316627740860
-112.381607055664 -64.347793579102 -200.913497924805 0.856899261475
-115.451965332031 -61.927925109863 -203.163696289063 2.601898670197
-134.043167114258 -62.420021057129 -198.751037597656 2.268066644669
-136.443923950195 -63.914360046387 -203.063827514648 2.764808416367
-131.490356445313 -63.283622741699 -206.433380126953 1.649403810501
-126.454826354980 -60.729160308838 -202.494354248047 2.355600357056
-125.464927673340 -63.794330596924 -205.506500244141 1.093361854553
-114.803970336914 -63.266548156738 -204.902282714844 2.681112289429
-147.013900756836 -63.720432281494 -215.481353759766 2.187439680099
-151.165588378906 -64.182685852051 -221.966354370117 2.430450677872
-152.621444702148 -62.162307739258 -223.926605224609 1.204475998878
-140.838394165039 -67.758117675781 -226.204910278320 2.086526870728
-132.006729125977 -61.531185150146 -227.452819824219 2.896426677704
-123.128219604492 -65.526931762695 -222.785415649414 2.825450897217
-140.788803100586 -65.112205505371 -229.103286743164 0.913089215755
-150.424102783203 -65.954406738281 -228.014984130859 2.024351596832
-134.164535522461 -64.701858520508 -227.317687988281 0.929021120071
-133.195968627930 -61.735996246338 -229.311782836914 1.794599294662
-147.701309204102 -65.116447448730 -230.746734619141 1.281263232231
-133.956451416016 -60.555274963379 -231.432861328125 3.211470842361
-126.500411987305 -62.340850830078 -230.382766723633 2.174523353577
-8.999890327454 -67.037841796875 -236.819351196289 1.025101184845
4.994645118713 -63.760944366455 -239.710418701172 1.345155715942
13.687343597412 -62.002605438232 -242.396423339844 2.016599416733
9.924427032471 -66.628295898438 -243.631927490234 2.204339027405
-8.618291854858 -66.102340698242 -241.434555053711 1.425197243690
-11.311896324158 -64.791961669922 -246.898345947266 1.738680005074
39.867229461670 -63.588287353516 -250.690017700195 1.911301016808
48.861549377441 -64.822250366211 -251.900909423828 1.823948025703
-144.842086791992 -61.907562255859 -255.002914428711 1.592436790466
42.076240539551 -63.630008697510 -254.956726074219 1.121401190758
37.770320892334 -65.186866760254 -253.021286010742 1.176059842110
-157.236877441406 -65.212303161621 -258.865020751953 2.084152698517
-150.751266479492 -62.327083587646 -258.655395507813 1.343616962433
-149.309295654297 -66.752243041992 -260.562835693359 1.853865623474
2.781223058701 -64.852355957031 -263.724304199219 1.442721009254
-150.678710937500 -63.345764160156 -266.969940185547 1.106352686882
0.238071992993 -64.489158630371 -274.386962890625 2.061910867691
-146.346389770508 -64.695030212402 -275.164062500000 2.058924436569
-147.344284057617 -62.950099945068 -282.702331542969 1.859158396721
-150.792251586914 -62.927562713623 -284.691772460938 1.762496948242
-149.375885009766 -59.435165405273 -284.604431152344 3.375910758972
-144.411666870117 -62.050659179688 -288.176055908203 2.783425569534
-155.152084350586 -62.252681732178 -286.313079833984 1.912286639214
-150.683349609375 -62.373477935791 -286.830291748047 1.381699085236
-150.421554565430 -61.694541931152 -287.884979248047 2.052684307098
-146.747039794922 -62.400909423828 -287.448425292969 1.612851738930
-143.408111572266 -62.227085113525 -288.084991455078 2.037768125534
12.597221374512 -65.141021728516 -286.499664306641 1.712594985962
-146.738082885742 -62.660137176514 -292.514465332031 1.130407810211
-155.943023681641 -60.669868469238 -291.484161376953 3.567551374435
-153.713867187500 -59.968841552734 -289.693206787109 2.966007232666
-150.738723754883 -61.385578155518 -294.223999023438 1.866961359978
-149.047225952148 -59.207828521729 -290.816223144531 4.039920330048
-146.034500122070 -63.391349792480 -292.434112548828 0.436255961657
3.015734910965 -65.083190917969 -292.397186279297 2.006633996964
-143.949935913086 -61.738750457764 -294.775268554688 3.039251327515
-147.232391357422 -60.570362091064 -294.460510253906 2.435957908630
28.071208953857 -61.758777618408 -17.496019363403 3.117176294327
41.058670043945 -71.412193298340 -19.671754837036 2.389159679413
41.931915283203 -64.714477539063 -21.416910171509 0.842635512352
18.220375061035 -72.345481872559 -31.139165878296 2.180418014526
27.258970260620 -60.550621032715 -34.811347961426 1.708018541336
37.538970947266 -70.319717407227 -35.353969573975 1.080145478249
-57.880081176758 -64.088356018066 -43.899845123291 1.379921913147
-51.695304870605 -65.538619995117 -42.953926086426 3.367506027222
88.850921630859 -67.134262084961 -62.531066894531 1.553920745850
-96.618339538574 -63.675453186035 -65.659469604492 1.670464515686
95.081268310547 -72.304611206055 -63.374500274658 5.371846199036
67.118667602539 -66.812080383301 -68.355720520020 2.329741954803
101.015617370605 -68.379753112793 -76.443511962891 1.963745594025
63.624408721924 -68.791572570801 -75.480842590332 3.670754909515
-42.236488342285 -66.686286926270 -77.905502319336 1.136640191078
59.845966339111 -63.129123687744 -81.171691894531 2.581053972244
-55.996578216553 -62.739913940430 -79.470390319824 1.732770442963
60.425861358643 -65.393028259277 -84.194839477539 1.648892164230
61.366687774658 -64.613410949707 -84.063171386719 1.434529900551
-98.735054016113 -65.219398498535 -83.367301940918 2.230169773102
51.101047515869 -65.239952087402 -87.130119323730 2.881823062897
51.617237091064 -68.820083618164 -92.458648681641 1.314547538757
63.971561431885 -67.418708801270 -91.799453735352 0.827033579350
52.018604278564 -64.505554199219 -95.623565673828 1.773256778717
-81.736503601074 -63.508960723877 -106.653755187988 1.947649717331
82.718116760254 -69.010162353516 -105.055000305176 1.493561744690
-79.844612121582 -66.297279357910 -116.082412719727 2.436589002609
-76.867614746094 -63.167209625244 -107.730308532715 2.083476781845
-80.074615478516 -65.604148864746 -121.837677001953 2.207182168961
-86.825401306152 -64.306648254395 -114.156227111816 1.021216392517
-93.052688598633 -64.291625976563 -119.989685058594 2.410286903381
-80.135040283203 -65.254074096680 -124.208900451660 1.346015095711
-54.178924560547 -62.380409240723 -126.489166259766 1.467410445213
-78.231452941895 -63.316028594971 -134.231338500977 1.136971712112
-56.923164367676 -60.700412750244 -131.587417602539 2.370441198349
-88.218254089355 -62.779659271240 -136.767669677734 2.085494279861
29.208578109741 -64.466918945313 -137.352401733398 1.052224516869
19.506713867188 -65.444847106934 -140.162475585938 1.150819897652
-92.542892456055 -59.166034698486 -141.035934448242 3.414088964462
19.854507446289 -65.734458923340 -148.066528320313 0.601183831692
-90.548637390137 -65.459663391113 -145.960311889648 0.912204682827
-94.051284790039 -61.122875213623 -147.623123168945 2.137537479401
19.130319595337 -64.962371826172 -155.665863037109 3.158029556274
-96.066291809082 -62.981037139893 -146.211715698242 2.184927701950
-97.723411560059 -62.054096221924 -148.364807128906 1.484182834625
-102.830612182617 -62.761211395264 -157.583328247070 2.076035499573
-97.101524353027 -62.931396484375 -160.581100463867 1.508339285851
-104.599967956543 -64.098617553711 -176.843276977539 1.767776012421
-107.971870422363 -66.445259094238 -168.727539062500 2.365815639496
-100.714836120605 -63.230613708496 -165.332122802734 4.320406436920
-105.956115722656 -63.331878662109 -170.583999633789 1.173134088516
-140.963592529297 -64.552192687988 -178.010360717773 2.287930011749
-109.057128906250 -62.817272186279 -178.628997802734 0.914314627647
-142.057632446289 -62.851066589355 -188.030090332031 1.636024475098
-148.586929321289 -61.471443176270 -189.961532592773 3.378840446472
-151.639022827148 -61.364589691162 -191.676971435547 3.139060735703
-123.332389831543 -61.757030487061 -196.690979003906 1.010682225227
-130.786193847656 -63.831459045410 -197.272033691406 0.553807675838
-122.375503540039 -62.320423126221 -200.238082885742 1.530652284622
-142.188034057617 -64.856803894043 -202.640274047852 0.441436499357
-123.629684448242 -64.667900085449 -204.319412231445 1.345845937729
-145.781417846680 -64.146926879883 -205.552856445313 1.151307940483
-150.613372802734 -63.176807403564 -206.467559814453 1.437009215355
-154.752746582031 -61.255126953125 -228.748306274414 0.784988164902
-141.922073364258 -66.077850341797 -232.043731689453 0.797279655933
-126.622245788574 -61.700565338135 -232.756256103516 3.589862346649
-153.924926757813 -60.689182281494 -231.767288208008 0.899944603443
-2.611809015274 -67.293556213379 -237.970657348633 1.279762387276
13.186676979065 -61.855674743652 -239.126510620117 3.275220394135
-2.753273010254 -65.894912719727 -242.892974853516 1.899240732193
-148.153488159180 -61.594112396240 -245.449493408203 0.928516507149
-6.786087989807 -62.166347503662 -244.285705566406 1.866541028023
-149.034011840820 -64.201332092285 -253.848236083984 1.931206703186
-5.785357952118 -64.754913330078 -248.775848388672 2.643872499466
-149.627822875977 -62.925460815430 -253.978454589844 1.139973998070
23.241920471191 -66.197158813477 -252.606521606445 1.359353184700
-152.173660278320 -59.685543060303 -255.833328247070 2.534028768539
-148.279586791992 -61.798202514648 -255.661437988281 0.705319643021
-152.770874023438 -61.750576019287 -254.940704345703 1.305406928062
-149.030197143555 -60.740188598633 -257.901489257813 1.989974975586
35.221172332764 -63.555259704590 -256.840057373047 1.098406076431
30.718269348145 -62.855731964111 -262.196777343750 2.674958705902
-145.936294555664 -61.680473327637 -257.593261718750 1.386289477348
-150.553680419922 -59.477066040039 -261.308349609375 1.878826618195
-154.029739379883 -63.140628814697 -260.684783935547 2.179996967316
-147.115997314453 -60.185508728027 -261.085968017578 2.283679008484
27.297222137451 -62.504909515381 -262.017425537109 1.350849390030
29.404705047607 -63.402465820313 -264.549072265625 2.104281663895
-151.954650878906 -62.468410491943 -263.803253173828 1.235535264015
-142.738662719727 -61.560661315918 -263.574493408203 2.082715034485
-150.025009155273 -59.785758972168 -264.275726318359 2.659232139587
-144.130645751953 -61.282772064209 -264.121978759766 2.668580055237
-145.283294677734 -63.461593627930 -265.061950683594 1.145262479782
-148.192214965820 -63.726116180420 -266.356536865234 1.200999021530
-148.057098388672 -60.170524597168 -266.248474121094 1.811004519463
-149.383331298828 -59.576156616211 -285.379699707031 3.225894927979
-148.647537231445 -61.380870819092 -283.033294677734 2.002817869186
-147.775344848633 -61.561000823975 -280.904754638672 1.878910064697
18.304748535156 -64.003150939941 -282.310516357422 1.324186801910
-153.453536987305 -60.145534515381 -285.246093750000 2.184654235840
-146.388458251953 -60.798267364502 -287.132171630859 2.360085964203
-3.668438911438 -66.498512268066 -287.765411376953 0.846407353878
5.749607086182 -63.336318969727 -292.411315917969 2.282692909241
-150.622970581055 -62.546928405762 -295.933227539063 1.229731440544
26.120458602905 -72.990646362305 -21.590793609619 1.576686382294
44.017509460449 -66.565086364746 -28.186132431030 2.865455627441
48.692390441895 -72.264434814453 -32.126609802246 2.286952257156
41.063472747803 -63.596179962158 -33.258346557617 0.935886979103
24.305631637573 -73.076019287109 -36.957508087158 2.007014513016
43.820766448975 -71.690025329590 -39.102642059326 1.065700411797
80.027534484863 -64.572227478027 -60.616245269775 1.437054157257
75.977867126465 -66.333137512207 -60.973388671875 1.899118542671
-15.227840423584 -66.251358032227 -67.881256103516 2.286405801773
65.963371276855 -63.192756652832 -70.206298828125 1.065541386604
-28.740234375000 -68.189903259277 -74.413200378418 0.867167353630
-33.708156585693 -68.455772399902 -78.888427734375 2.094007730484
-56.684116363525 -62.984378814697 -77.260963439941 3.211818218231
-54.038501739502 -62.499584197998 -79.491607666016 1.550065994263
64.100769042969 -68.779144287109 -82.043731689453 2.132841110229
105.156875610352 -70.057495117188 -87.830932617188 2.790189266205
-61.522945404053 -62.935794830322 -86.850227355957 0.429989486933
55.769542694092 -65.799293518066 -94.921516418457 2.295343637466
62.271083831787 -63.432731628418 -92.152023315430 1.232496500015
103.005386352539 -66.371734619141 -94.238121032715 2.104429960251
-66.559463500977 -65.420288085938 -94.304115295410 2.378111124039
54.970756530762 -62.524074554443 -95.319160461426 1.063167214394
-68.032249450684 -66.781745910645 -105.461280822754 3.155412912369
67.534385681152 -67.133239746094 -96.711097717285 1.070692777634
67.777816772461 -64.787460327148 -102.225044250488 1.610899925232
-74.279563903809 -63.159465789795 -108.321769714355 1.042119860649
-98.120735168457 -61.351589202881 -111.678077697754 2.233889341354
-70.103530883789 -59.824413299561 -109.986480712891 2.506222963333
-83.918083190918 -64.441436767578 -111.844459533691 1.994426488876
-64.193855285645 -64.887039184570 -114.433319091797 2.155360221863
-84.590530395508 -61.745918273926 -110.546669006348 2.208669424057
-78.121185302734 -64.120193481445 -116.089859008789 0.504867017269
-76.835632324219 -64.935974121094 -117.244018554688 1.655700325966
-67.638587951660 -65.808692932129 -120.345573425293 2.235919237137
-84.364402770996 -65.462585449219 -125.807609558105 2.040884971619
34.383140563965 -63.913234710693 -126.903297424316 1.379589438438
-51.202507019043 -63.917491912842 -128.772811889648 1.927264809608
30.378005981445 -63.998508453369 -132.508850097656 1.595752477646
30.504741668701 -65.058685302734 -132.417999267578 1.568262457848
31.127264022827 -64.849075317383 -132.663040161133 0.952114045620
-53.099842071533 -62.555412292480 -134.192642211914 1.384116292000
20.238950729370 -63.829959869385 -145.400360107422 0.555945277214
23.859165191650 -64.626991271973 -143.453811645508 1.604635715485
-145.430587768555 -62.231624603271 -177.674972534180 1.517118811607
-149.940002441406 -59.691593170166 -176.048751831055 1.714093685150
-152.029373168945 -62.228031158447 -181.090057373047 2.086511611938
-147.937515258789 -60.568687438965 -186.634963989258 2.534419775009
-147.478256225586 -62.173328399658 -190.689559936523 2.850643396378
-148.174194335938 -63.818588256836 -193.488983154297 1.369208693504
-142.226623535156 -64.308616638184 -193.775222778320 1.990700721741
-144.690444946289 -59.331653594971 -199.756317138672 2.120988130569
-122.851440429688 -63.021293640137 -200.472213745117 0.665040969849
-133.185546875000 -62.550220489502 -203.264404296875 2.005197763443
-146.832199096680 -62.588680267334 -212.571029663086 1.230116009712
-147.320068359375 -58.471420288086 -224.009063720703 2.799801349640
-151.617355346680 -60.553413391113 -226.642074584961 1.317300200462
-146.065139770508 -60.982120513916 -228.742584228516 2.363983154297
-152.637695312500 -60.657466888428 -228.110778808594 2.174440383911
-149.849624633789 -59.311691284180 -230.078643798828 2.450721263885
-148.539215087891 -61.624248504639 -230.201385498047 1.074600338936
-145.893539428711 -61.266258239746 -232.406646728516 0.696986377239
-142.136611938477 -60.519504547119 -236.075592041016 2.828322410583
-146.867019653320 -62.244342803955 -231.954132080078 1.106281757355
-153.795989990234 -60.742366790771 -234.622879028320 1.515157222748
9.437277793884 -63.161182403564 -239.602951049805 1.758827567101
-9.239121437073 -66.920028686523 -240.777877807617 1.385005235672
-145.629135131836 -60.283725738525 -239.444595336914 3.345535278320
-151.059783935547 -61.673347473145 -237.136734008789 1.072027325630
-151.130508422852 -61.677795410156 -238.422607421875 2.289716482162
9.419962882996 -63.731513977051 -243.739746093750 1.067414999008
-149.742736816406 -60.726158142090 -239.983825683594 2.741891384125
-148.050262451172 -62.545379638672 -254.234573364258 1.251112103462
-2.368885040283 -62.649860382080 -249.881469726563 2.386453390121
-148.299774169922 -60.490966796875 -252.595764160156 1.584092497826
-145.921798706055 -60.261779785156 -254.228240966797 2.163336277008
-142.997238159180 -61.333663940430 -256.813171386719 1.830822467804
-142.421798706055 -60.927600860596 -256.938690185547 2.367197990417
27.878101348877 -64.108947753906 -260.891662597656 0.871897816658
-149.016830444336 -62.774662017822 -265.571289062500 1.006381988525
27.168943405151 -64.679718017578 -270.202728271484 3.329301834106
15.747372627258 -63.576168060303 -287.218750000000 2.646526813507
1.912971019745 -61.894378662109 -288.968902587891 0.446971088648
8.971064567566 -60.033020019531 -292.522949218750 1.191903114319
30.981180191040 -64.229644775391 -18.724218368530 3.414847135544
43.740058898926 -73.322937011719 -37.066093444824 2.365467786789
34.376731872559 -73.110313415527 -38.688636779785 1.448207378387
-43.998203277588 -63.175254821777 -46.633949279785 2.260696887970
-90.528831481934 -63.269973754883 -54.063289642334 1.345331549644
-94.738235473633 -63.000198364258 -59.626907348633 2.302063703537
-21.855117797852 -63.155529022217 -66.313880920410 2.073016405106
101.097297668457 -66.378227233887 -68.711021423340 0.853274226189
105.086097717285 -62.739418029785 -75.068588256836 0.905306637287
104.248336791992 -67.248725891113 -77.126914978027 2.013827800751
-50.972434997559 -65.122070312500 -83.184318542480 1.844931483269
-62.559398651123 -61.991390228271 -84.602294921875 0.659323453903
58.176441192627 -62.667072296143 -87.957794189453 1.754237532616
53.815219879150 -65.231811523438 -89.270233154297 1.451606988907
-63.260551452637 -65.627876281738 -96.748069763184 1.947921395302
-97.792366027832 -59.986957550049 -106.593666076660 2.083492279053
78.621910095215 -65.354301452637 -107.748802185059 1.530975580215
