-149.227508544922 -74.984077453613 -264.486511230469 2.410851001740
14.593304634094 -77.834312438965 -278.230163574219 1.309418082237
-167.602203369141 -74.523178100586 -266.636871337891 3.000603199005
-153.906250000000 -75.048553466797 -272.311157226563 3.485429048538
-7.907050132751 -81.140975952148 -273.082397460938 1.189263939857
-160.358261108398 -73.440322875977 -269.807006835938 2.864111900330
10.530253410339 -78.951377868652 -280.973907470703 1.216382861137
-153.810882568359 -74.719757080078 -280.943969726563 2.424468517303
-165.455123901367 -75.409629821777 -285.966125488281 1.799548864365
-156.359573364258 -75.841239929199 -280.522094726563 4.273778438568
-167.327438354492 -74.082176208496 -285.659179687500 1.533056855202
0.003953000065 -77.022842407227 -287.519256591797 1.909884214401
5.525421142578 -78.762031555176 -283.816894531250 0.099075585604
-101.919082641602 -74.179260253906 -288.899047851563 1.878888487816
-154.461212158203 -77.264427185059 -286.460449218750 0.442151188850
-150.320892333984 -73.794960021973 -285.334136962891 1.450988292694
-110.061302185059 -74.339500427246 -289.047149658203 1.262872695923
-153.503707885742 -76.091278076172 -289.970886230469 2.253008842468
-150.469314575195 -76.496246337891 -288.639526367188 2.017476558685
-72.272575378418 -76.541152954102 -291.330566406250 4.285803318024
-166.367507934570 -76.017066955566 -288.583221435547 3.349484920502
-125.400161743164 -73.281082153320 -290.420532226563 1.809061765671
-45.275527954102 -77.549949645996 -288.755798339844 2.449287891388
-156.543289184570 -74.797561645508 -287.828552246094 1.400656223297
-136.165313720703 -71.914360046387 -292.322204589844 0.679957151413
-19.666898727417 -73.946205139160 -292.961456298828 2.109040498734
-129.289154052734 -73.657867431641 -292.667419433594 2.168188810349
3.621227025986 -76.117546081543 -293.793182373047 1.510678529739
13.548865318298 -74.241485595703 -292.605285644531 1.593744397163
-135.680801391602 -73.751266479492 -291.313781738281 1.030573010445
-147.770202636719 -75.777244567871 -295.145050048828 0.838262557983
-158.219711303711 -75.972885131836 -311.740753173828 3.941227674484
-72.124763488770 -68.630699157715 -51.658874511719 1.946361422539
-22.446388244629 -68.725624084473 -62.426361083984 5.226268768311
-20.655469894409 -73.312278747559 -64.915534973145 1.542098045349
73.467849731445 -71.231163024902 -76.516296386719 3.678344249725
91.412574768066 -72.745414733887 -76.247741699219 2.481034994125
-37.523094177246 -71.772819519043 -78.117156982422 2.146294355392
74.723800659180 -72.485404968262 -79.135559082031 2.493321895599
88.999481201172 -75.534095764160 -82.327682495117 2.021415472031
68.893791198730 -72.428146362305 -83.444831848145 1.621312379837
72.178985595703 -72.519584655762 -88.027572631836 2.194865226746
-49.717735290527 -74.185691833496 -86.721374511719 2.265467643738
-91.984092712402 -73.843955993652 -87.038665771484 1.950413107872
58.133529663086 -73.864036560059 -94.093864440918 1.631175637245
49.687271118164 -73.592155456543 -98.579139709473 1.447063207626
94.103790283203 -71.717369079590 -98.425132751465 2.717642784119
-93.331809997559 -69.805061340332 -101.223251342773 4.623313903809
82.800811767578 -71.419754028320 -99.019798278809 1.894595265388
73.671112060547 -73.030868530273 -99.674446105957 1.248340606689
91.696723937988 -73.804016113281 -99.016242980957 0.852487146854
82.643226623535 -72.194183349609 -99.479568481445 1.439437270164
84.226737976074 -75.142593383789 -98.755409240723 1.695275187492
-83.734085083008 -73.989929199219 -101.733085632324 3.391753673553
41.162162780762 -72.645721435547 -108.230247497559 1.485810995102
105.489234924316 -73.576293945313 -111.456726074219 2.124429464340
108.513076782227 -73.321311950684 -111.565711975098 1.682574987411
46.690773010254 -74.494598388672 -118.060241699219 1.960967540741
109.491409301758 -74.400413513184 -122.770149230957 3.059229850769
115.650794982910 -75.115844726563 -135.613479614258 1.674784660339
-52.428138732910 -71.678604125977 -132.202072143555 0.922246217728
26.584281921387 -72.786003112793 -134.483917236328 2.168707132339
39.798191070557 -74.604675292969 -133.745071411133 2.074037075043
24.853385925293 -71.058860778809 -143.455429077148 2.105527162552
112.532745361328 -74.796707153320 -140.075241088867 1.724415898323
111.474464416504 -73.487632751465 -133.648818969727 0.942091464996
-74.263084411621 -73.173133850098 -147.810592651367 1.655298590660
-44.788787841797 -72.805900573730 -144.142929077148 0.533950805664
-71.801147460938 -71.612007141113 -150.151702880859 0.543010056019
19.752214431763 -72.604866027832 -150.911483764648 3.107067823410
112.193702697754 -72.400741577148 -151.211990356445 1.292956233025
-53.982173919678 -73.740203857422 -149.904998779297 0.401229947805
-71.220977783203 -71.743232727051 -149.872131347656 0.902395963669
-39.380500793457 -75.919189453125 -152.940765380859 2.248661041260
32.128421783447 -69.794174194336 -153.151718139648 1.784465909004
110.173400878906 -71.833206176758 -152.651550292969 1.621745228767
113.740234375000 -72.871627807617 -160.720840454102 1.893045663834
-68.899559020996 -70.572303771973 -154.131576538086 0.447366356850
-71.969093322754 -73.957138061523 -161.367446899414 3.010774374008
20.867736816406 -75.510528564453 -163.420867919922 1.487688183784
-60.729385375977 -71.664443969727 -166.434417724609 1.854062676430
-33.746833801270 -72.687896728516 -161.757308959961 1.925637841225
6.676529884338 -73.983413696289 -163.201629638672 1.925045132637
108.922668457031 -72.616226196289 -162.782714843750 0.837775826454
5.713984012604 -75.107780456543 -166.208282470703 1.364798188210
-33.860462188721 -73.591629028320 -165.417877197266 0.754949748516
-1.737529993057 -71.026855468750 -166.570251464844 2.374568700790
107.427848815918 -71.946563720703 -169.873245239258 1.688354372978
-41.928291320801 -71.002891540527 -166.706008911133 1.379919528961
27.673871994019 -71.083053588867 -171.780868530273 1.568396925926
111.248222351074 -75.216484069824 -173.438705444336 1.537965774536
-58.148921966553 -71.083190917969 -176.322830200195 2.434531688690
-29.247375488281 -74.874435424805 -173.932281494141 1.805967569351
103.001594543457 -73.385498046875 -174.883270263672 2.921958684921
28.173471450806 -72.331062316895 -171.248596191406 1.991275429726
108.714019775391 -75.343292236328 -175.710784912109 1.133207678795
-37.779170989990 -71.457733154297 -177.385650634766 1.894664287567
106.640937805176 -75.058898925781 -181.582931518555 1.056367874146
-61.838058471680 -71.892791748047 -177.383544921875 3.331899166107
-26.227886199951 -76.254058837891 -179.471511840820 2.216652154922
-146.627395629883 -70.110816955566 -182.187774658203 2.552288532257
-55.124912261963 -72.637947082520 -181.607727050781 1.354046702385
-147.845458984375 -73.293945312500 -185.645095825195 1.687339663506
-34.386390686035 -71.882102966309 -185.983489990234 1.207461357117
24.572721481323 -75.664100646973 -183.993362426758 1.047517180443
106.045890808105 -73.940498352051 -184.125228881836 1.950304746628
-33.407203674316 -74.195579528809 -185.044891357422 0.928966283798
10.388011932373 -74.213623046875 -190.958160400391 1.329481720924
17.042064666748 -73.440063476563 -202.642105102539 1.854885697365
-148.385345458984 -73.659118652344 -189.972915649414 2.246544837952
103.153137207031 -74.910804748535 -196.279495239258 1.347309112549
-20.961587905884 -71.355453491211 -193.467758178711 1.802253007889
100.916046142578 -74.177955627441 -189.951324462891 0.771378874779
12.594083786011 -71.911293029785 -189.133636474609 0.804894864559
-135.907943725586 -72.839225769043 -201.672897338867 0.905231654644
-140.499679565430 -73.333770751953 -199.416778564453 1.869001030922
98.000122070313 -75.251075744629 -202.120208740234 1.817226290703
-12.960363388062 -76.431404113770 -200.815017700195 1.424952030182
-16.738142013550 -74.699195861816 -202.173614501953 2.336905956268
8.995266914368 -75.191421508789 -207.543594360352 1.513161063194
-151.081848144531 -71.252754211426 -204.886901855469 1.188882112503
-147.109527587891 -74.545150756836 -206.312118530273 1.974577784538
98.455581665039 -71.433784484863 -204.963272094727 1.272166848183
-81.647018432617 -73.001998901367 -208.257492065430 2.524187326431
-37.538772583008 -73.632598876953 -202.323364257813 1.374554038048
16.925487518311 -75.473907470703 -212.520294189453 1.293279767036
-26.641448974609 -74.018775939941 -211.327774047852 1.515057206154
-78.557373046875 -72.283737182617 -208.906036376953 1.434004783630
89.966804504395 -73.959053039551 -211.044509887695 1.209981322289
-82.253562927246 -71.747817993164 -212.171951293945 1.873140931129
-148.032775878906 -74.103584289551 -217.425094604492 1.413643717766
-80.796073913574 -72.817367553711 -213.376464843750 1.877645134926
-15.271626472473 -70.500129699707 -211.511611938477 1.341006159782
-21.865230560303 -71.908416748047 -218.240707397461 1.139548897743
17.531921386719 -73.260078430176 -212.805114746094 1.030524492264
-6.785615921021 -74.922019958496 -218.098678588867 2.315316915512
-89.267189025879 -74.836128234863 -218.183807373047 2.406079292297
91.302116394043 -73.455024719238 -214.425216674805 1.894177556038
-98.388137817383 -73.116249084473 -215.360946655273 1.575187802315
-152.340423583984 -73.544677734375 -222.456054687500 1.359177112579
-23.915767669678 -72.790679931641 -223.167541503906 1.528092980385
15.935338973999 -73.819602966309 -216.589477539063 0.534218490124
-103.025001525879 -73.224075317383 -219.491424560547 1.715544462204
6.343031883240 -72.225921630859 -220.019973754883 1.959078073502
-25.795585632324 -73.920761108398 -216.271865844727 2.147102832794
82.026435852051 -73.091247558594 -224.660736083984 1.825101852417
-146.929016113281 -73.361511230469 -219.489517211914 1.622763872147
6.772889137268 -72.381095886230 -226.047302246094 1.346130609512
-10.643639564514 -76.130645751953 -224.460250854492 0.577589631081
16.240146636963 -69.827850341797 -222.268539428711 1.343677997589
82.303009033203 -74.495117187500 -222.848083496094 1.077754139900
-14.236612319946 -75.004539489746 -228.204803466797 1.298349499702
-131.782043457031 -73.923614501953 -225.544662475586 0.907828450203
-14.277696609497 -74.311500549316 -224.763702392578 1.390126943588
15.570780754089 -74.862312316895 -232.630752563477 1.634065151215
-127.238578796387 -74.781112670898 -226.641464233398 1.509176492691
-151.643386840820 -70.830337524414 -227.784164428711 2.490217924118
-143.129226684570 -72.630027770996 -227.960571289063 2.920662164688
-133.586105346680 -72.112648010254 -228.135467529297 1.899689078331
-15.358260154724 -72.686462402344 -226.023468017578 1.788405895233
70.619697570801 -73.765098571777 -229.605163574219 1.472990751266
-143.789733886719 -71.083068847656 -233.561126708984 1.420253276825
70.947456359863 -75.215644836426 -229.856765747070 1.595120072365
-21.189668655396 -76.236473083496 -228.690032958984 2.292033195496
-143.291946411133 -76.701499938965 -229.220336914063 2.235391139984
76.610649108887 -76.624313354492 -229.379852294922 2.392599821091
8.152823448181 -76.660491943359 -234.633499145508 1.509212017059
-143.809219360352 -77.614456176758 -233.854156494141 0.863593637943
-151.598770141602 -72.536026000977 -233.497344970703 1.347119212151
15.102031707764 -71.707527160645 -232.361541748047 1.358430624008
-4.120839118958 -75.237365722656 -236.958831787109 2.636960744858
-27.766880035400 -73.666328430176 -237.484146118164 1.154821872711
-2.995774984360 -70.883605957031 -238.698059082031 1.995128273964
-162.215332031250 -74.491523742676 -236.637969970703 1.814599752426
7.941329002380 -73.842758178711 -244.364227294922 1.505946516991
-165.937088012695 -73.339210510254 -236.466506958008 1.811054229736
-14.634043693542 -74.974044799805 -237.935729980469 1.588806748390
61.926116943359 -74.763618469238 -239.908676147461 1.730485677719
-14.090167045593 -73.481781005859 -239.227569580078 0.768434166908
-26.137552261353 -72.907897949219 -242.626968383789 2.123504161835
-26.722705841064 -73.399154663086 -241.845123291016 1.092652201653
-15.418180465698 -74.819854736328 -241.532867431641 1.472119450569
-147.522506713867 -73.299201965332 -231.878738403320 1.857168912888
6.904545783997 -73.739959716797 -243.173309326172 0.774734973907
62.999904632568 -73.659835815430 -243.718719482422 1.539597153664
12.771727561951 -72.684997558594 -245.443313598633 1.269285678864
-165.476837158203 -72.089385986328 -239.873199462891 2.088960170746
-51.132587432861 -72.849342346191 -241.913726806641 2.340782403946
1.873955011368 -80.174949645996 -247.798751831055 1.126659393311
15.465490341187 -73.845466613770 -245.220657348633 1.853119969368
-55.820789337158 -72.868865966797 -246.902191162109 0.859431505203
-4.722084045410 -71.321586608887 -247.397781372070 2.239444255829
19.742893218994 -77.067024230957 -247.752990722656 2.102038145065
-168.805023193359 -72.200866699219 -247.589630126953 2.930224180222
-70.315620422363 -75.989982604980 -247.261367797852 1.522100448608
-52.424846649170 -73.241569519043 -247.085113525391 2.834882736206
-81.511352539063 -73.364944458008 -250.029205322266 1.969343900681
-161.795242309570 -73.645317077637 -246.388305664063 1.114839196205
-152.182830810547 -69.987442016602 -249.778274536133 2.108340501785
-61.182914733887 -75.079788208008 -249.335403442383 1.541180253029
-70.215919494629 -73.706794738770 -250.366470336914 1.934301018715
-155.000518798828 -72.072135925293 -252.215789794922 2.770036935806
-153.373794555664 -73.612205505371 -251.555175781250 1.583872318268
-77.973167419434 -71.918891906738 -253.779891967773 2.560671806335
-94.791275024414 -71.996223449707 -253.990295410156 1.885399103165
-166.474639892578 -70.455848693848 -250.531295776367 1.470817923546
-157.928863525391 -73.387992858887 -257.915924072266 2.877755641937
-135.865997314453 -74.330528259277 -256.344909667969 1.500566482544
-84.427520751953 -73.915687561035 -251.965057373047 1.905239224434
-163.831710815430 -71.570037841797 -251.641082763672 1.565701365471
-143.401428222656 -72.430351257324 -255.927993774414 1.696522474289
-87.026802062988 -72.907768249512 -252.540847778320 1.894729018211
-97.676376342773 -71.437278747559 -259.080688476563 1.451792716980
-147.686187744141 -73.891639709473 -255.682098388672 2.066987991333
-95.555488586426 -73.207138061523 -255.954513549805 0.393449038267
-152.799972534180 -72.311416625977 -255.645996093750 2.314099073410
-102.832382202148 -73.078285217285 -255.745834350586 2.001408815384
-168.654968261719 -72.975936889648 -258.082458496094 3.461558818817
-162.537353515625 -74.122161865234 -260.785827636719 1.108973503113
-126.923339843750 -74.993576049805 -256.248718261719 0.717445015907
-152.632553100586 -73.199958801270 -258.557952880859 2.680231809616
-114.554359436035 -71.833869934082 -260.913269042969 1.809908747673
-16.063520431519 -73.497680664063 -262.018218994141 1.474083781242
-143.544250488281 -73.208328247070 -260.573669433594 2.338638305664
-126.648986816406 -73.086242675781 -259.550415039063 3.206944704056
-156.163543701172 -72.383476257324 -261.462707519531 2.384281158447
21.311954498291 -74.888320922852 -270.373565673828 1.891840457916
-149.654968261719 -75.355575561523 -277.404541015625 1.599750518799
-169.569229125977 -73.775238037109 -277.935089111328 1.927065134048
-9.331740379333 -75.257461547852 -279.497467041016 2.711491823196
-147.989608764648 -74.063301086426 -280.431732177734 2.350642204285
-10.418116569519 -73.395210266113 -283.177978515625 2.835877656937
11.180054664612 -74.365234375000 -286.086029052734 2.867851495743
-137.991439819336 -73.229980468750 -285.404632568359 2.542624711990
-71.259468078613 -75.163124084473 -286.428710937500 2.366158723831
-34.990322113037 -75.739715576172 -287.326660156250 2.028895616531
-114.838768005371 -73.545562744141 -285.014587402344 2.011157274246
-95.908660888672 -76.407829284668 -289.994171142578 1.832107901573
-91.947875976563 -74.094741821289 -290.981140136719 0.568267405033
-50.801612854004 -75.302986145020 -291.380004882813 2.585940361023
-117.597251892090 -76.383018493652 -288.915802001953 0.268063098192
-114.212242126465 -74.730789184570 -289.777679443359 1.443311333656
-34.332439422607 -72.781150817871 -290.129943847656 2.018033504486
-116.214241027832 -73.747695922852 -291.997711181641 1.053277254105
-127.906967163086 -71.021385192871 -290.494781494141 3.681194067001
-145.791015625000 -75.026695251465 -292.292846679688 1.221493005753
5.568183898926 -74.035621643066 -292.335327148438 2.150021076202
13.969291687012 -76.058967590332 -293.996643066406 1.182173490524
-160.527282714844 -73.940567016602 -292.426208496094 2.499880790710
-158.667602539063 -76.694473266602 -299.768005371094 4.523129940033
-147.845932006836 -75.153564453125 -310.107818603516 2.522730588913
-153.115478515625 -72.760726928711 -310.490905761719 2.360896587372
-154.291076660156 -76.237960815430 -312.194732666016 2.132873058319
29.925308227539 -71.809516906738 -16.116134643555 1.463373661041
29.094514846802 -69.020202636719 -18.092273712158 2.652269124985
22.142881393433 -70.362945556641 -24.038726806641 1.547897458076
29.181367874146 -69.189208984375 -39.874385833740 1.592827677727
-57.236228942871 -69.151245117188 -49.334693908691 0.200519800186
-65.078521728516 -69.504058837891 -49.726867675781 1.402911543846
-38.274780273438 -71.893020629883 -51.177631378174 2.036629438400
-82.766723632813 -68.418998718262 -60.912551879883 5.242689609528
81.944808959961 -73.801673889160 -74.300346374512 2.073952674866
-16.757946014404 -70.470382690430 -71.055587768555 0.560417294502
89.187232971191 -72.389556884766 -69.335845947266 1.853074431419
98.689842224121 -71.321823120117 -78.850341796875 2.664774894714
-92.767349243164 -69.359512329102 -76.940238952637 3.048266172409
68.834770202637 -71.360809326172 -81.178901672363 1.092323064804
-41.713909149170 -74.518753051758 -84.883941650391 3.084460496902
100.592903137207 -70.302711486816 -83.950721740723 1.950012683868
-54.460807800293 -70.782180786133 -88.805259704590 1.960087418556
51.796745300293 -71.800064086914 -91.153465270996 1.420348048210
71.524787902832 -75.159820556641 -92.006332397461 1.644903779030
56.425750732422 -71.400512695313 -97.436592102051 1.681136727333
52.873188018799 -73.475944519043 -99.056907653809 2.874908924103
73.782180786133 -74.238616943359 -96.184013366699 1.338516473770
45.989509582520 -72.017639160156 -103.922874450684 1.992009878159
101.879524230957 -72.631118774414 -101.033256530762 2.922924518585
106.241615295410 -74.874473571777 -106.696716308594 1.886444449425
81.379753112793 -69.224075317383 -104.123649597168 1.340310811996
90.513778686523 -73.101043701172 -103.495498657227 1.818166255951
101.317924499512 -72.072463989258 -97.231170654297 0.672898530960
109.139564514160 -72.127792358398 -104.456970214844 2.645655632019
39.365776062012 -72.434059143066 -106.453315734863 1.334617376328
111.725891113281 -70.129394531250 -120.326461791992 0.930214941502
113.164672851563 -73.396133422852 -119.580528259277 1.142586469650
31.902681350708 -71.338973999023 -123.439727783203 1.677522659302
44.691867828369 -73.023567199707 -119.918235778809 2.382108449936
114.982719421387 -72.673095703125 -130.043151855469 1.401527881622
37.389263153076 -72.042358398438 -127.136299133301 3.270076990128
113.781898498535 -74.578613281250 -129.251449584961 1.380765676498
109.144477844238 -72.932319641113 -123.372657775879 1.975126385689
25.717464447021 -72.207588195801 -137.092086791992 1.853772044182
-48.845676422119 -72.195579528809 -134.537536621094 1.539229154587
-52.405857086182 -70.673843383789 -135.357696533203 1.564305782318
110.989715576172 -71.847229003906 -135.751556396484 1.162404775620
-70.474479675293 -74.380599975586 -140.885635375977 2.669797658920
-73.949783325195 -72.670692443848 -140.072570800781 1.099177837372
-58.557117462158 -72.664527893066 -142.251678466797 0.973207652569
32.379566192627 -71.913841247559 -143.279403686523 2.198627710342
114.056243896484 -73.696624755859 -146.233352661133 0.827026963234
-69.202590942383 -69.799224853516 -146.526916503906 0.945823729038
-47.438407897949 -71.357093811035 -143.382598876953 2.085590839386
33.481357574463 -73.289115905762 -150.787857055664 2.042886972427
-68.286521911621 -72.984497070313 -147.697860717773 1.911586165428
113.580505371094 -72.049377441406 -143.395080566406 0.503377556801
111.855545043945 -71.657737731934 -158.443008422852 1.284426927567
115.970275878906 -73.867614746094 -153.158996582031 1.587305903435
-38.597118377686 -73.959129333496 -153.459548950195 1.594780087471
-65.632492065430 -72.666656494141 -163.437606811523 1.596992850304
-70.832168579102 -70.501594543457 -156.631835937500 2.144536733627
30.654602050781 -73.374382019043 -148.249877929688 2.385429620743
-2.475383996964 -74.198356628418 -162.445709228516 1.235184907913
108.268943786621 -73.231521606445 -161.976165771484 0.741100966930
111.280204772949 -71.719261169434 -154.514190673828 0.783245384693
111.681228637695 -73.936523437500 -158.701843261719 2.138288497925
-64.645301818848 -69.779678344727 -161.159133911133 3.024392127991
-45.994941711426 -73.937507629395 -163.684295654297 0.746595621109
-1.893576025963 -71.710212707520 -165.272994995117 1.649996519089
-28.568765640259 -72.384567260742 -174.871551513672 2.424031972885
105.810813903809 -72.595733642578 -167.796646118164 1.384768366814
-35.750656127930 -74.230758666992 -160.174011230469 1.759261846542
109.416145324707 -72.013473510742 -169.973022460938 1.928723812103
-42.179515838623 -73.168739318848 -173.138458251953 0.925116062164
108.685173034668 -71.576705932617 -168.850234985352 1.091045379639
-150.847167968750 -72.852142333984 -179.903228759766 1.439334154129
-28.126493453979 -69.878494262695 -176.421600341797 1.665925621986
-21.306320190430 -72.528808593750 -183.032424926758 1.106046080589
24.555009841919 -74.948501586914 -177.649673461914 2.659506082535
15.044810295105 -73.146667480469 -182.994812011719 1.498659610748
26.492364883423 -73.120941162109 -183.608306884766 1.495428085327
104.802902221680 -75.333908081055 -184.061019897461 1.882077693939
-152.026992797852 -70.301239013672 -184.901901245117 1.356574416161
-20.595518112183 -74.692222595215 -186.535812377930 0.457841038704
102.342445373535 -73.283103942871 -179.536621093750 3.268969535828
102.787384033203 -71.310958862305 -191.035247802734 1.327450275421
107.081069946289 -73.653778076172 -179.580093383789 1.185264229774
97.731513977051 -74.783515930176 -194.997894287109 2.297410011292
-152.222503662109 -73.841789245605 -194.674102783203 3.079618930817
99.582939147949 -74.303260803223 -205.799682617188 1.662730455399
-28.886070251465 -70.898582458496 -196.190643310547 2.414371728897
97.628906250000 -73.031761169434 -197.465881347656 1.828887462616
-123.377227783203 -74.284851074219 -198.485122680664 0.976881742477
-30.141378402710 -76.491966247559 -191.148468017578 2.721612691879
-142.167617797852 -69.598205566406 -197.562759399414 1.659050464630
94.260452270508 -73.548522949219 -200.061416625977 0.448405176401
8.169883728027 -74.049209594727 -198.936401367188 2.930475711823
22.813066482544 -72.436416625977 -193.596511840820 2.406425714493
-148.316375732422 -71.728263854980 -201.213729858398 0.849786698818
-140.472244262695 -71.473121643066 -200.964874267578 1.189381003380
-11.121722221375 -72.644165039063 -205.626525878906 0.957783520222
-125.138450622559 -72.432189941406 -202.008056640625 1.105934739113
-144.253295898438 -75.053001403809 -200.551254272461 1.385728836060
4.864112854004 -73.039894104004 -200.409210205078 3.857675313950
-23.914964675903 -74.765686035156 -201.683700561523 1.741978764534
19.689804077148 -74.943618774414 -203.244842529297 0.756908535957
6.545462131500 -73.950935363770 -211.275283813477 1.505612611771
86.371162414551 -72.358932495117 -209.064270019531 2.670417070389
-19.536151885986 -70.973121643066 -211.960021972656 1.369929075241
91.014030456543 -71.970581054688 -209.744796752930 1.600353717804
95.624450683594 -74.374359130859 -207.866744995117 1.979019403458
-150.292938232422 -72.818405151367 -214.211944580078 2.010007381439
94.936126708984 -74.419967651367 -212.408294677734 1.639414429665
4.763256072998 -72.922668457031 -208.329788208008 2.702345371246
3.469671964645 -75.053657531738 -214.581268310547 3.088006496429
-34.361469268799 -72.564254760742 -207.704299926758 0.933486521244
-90.231262207031 -72.124855041504 -212.891281127930 2.331404924393
-27.822751998901 -73.582031250000 -211.440017700195 2.306379079819
84.033866882324 -73.335510253906 -217.022628784180 2.098161935806
87.608383178711 -72.833602905273 -218.733779907227 1.449421405792
-32.948314666748 -72.495124816895 -212.638488769531 2.065570831299
-85.646514892578 -70.678863525391 -217.256530761719 2.599497079849
-2.527076959610 -75.010414123535 -218.376998901367 2.240871667862
83.373588562012 -71.251731872559 -214.889022827148 3.404679536819
-152.410140991211 -74.377449035645 -221.339553833008 1.505210638046
-166.275405883789 -70.990142822266 -213.416839599609 3.099469184875
-161.922500610352 -73.493377685547 -221.694778442383 2.071763038635
-22.164703369141 -73.349571228027 -226.832778930664 1.723757386208
-154.244689941406 -73.757606506348 -222.173309326172 0.756407499313
-7.458569049835 -74.692268371582 -224.968292236328 1.628044843674
6.154920101166 -73.530502319336 -218.543029785156 2.437913894653
-166.738342285156 -72.056968688965 -224.216552734375 0.629223465919
-160.842193603516 -72.730545043945 -225.970672607422 1.523205399513
78.639137268066 -75.883819580078 -231.635833740234 0.919275283813
0.413946986198 -71.833969116211 -227.342300415039 1.674452781677
-157.286666870117 -69.328880310059 -225.201110839844 1.733225464821
-143.204925537109 -73.101417541504 -224.429794311523 1.596419215202
-20.363660812378 -72.828186035156 -224.119461059570 1.663832545280
-0.237611994147 -77.005439758301 -223.730194091797 1.608728408813
79.348480224609 -72.050079345703 -225.565963745117 1.210732460022
-162.331237792969 -71.225273132324 -227.066543579102 1.990003228188
-146.210754394531 -70.954124450684 -228.957397460938 1.791589379311
-125.579498291016 -71.489135742188 -229.809997558594 2.950071573257
78.392013549805 -74.059410095215 -227.720626831055 1.302973628044
-116.399291992188 -72.262207031250 -228.478820800781 1.774332880974
-148.808334350586 -72.371612548828 -228.426330566406 1.211914896965
-150.996444702148 -71.372802734375 -230.306411743164 2.621434688568
-149.377273559570 -72.947082519531 -230.166656494141 1.570356726646
-156.770767211914 -72.486541748047 -228.267028808594 1.673529863358
-166.110549926758 -72.487419128418 -228.521469116211 1.642587423325
-135.273223876953 -72.066398620605 -233.632858276367 1.205453991890
-134.239440917969 -73.562385559082 -232.204635620117 1.268301963806
-154.855224609375 -74.378334045410 -231.619506835938 2.052246570587
-146.222930908203 -69.740150451660 -235.457565307617 1.761891365051
-152.957458496094 -72.570945739746 -234.305145263672 0.772251963615
73.612785339355 -74.697845458984 -232.421859741211 2.054057121277
66.573997497559 -70.429870605469 -237.408630371094 1.124114036560
-158.991607666016 -71.493820190430 -234.606887817383 1.012858510017
70.184425354004 -70.539138793945 -234.062774658203 1.146729588509
-20.192632675171 -72.612396240234 -236.865264892578 2.138225793839
9.818276405334 -73.977561950684 -236.593765258789 2.209603071213
5.494699954987 -74.096664428711 -236.306137084961 2.557522773743
-154.661880493164 -72.603431701660 -242.744140625000 3.605615615845
12.868374824524 -72.990104675293 -241.229782104492 1.753029108047
61.157146453857 -72.947769165039 -238.191604614258 2.185733795166
12.659449577332 -71.659637451172 -238.025924682617 1.343336343765
4.878881931305 -74.090782165527 -241.935287475586 1.168685793877
-7.322662830353 -72.299896240234 -240.982070922852 0.816223144531
-21.636753082275 -72.322929382324 -242.859817504883 1.875674128532
-2.174345016479 -73.159210205078 -242.943069458008 1.247036218643
2.293062925339 -75.386116027832 -244.408538818359 1.088813543320
56.497783660889 -74.190338134766 -242.550582885742 0.213543847203
-56.849147796631 -74.932586669922 -244.536193847656 2.830658912659
18.149385452271 -72.614265441895 -247.202865600586 1.057304739952
-61.329978942871 -74.091949462891 -242.635986328125 1.992110371590
-10.374205589294 -73.395561218262 -247.865722656250 1.214056253433
-66.549575805664 -70.623779296875 -249.910003662109 1.898218154907
-87.259895324707 -72.571937561035 -252.177017211914 2.303983926773
-83.809829711914 -73.409370422363 -250.725402832031 1.675545930862
-11.928700447083 -72.907669067383 -253.868392944336 2.050338506699
-125.213966369629 -72.540176391602 -256.931823730469 2.040185213089
-15.221155166626 -74.353202819824 -254.002441406250 1.581000924110
-118.106918334961 -73.125328063965 -255.790130615234 0.104773722589
-116.794624328613 -72.141929626465 -257.960998535156 1.269742369652
-104.489952087402 -72.812751770020 -257.229919433594 1.293501853943
-145.434616088867 -72.393974304199 -262.104675292969 2.275911808014
-146.474395751953 -72.325431823730 -265.889617919922 0.947291791439
-169.527359008789 -72.800788879395 -263.032714843750 3.337793350220
16.904947280884 -76.512542724609 -280.351379394531 1.796062946320
-57.950164794922 -72.325439453125 -285.465362548828 2.203661441803
-67.939247131348 -72.703971862793 -284.423583984375 1.799851536751
-43.444030761719 -75.076545715332 -284.669799804688 2.765080213547
-30.161518096924 -74.828056335449 -285.962066650391 1.588742136955
-98.065559387207 -74.490013122559 -287.841583251953 1.857612133026
-31.624147415161 -72.199577331543 -286.438659667969 1.365910172462
-5.774124145508 -74.191184997559 -286.752990722656 0.470626622438
-168.823760986328 -72.967926025391 -288.196044921875 2.538568735123
-15.510185241699 -75.316276550293 -286.364685058594 1.939365267754
5.555909156799 -74.921310424805 -288.263793945313 1.047598838806
12.843821525574 -77.038909912109 -285.961944580078 2.421770811081
-58.306472778320 -74.890197753906 -288.766143798828 1.923594236374
-33.395702362061 -73.597648620605 -291.151458740234 1.940874218941
12.693080902100 -72.471946716309 -292.928680419922 1.467982292175
-71.864524841309 -72.814117431641 -292.006622314453 1.667482256889
-40.335643768311 -72.023567199707 -289.855072021484 1.218947410583
-19.120132446289 -72.188011169434 -290.509368896484 1.943037986755
14.105796813965 -75.665870666504 -290.960357666016 1.713440299034
-12.632402420044 -74.826263427734 -293.425415039063 1.462612509727
2.176474094391 -72.785324096680 -293.378723144531 1.476166486740
12.701016426086 -74.997123718262 -292.067932128906 2.095839262009
-136.329406738281 -72.364410400391 -293.762969970703 1.557944893837
-146.364410400391 -75.356063842773 -299.156188964844 1.542078018188
-151.096588134766 -74.481201171875 -312.287048339844 1.359276533127
42.952327728271 -69.322311401367 -14.051196098328 1.714802980423
31.370853424072 -69.558982849121 -12.460931777954 0.867975890636
39.727493286133 -69.837646484375 -16.286296844482 2.494678497314
22.366792678833 -67.750816345215 -19.665578842163 2.730325460434
45.462165832520 -68.664039611816 -22.484220504761 2.664973735809
26.033914566040 -69.034255981445 -23.819816589355 2.216966390610
24.736524581909 -70.305953979492 -28.582071304321 1.398875355721
24.463253021240 -70.806381225586 -37.140193939209 1.041415691376
41.739570617676 -71.086250305176 -31.306070327759 0.804818511009
27.289333343506 -72.318008422852 -36.068096160889 1.168600797653
43.369697570801 -69.315361022949 -37.061836242676 2.560505390167
32.445354461670 -70.571517944336 -38.906398773193 0.598607063293
38.457923889160 -70.987922668457 -36.847026824951 1.862524271011
31.855953216553 -69.827613830566 -40.410995483398 1.498917341232
43.387691497803 -70.110710144043 -41.223114013672 2.233740091324
35.227378845215 -69.912689208984 -40.458480834961 0.624840855598
-39.445163726807 -67.853797912598 -48.820156097412 2.899126529694
-29.852102279663 -65.843513488770 -51.138900756836 2.390759229660
-88.243141174316 -67.201782226563 -55.224121093750 1.467754125595
-87.916603088379 -70.864303588867 -64.809692382813 2.042369127274
78.895591735840 -72.585067749023 -68.754470825195 1.916529417038
84.674247741699 -71.203613281250 -73.057518005371 2.339237928391
-18.492429733276 -68.626701354980 -72.810195922852 2.866606235504
-87.967002868652 -71.154266357422 -71.079238891602 3.070341348648
-24.910911560059 -70.190528869629 -76.828811645508 2.079715728760
-49.501296997070 -71.066352844238 -85.005294799805 1.188454747200
66.159194946289 -67.270019531250 -86.741226196289 1.331048011780
53.346191406250 -70.362785339355 -93.300735473633 2.033187866211
99.758140563965 -69.760795593262 -92.104637145996 1.857849717140
69.946510314941 -71.739143371582 -96.896568298340 1.502769351006
-66.908958435059 -72.382812500000 -91.921440124512 3.120226144791
-63.518402099609 -69.887939453125 -97.069992065430 3.116595745087
45.142368316650 -71.884407043457 -97.714775085449 1.581195354462
77.579437255859 -70.213348388672 -101.572204589844 2.049825906754
54.159465789795 -76.328323364258 -105.129943847656 2.062478780746
101.147468566895 -70.717460632324 -98.025627136230 0.728989183903
-95.454063415527 -71.096542358398 -106.626960754395 1.469919919968
38.912155151367 -71.832275390625 -111.696044921875 0.691564261913
106.852119445801 -71.657821655273 -108.847869873047 1.713786005974
48.078292846680 -70.792831420898 -111.440261840820 2.615804910660
102.202293395996 -71.690002441406 -109.585563659668 1.081117749214
-85.886978149414 -71.142059326172 -113.681152343750 2.873712539673
36.060543060303 -73.611053466797 -111.509330749512 1.497579813004
106.181388854980 -70.863212585449 -117.480033874512 1.454157233238
104.735603332520 -69.259742736816 -116.175270080566 2.583774566650
106.539237976074 -71.527877807617 -115.709503173828 0.801897346973
110.153968811035 -70.781417846680 -115.620124816895 0.578347623348
39.197509765625 -71.642173767090 -111.704025268555 0.622466385365
31.827302932739 -70.263153076172 -118.581588745117 2.954731464386
42.024085998535 -70.829612731934 -115.474998474121 0.996369957924
107.800842285156 -72.096450805664 -122.926681518555 2.547716379166
39.421379089355 -70.109115600586 -124.614631652832 2.049109458923
108.510177612305 -71.073715209961 -132.488708496094 1.773133873940
111.439582824707 -70.538742065430 -131.663162231445 1.696853756905
33.509265899658 -69.737632751465 -122.179145812988 0.933660686016
-77.796081542969 -70.179046630859 -126.441123962402 0.738367080688
114.596839904785 -70.105148315430 -135.316864013672 1.412045836449
-55.531578063965 -71.136642456055 -136.711578369141 2.477445363998
35.728008270264 -72.007774353027 -135.371292114258 1.100212574005
-73.368835449219 -71.333465576172 -136.082565307617 2.591555356979
27.594293594360 -72.491531372070 -132.970306396484 3.005893945694
-79.123313903809 -71.253532409668 -141.687500000000 1.925681710243
-45.606132507324 -73.700935363770 -141.621078491211 1.687761783600
-73.366127014160 -70.656097412109 -137.465942382813 2.157172441483
110.574386596680 -70.898994445801 -138.313934326172 1.586998701096
115.212738037109 -70.426567077637 -142.540283203125 2.520178318024
117.115821838379 -74.164924621582 -146.262832641602 2.256592512131
-75.717430114746 -69.639114379883 -143.458969116211 1.837282776833
8.391876220703 -68.366668701172 -151.010940551758 2.781542301178
-53.315780639648 -71.888420104980 -150.022735595703 0.329508513212
-50.613277435303 -71.942481994629 -155.251296997070 1.820078730583
106.968612670898 -71.928749084473 -161.301315307617 2.050275087357
-42.306156158447 -72.382629394531 -149.615921020508 1.759861826897
13.161013603210 -70.297424316406 -157.423461914063 1.362394809723
21.726190567017 -72.635475158691 -157.993637084961 1.927497386932
114.345909118652 -72.080810546875 -165.018646240234 1.899393916130
28.911016464233 -71.640487670898 -165.028396606445 2.733702659607
-1.506636023521 -72.609588623047 -163.320510864258 1.555662870407
31.237895965576 -72.499061584473 -161.373245239258 1.547677874565
-68.389366149902 -69.682258605957 -158.246215820313 1.794975042343
-65.822044372559 -70.717445373535 -158.770050048828 1.339246273041
-68.921447753906 -70.792968750000 -164.826477050781 2.239355325699
114.362571716309 -69.448722839355 -161.992614746094 3.079897165298
-45.012397766113 -71.368530273438 -162.697952270508 1.214436888695
18.130416870117 -72.008094787598 -165.978866577148 0.534168303013
-64.594322204590 -70.955383300781 -169.073135375977 2.566873788834
-62.686294555664 -70.498825073242 -170.896026611328 3.157760143280
-40.719982147217 -71.667442321777 -159.661529541016 1.964543342590
-33.415855407715 -72.650566101074 -168.997299194336 3.216838598251
113.877746582031 -73.473747253418 -171.866638183594 1.170549750328
-37.492267608643 -68.797447204590 -178.314025878906 2.935502052307
13.986477851868 -72.708953857422 -173.763916015625 4.281413555145
110.135406494141 -74.278114318848 -183.857528686523 1.282147765160
-148.534866333008 -72.576004028320 -174.984603881836 0.837101876736
-146.255691528320 -71.286407470703 -173.534484863281 2.654216766357
-150.394836425781 -69.976478576660 -177.879318237305 2.555035829544
-143.322219848633 -71.770484924316 -180.836517333984 0.982331633568
-31.978437423706 -70.914436340332 -185.744613647461 1.671431183815
-23.658510208130 -71.569633483887 -185.794097900391 0.684531152248
22.322343826294 -69.866432189941 -190.492355346680 2.072512388229
-142.601852416992 -70.592346191406 -185.820922851563 2.237738132477
-147.597106933594 -71.452041625977 -187.330154418945 2.224246025085
-21.521383285522 -69.309509277344 -187.052307128906 1.658048987389
11.421271324158 -72.616683959961 -182.596725463867 3.324716806412
-149.548751831055 -71.410469055176 -192.406707763672 1.937282443047
-32.250743865967 -72.919219970703 -186.910018920898 2.367096900940
99.633239746094 -72.127296447754 -189.065078735352 2.319845199585
106.205741882324 -72.124038696289 -190.555755615234 1.935921311378
22.959745407104 -68.977691650391 -193.697418212891 1.491183757782
-16.132007598877 -72.302268981934 -188.437744140625 4.163995742798
-27.905460357666 -73.526809692383 -193.554000854492 1.953756093979
-155.482009887695 -71.605926513672 -196.703231811523 1.675735235214
-133.209335327148 -72.153396606445 -195.966079711914 0.618338763714
-125.586799621582 -69.549507141113 -194.443878173828 1.347485661507
-124.524848937988 -69.890380859375 -196.906234741211 2.166314363480
-23.584444046021 -68.582847595215 -196.783508300781 1.594023823738
11.004932403564 -73.275161743164 -192.780624389648 1.828589200974
92.590255737305 -74.284347534180 -201.773208618164 2.519162893295
-149.976165771484 -68.737983703613 -195.158493041992 1.913073658943
-146.316970825195 -69.635345458984 -197.645095825195 0.615480244160
-151.095443725586 -70.408958435059 -198.513397216797 2.253217697144
-155.744140625000 -69.541831970215 -197.088714599609 2.249965667725
-26.033557891846 -71.964599609375 -199.464340209961 1.568338632584
-12.924004554749 -72.049751281738 -195.706588745117 1.836957931519
-148.042770385742 -68.842277526855 -200.662963867188 2.121667623520
-18.159317016602 -71.357345581055 -200.367767333984 2.046056985855
-162.646453857422 -70.515716552734 -198.737640380859 1.661400198936
-134.940368652344 -71.275382995605 -198.633331298828 1.845659971237
15.367361068726 -72.836692810059 -207.307540893555 2.295629739761
-163.152389526367 -69.134811401367 -202.845031738281 1.920642137527
-146.764419555664 -72.121253967285 -205.315536499023 1.616802811623
8.369551658630 -70.809555053711 -202.022155761719 2.142150402069
-154.722000122070 -69.440559387207 -201.845916748047 1.593422174454
-24.812105178833 -71.810905456543 -201.139312744141 2.588576793671
98.705749511719 -72.640930175781 -200.361938476563 1.420835137367
-158.369049072266 -71.762306213379 -212.572952270508 0.689445436001
-165.427749633789 -73.025642395020 -207.368972778320 3.352815866470
-78.407890319824 -70.252388000488 -208.957061767578 2.761033058167
87.931907653809 -71.936485290527 -210.410629272461 0.745565712452
-4.683080196381 -70.912094116211 -217.614486694336 2.490678548813
-154.099227905273 -70.438796997070 -211.923492431641 3.685515880585
-88.745712280273 -71.311355590820 -213.453414916992 2.362406253815
-9.795061111450 -73.764793395996 -211.590438842773 2.122231006622
14.333855628967 -72.354072570801 -221.297744750977 1.447523474693
-146.364746093750 -72.086105346680 -218.503295898438 0.214270874858
-4.279585838318 -74.643173217773 -221.015518188477 1.518884539604
-21.489814758301 -72.124526977539 -219.377487182617 0.657586395741
-15.591547012329 -69.475624084473 -219.916305541992 2.065535306931
88.529235839844 -72.538520812988 -218.629516601563 0.794216215611
-22.149244308472 -71.079742431641 -217.336013793945 0.952406406403
-31.486446380615 -71.612342834473 -216.528686523438 2.007676601410
-108.411010742188 -69.056159973145 -223.596221923828 2.026676893234
-16.834310531616 -70.958915710449 -222.888809204102 0.952217340469
90.507369995117 -70.908287048340 -219.932586669922 0.799108624458
78.076698303223 -72.948577880859 -220.518264770508 3.180675029755
5.442028045654 -73.236412048340 -220.012390136719 1.318820714951
-11.945135116577 -71.280525207520 -225.431396484375 1.429371833801
77.372062683105 -73.423927307129 -223.062011718750 1.165531992912
-123.980102539063 -73.420280456543 -224.261703491211 0.867081284523
-22.366340637207 -70.705696105957 -222.973083496094 1.407554149628
-99.155326843262 -70.973541259766 -223.250473022461 1.004161834717
-104.619209289551 -71.724624633789 -224.411270141602 0.270091772079
-133.920898437500 -73.097007751465 -227.396499633789 1.329876303673
80.484535217285 -72.356445312500 -224.777465820313 2.020511627197
-124.517967224121 -71.824882507324 -226.429931640625 1.949519157410
4.056356906891 -72.114868164063 -228.691497802734 2.203981876373
79.808555603027 -71.541755676270 -225.140151977539 1.313294649124
-16.250139236450 -72.892807006836 -228.671524047852 1.069516062737
-14.012389183044 -72.784004211426 -228.874145507813 1.090288758278
-4.136287212372 -75.582855224609 -229.994033813477 1.043196320534
8.446173667908 -73.385925292969 -227.475280761719 2.380767822266
86.696624755859 -73.538085937500 -226.632446289063 2.375739097595
9.362482070923 -71.289192199707 -231.981277465820 1.807430982590
3.643687009811 -72.627723693848 -229.505096435547 1.569265961647
-10.031040191650 -72.736022949219 -230.946624755859 1.630343079567
-7.820704936981 -72.604850769043 -231.626251220703 1.618563771248
16.841487884521 -71.410194396973 -232.681015014648 1.483018636703
-13.449089050293 -70.796119689941 -233.645538330078 2.356266975403
70.041748046875 -73.255111694336 -239.857040405273 2.075069904327
-9.803301811218 -70.945571899414 -238.551010131836 2.269992589951
17.719779968262 -73.536361694336 -236.155197143555 1.871505618095
-165.429794311523 -71.056297302246 -239.835388183594 2.495180368423
-6.391521930695 -71.008659362793 -238.112106323242 1.872389435768
-9.748540878296 -72.304794311523 -241.062484741211 1.308715820313
-169.029113769531 -71.704765319824 -249.962463378906 2.841112613678
-11.848336219788 -71.628105163574 -244.901916503906 1.464829564095
14.905143737793 -70.815231323242 -246.301071166992 1.678707838058
-148.477691650391 -73.582290649414 -250.869308471680 2.266503810883
-72.754714965820 -71.160774230957 -249.071121215820 1.307110071182
-62.451740264893 -72.453598022461 -246.598205566406 1.216224789619
51.814319610596 -71.639709472656 -247.473770141602 1.658725261688
-76.933845520020 -71.887504577637 -246.935974121094 2.680762767792
16.235809326172 -73.450050354004 -249.718643188477 3.437423229218
-74.525550842285 -71.848495483398 -251.329849243164 1.953917741776
-16.218626022339 -71.697692871094 -248.082366943359 2.023613691330
-146.903884887695 -73.672927856445 -251.839553833008 1.027050495148
46.263381958008 -70.843399047852 -250.058761596680 1.396450161934
-80.728317260742 -73.005592346191 -254.530792236328 1.936193466187
-103.736999511719 -70.075523376465 -254.266311645508 1.703978538513
-99.976249694824 -73.512268066406 -254.168624877930 1.297408461571
-120.205673217773 -71.276527404785 -253.254150390625 3.573554039001
-106.949539184570 -71.021720886230 -256.418212890625 2.131981611252
-107.647796630859 -72.270629882813 -257.946624755859 1.598306536674
20.613855361938 -72.005226135254 -259.710662841797 3.775137424469
-130.013610839844 -70.420318603516 -264.200378417969 1.039766073227
-14.351700782776 -73.658020019531 -276.060119628906 2.853425264359
-148.519317626953 -70.762886047363 -281.744476318359 2.550157308578
-170.342422485352 -73.179901123047 -283.552215576172 2.196222782135
-126.563545227051 -73.075378417969 -284.084411621094 1.391252994537
-115.881477355957 -70.146545410156 -286.225463867188 1.135620236397
-77.174011230469 -69.235778808594 -285.246215820313 3.150403499603
-58.978641510010 -72.522544860840 -286.453887939453 1.829543828964
-44.080223083496 -72.021797180176 -286.212615966797 2.372190475464
-16.987783432007 -74.524780273438 -289.043518066406 2.682780504227
-15.664859771729 -71.094055175781 -290.818115234375 1.466554522514
-39.919067382813 -73.494247436523 -289.599365234375 1.985523343086
-36.090042114258 -72.352844238281 -288.772949218750 1.317684054375
-20.573081970215 -70.736923217773 -289.019073486328 2.710963010788
-72.668624877930 -71.775466918945 -291.843627929688 1.536438584328
-56.813594818115 -72.125732421875 -290.677032470703 1.199936509132
-18.627323150635 -70.424186706543 -291.408905029297 2.479952812195
-15.491736412048 -73.765708923340 -290.351257324219 2.007734775543
-5.662212848663 -72.022438049316 -291.896789550781 3.120066404343
0.519909024239 -70.805107116699 -292.057556152344 0.539647221565
-93.012268066406 -72.688415527344 -292.004577636719 1.456304430962
-142.703399658203 -72.891036987305 -293.168395996094 1.374693870544
-118.765197753906 -73.216903686523 -291.811248779297 1.823389291763
-155.601547241211 -72.278678894043 -294.724517822266 1.945958852768
-154.939132690430 -72.694183349609 -298.496002197266 1.969948172569
-148.309707641602 -71.895195007324 -298.894439697266 2.210076570511
45.985252380371 -67.762519836426 -20.731365203857 2.495202302933
20.511358261108 -70.542343139648 -23.723995208740 2.212473392487
49.931449890137 -67.547821044922 -26.250516891479 2.644061088562
47.706722259521 -69.817871093750 -35.093982696533 0.154063820839
87.466537475586 -69.732856750488 -69.907615661621 2.728318214417
95.538124084473 -71.068107604980 -74.291679382324 1.795689702034
101.247451782227 -69.103797912598 -79.973510742188 2.134929418564
98.461845397949 -70.970573425293 -83.770881652832 2.521770000458
57.466232299805 -70.740982055664 -89.424369812012 1.826260566711
46.810016632080 -73.650619506836 -92.612434387207 1.949814438820
63.321155548096 -68.945358276367 -91.312103271484 0.986477196217
-64.919837951660 -66.717094421387 -92.286491394043 1.565586805344
70.199287414551 -70.203269958496 -88.803321838379 3.010512113571
101.443199157715 -66.152229309082 -99.374000549316 1.881211996078
74.566825866699 -71.289199829102 -101.205162048340 1.577439188957
94.921180725098 -69.554527282715 -102.821929931641 0.790915548801
-83.122329711914 -70.346984863281 -101.904472351074 3.434019804001
44.647350311279 -69.595588684082 -100.035377502441 1.606670022011
-85.569419860840 -70.488082885742 -103.212188720703 3.409096002579
50.689403533936 -71.678970336914 -111.010337829590 2.309607028961
38.476829528809 -73.096359252930 -104.383010864258 2.388077735901
103.765434265137 -69.640663146973 -104.188652038574 1.297414541245
37.485507965088 -69.558601379395 -107.374336242676 2.057459354401
40.988021850586 -70.366943359375 -117.496627807617 1.939214229584
42.826942443848 -69.444206237793 -113.548446655273 1.678235888481
108.976699829102 -69.405433654785 -114.020660400391 2.186052322388
-82.058990478516 -71.825614929199 -120.788787841797 2.455906629562
