-146.857131958008 -81.404220581055 -216.991439819336 1.081348180771
-7.941963195801 -78.394340515137 -215.135345458984 2.842376232147
-10.224472045898 -78.237564086914 -217.267410278320 1.368954062462
12.285310745239 -78.986923217773 -215.234603881836 0.799489200115
12.834608078003 -76.514091491699 -221.932418823242 2.621536970139
-2.425554037094 -79.608345031738 -229.374313354492 1.532134175301
-137.469223022461 -77.408164978027 -225.625061035156 0.962133586407
-148.910919189453 -82.687423706055 -233.112792968750 1.637876868248
-149.891708374023 -77.770431518555 -232.690872192383 1.802300214767
6.367984771729 -79.605026245117 -234.075103759766 1.357050538063
1.424749970436 -78.338508605957 -235.372879028320 1.526060223579
-23.712646484375 -80.758300781250 -240.353958129883 1.858134627342
-150.507965087891 -77.279663085938 -240.704208374023 1.957514405251
10.774505615234 -79.205032348633 -243.757354736328 1.935128688812
-23.653472900391 -76.402107238770 -241.636032104492 0.633517920971
18.676971435547 -77.879768371582 -237.224822998047 2.059414386749
-54.271663665771 -78.068687438965 -244.018844604492 1.410848736763
-50.738029479980 -78.717277526855 -247.822357177734 2.630152463913
-146.238006591797 -83.498336791992 -246.964569091797 1.707737326622
-63.191963195801 -78.355323791504 -247.487701416016 2.163709878922
-3.634493112564 -77.249595642090 -246.096282958984 1.006343007088
-10.061768531799 -78.126716613770 -256.233978271484 2.048225641251
-147.509872436523 -83.011405944824 -258.431427001953 1.279631495476
-133.593643188477 -78.077468872070 -258.138916015625 1.684768676758
-135.903961181641 -77.145866394043 -260.711212158203 1.745402812958
18.847978591919 -78.494888305664 -259.636596679688 1.489660263062
-145.494430541992 -79.911315917969 -272.285064697266 1.680351495743
17.909854888916 -79.856407165527 -267.792358398438 1.090278267860
-147.354232788086 -77.671058654785 -273.914154052734 1.812095522881
2.637048006058 -81.274162292480 -277.002166748047 0.687171339989
-144.200653076172 -79.797973632813 -283.287719726563 1.890420317650
2.828843116760 -79.613922119141 -282.860717773438 1.585797429085
-151.659881591797 -78.357978820801 -283.901763916016 0.941448569298
-142.632965087891 -77.380455017090 -286.009521484375 2.024560928345
-137.091690063477 -79.917648315430 -287.291961669922 1.300213575363
-148.474792480469 -83.683357238770 -292.855499267578 2.303472757339
-19.315675735474 -77.374763488770 -289.397186279297 0.714795231819
-152.815704345703 -79.384269714355 -293.066436767578 2.037938117981
-148.633178710938 -79.807479858398 -296.066223144531 2.339312791824
-149.362304687500 -78.026664733887 -310.886535644531 1.828099966049
-58.839469909668 -76.733932495117 -57.369068145752 0.544335007668
-41.050853729248 -79.615440368652 -61.773868560791 1.971152544022
-78.020843505859 -78.902206420898 -65.480545043945 2.328334331512
-30.305427551270 -77.021018981934 -67.600509643555 1.196461796761
-27.474067687988 -78.582366943359 -72.012207031250 2.370594978333
-86.891792297363 -79.402458190918 -81.091674804688 1.632124304771
85.764579772949 -78.800704956055 -83.295593261719 2.286024808884
-38.092658996582 -77.121650695801 -83.437324523926 2.435335397720
80.265998840332 -79.820884704590 -84.154640197754 3.028862953186
75.569488525391 -77.843666076660 -86.475578308105 1.767835140228
83.654121398926 -77.908576965332 -87.245071411133 1.026241183281
81.109817504883 -77.278671264648 -90.135848999023 2.672827005386
89.740379333496 -77.469535827637 -91.062019348145 2.262202501297
-93.117271423340 -75.578979492188 -95.213478088379 2.044071435928
51.597892761230 -78.174346923828 -104.179389953613 1.223731517792
-93.743499755859 -72.978759765625 -114.283988952637 2.525259256363
42.058872222900 -79.174499511719 -109.203102111816 0.558599233627
47.939281463623 -77.852233886719 -112.198402404785 2.420205593109
40.341461181641 -78.167373657227 -114.194610595703 1.986634254456
30.840677261353 -78.202629089355 -133.648986816406 1.414778232574
25.509756088257 -78.075057983398 -139.261489868164 1.273018240929
21.902633666992 -73.380676269531 -143.481353759766 1.839476346970
31.651744842529 -76.518394470215 -143.183670043945 1.444935321808
-48.982921600342 -79.284484863281 -153.464981079102 1.210405588150
-47.782672882080 -78.364814758301 -150.847213745117 1.463628411293
-42.251605987549 -77.552368164063 -155.501373291016 1.016350984573
24.762777328491 -77.330970764160 -150.756988525391 2.231856107712
25.456644058228 -77.465408325195 -166.645141601563 2.079580068588
-34.694293975830 -76.455703735352 -166.722702026367 1.492817163467
-35.822853088379 -76.135437011719 -159.495361328125 1.185553908348
-46.222808837891 -78.761024475098 -157.542877197266 1.827429533005
1.925078988075 -76.735198974609 -163.185623168945 2.151715993881
23.047519683838 -78.698509216309 -153.036987304688 0.991049051285
31.081981658936 -76.377563476563 -159.825119018555 2.369295358658
27.154024124146 -76.697135925293 -168.065292358398 2.662880897522
-9.617349624634 -77.618293762207 -170.520874023438 2.124785661697
-2.604696989059 -77.612442016602 -169.090744018555 1.308506011963
-58.015697479248 -77.456756591797 -168.490676879883 0.803724288940
-61.290065765381 -77.398063659668 -169.637054443359 1.659085392952
-41.793285369873 -78.792144775391 -170.164901733398 0.414942473173
-39.502716064453 -77.079795837402 -167.040496826172 0.876852571964
22.149652481079 -75.913574218750 -172.074478149414 2.163871765137
-21.619386672974 -80.605644226074 -177.127578735352 2.647667646408
-33.326347351074 -77.161369323730 -179.936340332031 2.349496603012
-61.366058349609 -79.301216125488 -178.723678588867 2.121302366257
102.193893432617 -78.181823730469 -179.963302612305 2.834323406219
20.107837677002 -79.699150085449 -171.751083374023 2.164784669876
-27.035985946655 -77.731414794922 -179.622604370117 1.521603941917
-50.712329864502 -77.071998596191 -180.217193603516 0.940192639828
-19.741317749023 -76.156501770020 -179.450332641602 1.080388903618
109.762985229492 -77.772094726563 -177.426940917969 0.843404889107
-52.208705902100 -79.312568664551 -182.589355468750 2.274161338806
14.964470863342 -78.739723205566 -185.829040527344 2.408699512482
22.143033981323 -77.717102050781 -178.667968750000 3.000518083572
-56.451938629150 -79.659225463867 -178.678771972656 2.083747863770
-23.705396652222 -77.082290649414 -181.451553344727 1.659282207489
-56.426288604736 -78.845588684082 -175.991897583008 1.307556390762
-36.132976531982 -77.140495300293 -179.863769531250 2.802935600281
-29.170694351196 -77.571838378906 -186.453536987305 0.679500401020
21.194679260254 -78.002120971680 -186.554580688477 0.939587950706
-50.497005462646 -78.068778991699 -187.304931640625 1.205117940903
103.848342895508 -77.354438781738 -188.161804199219 0.661558210850
-52.167522430420 -75.689292907715 -189.661651611328 0.351444631815
9.244764328003 -77.635414123535 -200.490142822266 1.224987149239
19.544313430786 -77.355964660645 -198.558258056641 2.439190387726
-48.511180877686 -77.069122314453 -190.517272949219 1.277277588844
-20.110082626343 -78.166839599609 -189.214172363281 1.486616611481
101.650360107422 -77.337554931641 -193.823577880859 1.482264518738
99.144454956055 -79.210784912109 -194.499389648438 4.112771511078
-48.105983734131 -77.029495239258 -188.456008911133 2.014354467392
-148.365661621094 -82.041305541992 -198.761062622070 0.656898081303
-46.141029357910 -77.658584594727 -197.532852172852 1.437459111214
-145.561477661133 -79.175765991211 -198.899337768555 1.438401579857
-136.580200195313 -75.615348815918 -200.879287719727 1.081178903580
-44.656688690186 -78.448234558105 -197.311706542969 1.851024985313
10.680561065674 -78.363922119141 -207.390213012695 0.808500051498
-16.885004043579 -76.616691589355 -203.762496948242 1.371188044548
15.345752716064 -76.497581481934 -201.122802734375 1.699141144753
91.891624450684 -78.867630004883 -208.577346801758 3.264401674271
-37.079734802246 -76.818595886230 -200.952911376953 2.345025062561
-11.827095985413 -77.471626281738 -205.928726196289 1.043155431747
-13.331517219543 -76.795364379883 -211.214584350586 2.210348606110
-37.152881622314 -77.670425415039 -206.433456420898 1.280155539513
9.037819862366 -77.137161254883 -204.903961181641 2.024156570435
-77.003570556641 -76.610862731934 -210.065979003906 0.897378325462
15.275568008423 -77.906669616699 -212.288009643555 0.598097801208
-35.668128967285 -77.169120788574 -206.193878173828 1.263242840767
-145.031677246094 -78.982284545898 -209.727325439453 2.405915260315
-144.476989746094 -74.556221008301 -211.925979614258 1.315033316612
-87.257270812988 -77.769111633301 -213.149078369141 0.852834701538
-35.645008087158 -76.157211303711 -210.213943481445 2.750277042389
-21.232166290283 -80.042076110840 -212.269119262695 4.033855915070
-30.995199203491 -77.890296936035 -209.739837646484 1.554858326912
-91.835258483887 -77.750030517578 -217.096984863281 1.190264463425
-88.183975219727 -78.091911315918 -215.409286499023 0.837610185146
8.095590591431 -79.715141296387 -219.862335205078 1.756334185600
-150.283660888672 -75.279800415039 -215.853012084961 1.041835665703
-13.364859580994 -79.083755493164 -212.588562011719 0.652508080006
8.310725212097 -81.083732604980 -217.330291748047 2.350137233734
-145.018875122070 -76.827774047852 -219.242340087891 2.475432634354
-21.301830291748 -78.673416137695 -217.828308105469 1.381269931793
-2.077282905579 -76.413391113281 -220.599624633789 0.769072294235
-5.333514213562 -78.720489501953 -218.364273071289 1.093901276588
-152.709457397461 -76.188209533691 -224.821151733398 1.654314517975
-138.495727539063 -73.535552978516 -227.100067138672 2.783492088318
-6.135192871094 -77.892272949219 -222.695220947266 1.142823100090
-149.099884033203 -82.165748596191 -228.420776367188 1.398550510406
1.318011045456 -75.410240173340 -229.470184326172 2.276588678360
16.848670959473 -77.531951904297 -232.623275756836 0.683508872986
-1.108456015587 -78.256996154785 -231.344345092773 3.064193725586
0.024917000905 -74.878654479980 -234.288528442383 2.389854907990
7.569590091705 -77.829551696777 -230.989257812500 2.624870061874
-151.257217407227 -77.739051818848 -237.453048706055 1.718614578247
-19.664464950562 -76.408996582031 -236.002151489258 3.774786710739
-34.986625671387 -78.848686218262 -238.691390991211 1.774933934212
4.332609176636 -76.113922119141 -232.122360229492 1.685965061188
0.662105977535 -79.583503723145 -238.310379028320 1.611539721489
3.086437940598 -77.315879821777 -233.682861328125 1.298131227493
-55.504352569580 -76.576652526855 -242.420043945313 1.253134727478
-149.061492919922 -76.027671813965 -247.694061279297 2.855996370316
-151.876754760742 -78.287170410156 -248.532485961914 1.132719039917
10.134248733521 -78.810317993164 -245.823547363281 0.989732265472
22.741952896118 -78.229484558105 -246.574798583984 1.144092321396
-60.363422393799 -76.225357055664 -247.913391113281 1.378001451492
-144.185211181641 -79.974136352539 -253.273208618164 1.487374663353
-153.134628295898 -79.582763671875 -255.126007080078 1.855007767677
-151.182403564453 -82.382362365723 -258.151947021484 1.864214181900
-142.154235839844 -75.908927917480 -261.857849121094 1.153096675873
-138.602172851563 -77.359275817871 -257.206298828125 2.296821355820
-10.162210464478 -78.170875549316 -255.954345703125 2.115975379944
-144.235855102539 -78.767875671387 -263.683502197266 2.085021257401
-12.330682754517 -78.425994873047 -264.406677246094 1.521784782410
-147.104522705078 -76.964981079102 -275.506103515625 1.515045523643
-147.073852539063 -77.511650085449 -283.024871826172 0.871357262135
-149.400421142578 -76.904014587402 -283.531219482422 1.987713456154
-3.104301929474 -74.351257324219 -284.062988281250 2.533070564270
-144.246078491211 -73.894065856934 -285.865203857422 1.325056076050
-29.063255310059 -77.472496032715 -286.239501953125 2.562984228134
-29.698143005371 -76.258804321289 -286.582794189453 2.015805006027
-15.664747238159 -76.222747802734 -289.822937011719 1.887189507484
-10.878711700439 -75.948265075684 -289.036407470703 1.152500987053
14.201218605042 -78.803848266602 -290.559692382813 1.697498917580
-124.898338317871 -77.609558105469 -289.907958984375 1.477831959724
-57.859859466553 -77.018211364746 -288.036071777344 0.669609248638
-39.270076751709 -76.066627502441 -289.091278076172 2.040067911148
-31.791904449463 -77.799888610840 -288.469696044922 1.289949297905
-8.812657356262 -76.393867492676 -290.689392089844 2.063934087753
5.469953060150 -77.497863769531 -287.737182617188 2.420332431793
-142.542388916016 -79.046798706055 -295.241851806641 3.225608348846
9.846758842468 -77.577873229980 -291.717407226563 1.403435587883
-151.648956298828 -76.213806152344 -302.096496582031 2.624444961548
-150.427734375000 -79.276611328125 -301.850097656250 1.508734464645
-152.142150878906 -75.791160583496 -311.993469238281 2.896542072296
-144.581512451172 -76.821731567383 -311.151153564453 1.923367857933
-51.993183135986 -76.447090148926 -53.601554870605 3.034538269043
-57.524051666260 -78.326187133789 -56.115283966064 1.944980502129
-66.719215393066 -75.998542785645 -55.551383972168 2.864129304886
-43.916267395020 -76.348899841309 -59.682064056396 1.480258107185
-38.548908233643 -76.772590637207 -58.894142150879 1.661361336708
-22.885246276855 -76.187141418457 -67.969627380371 1.083634138107
-83.973670959473 -75.919433593750 -68.564254760742 2.898915052414
81.489173889160 -77.565452575684 -76.793205261230 2.641010761261
-91.341957092285 -76.243980407715 -79.354415893555 3.003219366074
80.894668579102 -76.981727600098 -78.726142883301 0.862632691860
84.879356384277 -75.641281127930 -82.116371154785 2.234812736511
93.220535278320 -75.750732421875 -85.539527893066 1.915612816811
-60.912689208984 -80.638450622559 -95.178062438965 1.899350166321
81.731636047363 -77.050239562988 -93.516075134277 0.733692824841
76.996002197266 -78.798141479492 -90.712776184082 3.121255159378
85.560050964355 -77.842216491699 -88.666793823242 2.255065917969
-63.121932983398 -79.263046264648 -97.230987548828 0.799066781998
50.340347290039 -76.299560546875 -96.133827209473 0.665344119072
44.687030792236 -77.278160095215 -105.380805969238 0.823020994663
39.830760955811 -77.795593261719 -103.357765197754 3.252769947052
36.466732025146 -77.368881225586 -105.081771850586 3.351600646973
-92.437629699707 -75.512718200684 -109.464759826660 2.546176671982
35.064884185791 -76.738136291504 -116.252418518066 1.693482756615
-85.887153625488 -77.792625427246 -109.549385070801 2.678502798080
41.174674987793 -78.727798461914 -123.130920410156 2.392668485641
32.944793701172 -77.977874755859 -120.810401916504 2.416260242462
32.781608581543 -73.620811462402 -120.723182678223 2.206510066986
42.269672393799 -76.793556213379 -117.962028503418 1.749224066734
39.131862640381 -78.664794921875 -126.116027832031 1.899125099182
-53.620006561279 -73.403038024902 -135.246047973633 1.594424486160
35.733497619629 -78.923461914063 -134.077117919922 1.828294754028
35.381298065186 -76.688102722168 -141.523040771484 1.637865304947
-53.893646240234 -74.590950012207 -140.678787231445 1.577140331268
-47.760433197021 -76.899986267090 -140.279449462891 0.739569067955
34.078025817871 -77.329322814941 -142.243591308594 1.879939198494
110.402954101563 -75.033058166504 -139.928039550781 1.493479251862
112.588035583496 -75.500617980957 -141.452072143555 2.099222183228
25.872014999390 -77.871101379395 -142.441085815430 1.372764110565
-42.111423492432 -78.144309997559 -148.640258789063 0.920476734638
112.863883972168 -79.654060363770 -152.125091552734 3.554354667664
-40.294582366943 -75.920570373535 -152.936874389648 1.721873402596
-68.609924316406 -77.068984985352 -159.278854370117 1.340391874313
110.094306945801 -78.910728454590 -158.119964599609 1.751930594444
22.235239028931 -77.122833251953 -162.905822753906 1.099353671074
-0.197049006820 -78.040679931641 -162.208572387695 2.671951532364
111.694068908691 -77.220718383789 -153.766250610352 2.476834297180
-64.717102050781 -76.481864929199 -164.593536376953 1.550604820251
-38.055114746094 -76.606124877930 -161.555816650391 1.765878796577
112.147621154785 -76.882225036621 -162.815399169922 1.971248745918
28.383771896362 -74.955497741699 -157.532897949219 2.350744247437
-63.566299438477 -73.523033142090 -165.731628417969 1.906053781509
111.143058776855 -77.478187561035 -164.904174804688 1.509811878204
-65.449455261230 -78.428413391113 -168.357894897461 1.753268718719
-51.240604400635 -78.348243713379 -179.116729736328 1.984858751297
105.887191772461 -76.017288208008 -169.964233398438 2.167493104935
-60.322906494141 -75.431961059570 -169.981491088867 0.714099705219
111.115173339844 -76.675796508789 -173.674987792969 2.000831604004
-60.686824798584 -76.775688171387 -174.379608154297 1.503314256668
-14.794651985168 -75.675941467285 -176.815612792969 2.132757663727
-12.270992279053 -79.493164062500 -179.404067993164 1.212299942970
107.459999084473 -77.904533386230 -168.684906005859 2.475869655609
20.518955230713 -77.263153076172 -171.069061279297 1.296774029732
28.651824951172 -75.284194946289 -169.430038452148 1.123986363411
-56.972385406494 -76.060340881348 -176.666748046875 1.463184595108
18.479667663574 -76.102287292480 -181.211074829102 0.609897434711
-58.127056121826 -76.476448059082 -175.955108642578 1.201720595360
-51.660320281982 -75.840858459473 -188.502304077148 1.323177337646
13.250641822815 -75.660064697266 -182.639633178711 2.427380084991
-58.026054382324 -75.023345947266 -180.424819946289 0.645444989204
106.961769104004 -76.079109191895 -184.327789306641 1.937940955162
23.696668624878 -77.743064880371 -180.172973632813 2.107406139374
-33.106212615967 -75.464805603027 -188.045135498047 1.752956628799
-42.672359466553 -77.286285400391 -191.236679077148 0.594540774822
10.971253395081 -77.063125610352 -192.673019409180 2.399878978729
-18.750219345093 -77.677619934082 -189.797973632813 1.404608488083
-49.679405212402 -77.623550415039 -193.785781860352 1.481664657593
102.879409790039 -78.635406494141 -182.575866699219 1.636106133461
13.766965866089 -78.009674072266 -189.901245117188 1.331254124641
-134.413345336914 -78.715339660645 -198.747726440430 2.068449497223
-44.254234313965 -78.256248474121 -193.485244750977 1.466269373894
96.279144287109 -76.731399536133 -197.382980346680 2.608776092529
-148.328674316406 -81.600509643555 -202.374694824219 2.116231679916
18.158306121826 -76.909378051758 -195.178665161133 1.542888283730
-42.323303222656 -75.171875000000 -204.824111938477 2.693964719772
-31.679763793945 -78.215614318848 -204.427261352539 0.760940313339
-37.200580596924 -76.843185424805 -203.686492919922 2.026886224747
-44.173751831055 -78.777259826660 -196.724670410156 1.481124758720
99.824203491211 -77.121002197266 -200.974411010742 2.421968460083
-20.174310684204 -78.081306457520 -201.463470458984 1.204221725464
-150.316650390625 -76.736099243164 -204.328216552734 0.666854321957
16.033403396606 -77.540229797363 -203.650802612305 0.680711150169
-76.476570129395 -79.915328979492 -207.620773315430 1.084585547447
-148.136199951172 -75.840286254883 -211.698867797852 0.373404175043
95.649665832520 -77.020423889160 -209.362014770508 1.387956142426
-32.767131805420 -75.874870300293 -206.740509033203 1.497083544731
-28.892135620117 -76.728340148926 -212.901687622070 2.335833787918
8.315689086914 -77.632843017578 -210.066925048828 0.317757844925
-71.294288635254 -78.615303039551 -210.825119018555 2.190334558487
-28.760890960693 -79.823020935059 -208.336868286133 1.413565278053
-5.833794116974 -77.049430847168 -214.579299926758 2.266769886017
-73.303955078125 -78.349281311035 -214.178421020508 0.812718033791
-14.426291465759 -76.884849548340 -216.689971923828 2.005911350250
8.070966720581 -73.126136779785 -212.183883666992 1.406661629677
15.645204544067 -78.270774841309 -219.081985473633 2.131529331207
-149.012771606445 -77.260848999023 -217.114410400391 1.312833666801
-7.868375778198 -76.534591674805 -213.962921142578 1.342077255249
-96.982025146484 -73.582748413086 -220.486602783203 2.545738458633
-21.662412643433 -76.051994323730 -219.374954223633 1.301237940788
90.812629699707 -79.232551574707 -210.297531127930 3.031215906143
7.189342021942 -76.197021484375 -225.544845581055 1.193671345711
17.933908462524 -75.917160034180 -215.743637084961 1.114945054054
81.338142395020 -77.042190551758 -217.379547119141 2.796544790268
1.222872018814 -77.777496337891 -226.955139160156 1.526579380035
86.054565429688 -77.019714355469 -215.817153930664 2.043892860413
-18.068256378174 -75.273109436035 -222.159393310547 1.654097914696
15.495978355408 -76.058441162109 -218.673767089844 2.360316753387
-146.429901123047 -77.921714782715 -222.367446899414 1.836342573166
-21.316255569458 -77.848648071289 -224.336380004883 1.964617490768
1.796247959137 -76.782318115234 -227.507705688477 1.585420131683
-155.203079223633 -79.689971923828 -227.767227172852 2.032920837402
-136.479034423828 -76.994972229004 -228.649002075195 2.421282291412
6.400347232819 -76.642250061035 -224.421798706055 2.489273786545
-3.868772983551 -75.657485961914 -229.123275756836 1.901347160339
-136.141784667969 -74.918991088867 -231.063644409180 1.735182046890
-145.850570678711 -77.407775878906 -238.047683715820 3.134470701218
-147.162490844727 -76.549240112305 -236.603195190430 2.442660093307
-32.400218963623 -77.191497802734 -237.500717163086 1.558503746986
-144.733398437500 -77.385810852051 -242.876495361328 3.492396593094
19.153799057007 -76.950080871582 -240.745925903320 1.518782615662
5.312013149261 -76.685150146484 -242.620590209961 1.051768183708
-150.022186279297 -74.142387390137 -237.120834350586 1.788229465485
-148.794143676758 -76.771217346191 -243.980972290039 1.328875064850
-46.613800048828 -77.549400329590 -242.694656372070 1.025063157082
-31.097269058228 -77.538993835449 -244.443817138672 2.449987888336
5.264311790466 -78.046157836914 -244.272308349609 1.091114878654
-37.781070709229 -77.502174377441 -244.903518676758 1.534372091293
22.939811706543 -77.255508422852 -246.141693115234 1.044116377831
-4.940816879272 -78.893920898438 -249.397064208984 1.007151007652
-147.812805175781 -76.878372192383 -253.198196411133 2.533140659332
-7.858674049377 -79.744453430176 -251.007598876953 2.579993486404
-147.088897705078 -75.861839294434 -250.789459228516 1.810307383537
-66.669250488281 -77.533660888672 -249.383499145508 1.747253894806
-148.430694580078 -82.998779296875 -260.241241455078 0.984710335732
-125.999565124512 -76.026824951172 -259.107482910156 0.543383836746
-149.999038696289 -74.375732421875 -260.168701171875 1.444212913513
-11.766812324524 -74.836456298828 -265.421173095703 2.952876806259
-145.684783935547 -79.710350036621 -268.315948486328 2.407377958298
-149.489929199219 -76.931755065918 -267.455169677734 3.155788660049
-10.074433326721 -78.032234191895 -269.488433837891 1.622832655907
-145.614990234375 -77.036979675293 -271.363891601563 1.990475416183
-4.011385917664 -76.674781799316 -277.661560058594 3.104869842529
-45.505874633789 -76.352203369141 -285.505828857422 2.997354030609
-133.494628906250 -75.532173156738 -288.856414794922 1.711076855659
-133.184539794922 -75.548271179199 -286.418914794922 0.448943972588
-124.631568908691 -74.910087585449 -285.331665039063 1.183510065079
-52.202510833740 -75.901977539063 -286.244598388672 1.680632472038
-113.527046203613 -74.410202026367 -287.028869628906 0.785711944103
16.559444427490 -76.452743530273 -289.586151123047 1.973851680756
-58.342487335205 -75.540725708008 -288.518707275391 1.328304886818
-140.824798583984 -75.706443786621 -291.864257812500 1.600857973099
-61.789184570313 -75.566398620605 -289.964538574219 1.799645423889
-142.684310913086 -79.248962402344 -292.442565917969 1.309953331947
-116.524253845215 -75.210136413574 -290.623718261719 2.296525478363
-46.187602996826 -77.148498535156 -290.066528320313 1.809213519096
-33.979503631592 -76.760749816895 -290.561187744141 1.761873960495
-134.429626464844 -74.755928039551 -293.271759033203 2.036373853683
-11.267769813538 -74.706916809082 -287.120880126953 1.244377374649
2.937782049179 -76.556350708008 -288.964874267578 1.097730278969
7.186479091644 -76.057708740234 -290.482147216797 1.592351317406
15.845250129700 -77.199623107910 -293.244262695313 1.032711982727
-148.925354003906 -77.894691467285 -297.188018798828 1.982837796211
-146.234619140625 -75.228729248047 -297.904174804688 1.600615859032
-70.062843322754 -76.395675659180 -60.537940979004 2.613388776779
86.455215454102 -76.613090515137 -72.364570617676 2.881085157394
77.351615905762 -76.878646850586 -74.888114929199 2.503213882446
-28.225236892700 -77.728820800781 -76.195487976074 1.938452720642
82.995048522949 -75.317222595215 -74.324913024902 0.451804578304
-37.559249877930 -77.462173461914 -79.640655517578 2.636131048203
84.769226074219 -75.561454772949 -78.089256286621 1.905117511749
92.711143493652 -75.182220458984 -79.539604187012 1.250277161598
-66.127159118652 -70.781661987305 -93.836128234863 2.043029785156
73.459503173828 -76.511734008789 -92.142478942871 1.880761027336
79.370353698730 -75.601402282715 -95.517303466797 0.948056221008
92.382263183594 -77.530670166016 -92.665527343750 0.855011343956
54.120758056641 -76.976264953613 -96.455451965332 1.472108602524
-73.878913879395 -77.311080932617 -101.322257995605 1.938268661499
-75.752410888672 -72.240493774414 -101.393104553223 2.057878255844
48.456558227539 -77.554130554199 -103.518318176270 1.137585163116
-90.993705749512 -77.801139831543 -104.341636657715 2.695606470108
44.721931457520 -75.506141662598 -115.998619079590 0.759084403515
109.687339782715 -75.678787231445 -116.732215881348 2.446132659912
111.624824523926 -77.268936157227 -129.450042724609 1.844668030739
24.086992263794 -75.292800903320 -136.989212036133 2.350538015366
109.490051269531 -76.773376464844 -124.695869445801 1.767795681953
26.656831741333 -75.657272338867 -133.095153808594 2.728505611420
112.724166870117 -73.801498413086 -128.143127441406 2.058827638626
37.407341003418 -75.777542114258 -133.345687866211 2.188304901123
-53.576789855957 -77.035354614258 -142.378051757813 1.717265367508
34.634727478027 -76.716293334961 -141.732147216797 2.185536861420
108.712120056152 -74.876174926758 -135.088577270508 2.264134407043
-49.615440368652 -75.648262023926 -144.072509765625 1.736473202705
31.558313369751 -76.137687683105 -147.535125732422 1.384020328522
-56.908103942871 -73.620231628418 -139.651092529297 1.487133741379
-55.734466552734 -76.820976257324 -146.364593505859 1.244408607483
-51.684471130371 -77.640129089355 -149.418548583984 1.904416561127
-65.263809204102 -77.733871459961 -155.958801269531 1.453382253647
113.376716613770 -77.884910583496 -146.246826171875 1.619933128357
-50.803806304932 -78.853828430176 -155.013153076172 2.243241310120
21.589178085327 -78.349128723145 -154.209686279297 2.456895828247
108.725852966309 -76.696861267090 -156.836517333984 2.399490594864
-66.889511108398 -75.538810729980 -155.829757690430 1.579511523247
-46.749610900879 -76.973144531250 -155.975448608398 1.860709547997
7.943271160126 -74.288681030273 -153.938537597656 1.471257328987
-68.022857666016 -75.694244384766 -158.001754760742 0.950254321098
-62.602275848389 -77.064277648926 -160.314971923828 2.024388790131
-1.166270971298 -76.321426391602 -161.351440429688 2.030736684799
-42.610630035400 -75.028060913086 -166.963012695313 1.898390054703
29.875494003296 -74.708160400391 -164.162887573242 1.098824977875
-62.770622253418 -74.730850219727 -166.273315429688 0.664981365204
-57.305385589600 -76.927406311035 -167.560684204102 1.106849193573
17.629369735718 -77.409507751465 -159.742706298828 3.662927389145
-31.318927764893 -76.004768371582 -168.611572265625 0.971498548985
-30.212266921997 -77.819389343262 -166.564208984375 0.832191765308
16.037885665894 -76.809127807617 -173.602630615234 2.914681673050
-41.737751007080 -77.593605041504 -172.470825195313 2.147892475128
-11.893589973450 -76.493896484375 -172.098358154297 1.563596606255
-62.313632965088 -74.389228820801 -172.055953979492 2.336620330811
-6.292219161987 -74.290939331055 -171.385009765625 1.346616744995
-22.978826522827 -76.595207214355 -179.069030761719 0.615091502666
23.113906860352 -74.897285461426 -180.941528320313 1.733793020248
-39.316165924072 -76.296134948730 -171.700271606445 1.220073819160
18.887104034424 -74.238822937012 -176.411270141602 0.811599135399
-23.120910644531 -73.323921203613 -183.333297729492 1.398624062538
-32.563236236572 -77.350395202637 -180.013458251953 2.019106626511
-147.689819335938 -75.104545593262 -188.881973266602 1.489353179932
-20.817998886108 -78.042732238770 -184.789230346680 0.838369965553
-143.281616210938 -75.256172180176 -189.118133544922 2.100106000900
-151.343063354492 -75.341300964355 -187.867507934570 3.158605813980
-48.314342498779 -74.897155761719 -186.973663330078 2.094974279404
98.190551757813 -75.757278442383 -192.805374145508 2.066228151321
-144.838226318359 -76.449859619141 -192.811874389648 1.312361955643
-150.804306030273 -75.837142944336 -196.952850341797 2.316671371460
21.475584030151 -75.462448120117 -196.354080200195 1.925867080688
-136.710174560547 -75.198425292969 -197.850143432617 1.526056408882
16.977705001831 -74.320144653320 -197.477493286133 2.789827108383
-139.937438964844 -76.075363159180 -198.934799194336 0.811494767666
12.962261199951 -74.373939514160 -195.856658935547 0.302821755409
-134.609268188477 -73.962318420410 -199.819396972656 1.293182730675
6.763568878174 -75.006866455078 -204.434432983398 1.869189023972
-150.217285156250 -75.492584228516 -205.536102294922 1.567414641380
93.954162597656 -75.938903808594 -202.929824829102 1.892517566681
-15.545604705811 -77.504272460938 -203.689361572266 1.834910750389
-30.334041595459 -75.272666931152 -206.922348022461 1.385646104813
-10.614734649658 -74.497611999512 -204.898452758789 1.714570045471
-147.941299438477 -77.405952453613 -212.088378906250 1.158518314362
-35.439231872559 -75.928802490234 -204.590362548828 1.519792556763
-82.347991943359 -77.491233825684 -207.994171142578 3.059436559677
-26.761434555054 -76.883384704590 -208.843292236328 2.745989322662
17.221143722534 -76.028419494629 -209.843978881836 1.359234094620
-147.304290771484 -75.373802185059 -214.196228027344 1.932443380356
-90.372879028320 -76.190254211426 -215.996780395508 0.658874213696
-29.645153045654 -74.908828735352 -214.651779174805 1.971269845963
-26.057493209839 -75.010780334473 -218.473052978516 1.018265962601
-12.236729621887 -76.721557617188 -211.380340576172 1.909496068954
-27.406396865845 -75.282005310059 -210.508071899414 1.283506989479
-81.957366943359 -75.656242370605 -218.189697265625 2.843819379807
-87.380134582520 -78.080574035645 -218.376083374023 1.294706583023
-23.529325485229 -75.705734252930 -219.380920410156 1.267308831215
-1.949231028557 -78.784576416016 -221.773193359375 1.229671716690
-151.702041625977 -76.174949645996 -217.742950439453 2.454319477081
-2.268928050995 -77.225578308105 -218.622512817383 0.401176840067
85.687370300293 -77.756462097168 -223.172637939453 1.456204652786
-141.327575683594 -77.580329895020 -224.844284057617 1.056053280830
-7.562736988068 -76.795967102051 -222.184341430664 1.763174176216
-140.637817382813 -76.761596679688 -226.856781005859 1.354011297226
-146.912155151367 -82.525024414063 -227.039245605469 1.068275094032
-6.288839817047 -74.696754455566 -228.579879760742 2.460560560226
18.010866165161 -76.025512695313 -218.282470703125 1.065081596375
-140.139312744141 -74.883811950684 -229.924270629883 1.549778819084
-16.046518325806 -76.318161010742 -228.126876831055 1.076181411743
76.292297363281 -76.425857543945 -225.219314575195 3.041138887405
76.470252990723 -75.708457946777 -230.518905639648 1.581684947014
9.167235374451 -76.665016174316 -229.950119018555 2.293089628220
-28.971229553223 -77.171630859375 -236.662643432617 3.321929216385
-19.922609329224 -79.537834167480 -240.289916992188 1.837405681610
5.109933853149 -74.544647216797 -242.248672485352 1.559949159622
-47.192794799805 -73.739540100098 -242.049209594727 1.356283187866
-22.165952682495 -75.169219970703 -242.246978759766 2.092834711075
9.098813056946 -74.742095947266 -241.052886962891 2.279610157013
-63.056701660156 -75.951927185059 -245.154800415039 0.942811608315
-32.400440216064 -77.422401428223 -243.167251586914 1.151064395905
-41.131256103516 -74.208862304688 -244.699584960938 1.798995971680
-149.036972045898 -74.951179504395 -246.730545043945 2.170866966248
-45.886844635010 -77.414558410645 -247.035140991211 1.311486363411
-52.893482208252 -73.292091369629 -247.619003295898 2.763761997223
-66.086730957031 -75.910064697266 -249.847274780273 2.419260501862
-10.369659423828 -77.319587707520 -248.540390014648 2.998982906342
-79.969322204590 -75.908073425293 -253.310226440430 0.959373354912
-155.021957397461 -79.700889587402 -256.194305419922 1.076672434807
-141.037384033203 -76.064346313477 -256.160278320313 2.552682161331
-123.569648742676 -76.194221496582 -260.722747802734 2.638940095901
-154.752273559570 -72.783973693848 -262.758300781250 2.348906517029
21.010864257813 -78.787902832031 -263.270751953125 2.284636020660
-12.602602005005 -77.132461547852 -267.610626220703 2.198093652725
-151.420654296875 -77.625976562500 -272.932952880859 1.745751619339
-150.688369750977 -79.433204650879 -278.446258544922 1.254965543747
-143.959625244141 -78.918334960938 -285.475128173828 2.072610139847
-57.237579345703 -73.130950927734 -283.356292724609 3.143385410309
-37.696228027344 -73.774925231934 -285.601135253906 1.547408819199
-22.243190765381 -73.792816162109 -286.896575927734 3.408466100693
-10.671278953552 -74.358749389648 -283.200073242188 3.113820791245
-64.824981689453 -76.912788391113 -286.268920898438 2.832061290741
-78.929855346680 -76.603630065918 -286.639129638672 1.777710914612
-2.407453060150 -76.449935913086 -285.003906250000 2.066607952118
7.312266826630 -76.280769348145 -288.623199462891 1.100834369659
-136.324981689453 -74.798233032227 -289.306243896484 1.330331325531
-77.931800842285 -74.330078125000 -287.859436035156 1.832897424698
-146.527206420898 -75.255683898926 -288.867645263672 2.211931705475
-93.371627807617 -78.296234130859 -287.650756835938 3.372239112854
-77.610549926758 -75.169013977051 -288.017272949219 1.364897966385
-83.546714782715 -73.899116516113 -292.514343261719 2.096744537354
-60.069721221924 -75.184310913086 -290.727508544922 1.512923359871
-26.855403900146 -72.706970214844 -292.401245117188 1.475558519363
-4.445061206818 -75.244377136230 -290.780364990234 2.575054883957
-151.790466308594 -72.137283325195 -296.741149902344 1.538146376610
-149.782226562500 -74.622749328613 -300.783142089844 2.826192855835
-144.274520874023 -75.736061096191 -303.126281738281 1.264871358871
-154.833221435547 -75.339118957520 -307.060546875000 1.377058148384
-58.613010406494 -74.355697631836 -54.980636596680 2.397449493408
-47.838050842285 -74.477645874023 -52.642406463623 2.293456315994
-40.494815826416 -75.625000000000 -54.417499542236 2.860739707947
-77.666915893555 -76.543235778809 -59.890316009521 2.615034580231
-30.207220077515 -74.913772583008 -62.431068420410 3.741947412491
-33.182189941406 -75.498214721680 -78.767074584961 2.699230670929
74.039802551270 -77.432868957520 -79.347572326660 2.872120857239
74.184402465820 -76.822578430176 -79.330459594727 2.350612640381
73.056030273438 -75.412208557129 -82.277175903320 1.911480784416
96.432418823242 -74.164390563965 -87.944091796875 2.297871828079
70.469436645508 -77.045791625977 -87.826103210449 3.433484792709
50.484390258789 -76.525184631348 -90.071983337402 3.474101543427
48.046043395996 -78.844520568848 -98.584182739258 2.192547559738
-68.200149536133 -75.219329833984 -100.254447937012 2.099963903427
-73.663146972656 -70.116996765137 -101.586219787598 1.844275236130
44.008476257324 -76.530448913574 -101.901611328125 1.898279786110
-83.283241271973 -79.151100158691 -108.918067932129 2.641484737396
-94.338768005371 -74.055992126465 -111.786949157715 1.683737277985
49.967998504639 -75.289527893066 -105.099212646484 1.126286149025
106.585716247559 -74.792434692383 -109.898216247559 1.767956256866
31.742013931274 -77.187248229980 -120.501045227051 1.532830357552
43.879570007324 -76.307556152344 -117.386344909668 1.385880112648
40.934364318848 -75.906608581543 -123.472045898438 0.354590713978
28.957593917847 -76.565971374512 -123.045402526855 1.953504204750
108.093170166016 -75.542640686035 -117.529891967773 2.448686122894
38.644580841064 -76.726310729980 -128.079833984375 2.419397830963
30.864965438843 -73.397369384766 -129.892929077148 2.344114303589
-46.743400573730 -75.226455688477 -143.184692382813 1.852508068085
-72.243110656738 -76.385429382324 -144.806777954102 1.423569440842
-54.783073425293 -74.127136230469 -145.271881103516 1.759110569954
-72.647315979004 -76.799232482910 -145.859222412109 1.093419790268
-41.241645812988 -74.217056274414 -146.670288085938 1.904434442520
107.384529113770 -74.467643737793 -150.333251953125 2.240708827972
-72.341018676758 -76.323570251465 -155.220550537109 2.959420442581
23.340854644775 -77.094833374023 -147.276519775391 1.395886063576
31.104085922241 -76.999252319336 -150.673233032227 1.742226958275
113.097595214844 -76.990455627441 -158.014129638672 0.899880051613
8.669118881226 -76.256706237793 -158.214782714844 0.791441500187
31.454505920410 -74.324356079102 -154.087738037109 1.724693894386
-64.932640075684 -75.731277465820 -158.727569580078 1.789602398872
-42.981414794922 -76.298324584961 -169.655960083008 2.897577285767
19.241424560547 -74.307090759277 -162.109725952148 1.934356927872
-64.729011535645 -74.297653198242 -161.100585937500 0.481072187424
-69.198120117188 -75.650802612305 -164.974899291992 2.989327430725
109.414398193359 -76.381950378418 -163.923355102539 0.878248214722
-7.989435195923 -75.596969604492 -166.560150146484 1.692974328995
-63.312641143799 -75.050529479980 -174.662994384766 1.237902522087
-30.839963912964 -76.057319641113 -168.733398437500 1.004769325256
-55.512077331543 -74.241104125977 -172.757919311523 2.015433788300
28.349655151367 -75.282333374023 -169.750946044922 0.980211734772
110.075271606445 -74.348457336426 -170.686523437500 1.463860630989
102.392219543457 -75.135192871094 -181.463882446289 2.385194301605
106.246765136719 -75.653366088867 -187.157516479492 2.404564619064
106.837379455566 -74.254234313965 -175.353179931641 1.271639347076
-53.054382324219 -74.777458190918 -188.680740356445 1.307100415230
-50.546604156494 -73.250236511230 -182.184967041016 3.025505781174
25.942573547363 -75.997756958008 -181.871353149414 1.748093605042
-49.566097259521 -73.854843139648 -187.274505615234 1.025056123734
-20.512498855591 -75.959449768066 -183.687225341797 2.311174631119
-51.009166717529 -76.358963012695 -191.080947875977 0.182460248470
-150.845169067383 -74.953102111816 -193.653640747070 1.399977326393
101.313171386719 -76.056198120117 -191.059585571289 1.754725813866
-45.079639434814 -73.429267883301 -192.826034545898 1.787346720695
-15.691107749939 -76.568733215332 -197.060562133789 2.221781969070
-140.540893554688 -76.014602661133 -195.967300415039 1.260878682137
-44.340728759766 -73.522247314453 -196.445358276367 3.193484067917
102.510787963867 -75.233642578125 -195.311416625977 1.463854193687
106.275192260742 -74.423370361328 -183.944427490234 1.823837161064
-45.396614074707 -75.202697753906 -196.334457397461 1.933986663818
-23.743816375732 -78.782470703125 -196.425094604492 1.133145809174
-148.544403076172 -79.658271789551 -200.166122436523 2.013573884964
-25.144172668457 -76.171012878418 -196.897689819336 0.416042268276
-156.204483032227 -76.362312316895 -199.161254882813 1.766345977783
-152.881271362305 -79.444213867188 -203.921447753906 2.043430566788
-142.444488525391 -76.984832763672 -202.309005737305 2.146749258041
-38.493400573730 -75.610580444336 -198.553344726563 2.125406742096
100.740486145020 -75.546028137207 -198.682678222656 1.478780269623
-40.459064483643 -73.691078186035 -198.974319458008 1.102757573128
-143.869003295898 -78.276550292969 -205.474838256836 1.139175534248
-38.173084259033 -72.891563415527 -205.314941406250 1.196464300156
-19.951829910278 -78.067581176758 -209.089492797852 2.914466857910
96.508499145508 -76.164604187012 -202.852050781250 1.656868338585
91.904991149902 -75.675163269043 -210.396896362305 1.161266326904
-32.839862823486 -74.196548461914 -216.395492553711 2.258243083954
-87.026382446289 -75.835433959961 -211.387390136719 1.166394710541
-75.671684265137 -75.392089843750 -211.475555419922 0.945437312126
-18.264003753662 -75.394828796387 -215.090057373047 2.673139810562
-149.803741455078 -75.318733215332 -208.683547973633 2.686194896698
89.394493103027 -75.650283813477 -211.194152832031 1.398954629898
89.237876892090 -74.595123291016 -216.401290893555 1.467667937279
90.466056823730 -74.923370361328 -217.699417114258 0.910326421261
-101.919151306152 -74.495445251465 -221.235900878906 1.636289238930
-152.038024902344 -77.480285644531 -223.187133789063 1.923802852631
-19.749540328979 -74.590278625488 -221.072463989258 1.669386148453
79.571708679199 -73.884117126465 -223.359313964844 1.384422302246
-149.134628295898 -77.912834167480 -225.810928344727 2.518402576447
-27.300855636597 -75.991989135742 -219.247009277344 2.109495162964
-132.878479003906 -74.073104858398 -230.723937988281 1.047695875168
-12.040513038635 -77.083999633789 -228.135986328125 1.506661653519
17.748689651489 -74.966529846191 -223.094238281250 1.327448129654
19.565193176270 -76.012458801270 -231.066726684570 1.555589914322
-154.222366333008 -78.198272705078 -234.179992675781 2.515156507492
-125.315788269043 -72.768951416016 -233.104904174805 1.355109810829
-7.963044166565 -74.350822448730 -234.021163940430 1.102173566818
0.229909002781 -74.697685241699 -235.871932983398 1.831868171692
69.440422058105 -74.932815551758 -232.149703979492 1.596732616425
71.686462402344 -73.292472839355 -235.444931030273 1.451763272285
-0.197034999728 -74.526611328125 -239.226364135742 1.682584404945
16.864538192749 -72.639328002930 -238.256042480469 1.865793347359
-29.239891052246 -71.282722473145 -239.349334716797 3.427393198013
-34.183132171631 -78.319290161133 -240.325698852539 2.248504400253
-45.497512817383 -74.246978759766 -239.733169555664 1.396011829376
-38.264060974121 -73.527389526367 -240.933486938477 2.058133125305
-17.809930801392 -76.224105834961 -241.717071533203 1.133000493050
-52.475261688232 -73.791999816895 -243.080764770508 2.046237230301
2.234791040421 -75.132743835449 -243.889801025391 1.515156388283
-67.762619018555 -74.628204345703 -244.661300659180 2.452622175217
20.522834777832 -75.450157165527 -245.752777099609 1.002369046211
-144.883712768555 -76.838233947754 -246.287353515625 1.626648426056
-72.100433349609 -76.865730285645 -250.246948242188 1.755848407745
14.972526550293 -76.856536865234 -247.447860717773 2.183474063873
-161.150146484375 -74.057220458984 -250.252365112305 1.420838236809
16.599788665771 -77.425926208496 -250.947723388672 1.031323313713
-79.373107910156 -72.872268676758 -250.508407592773 2.543229579926
-74.479591369629 -75.656356811523 -250.858352661133 1.437536716461
20.692403793335 -75.998519897461 -254.251998901367 2.247312784195
-88.642234802246 -74.307891845703 -252.930862426758 1.790378570557
-125.250328063965 -73.320594787598 -255.851486206055 1.004832029343
-133.854476928711 -75.932991027832 -259.392120361328 1.438625097275
-134.009231567383 -76.488830566406 -256.565277099609 1.246362328529
-146.843063354492 -74.576934814453 -261.082153320313 1.733257889748
-142.901702880859 -73.425186157227 -257.316955566406 1.652092337608
-134.821456909180 -73.481140136719 -262.224761962891 1.295922636986
-161.221511840820 -73.183288574219 -261.794494628906 1.950495719910
-125.951873779297 -73.468238830566 -265.887420654297 2.637714624405
-134.268005371094 -72.918014526367 -262.835876464844 1.820859909058
-164.054489135742 -72.965065002441 -266.528564453125 2.824863910675
-156.990005493164 -72.926948547363 -264.600219726563 1.722579598427
-149.668762207031 -73.536407470703 -266.035766601563 2.322286605835
-147.125274658203 -74.854278564453 -266.221588134766 1.166350603104
16.925033569336 -77.272903442383 -276.988677978516 1.603693127632
-165.458145141602 -74.390357971191 -268.702880859375 2.377251863480
-151.659393310547 -74.816558837891 -274.131072998047 1.906910538673
-5.660361766815 -80.683906555176 -272.302001953125 1.859063386917
-158.159072875977 -73.252830505371 -271.723876953125 2.909635782242
12.914989471436 -78.357566833496 -279.821929931641 1.678954482079
-151.406051635742 -74.367355346680 -282.755279541016 0.718259572983
-162.954879760742 -75.004226684570 -287.999847412109 2.458703756332
-153.960113525391 -75.498336791992 -282.395996093750 1.862695217133
-164.834808349609 -73.683921813965 -287.708923339844 2.224450111389
2.507380008698 -76.353416442871 -286.532318115234 1.675009250641
7.962896823883 -78.135948181152 -282.753570556641 2.483458995819
-99.377883911133 -73.640090942383 -289.746490478516 2.388090848923
-151.950561523438 -76.835853576660 -288.317657470703 2.741031408310
-147.837615966797 -73.376365661621 -287.067230224609 1.831125378609
-107.515724182129 -73.810173034668 -290.046478271484 1.182355999947
-150.930770874023 -75.612495422363 -291.793243408203 1.750991821289
-147.920639038086 -76.031539916992 -290.412048339844 1.270018219948
-69.687690734863 -75.924468994141 -291.665008544922 2.290340900421
-163.817993164063 -75.576469421387 -290.641448974609 0.800210058689
-122.828575134277 -72.755172729492 -291.686859130859 1.244277596474
-42.740791320801 -76.929527282715 -288.608489990234 1.991786599159
-154.011413574219 -74.353210449219 -289.689361572266 2.008672714233
-133.559310913086 -71.377838134766 -293.766998291016 0.802454471588
-17.065464019775 -73.230033874512 -292.291992187500 1.412163138390
-126.674987792969 -73.106300354004 -294.009918212891 1.340066075325
6.237717151642 -75.355484008789 -292.725463867188 0.927416682243
16.138622283936 -73.481628417969 -291.329193115234 1.761197686195
-133.090255737305 -73.227912902832 -292.775451660156 2.389120340347
-145.103744506836 -75.217994689941 -296.856201171875 2.787252187729
-155.246322631836 -75.197654724121 -313.642395019531 3.027984619141
-73.955612182617 -71.354469299316 -51.944309234619 1.242419481277
-24.087743759155 -71.226608276367 -61.796695709229 3.368989944458
-22.243522644043 -75.775505065918 -64.316055297852 2.235112905502
72.073295593262 -73.395149230957 -74.153923034668 2.743772983551
90.012641906738 -74.886718750000 -73.576515197754 0.761751770973
-38.868450164795 -74.076919555664 -77.802947998047 1.104380965233
73.379302978516 -74.610923767090 -76.766838073730 1.491164803505
87.716430664063 -77.593940734863 -79.737991333008 1.398432135582
67.629333496094 -74.502159118652 -81.181381225586 3.597450971603
70.998298645020 -74.524917602539 -85.703765869141 1.215423703194
-50.898834228516 -76.387512207031 -86.662681579590 1.745070695877
-93.152763366699 -76.103256225586 -87.752388000488 3.886068105698
57.068962097168 -75.805259704590 -92.045417785645 2.637651205063
48.706050872803 -75.483268737793 -96.681053161621 1.458572626114
93.108970642090 -73.545791625977 -95.684219360352 2.400702476501
-94.246673583984 -71.869064331055 -101.901824951172 3.129426240921
81.818321228027 -73.256469726563 -96.482444763184 2.724802017212
72.704971313477 -74.871665954590 -97.327217102051 0.684956789017
90.716758728027 -75.627517700195 -96.348457336426 1.348506450653
81.670539855957 -74.024642944336 -96.955757141113 1.991890430450
83.245552062988 -76.980537414551 -96.243675231934 2.319511890411
-84.634017944336 -76.032363891602 -102.293228149414 4.649042606354
40.358032226563 -74.414916992188 -106.473197937012 0.883547723293
104.735031127930 -75.206268310547 -108.528831481934 0.935443103313
107.759925842285 -74.945365905762 -108.578636169434 2.201964616776
46.069427490234 -76.118530273438 -116.224624633789 1.512704253197
