-45.401905059814 -74.214477539063 -145.396820068359 0.540509164333
-72.206542968750 -72.918876647949 -152.254760742188 1.658687591553
19.322822570801 -74.058479309082 -150.095901489258 3.293229341507
111.726814270020 -74.006965637207 -147.438323974609 1.934897303581
-54.407531738281 -75.079246520996 -151.458450317383 1.868868827820
-71.635787963867 -73.053695678711 -151.958007812500 1.695944428444
-39.719230651855 -77.254211425781 -154.046157836914 1.542281866074
31.768232345581 -71.247718811035 -151.912628173828 1.706194996834
109.754379272461 -73.422554016113 -148.936325073242 1.414179205894
113.576095581055 -74.391250610352 -156.896865844727 1.929746270180
-69.177680969238 -71.846771240234 -156.129821777344 1.845778942108
-72.018829345703 -75.158424377441 -163.491744995117 3.605887889862
20.833951950073 -76.848571777344 -162.590042114258 1.147416472435
-60.619621276855 -72.837211608887 -168.174880981445 0.545340180397
-33.801940917969 -73.949851989746 -162.647186279297 2.312486410141
6.645113945007 -75.299720764160 -162.810317993164 1.286137819290
108.827316284180 -74.108421325684 -159.109237670898 1.237173318863
5.777696132660 -76.394226074219 -165.856689453125 1.793104290962
-33.799655914307 -74.819015502930 -166.317886352539 0.659894406796
-1.652784943581 -72.297561645508 -166.418243408203 1.950043559074
107.561019897461 -73.369773864746 -166.237319946289 1.625606060028
-41.818565368652 -72.204750061035 -167.838867187500 0.992524087429
27.910154342651 -72.354331970215 -170.686019897461 1.668103933334
111.488990783691 -76.612533569336 -169.709457397461 1.880322456360
-57.723335266113 -72.167579650879 -177.969802856445 2.403542757034
-28.918317794800 -76.029663085938 -174.692138671875 1.473873734474
103.295326232910 -74.754219055176 -171.399673461914 2.427328109741
28.390747070313 -73.608116149902 -170.149826049805 1.246491670609
109.028594970703 -76.713768005371 -172.062515258789 1.627640962601
-37.330543518066 -72.566390991211 -178.384201049805 2.444400310516
107.144828796387 -76.370834350586 -177.994995117188 2.434612512589
-61.377769470215 -72.960998535156 -179.155517578125 3.529302358627
-25.725074768066 -77.362358093262 -180.144729614258 0.985224068165
-145.967483520508 -70.991493225098 -186.651565551758 2.605946302414
-54.533954620361 -73.677787780762 -183.169723510742 1.630357265472
-147.078704833984 -74.140007019043 -190.175918579102 2.367866992950
-33.665035247803 -72.915809631348 -186.872772216797 1.900383591652
25.194961547852 -76.815422058105 -183.034072875977 0.600673615932
106.632957458496 -75.227638244629 -180.544372558594 1.099844932556
-32.719570159912 -75.239624023438 -185.925201416016 1.156771659851
11.242339134216 -75.275848388672 -190.434906005859 1.466146945953
18.267831802368 -74.403923034668 -201.892288208008 1.344355702400
-147.480361938477 -74.463668823242 -194.522048950195 2.780805110931
104.129180908203 -76.079040527344 -192.793518066406 1.749883413315
-20.006958007813 -72.341560363770 -193.918624877930 2.276963472366
101.691802978516 -75.401809692383 -186.533508300781 2.996906042099
13.392089843750 -72.994438171387 -188.519149780273 1.963339924812
-134.633941650391 -73.555053710938 -205.808807373047 2.988073110580
-139.296188354492 -74.063026428223 -203.705444335938 2.941229820251
99.165184020996 -76.355857849121 -198.798980712891 1.657714128494
-11.781793594360 -77.361824035645 -201.053802490234 2.294845104218
-15.511781692505 -75.610603332520 -202.516113281250 1.470267176628
10.379547119141 -76.095703125000 -207.064880371094 1.285600304604
-149.695053100586 -71.913002014160 -209.491271972656 3.040185451508
-145.683731079102 -75.198562622070 -210.819717407227 1.434674739838
99.716636657715 -72.512840270996 -201.589904785156 1.241358757019
-80.190406799316 -73.747299194336 -210.656188964844 0.585447311401
-36.295486450195 -74.507675170898 -203.320861816406 2.873448133469
18.464521408081 -76.344841003418 -211.787887573242 2.625105381012
-25.116218566895 -74.827705383301 -211.975448608398 0.584359645844
-77.080612182617 -73.028182983398 -211.198806762695 0.849005997181
91.423271179199 -74.966690063477 -207.963027954102 2.318656206131
-80.669677734375 -72.455436706543 -214.576049804688 1.450957655907
-146.250366210938 -74.651245117188 -221.951873779297 0.939263105392
-79.175880432129 -73.516090393066 -215.743377685547 1.230792880058
-13.741488456726 -71.326614379883 -211.762435913086 2.014880657196
-20.118383407593 -72.660644531250 -218.711929321289 1.643637537956
19.082813262939 -74.129455566406 -212.032287597656 1.994283199310
-5.055203914642 -75.700790405273 -218.116180419922 1.250903367996
-87.491645812988 -75.475433349609 -220.837951660156 2.752502441406
92.866752624512 -74.433227539063 -211.294403076172 1.076237678528
-96.695854187012 -73.766769409180 -218.292098999023 2.338985681534
-150.394088745117 -74.037933349609 -227.112533569336 1.854893326759
-22.011472702026 -73.493202209473 -223.709899902344 1.556361913681
17.607343673706 -74.650779724121 -215.870880126953 1.976324558258
-101.198348999023 -73.828063964844 -222.569580078125 1.251140117645
8.131899833679 -73.008865356445 -219.591186523438 2.303323507309
-24.112487792969 -74.684753417969 -216.888824462891 0.827650487423
83.923767089844 -73.957878112793 -221.817413330078 1.026808381081
-145.080108642578 -73.891700744629 -223.972869873047 2.096386194229
8.754142761230 -73.108230590820 -225.602874755859 2.349416971207
-8.709403038025 -76.843215942383 -224.608993530273 1.239742636681
18.099185943604 -70.606460571289 -221.499404907227 1.261759042740
84.140274047852 -75.379142761230 -220.010162353516 2.511547327042
-12.179187774658 -75.675994873047 -228.455734252930 2.598538160324
-129.747955322266 -74.422447204590 -229.545593261719 1.720880031586
-12.329378128052 -75.015197753906 -225.011322021484 1.351158022881
17.754713058472 -75.542381286621 -231.924728393555 1.093351006508
-125.172920227051 -75.277259826660 -230.504592895508 1.829170942307
-149.523208618164 -71.274917602539 -232.389785766602 3.223215579987
-141.010253906250 -73.087188720703 -232.310806274414 1.525055766106
-131.465728759766 -72.584236145020 -232.175582885742 2.194551467896
-13.366843223572 -73.376594543457 -226.289627075195 1.126740455627
72.680130004883 -74.566139221191 -227.130187988281 2.295743465424
-141.489120483398 -71.486656188965 -237.914794921875 2.768564701080
73.013771057129 -76.014816284180 -227.384841918945 2.978322505951
-19.114856719971 -76.891639709473 -229.174636840820 0.599778831005
-141.138214111328 -77.146385192871 -233.613464355469 2.479368686676
78.656852722168 -77.437416076660 -226.740386962891 0.759337544441
10.402145385742 -77.309219360352 -234.180511474609 1.504934668541
-141.508239746094 -78.014976501465 -238.269866943359 4.477053165436
-149.298202514648 -72.927024841309 -238.114456176758 3.357016086578
17.281946182251 -72.389480590820 -231.640914916992 1.384849786758
-1.788869976997 -75.843719482422 -236.883605957031 1.169196605682
-25.403814315796 -74.228073120117 -238.149948120117 1.644261837006
-0.602733016014 -71.475730895996 -238.544845581055 1.789830684662
-159.811538696289 -74.835128784180 -241.611251831055 1.632204771042
10.505946159363 -74.400001525879 -243.886032104492 1.656974196434
-163.535293579102 -73.678215026855 -241.548034667969 2.722158908844
-12.265069007874 -75.553573608398 -238.193664550781 2.050752162933
64.319244384766 -75.453369140625 -237.715377807617 2.157000541687
-11.678084373474 -74.050170898438 -239.453323364258 1.881686091423
-23.609750747681 -73.424186706543 -243.230667114258 1.310503005981
-24.220293045044 -73.921768188477 -242.472595214844 1.032178759575
-12.933512687683 -75.364334106445 -241.812423706055 2.933767318726
-145.276870727539 -73.712203979492 -236.373596191406 2.340848445892
9.431738853455 -74.306632995605 -242.727966308594 1.426181793213
65.515899658203 -74.315711975098 -241.478561401367 2.002843618393
15.369988441467 -73.240295410156 -244.799148559570 1.932404875755
-162.964569091797 -72.397277832031 -244.926330566406 2.549797534943
-48.614704132080 -73.330291748047 -243.316528320313 1.010589361191
4.542817115784 -80.689498901367 -247.572372436523 2.035905599594
18.053644180298 -74.407333374023 -244.501419067383 2.491410732269
-53.140945434570 -73.295150756836 -248.452316284180 2.860630273819
-2.050446033478 -71.829200744629 -247.299072265625 2.967088460922
22.405420303345 -77.612182617188 -246.925933837891 1.077789306641
-166.044326782227 -72.430786132813 -252.745956420898 1.234431266785
-67.621162414551 -76.388389587402 -249.304214477539 1.455365180969
-49.741409301758 -73.671836853027 -248.530059814453 1.583027005196
-78.718986511230 -73.718688964844 -252.403762817383 2.434889316559
-159.078582763672 -73.898216247559 -251.334762573242 2.802201986313
-149.357604980469 -70.224884033203 -254.380981445313 3.160349130630
-58.425533294678 -75.474136352539 -251.076492309570 2.579152345657
-67.419021606445 -74.076354980469 -252.382873535156 1.904563665390
-152.098739624023 -72.281883239746 -256.926879882813 2.076769590378
-150.496109008789 -73.830810546875 -256.229156494141 1.631431579590
-75.060630798340 -72.243476867676 -256.025604248047 2.122975587845
-91.863487243652 -72.290550231934 -256.774414062500 1.423092603683
-163.618637084961 -70.662178039551 -255.595001220703 2.713202476501
-154.845046997070 -73.539299011230 -262.729919433594 1.721912741661
-132.845062255859 -74.533615112305 -260.463165283203 1.599797368050
-81.572494506836 -74.246345520020 -254.436981201172 0.437186300755
-160.943099975586 -71.770347595215 -256.630187988281 2.736315965652
-140.387329101563 -72.624763488770 -260.269531250000 2.910695075989
-84.150627136230 -73.228706359863 -255.086074829102 0.877768635750
-94.583496093750 -71.679039001465 -261.948974609375 3.446398258209
-144.679779052734 -74.081085205078 -260.174560546875 2.077645778656
-92.566146850586 -73.481704711914 -258.773376464844 1.699057817459
-149.789916992188 -72.492675781250 -260.287078857422 1.384177327156
-99.845809936523 -73.342582702637 -258.796295166016 0.951945185661
-165.559753417969 -73.107666015625 -263.235473632813 2.154065132141
-159.360366821289 -74.238769531250 -265.752502441406 2.669400691986
-123.910964965820 -75.212570190430 -260.087310791016 2.009693145752
-149.530654907227 -73.354156494141 -263.200439453125 2.120810508728
-111.394744873047 -72.030052185059 -264.323974609375 2.855946302414
-12.921348571777 -73.849014282227 -262.294555664063 2.540522336960
-140.382522583008 -73.358894348145 -264.924499511719 1.983467340469
-123.528495788574 -73.274818420410 -263.360443115234 0.965439379215
-152.965774536133 -72.504524230957 -266.208801269531 1.114457368851
24.700344085693 -75.224060058594 -269.463226318359 2.731568574905
-145.954635620117 -75.337928771973 -281.961669921875 1.197166085243
-165.839553833008 -73.719200134277 -283.113800048828 1.611874461174
-5.636266231537 -75.456092834473 -279.565399169922 1.975690364838
-144.191497802734 -74.020118713379 -284.921752929688 0.768180787563
-6.601769924164 -73.557586669922 -283.261077880859 2.262386560440
15.077020645142 -74.536605834961 -285.485992431641 1.354610562325
-134.038238525391 -73.157005310059 -289.564300537109 1.763405203819
-67.310371398926 -75.192649841309 -288.472167968750 1.781988620758
-31.031894683838 -75.821762084961 -288.215270996094 1.508266210556
-110.910339355469 -73.515151977539 -288.437103271484 1.445955872536
-91.834587097168 -76.362419128418 -292.835601806641 3.090855598450
-87.841064453125 -74.046836853027 -293.673553466797 3.501923322678
-46.704803466797 -75.320465087891 -292.767883300781 2.676855087280
-113.546516418457 -76.311248779297 -292.451110839844 3.071323633194
-110.133399963379 -74.656707763672 -293.188690185547 2.992034196854
-30.280586242676 -72.838150024414 -290.968078613281 1.690945148468
-112.061988830566 -73.649467468262 -295.462219238281 3.184803247452
-123.793037414551 -70.917724609375 -294.308349609375 1.377385377884
-141.615921020508 -74.875923156738 -296.715026855469 4.385272026062
9.668405532837 -74.138961791992 -291.908172607422 2.473586797714
18.115560531616 -76.160758972168 -293.319000244141 2.385790824890
-156.338882446289 -73.763816833496 -297.309295654297 2.790136814117
-154.249069213867 -76.451866149902 -304.613525390625 1.670341610909
-143.100036621094 -74.832244873047 -314.587005615234 3.073958396912
-148.351333618164 -72.427070617676 -315.115844726563 2.416801214218
-149.476623535156 -75.886184692383 -316.889099121094 4.504197597504
25.179533004761 -74.544479370117 -15.042655944824 2.967544317245
24.416236877441 -71.735359191895 -17.017965316772 0.649469435215
17.656547546387 -73.010581970215 -23.196065902710 3.954654693604
25.199645996094 -71.700218200684 -38.786785125732 1.125909328461
-60.870948791504 -71.428237915039 -51.004837036133 2.118756771088
-68.697158813477 -71.764175415039 -51.650894165039 1.317919492722
-41.864048004150 -74.184486389160 -52.266273498535 1.717258572578
-86.016952514648 -70.544517517090 -63.385738372803 2.446948289871
79.030998229980 -76.078308105469 -71.549896240234 2.647989749908
-19.720359802246 -72.611656188965 -71.431732177734 1.723519563675
86.112838745117 -74.724990844727 -66.343254089355 2.102489471436
95.916427612305 -73.584053039551 -75.538528442383 1.359414577484
-95.501007080078 -71.317863464355 -79.733177185059 1.394160985947
66.151107788086 -73.551002502441 -78.820831298828 3.687655210495
-44.226734161377 -76.488197326660 -86.088577270508 2.090528488159
97.983085632324 -72.520347595215 -80.565612792969 1.854290485382
-56.836490631104 -72.693588256836 -90.380088806152 2.202991485596
49.440303802490 -73.868041992188 -89.338813781738 3.263111591339
69.180885314941 -77.252815246582 -89.592041015625 3.520710945129
54.268493652344 -73.417366027832 -95.466659545898 1.709479093552
50.766723632813 -75.471527099609 -97.219245910645 0.826902449131
71.572036743164 -76.296272277832 -93.686531066895 2.892780780792
44.044254302979 -73.956085205078 -102.288879394531 1.180492162704
99.812324523926 -74.690605163574 -97.619461059570 0.823228597641
104.350265502930 -76.888076782227 -103.161437988281 3.040024995804
79.426628112793 -71.220268249512 -101.331535339355 0.604063570499
88.530532836914 -75.118309020996 -100.448204040527 2.206745862961
99.130157470703 -74.166687011719 -93.832183837891 2.958548545837
107.178871154785 -74.167396545410 -100.804374694824 1.485662341118
37.504291534424 -74.337623596191 -105.033645629883 2.982657432556
110.274314880371 -72.024597167969 -116.563499450684 1.471287965775
111.683982849121 -75.300605773926 -115.802772521973 3.880056858063
30.589952468872 -73.070724487305 -122.238929748535 2.697821378708
43.257598876953 -74.809776306152 -118.326324462891 2.174333095551
113.836807250977 -74.482528686523 -126.194625854492 1.543485045433
36.191005706787 -73.748634338379 -125.764640808105 2.696370840073
112.608642578125 -76.393371582031 -125.459724426270 2.081705093384
107.787803649902 -74.794486999512 -119.716979980469 0.578760325909
24.843461990356 -73.800865173340 -136.089691162109 1.848709106445
-49.763160705566 -73.687454223633 -135.920715332031 1.160999417305
-53.293174743652 -72.152107238770 -136.839920043945 1.267920136452
110.029602050781 -73.596450805664 -132.019760131836 1.536336302757
-71.180809020996 -75.776473999023 -142.977523803711 1.780413269997
-74.677978515625 -74.068435668945 -142.259918212891 2.247273683548
-59.223484039307 -74.067703247070 -143.945541381836 2.609738349915
31.700494766235 -73.460296630859 -142.057754516602 2.181437015533
113.427337646484 -75.352615356445 -142.415115356445 2.021607637405
-69.722770690918 -71.144538879395 -148.531799316406 0.965460717678
-48.072490692139 -72.768417358398 -144.707962036133 2.352018117905
33.040027618408 -74.766944885254 -149.539764404297 1.394100904465
-68.774116516113 -74.320228576660 -149.702819824219 1.082284212112
112.863319396973 -73.731262207031 -139.578094482422 0.996218144894
111.621185302734 -73.195610046387 -154.669128417969 1.502039432526
115.561714172363 -75.461868286133 -149.277313232422 2.268508672714
-38.916950225830 -75.290687561035 -154.521133422852 1.214448690414
-65.617469787598 -73.859237670898 -165.345962524414 1.515038371086
-71.029212951660 -71.749366760254 -158.689819335938 2.343096971512
30.133409500122 -74.871253967285 -147.094390869141 3.119368553162
-2.526587963104 -75.506362915039 -162.349502563477 1.066852092743
108.147270202637 -74.730155944824 -158.329833984375 1.212607741356
110.920364379883 -73.293006896973 -150.761474609375 1.559090852737
111.452095031738 -75.471572875977 -154.954879760742 1.899283766747
-64.699691772461 -70.995429992676 -163.009963989258 1.557877659798
-45.983848571777 -75.160736083984 -164.976547241211 0.986073076725
-1.851194977760 -72.992790222168 -165.133148193359 1.772864341736
-28.206569671631 -73.532249450684 -175.585723876953 2.956174850464
105.877494812012 -74.035675048828 -164.219711303711 2.986218929291
-35.857521057129 -75.504119873047 -161.143402099609 1.182863235474
109.551406860352 -73.439094543457 -166.274093627930 0.831953108311
-41.866867065430 -74.309753417969 -174.296203613281 1.507768034935
108.785484313965 -73.011650085449 -165.171173095703 1.984731316566
-150.261962890625 -73.747032165527 -184.529067993164 2.011971473694
-27.711477279663 -71.012489318848 -177.097122192383 1.267539739609
-20.686971664429 -73.612144470215 -183.511184692383 1.684752941132
24.975305557251 -76.159324645996 -176.687728881836 1.567203760147
15.643466949463 -74.291450500488 -182.317031860352 0.757423460484
27.104812622070 -74.279212951660 -182.563873291016 1.115864276886
105.386634826660 -76.619499206543 -180.533081054688 0.787623345852
-151.277740478516 -71.147377014160 -189.538635253906 0.531593203545
-19.867443084717 -75.743804931641 -187.010284423828 1.273064017296
102.785522460938 -74.607086181641 -176.070541381836 2.880245447159
103.600814819336 -72.527923583984 -187.529953002930 1.853926658630
107.522598266602 -74.985298156738 -175.965957641602 1.857774019241
98.669509887695 -75.954666137695 -191.684814453125 2.502468347549
-151.165420532227 -74.595787048340 -199.345046997070 2.502202033997
100.866210937500 -75.376235961914 -202.416854858398 1.760817527771
-27.839637756348 -71.845848083496 -196.889099121094 1.978167653084
98.648330688477 -74.179672241211 -194.138198852539 1.186549544334
-122.213623046875 -75.051582336426 -202.235748291016 1.532461047173
-29.263328552246 -77.484153747559 -191.942596435547 2.010607957840
-141.017425537109 -70.342208862305 -201.870559692383 1.341407895088
95.363922119141 -74.666404724121 -196.844863891602 3.301665544510
9.280809402466 -75.032882690430 -198.478103637695 2.230169773102
23.747880935669 -73.494857788086 -192.657730102539 2.158396720886
-147.049179077148 -72.427589416504 -205.736206054688 1.633567571640
-139.216674804688 -72.187980651855 -205.234252929688 3.341032505035
-9.784941673279 -73.532722473145 -205.768142700195 1.282994508743
-123.858680725098 -73.163009643555 -205.795578002930 2.541573047638
-143.013961791992 -75.765220642090 -204.975509643555 0.967699825764
6.025242805481 -74.004241943359 -200.046279907227 3.083770751953
-22.700691223145 -75.669616699219 -202.256607055664 0.626260519028
20.931421279907 -75.906204223633 -202.424209594727 1.269526958466
8.052091598511 -74.816154479980 -210.861129760742 1.327287912369
87.768325805664 -73.379173278809 -206.083770751953 4.672859668732
-17.990135192871 -71.788208007813 -212.351425170898 1.892422318459
92.431121826172 -72.992256164551 -206.611801147461 2.177011966705
96.975784301758 -75.421295166016 -204.610031127930 2.420804500580
-148.610397338867 -73.392456054688 -218.800674438477 2.647791624069
96.433044433594 -75.423149108887 -209.171493530273 1.331405162811
6.177989006042 -73.812568664551 -207.964584350586 1.439034581184
5.082118988037 -75.882652282715 -214.274032592773 2.478652477264
-32.946193695068 -73.394256591797 -208.587142944336 1.339926838875
-88.620803833008 -72.812301635742 -215.553619384766 2.033788681030
-26.292722702026 -74.387947082520 -212.121292114258 1.232900023460
85.685485839844 -74.277130126953 -214.121658325195 1.166966915131
89.313598632813 -73.765213012695 -215.712829589844 1.403841614723
-31.375818252563 -73.281227111816 -213.472747802734 1.520125031471
-83.896759033203 -71.333145141602 -219.756225585938 3.349112272263
-0.790067017078 -75.793731689453 -218.259002685547 2.379673719406
84.960166931152 -72.212348937988 -211.990707397461 2.475095748901
-150.500640869141 -74.881027221680 -226.006729125977 3.093855381012
-164.607574462891 -71.544868469238 -218.499832153320 1.725949287415
-159.995544433594 -73.977668762207 -226.657608032227 1.477079868317
-20.144823074341 -74.020637512207 -227.322372436523 2.447052955627
-152.306716918945 -74.250305175781 -226.892837524414 2.677975654602
-5.507727146149 -75.405494689941 -225.001327514648 2.526482582092
7.894834041595 -74.326919555664 -218.133361816406 1.952414989471
-164.726257324219 -72.509574890137 -229.318420410156 1.624853014946
-158.777938842773 -73.176589965820 -230.889373779297 3.201674461365
80.757499694824 -76.679206848145 -228.923278808594 2.352320432663
2.440645933151 -72.538291931152 -227.095336914063 1.890305519104
-155.244155883789 -69.788269042969 -229.974472045898 0.632077634335
-141.199523925781 -73.591537475586 -228.788864135742 0.734218895435
-18.430786132813 -73.527755737305 -224.548065185547 1.729473710060
1.666725039482 -77.742309570313 -223.554824829102 1.517166852951
81.277587890625 -72.903762817383 -222.797943115234 2.361712694168
-160.229080200195 -71.658599853516 -232.018066406250 3.068318843842
-144.055999755859 -71.396827697754 -233.389831542969 1.509879112244
-123.408790588379 -71.958503723145 -233.587265014648 1.080794334412
80.387763977051 -74.891181945801 -225.000946044922 2.032232761383
-114.276939392090 -72.759460449219 -231.970565795898 2.313035249710
-146.671203613281 -72.814865112305 -232.955474853516 2.444623231888
-148.796661376953 -71.794792175293 -234.895065307617 2.715266227722
-147.184967041016 -73.373031616211 -234.718460083008 0.690514683723
-154.634811401367 -72.917900085449 -233.051956176758 1.259751081467
-163.961654663086 -72.900688171387 -233.604919433594 2.473517179489
-132.976043701172 -72.483596801758 -237.723434448242 3.264183998108
-131.990554809570 -73.994651794434 -236.277038574219 2.434526681900
-152.615615844727 -74.781379699707 -236.359161376953 1.423696398735
-143.858535766602 -70.121925354004 -239.875335693359 1.748686313629
-150.630386352539 -72.952079772949 -238.965591430664 2.460791110992
75.760498046875 -75.477462768555 -229.858413696289 1.426332235336
68.890754699707 -71.151084899902 -235.027236938477 1.384588479996
-156.650314331055 -71.862030029297 -239.449966430664 2.614063501358
72.392135620117 -71.297790527344 -231.568832397461 2.203867912292
-17.851793289185 -73.192726135254 -237.279281616211 0.365977406502
12.133159637451 -74.610832214355 -236.061141967773 2.404225349426
7.802433967590 -74.725357055664 -235.913055419922 3.163898944855
-152.064010620117 -72.902549743652 -247.454696655273 2.350346088409
15.331369400024 -73.585067749023 -240.587738037109 1.772247433662
63.498249053955 -73.652412414551 -236.006729125977 2.719660282135
15.021892547607 -72.284355163574 -237.379806518555 1.190806508064
7.367022991180 -74.665641784668 -241.558715820313 1.742183685303
-4.856288909912 -72.863265991211 -240.979309082031 0.853645801544
-19.103002548218 -72.844627380371 -243.313949584961 1.394659280777
0.350937008858 -73.712806701660 -242.782684326172 2.194926738739
4.859864234924 -75.933380126953 -244.125488281250 1.635689496994
58.979007720947 -74.846206665039 -240.524002075195 1.064151287079
-54.247318267822 -75.379241943359 -246.139968872070 2.366242408752
20.801277160645 -73.162101745605 -246.385101318359 1.860622644424
-58.785476684570 -74.548927307129 -244.376174926758 1.609598755836
-7.687563896179 -73.889198303223 -247.967041015625 1.605391502380
-63.764911651611 -71.003921508789 -251.780364990234 2.357751131058
-84.394775390625 -72.895912170410 -254.726730346680 1.114844083786
-80.994071960449 -73.752723693848 -253.173507690430 1.676809310913
-9.048554420471 -73.342414855957 -254.011489868164 1.734978079796
-122.177230834961 -72.755752563477 -260.692260742188 2.250681161880
-12.337029457092 -74.781089782715 -254.264373779297 2.239987373352
-115.111160278320 -73.363525390625 -259.329437255859 1.325515866280
-113.728729248047 -72.362022399902 -261.447875976563 0.863138198853
-101.454681396484 -73.060356140137 -260.330047607422 1.077804088593
-142.221832275391 -72.527046203613 -266.507446289063 3.382025718689
-143.139892578125 -72.421257019043 -270.322875976563 4.678075790405
-166.273086547852 -72.884628295898 -268.209197998047 2.149175882339
20.612556457520 -76.747222900391 -279.591705322266 3.491743564606
-54.034793853760 -72.386497497559 -287.057037353516 1.346028327942
-64.052612304688 -72.757995605469 -286.338836669922 0.792887091637
-39.565345764160 -75.169326782227 -285.823974609375 1.379112958908
-26.247961044312 -74.931060791016 -286.688446044922 1.328191399574
-94.056594848633 -74.461250305176 -290.735076904297 1.301455140114
-27.690965652466 -72.295768737793 -287.186767578125 1.538914799690
-1.846889019012 -74.327804565430 -286.693084716797 1.232467651367
-164.765075683594 -72.816940307617 -293.337646484375 2.414752960205
-11.591934204102 -75.440124511719 -286.626953125000 1.499963402748
9.524661064148 -75.062774658203 -287.847656250000 1.581999182701
16.732276916504 -77.214126586914 -285.334014892578 3.492349386215
-54.288867950439 -74.919586181641 -290.391540527344 0.848091721535
-29.312774658203 -73.646606445313 -291.966766357422 2.308494329453
16.810789108276 -72.581771850586 -292.258636474609 2.597152709961
-67.733436584473 -72.790420532227 -294.044189453125 2.449407815933
-36.288459777832 -72.073081970215 -290.878173828125 0.927995204926
-15.063118934631 -72.267051696777 -290.855285644531 1.660530209541
18.155403137207 -75.796386718750 -290.276336669922 2.250312805176
-8.489068984985 -74.888748168945 -293.587097167969 1.604941725731
6.313539981842 -72.873237609863 -293.047668457031 2.500512599945
16.787698745728 -75.114921569824 -291.421905517578 0.386703342199
-132.108459472656 -72.215873718262 -297.856689453125 3.691538810730
-141.969924926758 -75.139938354492 -303.596008300781 1.852180957794
-146.278396606445 -74.134010314941 -316.862670898438 4.659229278564
38.137248992920 -72.098648071289 -12.538854598999 2.232950210571
26.510509490967 -72.330757141113 -11.322044372559 2.369198560715
34.984855651855 -72.587577819824 -14.880690574646 1.761825799942
17.744047164917 -70.439956665039 -18.793560028076 3.396312475204
40.916492462158 -71.365539550781 -20.880727767944 2.120106935501
21.540414810181 -71.690544128418 -22.840326309204 0.936896443367
20.394285202026 -72.915344238281 -27.653409957886 0.759880661964
20.394247055054 -73.335029602051 -36.220233917236 2.991004943848
37.474681854248 -73.698646545410 -29.839548110962 5.479010105133
23.182495117188 -74.861389160156 -35.072612762451 3.154950380325
39.290554046631 -71.876586914063 -35.523296356201 1.548047661781
28.429082870483 -73.097030639648 -37.728000640869 2.479778289795
34.372112274170 -73.542839050293 -35.481433868408 1.823050022125
27.889144897461 -72.338050842285 -39.243591308594 1.763770103455
39.440559387207 -72.632904052734 -39.689182281494 1.682419896126
31.260246276855 -72.428344726563 -39.184047698975 0.904396057129
-43.103672027588 -70.165588378906 -49.909454345703 2.880385637283
-33.438575744629 -68.149772644043 -51.901199340820 3.327003002167
-91.670867919922 -69.371498107910 -57.864116668701 3.967348337173
-91.042892456055 -72.944503784180 -67.468444824219 2.208567142487
75.807609558105 -74.908645629883 -66.093132019043 4.583835124969
81.722862243652 -73.496612548828 -70.195991516113 1.567138433456
-21.395277023315 -70.748687744141 -73.223449707031 1.404586315155
-90.893096923828 -73.175567626953 -73.738853454590 1.624562263489
-27.684068679810 -72.263961791992 -77.459815979004 0.786580085754
-52.001480102539 -73.021720886230 -86.426330566406 1.870754480362
63.660491943359 -69.403724670410 -84.427055358887 2.234193325043
51.059635162354 -72.413299560547 -91.421791076660 1.728077530861
97.410354614258 -71.900581359863 -88.736579895020 2.351119995117
67.764579772949 -73.783782958984 -94.497779846191 3.949394226074
-69.180778503418 -74.243995666504 -93.907684326172 3.940510511398
-65.623809814453 -71.706642150879 -98.921432495117 2.447493553162
42.999126434326 -73.879661560059 -96.110061645508 2.277476787567
75.545280456543 -72.227035522461 -98.912353515625 0.897408127785
52.242687225342 -78.268989562988 -103.274665832520 1.976876974106
98.987068176270 -72.804008483887 -94.618873596191 2.055502891541
-97.239028930664 -72.771873474121 -109.505683898926 1.980382680893
37.219455718994 -73.685928344727 -110.282287597656 0.961592733860
105.033714294434 -73.652420043945 -105.261550903320 2.239732742310
46.374145507813 -72.664344787598 -109.723747253418 2.654127120972
100.409828186035 -73.669860839844 -106.147827148438 3.790267705917
-87.451240539551 -72.767311096191 -116.250457763672 2.373250722885
34.360877990723 -75.461585998535 -110.203628540039 2.409209966660
104.640579223633 -72.775764465332 -113.902870178223 0.420175045729
103.156005859375 -71.182167053223 -112.629943847656 2.174898386002
104.940681457520 -73.457603454590 -112.128150939941 2.013274192810
108.551734924316 -72.718086242676 -111.916198730469 1.129871606827
37.505184173584 -73.496238708496 -110.279342651367 1.026385426521
30.360679626465 -72.040390014648 -117.375762939453 2.243505239487
40.452068328857 -72.653106689453 -113.950180053711 1.989095807076
106.431747436523 -73.960578918457 -119.306335449219 1.928618073463
38.144077301025 -71.842544555664 -123.161170959473 1.631493330002
107.448020935059 -72.849403381348 -128.830718994141 2.847631692886
110.350257873535 -72.327125549316 -127.906929016113 1.758830308914
32.157596588135 -71.483985900879 -120.912582397461 2.421743869781
-78.954956054688 -71.698272705078 -128.735549926758 1.946031212807
113.623382568359 -71.864585876465 -131.453552246094 1.410329222679
-56.374618530273 -72.596931457520 -138.297378540039 1.066998362541
34.794101715088 -73.634025573730 -134.047851562500 3.153073787689
-74.223129272461 -72.769660949707 -138.240936279297 1.089410305023
26.587076187134 -74.126602172852 -131.912841796875 2.828373193741
-79.795242309570 -72.627494812012 -144.026016235352 2.745109796524
-46.300743103027 -75.131752014160 -142.910934448242 1.672065734863
-74.175231933594 -72.079353332520 -139.617080688477 0.915937125683
109.697776794434 -72.623535156250 -134.585052490234 2.086312294006
114.469604492188 -72.119285583496 -138.656280517578 2.087640762329
116.485649108887 -75.825759887695 -142.351150512695 1.608464002609
-76.332199096680 -71.002258300781 -145.672378540039 0.788908541203
7.977338790894 -69.800445556641 -150.518600463867 1.527991652489
-53.735157012939 -73.227561950684 -151.537353515625 1.854142427444
-50.866847991943 -73.237121582031 -156.677108764648 1.172058224678
106.827819824219 -73.431587219238 -157.684677124023 2.762815952301
-42.744873046875 -73.744071960449 -150.783386230469 1.422015547752
12.946511268616 -71.678985595703 -156.793258666992 1.216512084007
21.522308349609 -74.025985717773 -157.111267089844 1.228280663490
114.320045471191 -73.561180114746 -161.165466308594 1.729216694832
28.929876327515 -72.977149963379 -163.902999877930 1.606555104256
-1.528156995773 -73.911087036133 -163.177841186523 0.968191444874
31.137445449829 -73.873878479004 -160.183563232422 1.724710106850
-68.534889221191 -70.919029235840 -160.217468261719 2.039481878281
-65.953559875488 -71.953575134277 -160.668685913086 2.422870635986
-68.857727050781 -71.967086791992 -166.821563720703 2.509864568710
114.243530273438 -70.957618713379 -158.115768432617 1.575333237648
-45.029819488525 -72.602775573730 -163.935119628906 1.268949151039
18.184701919556 -73.317703247070 -165.201141357422 1.370516180992
-64.397186279297 -72.096939086914 -170.929031372070 1.362335443497
-62.431186676025 -71.626510620117 -172.685592651367 3.611088275909
-40.837154388428 -72.937370300293 -160.765945434570 2.269559383392
-33.239467620850 -73.845169067383 -169.872238159180 4.013969898224
114.069274902344 -74.889038085938 -168.037765502930 1.222594261169
-37.010414123535 -69.898002624512 -179.277801513672 2.731844902039
14.290973663330 -73.938552856445 -173.120971679688 3.478527784348
110.711349487305 -75.574615478516 -180.149230957031 1.656706213951
-148.107818603516 -73.520919799805 -179.536636352539 1.540791869164
-145.874420166016 -72.248809814453 -178.002288818359 1.667264461517
-149.870635986328 -70.891242980957 -182.464706420898 2.249525070190
-142.709518432617 -72.669319152832 -185.211029052734 2.262605190277
-31.264623641968 -71.954475402832 -186.547897338867 2.045253276825
-22.948282241821 -72.623168945313 -186.337493896484 0.529680073261
23.161651611328 -70.953277587891 -189.546768188477 1.003814816475
-141.828430175781 -71.445701599121 -190.158508300781 2.674660205841
-146.774032592773 -72.282798767090 -191.834747314453 1.023105144501
-20.768880844116 -70.354934692383 -187.505355834961 0.976762294769
12.009781837463 -73.759132385254 -182.030029296875 3.067917108536
-148.562225341797 -72.190338134766 -196.970489501953 2.059171438217
-31.502275466919 -73.947776794434 -187.740264892578 2.018455982208
100.384132385254 -73.357406616211 -185.669433593750 3.960553169250
107.000953674316 -73.351211547852 -186.949096679688 1.963123440742
23.902486801147 -70.035591125488 -192.721267700195 1.047604203224
-15.342076301575 -73.343627929688 -188.745895385742 3.441265344620
-26.947507858276 -74.500335693359 -194.247344970703 1.024085640907
-154.355239868164 -72.335517883301 -201.456192016602 2.196348905563
-132.118331909180 -72.927322387695 -200.012405395508 0.922614514828
-124.544807434082 -70.350646972656 -198.222763061523 1.993420243263
-123.405105590820 -70.670188903809 -200.652999877930 1.187238216400
-22.518566131592 -69.533569335938 -197.290267944336 1.502381086349
11.918541908264 -74.321365356445 -192.227783203125 0.976759552956
93.748336791992 -75.383331298828 -198.616058349609 2.445708513260
-148.897689819336 -69.491447448730 -199.709213256836 2.005309820175
-145.162063598633 -70.371597290039 -202.085891723633 1.848751783371
-149.911376953125 -71.128997802734 -203.113800048828 2.579381465912
-154.602066040039 -70.267456054688 -201.830383300781 2.362980365753
-24.885330200195 -72.885910034180 -200.079803466797 2.008600473404
-11.902830123901 -73.028335571289 -195.905746459961 2.387503147125
-146.789337158203 -69.547363281250 -205.149795532227 2.427748918533
-16.985387802124 -72.283454895020 -200.725219726563 2.263560771942
-161.449432373047 -71.214225769043 -203.708297729492 0.486211836338
-133.761932373047 -72.021423339844 -202.725250244141 1.296413183212
16.744073867798 -73.754005432129 -206.602996826172 2.720379829407
-161.821807861328 -69.794013977051 -207.816558837891 3.546651840210
-145.367324829102 -72.784706115723 -209.789810180664 1.610412478447
9.583563804626 -71.764770507813 -201.525207519531 1.825102567673
-153.428115844727 -70.123298645020 -206.551300048828 2.046560049057
-23.610708236694 -72.718566894531 -201.713348388672 1.504466772079
99.817802429199 -73.763511657715 -196.994506835938 1.819945573807
-156.733337402344 -72.338195800781 -217.410888671875 1.672553896904
-163.956634521484 -73.638412475586 -212.447418212891 1.403367996216
-76.926765441895 -70.996696472168 -211.225875854492 0.368699759245
89.371932983398 -72.946739196777 -207.375488281250 2.886819362640
-2.963700056076 -71.699127197266 -217.527221679688 1.008382439613
-152.484664916992 -71.028022766113 -216.612777709961 0.873607754707
-87.116905212402 -71.996063232422 -216.060287475586 1.114186882973
-8.269714355469 -74.599594116211 -211.696884155273 0.934641718864
16.159326553345 -73.138465881348 -220.613922119141 2.719541788101
-144.545913696289 -72.626548767090 -222.957138061523 0.779580891132
-2.456760883331 -75.398818969727 -220.948623657227 0.745031297207
-19.707092285156 -72.866714477539 -219.838104248047 0.687514960766
-13.790953636169 -70.222785949707 -220.163040161133 2.373460054398
90.231056213379 -73.472663879395 -215.576385498047 1.930646419525
-20.430051803589 -71.840003967285 -217.808990478516 1.538879513741
-29.789028167725 -72.364463806152 -217.305709838867 1.548831105232
-106.444526672363 -69.612785339355 -226.805007934570 1.648590803146
-14.940033912659 -71.676048278809 -223.187622070313 0.607494354248
92.252105712891 -71.833618164063 -216.800109863281 2.680976390839
79.843727111816 -73.847419738770 -217.802185058594 3.586339473724
7.229720115662 -74.017868041992 -219.621932983398 2.011878490448
-9.972468376160 -71.982017517090 -225.575485229492 0.493213355541
79.220176696777 -74.297698974609 -220.371536254883 2.229239702225
-121.990371704102 -73.944290161133 -228.009124755859 0.951716959476
-20.466182708740 -71.412750244141 -223.446334838867 2.580259323120
-97.207298278809 -71.548881530762 -226.181579589844 3.109104156494
-102.632286071777 -72.279853820801 -227.523529052734 1.222142338753
-131.825332641602 -73.574913024902 -231.457000732422 1.802604198456
82.387413024902 -73.219421386719 -221.976440429688 1.808994531631
-122.456390380859 -72.327720642090 -230.178314208984 0.688261866570
6.123962879181 -72.812644958496 -228.329971313477 1.964465141296
81.724502563477 -72.400222778320 -222.352859497070 1.577851653099
-14.173835754395 -73.556602478027 -228.966659545898 1.280845522881
-11.930601119995 -73.449668884277 -229.096588134766 0.847240924835
-2.027599096298 -76.254486083984 -229.926437377930 2.635195493698
10.470866203308 -74.102439880371 -226.986022949219 2.785827398300
88.654022216797 -74.394050598145 -223.642883300781 2.470916748047
11.533750534058 -71.965072631836 -231.440444946289 1.645496368408
5.736824035645 -73.317153930664 -229.161132812500 1.436861753464
-7.884924888611 -73.388938903809 -231.040145874023 2.115270853043
-5.653800010681 -73.255119323730 -231.647491455078 2.075503349304
19.031141281128 -72.092086791992 -231.901794433594 2.034271478653
-11.212203025818 -71.418067932129 -233.828582763672 0.303150773048
72.431144714355 -73.959060668945 -237.390029907227 1.599433541298
-7.411559104919 -71.527633666992 -238.616149902344 1.424811005592
20.017190933228 -74.187049865723 -235.365997314453 0.489857643843
-162.917327880859 -71.364662170410 -244.877304077148 2.749666452408
-4.015655994415 -71.600570678711 -238.069000244141 1.061481714249
-7.278357028961 -72.863334655762 -241.137298583984 0.959431231022
-166.191711425781 -71.912071228027 -255.119949340820 1.385095834732
-9.253314018250 -72.147132873535 -245.035369873047 1.584093451500
17.532333374023 -71.366149902344 -245.570587158203 1.372226595879
-145.624420166016 -73.815559387207 -255.386825561523 2.572906732559
-69.994445800781 -71.538330078125 -251.145431518555 1.540591359138
-59.777648925781 -72.871612548828 -248.356628417969 1.111198425293
54.458961486816 -72.241645812988 -245.570159912109 1.897532463074
-74.240737915039 -72.278022766113 -249.151962280273 1.505126476288
18.968009948730 -73.971038818359 -248.968536376953 2.395389795303
-71.693061828613 -72.201858520508 -253.466018676758 1.171978592873
-13.519714355469 -72.179542541504 -248.354431152344 1.508658647537
-144.020507812500 -73.899734497070 -256.307067871094 1.695523142815
48.994667053223 -71.411796569824 -248.323715209961 1.288603425026
-77.791839599609 -73.318450927734 -256.874420166016 3.135354757309
-100.793144226074 -70.352310180664 -257.318206787109 2.309603214264
-97.042190551758 -73.796142578125 -257.132720947266 1.618393421173
-117.287414550781 -71.535064697266 -256.844543457031 1.435309886932
-103.936500549316 -71.272880554199 -259.580566406250 1.540899634361
-104.587234497070 -72.506225585938 -261.142242431641 0.842496335506
23.665464401245 -72.439926147461 -258.801391601563 2.667593002319
-126.738960266113 -70.559745788574 -268.090270996094 1.539454817772
-10.761408805847 -73.880523681641 -276.275421142578 2.247174263000
-144.674392700195 -70.706649780273 -286.219604492188 2.463102817535
-166.431808471680 -73.069908142090 -288.746948242188 1.426586747169
-122.658210754395 -73.034004211426 -287.877960205078 2.334580421448
-111.909088134766 -70.103179931641 -289.648620605469 2.599914550781
-73.251533508301 -69.266716003418 -287.423583984375 1.649291157722
-55.031394958496 -72.572601318359 -288.079742431641 1.337907433510
-40.147644042969 -72.099182128906 -287.357452392578 1.105212211609
-12.981983184814 -74.621055603027 -289.344085693359 2.267723798752
-11.598230361938 -71.176063537598 -291.043029785156 1.101354598999
-35.882305145264 -73.546798706055 -290.623168945313 2.069094181061
-32.080104827881 -72.419639587402 -289.664001464844 1.752126455307
-16.560997009277 -70.827568054199 -289.398590087891 1.153128266335
-68.540901184082 -71.751983642578 -293.897186279297 2.060190439224
-52.731803894043 -72.139831542969 -292.227569580078 1.790414094925
-14.539348602295 -70.495697021484 -291.721923828125 1.896249890327
-11.443819046021 -73.852264404297 -290.596069335938 1.311943650246
-1.567484021187 -72.111099243164 -291.810028076172 2.347652912140
4.618291854858 -70.902717590332 -291.761535644531 0.700065195560
-88.870231628418 -72.629188537598 -294.717193603516 2.970479488373
-138.498931884766 -72.737335205078 -297.471221923828 5.113757610321
-114.616867065430 -73.116157531738 -295.352447509766 2.655550956726
-151.339843750000 -72.088722229004 -299.433166503906 2.470447301865
-150.557693481445 -72.469955444336 -303.185272216797 3.991899013519
-143.917816162109 -71.678413391113 -303.363983154297 0.376633852720
41.384479522705 -70.481376647949 -19.103622436523 1.472833275795
16.015542984009 -73.190177917480 -22.935369491577 5.625526905060
45.505512237549 -70.221557617188 -24.491495132446 1.152884006500
43.561702728271 -72.404830932617 -33.422584533691 2.353445291519
84.414985656738 -72.060157775879 -66.944671630859 2.547493219376
92.620841979980 -73.367797851563 -71.080787658691 1.385121107101
98.511718750000 -71.359893798828 -76.558380126953 2.149221181870
95.846443176270 -73.186279296875 -80.460311889648 2.079890251160
55.053028106689 -72.834754943848 -87.419403076172 1.375094056129
44.500251770020 -75.696449279785 -90.973876953125 5.082422733307
60.967819213867 -71.031349182129 -89.101936340332 2.032647609711
-67.173179626465 -68.578445434570 -94.155509948730 3.915437221527
67.760429382324 -72.324302673340 -86.386466979980 2.626130819321
99.332084655762 -68.226837158203 -95.914001464844 1.569991111755
72.520988464355 -73.301216125488 -98.652000427246 2.164366722107
92.919013977051 -71.585678100586 -99.600646972656 2.371608972549
-85.063659667969 -72.087371826172 -104.384429931641 3.010208845139
42.581760406494 -71.568351745605 -98.423614501953 1.986393332481
-87.467849731445 -72.212089538574 -105.770996093750 4.045390129089
48.968944549561 -73.558868408203 -109.218917846680 0.835981190205
36.548656463623 -75.017807006836 -102.999160766602 4.750803470612
101.802345275879 -71.673858642578 -100.684608459473 2.164741039276
35.658420562744 -71.450492858887 -105.987167358398 4.080201148987
39.481849670410 -72.169754028320 -115.999450683594 2.101702213287
41.194793701172 -71.287178039551 -111.985961914063 1.440031409264
107.325798034668 -71.355194091797 -110.342292785645 1.875432729721
-83.398773193359 -73.390609741211 -123.238182067871 3.031850337982
110.204635620117 -74.006034851074 -122.158302307129 2.354614734650
37.400287628174 -69.725151062012 -123.432022094727 1.145200133324
39.293853759766 -70.893684387207 -119.459281921387 0.768986880779
33.815448760986 -71.969032287598 -120.695236206055 2.353197336197
-57.670093536377 -74.098388671875 -131.073318481445 1.898856401443
28.929067611694 -71.331871032715 -122.905357360840 2.042648792267
-78.275573730469 -71.030418395996 -139.275161743164 2.713332176208
-56.959159851074 -73.389488220215 -134.119537353516 1.200139045715
-80.814788818359 -69.820121765137 -136.838150024414 1.933173298836
33.298271179199 -70.552055358887 -129.101364135742 0.916214406490
-60.740283966064 -71.664077758789 -135.244186401367 2.787532329559
33.652229309082 -71.245948791504 -132.844802856445 2.189746856689
-73.699989318848 -69.970657348633 -141.428512573242 0.340883105993
-60.459045410156 -70.683197021484 -141.181320190430 1.917975425720
25.770519256592 -72.157341003418 -140.767837524414 1.223620057106
108.984130859375 -74.505661010742 -140.619583129883 0.863970875740
114.160285949707 -69.667434692383 -134.071533203125 1.783554196358
29.691484451294 -71.585174560547 -139.937377929688 0.344186633825
-48.332401275635 -71.776596069336 -141.782943725586 2.903956413269
106.926475524902 -70.967430114746 -149.341476440430 3.917092561722
-76.122154235840 -71.150917053223 -145.416946411133 0.959150373936
-59.903488159180 -71.537513732910 -143.958221435547 2.568989276886
30.419052124023 -69.853286743164 -147.681564331055 1.658702492714
-78.167396545410 -72.073143005371 -148.288818359375 2.766249895096
-71.886764526367 -71.614524841309 -152.394546508789 2.151029109955
114.464607238770 -74.628761291504 -146.997161865234 1.154433727264
-65.717605590820 -71.547828674316 -156.407470703125 2.192972898483
-40.205684661865 -70.014602661133 -153.705993652344 1.325431823730
25.364080429077 -70.479782104492 -146.380081176758 1.953071832657
-75.068199157715 -71.466751098633 -149.294433593750 1.817770004272
11.290783882141 -71.954711914063 -150.198852539063 2.672200441360
30.860975265503 -71.290588378906 -155.270507812500 1.263819694519
29.639757156372 -70.324050903320 -148.507995605469 2.135842084885
12.840171813965 -75.238426208496 -154.245162963867 2.722683668137
-50.356655120850 -72.024963378906 -154.749740600586 1.840574741364
24.873861312866 -72.035728454590 -152.642501831055 1.205115795135
-46.745410919189 -70.722206115723 -150.773529052734 2.046804189682
4.602431774139 -71.992950439453 -153.901199340820 2.668214559555
20.087099075317 -71.252555847168 -149.548751831055 3.327620506287
-70.983871459961 -71.123504638672 -158.508712768555 2.914554595947
-47.193061828613 -69.214172363281 -155.336746215820 2.610623598099
-68.902137756348 -70.538848876953 -156.754226684570 1.939912796021
15.803827285767 -70.935234069824 -158.061264038086 0.850856840611
23.503314971924 -71.147918701172 -149.604797363281 1.569461703300
1.712095975876 -71.676834106445 -163.233383178711 0.449732452631
19.908967971802 -72.304229736328 -154.188308715820 1.542267799377
30.021797180176 -72.116531372070 -165.443695068359 2.916563987732
-48.253273010254 -72.886131286621 -163.884170532227 1.109183788300
-36.536796569824 -75.295951843262 -163.368408203125 1.915276527405
-41.211589813232 -71.702857971191 -161.719375610352 2.184651136398
26.941196441650 -71.822387695313 -158.891082763672 2.226615905762
-44.824569702148 -70.746459960938 -168.326614379883 2.860053300858
-40.935367584229 -70.347869873047 -165.848968505859 1.984207391739
20.237810134888 -71.056091308594 -165.653869628906 1.851351380348
-40.625595092773 -71.901733398438 -175.450622558594 2.431566476822
27.577156066895 -69.806091308594 -169.541381835938 1.516699433327
111.716094970703 -70.307418823242 -163.306991577148 1.614781379700
-33.708732604980 -71.268951416016 -172.791015625000 0.764575123787
103.796325683594 -70.618469238281 -170.678390502930 3.699739456177
-35.147377014160 -71.143363952637 -178.011886596680 1.758290767670
-37.547760009766 -73.529708862305 -181.914703369141 2.094621419907
19.402515411377 -74.020133972168 -175.750671386719 0.833392143250
104.827926635742 -72.201667785645 -179.588562011719 1.697643876076
-30.858316421509 -70.465011596680 -184.443435668945 2.341069936752
-35.210090637207 -70.828575134277 -177.020263671875 1.002347350121
-23.900793075562 -73.388053894043 -187.037704467773 1.270319581032
-149.262847900391 -71.746109008789 -192.138458251953 1.698905229568
