27.023120880127 -68.793746948242 -254.687271118164 2.474691152573
-101.183753967285 -66.705749511719 -258.754638671875 0.931485176086
32.975048065186 -67.608062744141 -256.454559326172 0.882078170776
-147.492538452148 -67.164794921875 -261.047058105469 2.118654012680
-115.292045593262 -66.224197387695 -258.010375976563 1.021893858910
-106.599105834961 -65.610160827637 -258.068145751953 0.526902198792
-3.781286954880 -67.772346496582 -259.354583740234 3.115402460098
-148.510757446289 -66.724365234375 -258.240112304688 1.470719695091
35.094360351563 -66.532958984375 -261.099304199219 1.704052209854
-109.980163574219 -64.883132934570 -257.867004394531 2.610634326935
27.361314773560 -68.938285827637 -259.601287841797 0.788253009319
-134.218734741211 -66.001594543457 -262.224090576172 1.401814103127
-115.458839416504 -64.725471496582 -263.144470214844 2.017657995224
-107.661933898926 -65.103263854980 -261.100830078125 1.839501142502
-114.801567077637 -67.597915649414 -262.358764648438 1.598175644875
-138.039062500000 -66.494140625000 -260.320098876953 2.824969768524
29.450553894043 -67.352470397949 -261.037902832031 1.031099557877
-116.759979248047 -65.049293518066 -263.996459960938 1.633954405785
-143.188003540039 -66.925765991211 -264.221679687500 2.295232772827
-4.234235763550 -65.376159667969 -271.081878662109 2.507353544235
-150.456024169922 -67.318290710449 -282.597137451172 1.612900137901
-7.072146892548 -66.888191223145 -284.652313232422 2.326362371445
-4.342998027802 -64.752899169922 -284.141296386719 1.602270126343
-133.391693115234 -65.430366516113 -287.343048095703 1.166110515594
-125.487686157227 -65.722152709961 -289.998687744141 0.547197163105
-134.867279052734 -65.789642333984 -294.018218994141 4.115559577942
-125.565223693848 -65.452560424805 -293.662445068359 2.926142454147
-153.284011840820 -66.156013488770 -295.388061523438 1.573431730270
-154.113113403320 -65.265350341797 -301.211608886719 2.304054021835
-146.582138061523 -67.491836547852 -301.355895996094 2.465699672699
-149.182342529297 -65.007270812988 -303.198211669922 1.438734412193
-144.264602661133 -65.478393554688 -300.596160888672 3.671241044998
-147.742416381836 -64.298606872559 -303.837554931641 2.665726184845
-145.708847045898 -63.728752136230 -314.508697509766 4.596608161926
20.192703247070 -72.460815429688 -28.649663925171 1.104606389999
49.207649230957 -72.247039794922 -35.543163299561 1.668707132339
26.746559143066 -74.088447570801 -38.703765869141 3.260513544083
33.425640106201 -71.266838073730 -41.864929199219 1.254995346069
-42.418899536133 -64.899108886719 -47.758613586426 1.451697230339
-76.998939514160 -67.305290222168 -51.179225921631 3.037335872650
81.255027770996 -68.005622863770 -61.575736999512 1.792933583260
75.812950134277 -69.439033508301 -62.742107391357 1.637041807175
71.665679931641 -69.893630981445 -67.238975524902 1.895775437355
-97.636695861816 -67.193389892578 -73.913497924805 2.934778451920
100.503730773926 -71.350669860840 -75.979263305664 1.523995161057
-31.298883438110 -68.068649291992 -81.262092590332 3.331264495850
64.748970031738 -67.996398925781 -77.455444335938 1.842879295349
-43.131778717041 -65.634521484375 -82.266250610352 1.420804262161
-52.021610260010 -65.578201293945 -83.749153137207 1.834442138672
51.045864105225 -70.007911682129 -90.579269409180 2.362384796143
102.974349975586 -69.509963989258 -90.300888061523 1.485443234444
65.448402404785 -66.661529541016 -94.537361145020 1.660254359245
57.884933471680 -67.399497985840 -93.947280883789 0.813093900681
49.838047027588 -66.910041809082 -101.140319824219 2.070329904556
57.592395782471 -65.738769531250 -99.385742187500 1.042474031448
104.180397033691 -67.327049255371 -97.947799682617 1.101851105690
71.008789062500 -67.919357299805 -105.392074584961 1.899445414543
49.757144927979 -67.856895446777 -105.709739685059 2.102674722672
77.854476928711 -71.789840698242 -106.652847290039 2.854361295700
94.368507385254 -65.971511840820 -108.102661132813 1.420425057411
-75.279937744141 -66.096321105957 -103.669471740723 2.490864992142
-86.241424560547 -67.918647766113 -110.733535766602 0.982981562614
-81.661903381348 -67.943580627441 -113.672988891602 1.739371061325
-59.173332214355 -65.766593933105 -118.866218566895 1.769305109978
-56.371295928955 -69.890884399414 -126.139587402344 1.333916187286
-93.826446533203 -66.609786987305 -122.436935424805 1.091399908066
-75.105918884277 -67.400787353516 -120.218475341797 2.398350954056
-75.801315307617 -69.561279296875 -132.409027099609 1.451136231422
-60.365047454834 -65.696586608887 -129.089141845703 0.524173378944
-88.143196105957 -63.894535064697 -130.700363159180 1.486871123314
-89.011779785156 -66.570892333984 -130.080093383789 1.157634615898
-47.231113433838 -70.546287536621 -135.864379882813 1.302559494972
-51.174232482910 -66.879455566406 -136.479537963867 1.217139720917
-76.266006469727 -67.062767028809 -139.029357910156 2.006286382675
-52.746177673340 -67.982246398926 -142.019561767578 1.101341366768
-74.111679077148 -68.246185302734 -143.465774536133 1.655199885368
22.930459976196 -65.800628662109 -138.482070922852 2.715568304062
-56.389793395996 -69.714187622070 -145.581024169922 1.381147265434
-53.749664306641 -64.755439758301 -145.559539794922 2.300308465958
10.129238128662 -69.377326965332 -155.252807617188 1.639457583427
17.097282409668 -65.911216735840 -151.437881469727 0.842005550861
-141.988082885742 -65.766067504883 -175.307052612305 0.851263999939
-109.641784667969 -65.898132324219 -178.876922607422 1.060849308968
-107.803855895996 -63.727703094482 -189.862121582031 2.623109817505
-151.343322753906 -66.787040710449 -192.906768798828 1.373539090157
-112.009109497070 -65.315193176270 -185.966964721680 1.601042628288
-151.575836181641 -62.970317840576 -196.559738159180 2.053448438644
-113.157165527344 -64.420013427734 -198.746490478516 1.450947761536
-148.924011230469 -63.991622924805 -200.504684448242 1.533946275711
-150.156768798828 -65.939697265625 -206.670028686523 1.314015865326
-151.477142333984 -68.025527954102 -210.161804199219 2.774868011475
-146.049301147461 -65.059669494629 -224.093704223633 1.672682881355
-149.992721557617 -67.519966125488 -225.275268554688 2.775759935379
-103.905479431152 -64.507675170898 -225.119445800781 2.176389217377
-102.059471130371 -65.410484313965 -223.989456176758 2.894219875336
-122.488098144531 -62.450351715088 -229.956329345703 2.786676168442
-107.652923583984 -64.693931579590 -227.025451660156 0.784180223942
-155.003280639648 -66.655319213867 -231.256362915039 1.709069609642
-1.703922033310 -66.191734313965 -227.072662353516 2.282668590546
-133.301559448242 -65.859764099121 -231.868530273438 1.222428321838
-152.268295288086 -66.777427673340 -235.571365356445 1.992926239967
-134.765029907227 -66.684669494629 -234.358596801758 0.723566472530
-10.696310997009 -66.208213806152 -237.483993530273 1.831744670868
9.818985939026 -66.961746215820 -242.532791137695 1.845325708389
63.940116882324 -64.456321716309 -241.029708862305 1.904349803925
19.526498794556 -68.419540405273 -248.162292480469 1.313493728638
58.131130218506 -66.377296447754 -244.502929687500 1.607373952866
42.719493865967 -67.397872924805 -249.583435058594 1.260562777519
58.127658843994 -65.631675720215 -250.928421020508 3.095409870148
-150.871185302734 -64.987884521484 -251.811141967773 2.793801784515
-149.792785644531 -68.197395324707 -254.831146240234 2.791330099106
43.280265808105 -65.619331359863 -257.065307617188 1.300099730492
31.443550109863 -65.920272827148 -256.653564453125 2.514345169067
48.317161560059 -65.515205383301 -252.059173583984 1.969260573387
-143.454971313477 -67.480018615723 -258.160186767578 0.998885214329
-134.488143920898 -63.701766967773 -256.380340576172 1.504813671112
-124.378326416016 -63.389739990234 -257.635131835938 2.737463951111
-133.401596069336 -65.653823852539 -256.739898681641 1.296382904053
-140.323196411133 -65.373535156250 -258.419891357422 3.412924528122
-123.000526428223 -64.592735290527 -259.734344482422 2.515619039536
-141.457412719727 -63.861705780029 -260.981964111328 1.097087144852
-124.577430725098 -66.042152404785 -260.943756103516 1.841393589973
-122.745468139648 -64.658676147461 -264.499145507813 2.322352647781
-125.537399291992 -65.715103149414 -265.041595458984 1.032130002975
-118.239593505859 -62.959026336670 -264.467803955078 3.189508676529
-4.252469062805 -66.438827514648 -265.848846435547 0.489880114794
28.160606384277 -65.196235656738 -262.630218505859 1.737588047981
-145.498825073242 -63.097686767578 -267.186248779297 2.313820838928
27.237749099731 -65.866073608398 -267.913543701172 2.260115385056
-3.068675994873 -63.335792541504 -273.318939208984 4.098860740662
17.826625823975 -70.559188842773 -283.957305908203 1.487278223038
-140.894943237305 -65.202003479004 -289.578887939453 1.785795211792
-124.876945495605 -65.010391235352 -287.985778808594 0.742543518543
-132.088897705078 -62.214790344238 -290.648681640625 3.840183973312
-156.699295043945 -61.416206359863 -291.979339599609 3.348551034927
-124.561111450195 -61.651416778564 -289.756317138672 3.925686836243
-117.084037780762 -62.986270904541 -289.913299560547 3.617100238800
-125.180374145508 -65.577262878418 -295.052551269531 3.729971408844
-148.920959472656 -66.528427124023 -295.316101074219 1.717157959938
28.171483993530 -72.588172912598 -13.197568893433 1.040552377701
33.290763854980 -73.007324218750 -17.287004470825 0.560608685017
38.817947387695 -71.087402343750 -19.171079635620 0.954941332340
48.998485565186 -64.340248107910 -23.755807876587 2.700317621231
27.066448211670 -73.496299743652 -27.994386672974 2.141687393188
21.814693450928 -72.354751586914 -35.189334869385 1.376292705536
-34.152797698975 -67.347335815430 -47.077106475830 2.632668018341
-82.631866455078 -67.937927246094 -53.182178497314 1.317842006683
-15.389453887939 -67.360488891602 -58.278076171875 2.424566268921
72.498657226563 -66.999275207520 -64.832229614258 1.614408850670
101.026855468750 -67.785377502441 -68.436500549316 1.940039753914
65.424629211426 -67.400184631348 -82.356750488281 1.357407093048
62.126159667969 -64.319808959961 -82.374549865723 1.454195976257
102.339927673340 -67.599571228027 -84.112014770508 0.968116641045
-63.189563751221 -64.678962707520 -90.522048950195 1.421322345734
-64.343742370605 -66.293525695801 -92.503395080566 1.635217189789
49.386447906494 -66.325798034668 -94.223541259766 0.803398907185
-66.157508850098 -66.806579589844 -96.294975280762 1.973130702972
-69.968109130859 -66.290260314941 -100.513580322266 0.949000120163
-97.036933898926 -64.475830078125 -98.758995056152 2.158879518509
-74.853614807129 -64.242362976074 -100.915969848633 1.084110856056
47.473712921143 -65.409141540527 -101.244438171387 2.173818349838
-68.058929443359 -67.735122680664 -103.710800170898 3.729722261429
51.103649139404 -65.763069152832 -102.258949279785 1.344476103783
97.248977661133 -67.869850158691 -104.383567810059 2.005431890488
92.162155151367 -67.106994628906 -109.587501525879 2.847369670868
-73.019996643066 -65.963165283203 -114.062660217285 2.036947250366
-82.539947509766 -66.363861083984 -113.043685913086 0.781950414181
-61.193325042725 -66.177406311035 -119.599227905273 2.176083326340
-95.833183288574 -63.729038238525 -119.946617126465 3.076711177826
-76.315376281738 -67.093566894531 -127.632400512695 0.967745780945
-92.402313232422 -61.293743133545 -124.844940185547 1.859959006310
-62.175933837891 -64.293350219727 -118.889122009277 1.831859707832
-59.535724639893 -61.622760772705 -119.977615356445 1.495797157288
-87.205863952637 -65.419166564941 -129.386962890625 1.578247785568
-62.334873199463 -68.961997985840 -128.316467285156 2.036367654800
-83.615730285645 -64.893859863281 -132.252960205078 1.733783006668
-76.434600830078 -66.646812438965 -133.621963500977 0.786097228527
-62.055812835693 -67.961830139160 -133.476531982422 1.707542538643
-60.507350921631 -62.587688446045 -135.272186279297 1.806288003922
-53.707176208496 -63.015048980713 -136.809997558594 2.106868267059
-93.899993896484 -63.993129730225 -133.513092041016 2.801884889603
-96.022651672363 -64.418090820313 -144.153579711914 1.392180085182
-86.332275390625 -66.078269958496 -134.575531005859 1.391424179077
22.152378082275 -68.151580810547 -147.267807006836 2.356338024139
-49.007175445557 -66.385375976563 -143.010650634766 2.300128221512
17.663841247559 -65.639244079590 -149.489639282227 1.838520050049
-97.485588073730 -65.645507812500 -164.317459106445 3.351093769073
-101.879852294922 -67.824180603027 -172.237335205078 1.379499435425
-101.620529174805 -62.845905303955 -171.804550170898 2.324076414108
-106.668693542480 -62.432289123535 -170.055511474609 1.797741889954
-105.753089904785 -65.734199523926 -180.571029663086 1.139219760895
-109.742973327637 -64.725173950195 -178.402893066406 1.350645899773
-141.007751464844 -64.055427551270 -187.967987060547 2.723678350449
-111.262573242188 -63.828830718994 -187.393020629883 2.306132316589
-132.508590698242 -62.208381652832 -198.918807983398 1.126719951630
-147.457931518555 -65.877624511719 -198.981826782227 1.560032010078
-124.127258300781 -64.847457885742 -198.324890136719 2.027583837509
-155.021209716797 -65.792945861816 -197.846054077148 2.619337797165
-146.308609008789 -66.692871093750 -202.409301757813 2.943656206131
-123.292884826660 -61.535110473633 -200.371902465820 1.466591715813
-133.456222534180 -64.392402648926 -203.005661010742 1.468419551849
-141.742340087891 -67.710937500000 -206.980911254883 2.052747249603
-131.838363647461 -66.683982849121 -224.543182373047 1.919653415680
-110.583236694336 -65.353759765625 -229.450057983398 2.436481475830
-144.161254882813 -65.356140136719 -229.567718505859 2.177049398422
-116.775672912598 -63.138473510742 -230.922805786133 1.726554393768
-114.040832519531 -62.009273529053 -231.586547851563 2.446021556854
-122.486564636230 -64.788749694824 -234.211303710938 1.919461846352
-128.073532104492 -64.772171020508 -235.312438964844 1.711479306221
-115.033592224121 -62.471340179443 -235.849380493164 3.796617031097
4.886571884155 -64.798171997070 -235.403106689453 1.463346242905
-150.594146728516 -65.602813720703 -237.629867553711 3.279926300049
7.867881774902 -66.861221313477 -234.154647827148 2.040867090225
7.498174190521 -63.170215606689 -240.783493041992 1.572524309158
2.645795106888 -66.552757263184 -240.638305664063 1.403848052025
15.691222190857 -62.511398315430 -240.567642211914 0.876412630081
-144.112197875977 -63.817859649658 -236.157485961914 1.704433202744
-3.385746955872 -65.470848083496 -246.428359985352 2.121485710144
20.570728302002 -64.953575134277 -242.413375854492 1.229174971581
49.657627105713 -64.336753845215 -249.052246093750 1.572337150574
51.795707702637 -64.308708190918 -249.356994628906 0.885876893997
-145.759445190430 -65.507278442383 -253.172149658203 2.136398553848
-5.157499790192 -65.405731201172 -252.005142211914 1.141837954521
25.008396148682 -65.680267333984 -256.738433837891 1.112989187241
-132.056945800781 -60.721481323242 -259.407562255859 3.956707477570
-124.283538818359 -62.647521972656 -260.369384765625 2.069395780563
-124.439010620117 -63.999477386475 -258.687774658203 1.675080537796
27.137685775757 -65.221313476563 -259.536895751953 0.996300816536
-133.321228027344 -63.204662322998 -265.623504638672 3.576732397079
30.056043624878 -63.873497009277 -261.399749755859 2.245481491089
32.557548522949 -65.693923950195 -263.703979492188 2.523420095444
-151.416107177734 -65.878555297852 -267.197540283203 1.192475557327
-146.312698364258 -68.419525146484 -288.205963134766 1.453145980835
-149.310882568359 -61.997024536133 -289.204742431641 2.415162563324
-142.897918701172 -61.510971069336 -294.052795410156 3.927995681763
11.495815277100 -67.560729980469 -292.408050537109 1.894447445869
-153.532653808594 -61.859554290771 -298.410919189453 4.660894870758
45.521831512451 -72.573585510254 -26.359603881836 1.100555658340
35.460498809814 -73.257308959961 -40.722480773926 1.853995800018
-62.351810455322 -65.305358886719 -46.067424774170 2.905198097229
-72.371368408203 -64.678077697754 -46.622325897217 1.478340625763
-26.977388381958 -65.498680114746 -50.731136322021 1.524164915085
-21.330572128296 -69.049789428711 -54.797866821289 0.908101141453
-12.212498664856 -63.552860260010 -66.865081787109 1.683691143990
-25.130270004272 -64.090171813965 -69.897285461426 0.805138170719
65.480987548828 -66.666213989258 -73.432708740234 1.537764430046
-97.088249206543 -62.051853179932 -78.897789001465 3.116966009140
-46.472740173340 -66.132492065430 -85.691680908203 1.918471455574
55.018535614014 -67.601577758789 -86.101425170898 1.208585023880
57.717063903809 -66.597549438477 -87.274551391602 2.609648227692
63.738258361816 -67.225044250488 -89.268333435059 1.579837918282
105.947273254395 -66.437767028809 -91.005554199219 0.905008316040
52.472316741943 -64.029693603516 -92.197525024414 1.823232769966
99.778991699219 -64.797355651855 -100.648735046387 2.411694526672
-80.646812438965 -66.994346618652 -103.305259704590 1.644894123077
-95.180854797363 -65.923065185547 -103.010383605957 2.490016460419
76.227684020996 -64.114273071289 -111.062278747559 2.233285903931
-76.419937133789 -64.319412231445 -104.168724060059 2.075539350510
-77.370628356934 -68.424308776855 -116.679008483887 1.098656296730
-83.341659545898 -67.737190246582 -119.275917053223 1.269529461861
-54.922325134277 -66.398315429688 -127.322502136230 0.494997888803
-77.704772949219 -66.083740234375 -129.040191650391 1.737467646599
-61.536159515381 -63.757602691650 -130.978698730469 0.431784838438
-81.947059631348 -66.427085876465 -135.079162597656 1.381023049355
-75.141883850098 -64.214942932129 -133.663757324219 1.193716406822
-79.550102233887 -61.736530303955 -126.077033996582 0.881333529949
-87.494827270508 -63.474910736084 -131.412643432617 0.863045632839
-64.096809387207 -63.133300781250 -134.265869140625 1.902954816818
-90.080665588379 -64.234947204590 -134.226043701172 2.693358182907
-49.289016723633 -66.557212829590 -134.580245971680 1.587733864784
-55.575195312500 -67.956779479980 -139.730285644531 2.352365732193
28.191316604614 -65.864250183105 -138.586105346680 1.790738463402
-56.870403289795 -61.087272644043 -138.031295776367 1.412363171577
15.642406463623 -68.258209228516 -145.298355102539 1.841890454292
18.368289947510 -65.417289733887 -148.954544067383 1.458260893822
18.526498794556 -63.099433898926 -153.260177612305 0.872724294662
-96.881774902344 -63.587726593018 -145.777816772461 2.838319778442
-91.631301879883 -65.107772827148 -151.575347900391 2.363358497620
-95.336662292480 -61.749458312988 -152.545654296875 1.552860140800
-103.355499267578 -64.644866943359 -160.548767089844 0.672211170197
-96.427017211914 -63.867183685303 -159.431076049805 2.583064317703
-150.973632812500 -65.924865722656 -176.243179321289 2.285189151764
-152.938461303711 -64.388412475586 -177.095428466797 1.440627694130
-107.997451782227 -62.844936370850 -182.265609741211 1.525518417358
-141.648086547852 -62.005359649658 -178.870147705078 1.143544435501
-109.380554199219 -61.922649383545 -181.496063232422 0.589415490627
-149.936416625977 -60.098812103271 -187.978729248047 2.750973939896
-110.839950561523 -61.958778381348 -193.946701049805 3.634351491928
-109.224639892578 -63.748401641846 -186.189773559570 1.226568937302
-142.146636962891 -63.753650665283 -198.928253173828 1.755251049995
-130.904235839844 -64.782867431641 -197.584365844727 1.551539182663
-107.313224792480 -64.117973327637 -198.529800415039 1.739406585693
-115.077850341797 -60.767467498779 -200.085662841797 2.714650154114
-111.756507873535 -63.849216461182 -201.232360839844 1.571886181831
-114.829833984375 -61.426288604736 -203.475219726563 3.167142391205
-133.410552978516 -61.897876739502 -199.016342163086 1.524840354919
-135.823608398438 -63.390110015869 -203.322998046875 2.518566608429
-130.877746582031 -62.765083312988 -206.704910278320 1.971405386925
-125.829704284668 -60.215602874756 -202.778686523438 2.627367019653
-124.850585937500 -63.282173156738 -205.792922973633 0.628935039043
-114.187606811523 -62.765800476074 -205.215255737305 3.467554807663
-146.424163818359 -63.186180114746 -215.714263916016 1.859877347946
-150.592453002930 -63.644687652588 -222.188873291016 2.029070138931
-152.050994873047 -61.622955322266 -224.145736694336 1.446453213692
-140.279663085938 -67.231704711914 -226.452651977539 2.492945909500
-131.444427490234 -61.014423370361 -227.723205566406 3.620218992233
-122.558662414551 -65.019210815430 -223.077392578125 2.916033267975
-140.234420776367 -64.586174011230 -229.351455688477 1.203513979912
-149.867889404297 -65.417877197266 -228.239135742188 1.807637214661
-133.605300903320 -64.182754516602 -227.582351684570 0.857430577278
-132.638504028320 -61.218158721924 -229.579177856445 2.434933423996
-147.150985717773 -64.583152770996 -230.977737426758 2.020601034164
-133.402984619141 -60.036853790283 -231.698501586914 3.811199903488
-125.946281433105 -61.830337524414 -230.666717529297 2.573132276535
-8.467227935791 -66.654556274414 -237.394531250000 0.534267783165
5.523604869843 -63.393039703369 -240.320709228516 0.661752104759
14.211494445801 -61.644363403320 -243.028488159180 1.632531404495
10.440545082092 -66.266136169434 -244.254119873047 2.653497457504
-8.096083641052 -65.719970703125 -242.010757446289 1.147227883339
-10.801836013794 -64.407295227051 -247.468002319336 1.738757491112
40.368984222412 -63.259151458740 -251.386886596680 2.437394857407
49.358932495117 -64.502929687500 -252.619949340820 1.677343726158
-144.348556518555 -61.380039215088 -255.241302490234 2.223719596863
42.567344665527 -63.303722381592 -255.659057617188 0.794940054417
38.264572143555 -64.855728149414 -253.712753295898 1.371820688248
-156.756439208984 -64.671859741211 -259.072235107422 1.443302631378
-150.267227172852 -61.793601989746 -258.879058837891 1.928685307503
-148.834762573242 -66.220527648926 -260.789581298828 1.970238924026
3.249383926392 -64.484733581543 -264.328887939453 1.115170717239
-150.216415405273 -62.813282012939 -267.193634033203 1.448981761932
0.680155992508 -64.119987487793 -274.985229492188 1.889743328094
-145.905929565430 -64.168128967285 -275.398315429688 2.625782489777
-146.920654296875 -62.422954559326 -282.934295654297 2.094935417175
-150.373519897461 -62.396926879883 -284.915191650391 1.900179386139
-148.953186035156 -58.906044006348 -284.831756591797 3.560389041901
-144.000671386719 -61.527278900146 -288.415405273438 2.759082317352
-154.736633300781 -61.717533111572 -286.525726318359 1.604624390602
-150.269348144531 -61.843196868896 -287.054046630859 1.976555585861
-150.009429931641 -61.164657592773 -288.109436035156 2.358586549759
-146.334594726563 -61.874935150146 -287.681945800781 2.044750213623
-142.997085571289 -61.704776763916 -288.326812744141 2.150023221970
13.008479118347 -64.786499023438 -287.128540039063 1.297168016434
-146.338500976563 -62.134735107422 -292.747955322266 1.467298507690
-155.538711547852 -60.134445190430 -291.695007324219 3.961188554764
-153.304351806641 -59.435619354248 -289.909698486328 3.176783323288
-150.341995239258 -60.856056213379 -294.447692871094 1.832619309425
-148.639709472656 -58.679752349854 -291.044372558594 4.722151279449
-145.635528564453 -62.866695404053 -292.669250488281 0.907124519348
3.412446022034 -64.719009399414 -293.002258300781 1.832494735718
-143.554992675781 -61.216602325439 -295.015777587891 3.715160846710
-146.835403442383 -60.044643402100 -294.692993164063 3.089737176895
29.154048919678 -61.391056060791 -18.164463043213 1.990535140038
42.125667572021 -71.058692932129 -20.371345520020 1.488422274590
43.001789093018 -64.362113952637 -22.119422912598 0.616161406040
19.257976531982 -71.968658447266 -31.781908035278 1.276970863342
28.300115585327 -60.183944702148 -35.477863311768 2.619870901108
38.568214416504 -69.964164733887 -36.044898986816 0.622728645802
-56.864997863770 -63.631023406982 -44.354522705078 1.906823396683
-50.679458618164 -65.087844848633 -43.423797607422 2.418167829514
89.815925598145 -66.836975097656 -63.349693298340 1.023512721062
-95.656707763672 -63.178829193115 -66.017944335938 1.154678702354
96.038581848145 -72.014122009277 -64.208007812500 4.753956317902
68.069625854492 -66.492042541504 -69.120399475098 1.240336537361
101.944679260254 -68.097106933594 -77.292160034180 2.439316034317
64.555557250977 -68.468559265137 -76.236602783203 2.474839210510
-41.308704376221 -66.249565124512 -78.398635864258 1.176394224167
60.769096374512 -62.802677154541 -81.918701171875 2.345531940460
-55.068382263184 -62.288558959961 -79.929801940918 1.281497240067
61.339042663574 -65.067543029785 -84.943023681641 2.052897691727
62.281032562256 -64.288925170898 -84.813774108887 1.452723383904
-97.819046020508 -64.722457885742 -83.720298767090 1.928768992424
52.007141113281 -64.904754638672 -87.855148315430 2.802977085114
52.506240844727 -68.486030578613 -93.184539794922 1.049851775169
64.863662719727 -67.097885131836 -92.556182861328 1.840851664543
52.904392242432 -64.172286987305 -96.350944519043 1.753649234772
-80.876548767090 -63.032913208008 -107.049079895020 2.222658634186
83.575523376465 -68.710990905762 -105.858062744141 1.799710392952
-79.011077880859 -65.824310302734 -116.482101440430 1.725813984871
-76.009979248047 -62.696521759033 -108.137763977051 1.696002125740
-79.254623413086 -65.131568908691 -122.236846923828 1.425612092018
-85.984909057617 -63.825950622559 -114.538810729980 1.362193703651
-92.226646423340 -63.804874420166 -120.356788635254 1.697989940643
-79.320556640625 -64.781692504883 -124.607963562012 1.048864603043
-53.367111206055 -61.936229705811 -126.952995300293 2.059808015823
-77.439781188965 -62.846813201904 -134.635314941406 1.673755288124
-56.122188568115 -60.253845214844 -132.044616699219 2.132187366486
-87.432266235352 -62.299976348877 -137.146896362305 2.626957416534
29.990867614746 -64.113723754883 -138.023025512695 1.462061643600
20.281009674072 -65.081520080566 -140.808883666992 0.806068897247
-91.763595581055 -58.682167053223 -141.404815673828 4.101718425751
20.608860015869 -65.372383117676 -148.713745117188 1.130109548569
-89.788352966309 -64.978485107422 -146.333419799805 0.908273458481
-93.290451049805 -60.638114929199 -147.988021850586 2.736505746841
19.866638183594 -64.600357055664 -156.311340332031 3.846047163010
-95.303947448730 -62.493949890137 -146.571411132813 1.469695687294
-96.965408325195 -61.565464019775 -148.720489501953 1.261753678322
-102.096244812012 -62.268104553223 -157.926223754883 1.485934734344
-96.374801635742 -62.444789886475 -160.938186645508 1.999571323395
-103.914855957031 -63.605743408203 -177.181564331055 2.175283193588
-107.269119262695 -65.947853088379 -169.057220458984 2.437542438507
-100.000221252441 -62.740646362305 -165.680191040039 4.572143077850
-105.254631042480 -62.836845397949 -170.919021606445 1.863304376602
-140.281738281250 -64.020301818848 -178.258300781250 2.289169311523
-108.375061035156 -62.319797515869 -178.956359863281 1.359475135803
-141.398818969727 -62.319107055664 -188.275482177734 2.464513063431
-147.931396484375 -60.932666778564 -190.190856933594 3.311915397644
-150.987640380859 -60.822715759277 -191.898727416992 3.167470932007
-122.693977355957 -61.246189117432 -196.982955932617 0.375776082277
-130.151428222656 -63.312660217285 -197.545272827148 0.787495493889
-121.746513366699 -61.811008453369 -200.532363891602 2.240006923676
-141.567657470703 -64.326316833496 -202.885055541992 0.820984125137
-123.013351440430 -64.157585144043 -204.610305786133 1.554154753685
-145.167495727539 -63.612899780273 -205.788787841797 1.681409239769
-150.000671386719 -62.637680053711 -206.691619873047 0.974508047104
-154.193283081055 -60.714015960693 -228.962234497070 1.044742465019
-141.376037597656 -65.550918579102 -232.288955688477 1.550593018532
-126.073318481445 -61.190189361572 -233.039978027344 4.204773426056
-153.372360229492 -60.149299621582 -231.983322143555 1.082976937294
-2.082304000854 -66.917266845703 -238.561660766602 1.329255819321
13.719106674194 -61.496528625488 -239.757354736328 2.800340175629
-2.234484910965 -65.519027709961 -243.483764648438 1.686392784119
-147.635894775391 -61.061962127686 -245.679733276367 1.281274080276
-6.266729831696 -61.786270141602 -244.866897583008 1.496130466461
-148.540069580078 -63.669166564941 -254.075973510742 1.820004701614
-5.279941082001 -64.376411437988 -249.359222412109 2.155844926834
-149.132827758789 -62.392669677734 -254.204849243164 0.805153608322
23.736166000366 -65.850334167480 -253.261810302734 1.257297039032
-151.679779052734 -59.150218963623 -256.053771972656 2.786434650421
-147.787551879883 -61.267051696777 -255.891296386719 1.044485330582
-152.276992797852 -61.214508056641 -255.159423828125 1.517855405807
-148.542602539063 -60.208477020264 -258.129608154297 2.300366640091
35.707706451416 -63.221801757813 -257.525360107422 1.703035116196
31.192270278931 -62.518020629883 -262.870971679688 3.099197626114
-145.448944091797 -61.152057647705 -257.828948974609 1.121349573135
-150.073165893555 -58.944095611572 -261.532836914063 1.942539930344
-153.551605224609 -62.603839874268 -260.900207519531 2.059800386429
-146.635711669922 -59.656211853027 -261.318908691406 2.808755636215
27.772058486938 -62.163494110107 -262.683166503906 1.017864227295
29.872282028198 -63.063602447510 -265.219940185547 2.897797107697
-151.483551025391 -61.934204101563 -264.023895263672 1.436926245689
-142.266067504883 -61.036354064941 -263.818115234375 2.711941242218
-149.552200317383 -59.253684997559 -264.501464843750 2.972482681274
-143.659103393555 -60.757026672363 -264.362182617188 3.081535577774
-144.816406250000 -62.934711456299 -265.299041748047 1.554319381714
-147.728820800781 -63.196243286133 -266.586364746094 0.953881502151
-147.589614868164 -59.640785217285 -266.479064941406 2.379049062729
-148.962722778320 -59.047115325928 -285.606994628906 3.448088169098
-148.223037719727 -60.852359771729 -283.262237548828 2.439973115921
-147.345764160156 -61.033195495605 -281.135833740234 2.434019327164
18.727613449097 -63.654308319092 -282.953704833984 1.324839949608
-153.033172607422 -59.612094879150 -285.463226318359 2.625144243240
-145.973510742188 -60.272644042969 -287.366760253906 2.998113155365
-3.261725902557 -66.126617431641 -288.353729248047 0.420004248619
6.148151874542 -62.975082397461 -293.023376464844 2.104218244553
-150.231750488281 -62.017723083496 -296.157073974609 1.373224258423
27.181049346924 -72.621276855469 -22.253105163574 1.693799376488
45.068572998047 -66.215721130371 -28.893594741821 2.688718080521
49.727516174316 -71.920532226563 -32.845020294189 2.567149639130
42.105144500732 -63.244194030762 -33.958797454834 1.107107043266
25.327978134155 -72.706398010254 -37.615261077881 2.021295070648
44.839202880859 -71.341651916504 -39.809005737305 1.641808509827
81.000076293945 -64.265228271484 -61.413257598877 1.688501000404
76.947639465332 -66.021820068359 -61.760143280029 1.749652743340
-14.274795532227 -65.842605590820 -68.441528320313 1.319700598717
66.913635253906 -62.871681213379 -70.968521118164 2.156541585922
-27.805446624756 -67.767333984375 -74.939682006836 1.614596486092
-32.784751892090 -68.028343200684 -79.402526855469 1.770379662514
-55.750694274902 -62.532035827637 -77.718635559082 2.291366577148
-53.110107421875 -62.050338745117 -79.955902099609 1.899923801422
65.015632629395 -68.457374572754 -82.800659179688 0.964922726154
106.055839538574 -69.780570983887 -88.689643859863 3.668683290482
-60.613269805908 -62.479309082031 -87.295867919922 1.066652059555
56.655666351318 -65.469985961914 -95.658058166504 2.588878631592
63.166606903076 -63.110115051270 -92.904983520508 1.319752335548
103.892417907715 -66.093208312988 -95.091896057129 2.411778211594
-65.670951843262 -64.959205627441 -94.736946105957 1.607760071754
55.859420776367 -62.193954467773 -96.054084777832 1.094194173813
-67.172904968262 -66.320320129395 -105.890274047852 2.916233062744
68.414588928223 -66.816795349121 -97.476692199707 1.517101168633
68.646850585938 -64.471893310547 -102.991500854492 1.200723290443
-73.423400878906 -62.691627502441 -108.735649108887 1.343647360802
-97.270874023438 -60.858455657959 -112.032958984375 2.593550205231
-69.247924804688 -59.361255645752 -110.411102294922 1.859149098396
-83.072006225586 -63.963611602783 -112.234252929688 1.249374151230
-63.354759216309 -64.430740356445 -114.872024536133 1.620556116104
-83.738327026367 -61.267227172852 -110.935096740723 1.536955952644
-77.285324096680 -63.649082183838 -116.494064331055 0.660404920578
-76.003524780273 -64.466377258301 -117.651321411133 1.404230594635
-66.815155029297 -65.349334716797 -120.775611877441 1.446493983269
-83.554100036621 -64.985832214355 -126.196136474609 1.669814586639
35.191951751709 -63.564449310303 -127.586860656738 1.116613268852
-50.398025512695 -63.476768493652 -129.243850708008 2.566618442535
31.172822952271 -63.646034240723 -133.182434082031 0.870634257793
31.298643112183 -64.706344604492 -133.091781616211 0.477291524410
31.920780181885 -64.497421264648 -133.338394165039 0.374965548515
-52.307350158691 -62.113250732422 -134.659103393555 1.766318440437
21.001974105835 -63.468002319336 -146.048751831055 0.955941796303
24.626150131226 -64.268714904785 -144.111114501953 1.698981165886
-144.745391845703 -61.694881439209 -177.912094116211 1.002120614052
-149.248001098633 -59.149818420410 -176.274948120117 2.317763566971
-151.352615356445 -61.684566497803 -181.310775756836 1.383716702461
-147.272750854492 -60.030242919922 -186.866012573242 2.570265769958
-146.825302124023 -61.635826110840 -190.921554565430 2.863579034805
-147.529968261719 -63.280647277832 -193.719070434570 1.448418736458
-141.583648681641 -63.777107238770 -194.020004272461 2.655498266220
-144.056961059570 -58.798160552979 -199.995544433594 2.679882764816
-122.223777770996 -62.511390686035 -200.765243530273 1.392928481102
-132.564270019531 -62.029502868652 -203.531814575195 2.034156084061
-146.234024047852 -62.054302215576 -212.804534912109 1.424121737480
-146.745864868164 -57.937789916992 -224.241775512695 2.690207958221
-151.051910400391 -60.015445709229 -226.863876342773 1.879600763321
-145.505401611328 -60.450366973877 -228.978103637695 2.664265632629
-152.076019287109 -60.118564605713 -228.330032348633 2.252730846405
-149.291381835938 -58.776008605957 -230.304962158203 2.350798368454
-147.983779907227 -61.089988708496 -230.430694580078 0.741831243038
-145.343215942383 -60.735092163086 -232.642562866211 1.114672422409
-141.594604492188 -59.992790222168 -236.320922851563 3.608288288116
-146.316604614258 -61.712078094482 -232.187515258789 0.881708443165
-153.250564575195 -60.202941894531 -234.839218139648 1.708576202393
9.967134475708 -62.798049926758 -240.224334716797 2.385601282120
-8.716160774231 -66.536918640137 -241.352462768555 1.627382278442
-145.095214843750 -59.753627777100 -239.681259155273 3.836565494537
-150.521606445313 -61.137145996094 -237.359771728516 1.522996425629
-150.595535278320 -61.141658782959 -238.645446777344 2.048039674759
9.938932418823 -63.368824005127 -244.361007690430 0.534114062786
-149.210617065430 -60.191692352295 -240.210235595703 2.979265689850
-147.555496215820 -62.014316558838 -254.464935302734 0.968492805958
-1.863960027695 -62.275161743164 -250.473571777344 1.599735140800
-147.798721313477 -59.959453582764 -252.825744628906 2.215290546417
-145.424575805664 -59.733005523682 -254.464141845703 2.719231843948
-142.507598876953 -60.808326721191 -257.056213378906 2.354891061783
-141.932022094727 -60.402896881104 -257.183197021484 2.554231643677
28.354003906250 -63.768032073975 -261.558654785156 1.512354731560
-148.550460815430 -62.243816375732 -265.799194335938 1.039576649666
27.621112823486 -64.339073181152 -270.867889404297 3.293534517288
16.158517837524 -63.225116729736 -287.855621337891 3.270905017853
2.321630954742 -61.528625488281 -289.571594238281 0.570252418518
9.372876167297 -59.675266265869 -293.143371582031 1.555462837219
32.058300018311 -63.865192413330 -19.399602890015 2.962284564972
44.761798858643 -72.974250793457 -37.772075653076 1.725710153580
35.394702911377 -72.751731872559 -39.371387481689 1.633903622627
-42.988983154297 -62.733169555664 -47.123191833496 2.698792934418
-89.537986755371 -62.778617858887 -54.436962127686 1.731395721436
-93.760902404785 -62.504928588867 -59.990139007568 2.250399827957
-20.894823074341 -62.739471435547 -66.858055114746 2.047873497009
102.047721862793 -66.094810485840 -69.560127258301 1.756237030029
106.024635314941 -62.461002349854 -75.927993774414 2.120422601700
105.176910400391 -66.969635009766 -77.983718872070 1.490408301353
-50.056045532227 -64.676536560059 -83.655921936035 1.437447547913
-61.643119812012 -61.533538818359 -85.045478820801 1.718383073807
59.083217620850 -62.339584350586 -88.700691223145 2.091041326523
54.715991973877 -64.899772644043 -90.002006530762 0.708426833153
-62.378341674805 -65.170616149902 -97.189064025879 2.732633113861
-96.928405761719 -59.493614196777 -106.949523925781 2.204547643661
79.476577758789 -65.051025390625 -108.542106628418 0.628802657127
-79.022903442383 -62.844272613525 -110.691055297852 1.397778034210
-66.596282958984 -62.428520202637 -110.777786254883 1.990666151047
-80.318305969238 -64.155708312988 -113.709495544434 1.635527968407
-84.210662841797 -58.704608917236 -115.204124450684 1.279207110405
-81.654792785645 -62.948329925537 -117.241516113281 1.426046013832
-68.600708007813 -58.691085815430 -117.813392639160 0.324096053839
-64.781845092773 -62.331478118896 -118.818374633789 1.681461811066
-80.882705688477 -59.726970672607 -118.918296813965 2.239097118378
-77.611602783203 -61.855304718018 -117.701354980469 1.789646625519
-63.462966918945 -61.474246978760 -120.875976562500 1.898196935654
-83.872337341309 -61.684013366699 -118.598579406738 0.578436732292
-74.962341308594 -62.529067993164 -121.513092041016 2.112967967987
-74.042282104492 -62.284080505371 -129.021881103516 2.984574556351
-78.726821899414 -61.824504852295 -129.262985229492 1.174641728401
29.188716888428 -61.040588378906 -126.328437805176 2.921976804733
-55.717529296875 -61.121475219727 -132.667175292969 1.668125987053
27.584030151367 -63.902999877930 -133.860931396484 0.723610818386
23.500812530518 -64.825141906738 -138.062866210938 2.098216295242
-142.920379638672 -60.684589385986 -194.918579101563 1.734565019608
-137.480789184570 -62.372154235840 -199.896926879883 3.234978914261
-152.453735351563 -60.061267852783 -202.302261352539 2.139369487762
-149.271926879883 -58.618988037109 -201.226074218750 1.443235516548
-154.659088134766 -63.111751556396 -203.474472045898 2.597239255905
-147.759933471680 -58.389156341553 -203.849639892578 1.404610991478
-141.170455932617 -59.863864898682 -204.132644653320 2.097177743912
-148.777069091797 -59.005058288574 -207.267578125000 2.605333566666
-148.409790039063 -61.402976989746 -224.053741455078 0.598292946815
-147.671600341797 -59.242057800293 -222.930984497070 2.167927026749
-144.731002807617 -58.925518035889 -224.455581665039 1.241255044937
-144.442413330078 -60.824493408203 -223.260375976563 1.971202015877
-148.534164428711 -59.879661560059 -227.750259399414 2.143698930740
-143.789367675781 -59.285694122314 -225.539382934570 1.666969060898
-145.146621704102 -59.300521850586 -228.049789428711 2.728529214859
-141.827453613281 -58.680053710938 -226.843307495117 2.003839969635
-141.072753906250 -61.535404205322 -229.596099853516 1.729149818420
-142.814392089844 -59.490081787109 -233.748657226563 2.241370916367
-147.419921875000 -58.280250549316 -235.848602294922 2.834689140320
-147.211486816406 -58.447391510010 -235.119033813477 2.338053941727
3.412714004517 -63.088260650635 -238.882553100586 1.457462430000
19.197277069092 -62.318622589111 -242.488235473633 1.385063409805
25.136283874512 -58.914375305176 -254.372421264648 2.401889562607
25.858583450317 -60.106140136719 -258.090728759766 2.256335735321
8.817606925964 -62.102348327637 -264.202728271484 2.165951013565
23.041648864746 -63.945568084717 -278.510833740234 1.811804533005
5.085300922394 -62.712989807129 -280.655548095703 2.530748367310
7.954722881317 -59.586162567139 -291.561859130859 1.225040912628
12.010453224182 -62.601341247559 -290.186706542969 1.808248996735
49.556850433350 -71.753807067871 -20.944585800171 1.736356973648
33.345821380615 -62.060714721680 -38.145217895508 1.177801966667
-29.184150695801 -62.366897583008 -49.650012969971 1.481175661087
-17.114164352417 -62.483314514160 -51.965309143066 1.207691550255
-11.297224998474 -61.504821777344 -58.860012054443 1.908195734024
95.153869628906 -64.904052734375 -61.714809417725 3.140747547150
-96.915725708008 -59.335586547852 -71.096343994141 3.130697488785
102.360427856445 -65.525726318359 -72.842765808105 2.315461158752
57.017055511475 -63.010490417480 -86.051834106445 2.345342397690
66.703437805176 -62.853244781494 -89.776672363281 1.952618598938
-63.966758728027 -61.441555023193 -91.037979125977 3.133299350739
54.233146667480 -64.655532836914 -93.729789733887 1.566449403763
61.900424957275 -60.411170959473 -91.123733520508 2.267006635666
104.449974060059 -63.267993927002 -97.673286437988 1.723712444305
-66.780548095703 -60.586116790771 -96.252532958984 1.817297339439
-69.489990234375 -59.469497680664 -98.457176208496 1.171210765839
77.545875549316 -64.642189025879 -107.867347717285 0.862847983837
-75.872611999512 -62.008743286133 -107.575347900391 1.639687538147
-62.461711883545 -61.998268127441 -110.172096252441 0.796648383141
40.056865692139 -60.560504913330 -119.622016906738 0.919877767563
-82.373687744141 -61.742053985596 -124.681106567383 1.640653610229
41.141479492188 -62.358325958252 -120.804618835449 0.979079902172
-89.210861206055 -63.678962707520 -118.565460205078 2.263143301010
-96.238380432129 -60.870594024658 -125.449577331543 2.805635929108
-66.870986938477 -61.037174224854 -123.450172424316 1.325690031052
37.099040985107 -62.056159973145 -125.425636291504 0.319929003716
-62.345489501953 -62.395736694336 -128.857727050781 1.965438246727
-57.354881286621 -61.389984130859 -134.168243408203 2.189394235611
-55.835716247559 -62.795955657959 -138.725296020508 1.108866572380
-142.906387329102 -58.603557586670 -198.550979614258 2.146128892899
-147.445053100586 -57.549140930176 -192.985244750977 3.454862356186
-147.258621215820 -59.204334259033 -195.630264282227 0.777571856976
-152.748413085938 -59.948734283447 -197.146957397461 1.384727478027
-147.663787841797 -60.424888610840 -197.185791015625 0.745111465454
-142.713150024414 -57.748893737793 -197.161422729492 1.991840839386
-139.554244995117 -57.936595916748 -200.564956665039 3.350852251053
-145.297195434570 -59.432605743408 -201.889144897461 1.426378369331
-145.468231201172 -60.172492980957 -201.071533203125 0.771229803562
-152.056472778320 -57.809627532959 -205.670242309570 3.219218492508
-142.338027954102 -59.848937988281 -204.306121826172 0.959360241890
-145.483917236328 -60.825637817383 -206.700454711914 0.341152787209
-146.326339721680 -57.341613769531 -206.110992431641 2.965444803238
-148.719619750977 -57.903011322021 -206.104553222656 2.704519271851
-145.864120483398 -59.018264770508 -224.816467285156 1.216998577118
-4.684259891510 -63.488162994385 -236.401611328125 1.863239526749
6.647838115692 -59.841476440430 -242.018997192383 1.242253422737
11.830903053284 -59.419132232666 -241.662826538086 1.083000421524
6.933649063110 -60.808044433594 -244.677444458008 0.683946549892
21.296522140503 -61.016521453857 -249.222091674805 1.260091900826
1.676975011826 -63.331859588623 -257.926513671875 1.861578702927
9.516581535339 -61.470085144043 -271.438018798828 1.880387783051
27.416648864746 -62.678894042969 -268.143127441406 2.123350620270
19.609264373779 -60.603363037109 -283.389495849609 1.953588962555
28.942213058472 -64.943649291992 -12.797154426575 2.887323379517
-67.164848327637 -62.723964691162 -41.969703674316 2.933540582657
-35.771205902100 -62.187034606934 -47.002819061279 1.754011988640
70.230934143066 -61.921226501465 -63.181167602539 1.869826197624
-27.415021896362 -64.704978942871 -70.510520935059 2.582096338272
-33.910003662109 -63.128852844238 -78.258888244629 3.637858629227
-42.859138488770 -60.984916687012 -80.392791748047 1.753580093384
67.752746582031 -59.713420867920 -91.619537353516 2.366172552109
106.215377807617 -62.221282958984 -87.551345825195 1.832882404327
66.856178283691 -67.763511657715 -89.420005798340 0.891598761082
-71.279907226563 -58.522789001465 -99.587478637695 2.071366071701
102.394439697266 -63.312934875488 -100.406829833984 2.026940584183
100.028831481934 -63.386852264404 -106.038002014160 1.860981106758
-65.431411743164 -60.865398406982 -106.991157531738 1.717674493790
81.502273559570 -62.654300689697 -108.381843566895 1.779689311981
94.173667907715 -61.323657989502 -108.562904357910 1.621043562889
-58.436054229736 -62.582984924316 -111.572456359863 3.250905036926
48.430904388428 -62.124473571777 -114.144058227539 2.241070985794
-60.717918395996 -65.573020935059 -118.169624328613 1.227218508720
-81.751754760742 -60.665294647217 -112.462326049805 0.351746469736
-55.089469909668 -62.849781036377 -122.035026550293 1.579152345657
-76.368690490723 -60.511215209961 -116.041046142578 1.831892251968
36.464820861816 -62.960800170898 -123.337608337402 2.043639183044
-95.198173522949 -61.862884521484 -126.660514831543 3.565660715103
-52.605377197266 -60.261852264404 -130.315505981445 1.587168216705
23.279766082764 -60.327949523926 -139.833404541016 1.006605267525
10.157926559448 -58.810218811035 -241.828094482422 2.830281496048
0.852369010448 -61.026874542236 -243.938858032227 1.742115139961
5.251595020294 -59.547882080078 -286.829101562500 1.458707571030
22.712625503540 -65.629562377930 -18.358093261719 0.716395497322
38.832721710205 -63.273620605469 -19.365089416504 2.137226343155
19.650949478149 -63.149181365967 -22.683134078979 0.755647003651
44.359588623047 -63.515365600586 -23.714336395264 2.436322689056
-48.685798645020 -57.790493011475 -44.047485351563 2.531817436218
-8.349798202515 -63.433811187744 -64.393478393555 2.644655942917
-100.234924316406 -59.946895599365 -86.830558776855 1.244449615479
67.913414001465 -58.817287445068 -100.184188842773 1.343433499336
85.173782348633 -62.576862335205 -107.304405212402 0.891777813435
-67.898452758789 -60.739509582520 -116.076225280762 0.609614610672
46.962715148926 -60.975795745850 -116.923019409180 2.859742164612
-77.823204040527 -58.888076782227 -120.235801696777 0.920339822769
-59.100040435791 -61.940937042236 -120.473617553711 2.027370929718
-64.291160583496 -61.433723449707 -130.248092651367 0.840779662132
30.860071182251 -60.536781311035 -138.057708740234 2.205796003342
-2.347620964050 -59.017810821533 -242.010742187500 2.330208301544
21.966026306152 -62.332382202148 -247.212829589844 1.419230103493
23.892368316650 -59.830574035645 -272.346313476563 2.382833719254
23.523950576782 -59.399223327637 -278.830169677734 2.804872512817
13.578448295593 -60.878650665283 -286.183166503906 2.325367212296
46.363033294678 -66.807731628418 -19.288206100464 1.883781075478
38.158966064453 -74.322502136230 -41.027885437012 2.776829481125
-53.151515960693 -60.285148620605 -41.356231689453 2.617126226425
-84.059783935547 -62.830684661865 -49.234264373779 1.020982146263
83.890281677246 -62.109680175781 -60.444824218750 2.594312906265
-13.680121421814 -60.771839141846 -63.459201812744 2.330375909805
62.735111236572 -62.095348358154 -81.250137329102 0.829500913620
105.590110778809 -61.443115234375 -95.368484497070 2.617942333221
-75.529518127441 -61.141487121582 -103.242347717285 0.893908023834
89.389877319336 -63.037258148193 -108.918197631836 1.763418793678
-97.319389343262 -59.483619689941 -118.266586303711 1.978633880615
-66.422142028809 -58.303718566895 -124.327697753906 1.630991339684
20.379920959473 -60.362346649170 -243.783843994141 1.328683376312
4.443033218384 -60.724250793457 -260.403259277344 2.184576272964
