-143.173034667969 -67.130867004395 -214.079849243164 1.789089679718
-145.083496093750 -66.447929382324 -222.873870849609 0.609765708447
-4.736913204193 -65.822738647461 -220.355758666992 2.275991439819
-10.632818222046 -68.819358825684 -216.644622802734 1.118729114532
-100.004463195801 -65.422386169434 -220.786376953125 2.822978496552
-6.911046981812 -66.049507141113 -230.043716430664 2.634330272675
-166.557739257813 -63.971878051758 -227.591857910156 1.236937999725
-108.606895446777 -64.243316650391 -230.912200927734 2.534438610077
0.217558994889 -66.775238037109 -226.492370605469 1.808501005173
2.707031965256 -65.780288696289 -229.952590942383 1.859273314476
-112.388549804688 -66.846054077148 -232.255233764648 1.619413852692
-2.058981895447 -67.147857666016 -229.555267333984 0.677082240582
-117.792388916016 -64.010421752930 -234.134277343750 1.484177231789
-8.119784355164 -64.936767578125 -233.873718261719 2.630350112915
-3.156570911407 -66.000427246094 -234.618209838867 1.296078085899
-1.626168012619 -66.930252075195 -236.649963378906 0.574877500534
70.501113891602 -65.803688049316 -236.121520996094 2.730718851089
-12.206303596497 -69.079200744629 -237.368759155273 0.430164933205
4.982242107391 -67.295166015625 -237.829254150391 1.572924971581
10.417938232422 -66.051277160645 -239.756408691406 0.606946706772
4.997307777405 -66.907836914063 -238.716735839844 1.680260777473
0.865899026394 -67.680786132813 -240.551727294922 1.717365741730
64.224884033203 -64.915992736816 -237.698394775391 1.709146857262
68.421630859375 -66.032768249512 -239.768783569336 3.147714614868
8.815071105957 -66.951232910156 -245.594787597656 2.101181030273
54.859752655029 -67.498542785645 -241.793609619141 2.488955259323
55.136623382568 -69.774917602539 -240.744781494141 1.809964537621
46.389259338379 -65.206314086914 -248.048049926758 1.526794195175
39.990638732910 -66.126235961914 -250.847671508789 0.736689567566
40.007301330566 -66.147956848145 -254.712203979492 1.556531190872
-133.696975708008 -63.380199432373 -256.200622558594 1.378491163254
-12.021327972412 -66.436981201172 -251.269119262695 1.743613481522
26.328695297241 -66.430030822754 -258.160064697266 1.743720531464
45.257896423340 -66.725143432617 -249.467651367188 1.849557757378
25.377656936646 -68.394111633301 -254.418365478516 2.020043849945
-102.847190856934 -66.296798706055 -257.867248535156 2.382153272629
31.321063995361 -67.199851989746 -256.208435058594 1.920326471329
-149.166305541992 -66.748672485352 -259.941833496094 2.083113431931
-116.951812744141 -65.819717407227 -257.053802490234 2.237124204636
-108.259284973145 -65.204780578613 -257.149993896484 1.803210258484
-5.448619842529 -67.353469848633 -258.934600830078 1.609924554825
-150.171218872070 -66.321250915527 -257.128082275391 0.831860899925
33.418239593506 -66.103210449219 -260.858184814453 0.694565057755
-111.639381408691 -64.478935241699 -256.929473876953 2.549693346024
25.692518234253 -68.515983581543 -259.334564208984 1.342169404030
-135.898315429688 -65.579086303711 -261.176513671875 1.075271129608
-117.143066406250 -64.297363281250 -262.180084228516 1.590931415558
-109.336517333984 -64.683990478516 -260.175231933594 2.929014921188
-116.481918334961 -67.173355102539 -261.410736083984 0.946468710899
-139.709533691406 -66.080680847168 -259.256713867188 2.877527475357
27.774831771851 -66.923408508301 -260.773773193359 1.470041275024
-118.448219299316 -64.617347717285 -263.027343750000 1.305609703064
-144.876922607422 -66.494705200195 -263.135742187500 1.384729743004
-5.957376956940 -64.903320312500 -270.648468017578 2.666856527328
-152.232101440430 -66.803100585938 -281.478057861328 1.248777747154
-8.859622001648 -66.353019714355 -284.212066650391 2.899700641632
-6.128186225891 -64.219909667969 -283.704193115234 2.489690303802
-135.190597534180 -64.892082214355 -286.296203613281 2.739092588425
-127.299270629883 -65.171051025391 -288.990661621094 1.381412744522
-136.697845458984 -65.220703125000 -292.965881347656 3.311468124390
-127.394218444824 -64.884590148926 -292.652740478516 2.205216407776
-155.120849609375 -65.582115173340 -294.249938964844 1.315814495087
-155.977645874023 -64.664695739746 -300.065307617188 3.730751276016
-148.447326660156 -66.889945983887 -300.255615234375 2.496348619461
-151.056365966797 -64.397102355957 -302.074096679688 1.646933197975
-146.126312255859 -64.879852294922 -299.497650146484 4.317115783691
-149.619537353516 -63.685398101807 -302.717010498047 1.822319507599
-147.636703491211 -63.066238403320 -313.394927978516 4.508701801300
19.620906829834 -73.103004455566 -28.370210647583 1.651746749878
48.602779388428 -72.855339050293 -35.400348663330 2.496697425842
26.127029418945 -74.683815002441 -38.462711334229 3.855654478073
32.790878295898 -71.847183227539 -41.642520904541 2.046825408936
-43.081123352051 -65.457939147949 -47.146591186523 1.079418778419
-77.676887512207 -67.850868225098 -50.414012908936 3.006587028503
80.525955200195 -68.491683959961 -61.564987182617 2.421304702759
75.078468322754 -69.920104980469 -62.712093353271 2.298568487167
70.909912109375 -70.354286193848 -67.191261291504 2.253788948059
-98.422386169434 -67.635742187500 -73.049270629883 3.754231452942
99.706214904785 -71.768928527832 -76.075012207031 2.106030702591
-32.120170593262 -68.472274780273 -80.716735839844 2.970459699631
63.944675445557 -68.410507202148 -77.365921020508 2.542210578918
-43.957824707031 -66.034408569336 -81.653472900391 1.120213389397
-52.854598999023 -65.971916198730 -83.093864440918 2.317233800888
50.179504394531 -70.362548828125 -90.433662414551 1.443908810616
102.108695983887 -69.862083435059 -90.399566650391 1.728132605553
64.562911987305 -66.996910095215 -94.444633483887 1.416959881783
57.002365112305 -67.738143920898 -93.822052001953 1.420359373093
48.921386718750 -67.216148376465 -100.974464416504 1.533454418182
56.683921813965 -66.052406311035 -99.251358032227 0.604564249516
103.278305053711 -67.643867492676 -98.041976928711 1.066359996796
70.071754455566 -68.204307556152 -105.331306457520 2.269442796707
48.818836212158 -68.141937255859 -105.547760009766 1.538864970207
76.911575317383 -72.068443298340 -106.642395019531 3.063173532486
93.418235778809 -66.242279052734 -108.143783569336 0.989828169346
-76.207237243652 -66.399955749512 -102.905685424805 1.755643367767
-87.202049255371 -68.190528869629 -109.925941467285 1.330329298973
-82.636543273926 -68.201576232910 -112.887199401855 1.815894365311
-60.172996520996 -65.999038696289 -118.177062988281 1.208138942719
-57.405319213867 -70.089569091797 -125.482582092285 1.857272624969
-94.842636108398 -66.828323364258 -121.587043762207 1.613539338112
-76.111740112305 -67.628158569336 -119.461166381836 1.647874236107
-76.864906311035 -69.732513427734 -131.658111572266 1.514609098434
-61.413246154785 -65.882026672363 -128.393783569336 0.945712029934
-89.198822021484 -64.074607849121 -129.864776611328 1.987482905388
-90.064315795898 -66.753860473633 -129.252716064453 1.197045683861
-48.311386108398 -70.699493408203 -135.253585815430 0.964523315430
-52.257568359375 -67.030158996582 -135.833099365234 1.440254211426
-77.361160278320 -67.203559875488 -138.264572143555 1.840702533722
-53.855751037598 -68.107528686523 -141.370635986328 1.727412581444
-75.227867126465 -68.366371154785 -142.716567993164 1.292005777359
21.836719512939 -65.936683654785 -138.182510375977 2.672695159912
-57.516147613525 -69.823318481445 -144.922698974609 2.095531225204
-54.876201629639 -64.864517211914 -144.890884399414 2.491866350174
8.956187248230 -69.437019348145 -154.908569335938 1.941701412201
15.942090034485 -65.988014221191 -151.110855102539 0.830510556698
-143.254837036133 -65.744560241699 -174.223419189453 1.567513108253
-110.925849914551 -65.857803344727 -177.947402954102 1.281068444252
-109.140220642090 -63.636661529541 -188.931091308594 1.758112430573
-152.693496704102 -66.685134887695 -191.783020019531 3.077426195145
-113.326843261719 -65.242385864258 -185.023361206055 2.588246107101
-152.943557739258 -62.851638793945 -195.417221069336 1.789269328117
-114.535621643066 -64.288429260254 -197.793029785156 1.053763628006
-150.310440063477 -63.854560852051 -199.379379272461 2.036781072617
-151.572357177734 -65.774307250977 -205.547714233398 1.424570083618
-152.909194946289 -67.844123840332 -209.042739868164 1.869487524033
-147.547729492188 -64.813713073730 -222.986450195313 1.498252034187
-151.496582031250 -67.268821716309 -224.160598754883 1.753129363060
-105.409271240234 -64.253906250000 -224.209732055664 1.079118967056
-103.557876586914 -65.161773681641 -223.092697143555 1.932796239853
-124.014762878418 -62.175682067871 -228.948806762695 1.554328799248
-109.165718078613 -64.431655883789 -226.098770141602 2.005809545517
-156.535537719727 -66.376998901367 -230.113784790039 2.144931554794
-3.218060016632 -65.921447753906 -226.655975341797 2.149558305740
-134.836990356445 -65.577049255371 -230.825317382813 1.365781188011
-153.821060180664 -66.479026794434 -234.442230224609 1.545709729195
-136.312240600586 -66.390571594238 -233.312179565430 2.047470331192
-12.259787559509 -65.890625000000 -237.024444580078 2.628998279572
8.231340408325 -66.619384765625 -242.174026489258 1.108322620392
62.358867645264 -64.116935729980 -240.916427612305 2.835095882416
17.912086486816 -68.050514221191 -247.856216430664 1.516367077827
56.533557891846 -66.022315979004 -244.370849609375 2.256691455841
41.098018646240 -67.020606994629 -249.382751464844 1.702888369560
56.499530792236 -65.247108459473 -250.792739868164 2.243769645691
-152.501174926758 -64.614585876465 -250.680053710938 3.013987302780
-151.436965942383 -67.810066223145 -253.719894409180 2.486055850983
41.623161315918 -65.207580566406 -256.858947753906 1.286804914474
29.788551330566 -65.511276245117 -256.392395019531 2.696547508240
46.683769226074 -65.126144409180 -251.876342773438 2.014626026154
-145.115066528320 -67.076896667480 -257.075653076172 1.377235412598
-136.140090942383 -63.306224822998 -255.321014404297 3.045805692673
-126.036354064941 -62.987682342529 -256.622344970703 2.305628299713
-135.055160522461 -65.256530761719 -255.694717407227 1.671918392181
-141.984680175781 -64.969009399414 -257.340515136719 2.218578100204
-124.668479919434 -64.180892944336 -258.733581542969 1.413444161415
-143.131118774414 -63.445476531982 -259.890167236328 1.666059136391
-126.251037597656 -65.624839782715 -259.942169189453 1.096493721008
-124.436042785645 -64.224861145020 -263.499786376953 1.132536411285
-127.230468750000 -65.278984069824 -264.033874511719 1.807416319847
-119.930168151855 -62.525047302246 -263.482055664063 3.496407508850
-5.950704097748 -65.990089416504 -265.420349121094 1.438417077065
26.477226257324 -64.759963989258 -262.349975585938 0.772115767002
-147.201980590820 -62.653179168701 -266.071624755859 0.665222823620
25.529323577881 -65.405509948730 -267.631896972656 2.245245456696
-4.802558898926 -62.852581024170 -272.881591796875 4.841518878937
16.042360305786 -70.025352478027 -283.652221679688 1.964101552963
-142.704391479492 -64.653968811035 -288.495330810547 0.609180212021
-126.679016113281 -64.468528747559 -286.977447509766 2.075001478195
-133.903686523438 -61.661216735840 -289.593139648438 3.583148479462
-158.520156860352 -60.858314514160 -290.803222656250 4.472471237183
-126.371765136719 -61.101406097412 -288.733947753906 4.364315986633
-118.895454406738 -62.434978485107 -288.932586669922 3.722723484039
-127.015968322754 -65.002861022949 -294.045196533203 2.423663854599
-150.757492065430 -65.954536437988 -294.200408935547 2.201247930527
27.672983169556 -73.300956726074 -12.956930160522 1.735941529274
32.772808074951 -73.700889587402 -17.072517395020 1.404441118240
38.290882110596 -71.771903991699 -18.973949432373 1.710356712341
48.449188232422 -65.002952575684 -23.575832366943 2.636429548264
26.497739791870 -74.140991210938 -27.752359390259 2.239737033844
21.211818695068 -72.966690063477 -34.916950225830 1.529978632927
-34.811752319336 -67.908668518066 -46.515628814697 3.138482093811
-83.319236755371 -68.474685668945 -52.393085479736 1.291231274605
-16.101810455322 -67.868835449219 -57.805507659912 1.602653980255
71.754165649414 -67.470993041992 -64.775192260742 2.089607715607
100.264968872070 -68.238380432129 -68.518470764160 2.242527961731
64.597023010254 -67.791671752930 -82.267585754395 1.691871523857
61.298343658447 -64.711486816406 -82.255523681641 1.062800168991
101.503578186035 -67.980270385742 -84.199020385742 1.313753843307
-64.054641723633 -65.042297363281 -89.809440612793 1.481284022331
-65.218124389648 -66.647796630859 -91.792701721191 1.866899967194
48.502613067627 -66.663810729980 -94.053001403809 0.929535627365
-67.049858093262 -67.143516540527 -95.577941894531 2.885521411896
-70.880470275879 -66.608047485352 -99.775985717773 0.689310371876
-97.940750122070 -64.803703308105 -97.884544372559 1.954134941101
-75.767936706543 -64.558670043945 -100.145736694336 1.432317852974
46.556510925293 -65.714958190918 -101.060440063477 1.532891035080
-68.986427307129 -68.038024902344 -102.988861083984 3.151888847351
50.181606292725 -66.063941955566 -102.093795776367 1.549789786339
96.316436767578 -68.157516479492 -104.447196960449 1.853651285172
91.204917907715 -67.371070861816 -109.623336791992 3.124768018723
-73.996681213379 -66.218750000000 -113.308769226074 1.732353925705
-83.511665344238 -66.624839782715 -112.246459960938 1.969746708870
-62.196426391602 -66.406616210938 -118.902359008789 1.279655814171
-96.837661743164 -63.959217071533 -119.073974609375 1.821181774139
-77.356407165527 -67.286872863770 -126.867767333984 1.687768816948
-93.430221557617 -61.501132965088 -123.977264404297 1.516698241234
-63.175746917725 -64.525924682617 -118.178924560547 1.718024253845
-60.540874481201 -61.850162506104 -119.267631530762 1.279609560966
-88.255187988281 -65.605201721191 -128.562866210938 1.915266036987
-63.379215240479 -69.151107788086 -127.626823425293 3.194486618042
-84.678733825684 -65.066436767578 -131.443435668945 0.870580136776
-77.504096984863 -66.812538146973 -132.854583740234 1.282011270523
-63.124710083008 -68.127159118652 -132.783493041992 1.293776273727
-61.585071563721 -62.744686126709 -134.561691284180 1.878650426865
-54.792251586914 -63.164459228516 -136.133728027344 2.581961631775
-94.968910217285 -64.160667419434 -132.650558471680 3.289338111877
-97.142051696777 -64.536750793457 -143.282684326172 2.198755264282
-87.406219482422 -66.240333557129 -133.758499145508 2.316043376923
21.017045974731 -68.247184753418 -146.975189208984 1.761612415314
-50.121578216553 -66.505836486816 -142.372100830078 1.262659549713
16.517881393433 -65.724967956543 -149.164093017578 2.258359909058
-98.700660705566 -65.671371459961 -163.444824218750 2.046182632446
-103.132377624512 -67.813858032227 -171.353698730469 1.348098278046
-102.871253967285 -62.837608337402 -170.899215698242 1.528611540794
-107.911079406738 -62.432426452637 -169.124343872070 2.592359542847
-107.045249938965 -65.685783386230 -179.659194946289 2.486019611359
-111.024848937988 -64.687049865723 -177.467498779297 1.888976216316
-142.334732055664 -63.975540161133 -186.880828857422 1.755384802818
-112.587165832520 -63.749412536621 -186.446075439453 2.493901729584
-133.887771606445 -62.077438354492 -197.863265991211 1.976413726807
-148.837051391602 -65.747451782227 -197.872207641602 1.114981412888
-125.503562927246 -64.718605041504 -197.321319580078 1.649228572845
-156.394836425781 -65.668563842773 -196.700149536133 1.202878236771
-147.703979492188 -66.546813964844 -201.308822631836 1.493402481079
-124.679100036621 -61.396804809570 -199.356979370117 1.046180486679
-134.854675292969 -64.242675781250 -201.955596923828 0.929395854473
-143.159408569336 -67.543472290039 -205.906707763672 1.441027760506
-133.338989257813 -66.434890747070 -223.510879516602 2.188827753067
-112.107482910156 -65.080520629883 -228.512451171875 1.872726440430
-145.685684204102 -65.084815979004 -228.470672607422 2.567882776260
-118.306953430176 -62.858924865723 -229.945556640625 3.055697917938
-115.575347900391 -61.726478576660 -230.617050170898 2.471961736679
-124.033309936523 -64.494453430176 -233.214462280273 0.971031546593
-129.625457763672 -64.473213195801 -234.288970947266 1.989317297935
-116.588325500488 -62.168972015381 -234.877212524414 3.445287466049
3.332729101181 -64.489044189453 -235.011108398438 1.653079390526
-152.156768798828 -65.294815063477 -236.503234863281 2.671166896820
6.320040225983 -66.557601928711 -233.786331176758 1.809278488159
5.918666839600 -62.836124420166 -240.396286010742 0.385737627745
1.067206025124 -66.219650268555 -240.243637084961 0.729676783085
14.112613677979 -62.177703857422 -240.216293334961 1.932735800743
-145.667984008789 -63.516193389893 -235.053436279297 1.428913831711
-4.991818904877 -65.111518859863 -245.999954223633 2.277139902115
18.983425140381 -64.611000061035 -242.096420288086 0.769674539566
48.038436889648 -63.961460113525 -248.870422363281 1.336105346680
50.175045013428 -63.931854248047 -249.185180664063 0.958411395550
-147.395935058594 -65.127326965332 -252.067687988281 2.338594675064
-6.790038108826 -65.020843505859 -251.567886352539 0.679593026638
23.353054046631 -65.271362304688 -256.445587158203 1.121328473091
-133.723449707031 -60.311851501465 -258.346008300781 4.158140659332
-125.954597473145 -62.232868194580 -259.353576660156 2.713577032089
-126.102012634277 -63.592567443848 -257.677459716797 2.043354749680
25.469007492065 -64.799354553223 -259.251983642578 1.636613965034
-135.017105102539 -62.766460418701 -264.567230224609 3.456593513489
28.378416061401 -63.442760467529 -261.122436523438 1.634016990662
30.869043350220 -65.252372741699 -263.446868896484 2.021660089493
-153.119110107422 -65.434394836426 -266.067626953125 1.834600448608
-148.115402221680 -67.878181457520 -287.111541748047 1.449577689171
-151.118621826172 -61.451370239258 -288.066436767578 1.628651857376
-144.728775024414 -60.942512512207 -292.942626953125 2.887183904648
9.671336174011 -66.988464355469 -292.058898925781 0.735972404480
-155.384078979492 -61.271797180176 -297.251770019531 5.142074584961
44.960632324219 -73.224464416504 -26.200996398926 1.889975428581
34.831237792969 -73.842742919922 -40.518932342529 2.622677326202
-63.005756378174 -65.873435974121 -45.362659454346 2.147321701050
-73.027870178223 -65.244331359863 -45.867080688477 1.362976670265
-27.653871536255 -66.042663574219 -50.195137023926 1.300322890282
-22.026247024536 -69.574592590332 -54.304946899414 1.696116209030
-12.965864181519 -64.021453857422 -66.389869689941 0.686661601067
-25.897861480713 -64.545738220215 -69.363143920898 0.756150245667
64.695716857910 -67.098815917969 -73.340621948242 2.124858617783
-97.897872924805 -62.471256256104 -78.012367248535 2.293905496597
-47.314987182617 -66.516838073730 -85.065254211426 1.676097035408
54.173271179199 -67.976577758789 -85.963691711426 0.962948620319
56.866146087646 -66.966957092285 -87.144973754883 2.105637550354
62.877838134766 -67.584823608398 -89.170196533203 1.089276075363
105.078086853027 -66.786445617676 -91.104187011719 1.043528676033
51.597946166992 -64.376838684082 -92.031105041504 1.327616095543
98.863998413086 -65.102081298828 -100.710304260254 2.810603857040
-81.572273254395 -67.300048828125 -102.520141601563 1.648189783096
-96.104812622070 -66.231201171875 -102.151321411133 1.984255671501
75.263465881348 -64.372764587402 -111.008636474609 2.512131214142
-77.349685668945 -64.620849609375 -103.391334533691 2.629942893982
-78.359565734863 -68.668136596680 -115.915740966797 1.699768185616
-84.342887878418 -67.969497680664 -118.481071472168 1.255180358887
-55.962162017822 -66.591484069824 -126.656257629395 1.301953077316
-78.752525329590 -66.270668029785 -128.264282226563 0.726288735867
-62.593418121338 -63.934440612793 -130.268814086914 1.354805946350
-83.023422241211 -66.586502075195 -134.284561157227 2.154115676880
-76.211715698242 -64.380409240723 -132.891296386719 0.566228449345
-80.583992004395 -61.937294006348 -125.272399902344 1.708057880402
-88.553871154785 -63.651660919189 -130.578170776367 1.875010728836
-65.169677734375 -63.295192718506 -133.540863037109 3.007035255432
-91.152999877930 -64.398918151855 -133.382736206055 2.190048933029
-50.363372802734 -66.716529846191 -133.941329956055 1.132400274277
-56.673866271973 -68.092811584473 -139.067855834961 2.568495750427
27.097026824951 -65.999435424805 -138.311813354492 1.065223217010
-57.961345672607 -61.231307983398 -137.331085205078 1.082061409950
14.516507148743 -68.363372802734 -144.975357055664 2.053412437439
17.224849700928 -65.505432128906 -148.631332397461 1.595614075661
17.362491607666 -63.167755126953 -152.926925659180 1.295856237411
-98.008918762207 -63.698982238770 -144.898971557617 3.449778318405
-92.785957336426 -65.191917419434 -150.728317260742 1.913077950478
-96.496063232422 -61.829437255859 -151.665527343750 1.527083754539
-104.552665710449 -64.688537597656 -159.643722534180 0.955165743828
-97.618988037109 -63.915500640869 -158.555374145508 1.143222451210
-152.244720458984 -65.899703979492 -175.117584228516 2.129300117493
-154.213653564453 -64.359489440918 -175.953399658203 1.826713085175
-109.297782897949 -62.788909912109 -181.329772949219 1.107792258263
-142.931961059570 -61.967456817627 -177.770721435547 1.127210021019
-110.677268981934 -61.870285034180 -180.549407958984 1.181648850441
-151.263549804688 -60.019573211670 -186.830947875977 3.133376359940
-112.195770263672 -61.849155426025 -192.993011474609 2.496531248093
-110.543548583984 -63.674381256104 -185.252166748047 2.537301540375
-143.525665283203 -63.623359680176 -197.834060668945 2.570617198944
-132.276947021484 -64.657928466797 -196.548324584961 1.286616802216
-108.690734863281 -63.986961364746 -197.602706909180 1.766862869263
-116.462837219238 -60.629890441895 -199.106231689453 3.059657573700
-113.146812438965 -63.706077575684 -200.282867431641 0.832330644131
-116.230880737305 -61.273071289063 -202.499923706055 2.246924400330
-134.790191650391 -61.766555786133 -197.955078125000 2.757475376129
-137.223602294922 -63.239109039307 -202.257064819336 3.176019430161
-132.293884277344 -62.598144531250 -205.659500122070 0.413381040096
-127.227386474609 -60.066413879395 -201.745590209961 3.438586235046
-126.262435913086 -63.118991851807 -204.778549194336 1.696629643440
-115.596855163574 -62.604503631592 -204.249130249023 2.368417501450
-147.882888793945 -62.978874206543 -214.596771240234 1.690534234047
-152.081848144531 -63.407852172852 -221.053573608398 2.134537458420
-153.549774169922 -61.377235412598 -222.994140625000 2.582236528397
-141.789230346680 -66.974433898926 -225.382751464844 2.140328168869
-132.960464477539 -60.750713348389 -226.666580200195 3.437976121902
-124.052520751953 -64.776206970215 -222.081527709961 3.409317255020
-141.757888793945 -64.315567016602 -228.269515991211 0.971928119659
-151.385940551758 -65.153091430664 -227.115310668945 3.335766553879
-135.120468139648 -63.919818878174 -226.530059814453 1.170575141907
-134.163314819336 -60.945983886719 -228.517791748047 2.757375001907
-148.682113647461 -64.305557250977 -229.862899780273 1.295865774155
-134.937911987305 -59.754985809326 -230.627990722656 3.840933322906
-127.476310729980 -61.552658081055 -229.639907836914 3.383370161057
-10.030282020569 -66.337203979492 -236.947631835938 1.317274689674
3.946329116821 -63.061222076416 -239.925155639648 1.079176664352
12.621171951294 -61.299449920654 -242.666076660156 1.501581907272
8.844682693481 -65.915809631348 -243.895065307617 2.452237367630
-9.681111335754 -65.381340026855 -241.561218261719 2.457019090652
-12.412816047668 -64.043739318848 -246.999435424805 2.477157354355
38.738758087158 -62.873794555664 -251.155929565430 2.002684354782
47.722812652588 -64.111221313477 -252.437393188477 2.197770357132
-145.995101928711 -60.990497589111 -254.124481201172 1.465472340584
40.916809082031 -62.898525238037 -255.438659667969 1.601998209953
36.623405456543 -64.459800720215 -253.479110717773 2.088628292084
-158.420867919922 -64.265548706055 -257.911590576172 2.652686834335
-151.930969238281 -61.387729644775 -257.735961914063 2.234194755554
-150.507354736328 -65.805694580078 -259.673614501953 1.520285725594
1.558181047440 -64.042465209961 -263.927062988281 1.257931709290
-151.919586181641 -62.369091033936 -266.055297851563 1.517485976219
-1.061642050743 -63.628814697266 -274.569274902344 3.157771587372
-147.648025512695 -63.685802459717 -274.286499023438 1.440488219261
-148.698623657227 -61.906009674072 -281.809478759766 0.929923892021
-152.160858154297 -61.871105194092 -283.773773193359 2.456378459930
-150.740325927734 -58.380542755127 -283.680999755859 4.590354442596
-145.804748535156 -60.984874725342 -287.300170898438 2.450400352478
-156.531600952148 -61.184619903564 -285.360443115234 2.894083261490
-152.066864013672 -61.307521820068 -285.910522460938 1.298946261406
-151.812011718750 -60.624107360840 -286.964019775391 2.128518342972
-148.135147094727 -61.336078643799 -286.557250976563 1.745384812355
-144.800735473633 -61.162704467773 -287.217193603516 2.819632768631
11.208910942078 -64.238471984863 -286.773925781250 3.067669153214
-148.163101196289 -61.572536468506 -291.624359130859 2.820807933807
-157.358306884766 -59.577793121338 -290.518524169922 4.622637271881
-155.115539550781 -58.887035369873 -288.740631103516 4.516770362854
-152.174682617188 -60.286334991455 -293.299133300781 3.518851280212
-150.456375122070 -58.125606536865 -289.893951416016 4.233484268188
-147.459716796875 -62.304798126221 -291.552368164063 1.845952987671
1.585088968277 -64.144622802734 -292.601623535156 2.235604286194
-145.390441894531 -60.643760681152 -293.901092529297 3.235983610153
-148.669326782227 -59.473541259766 -293.557342529297 2.884613275528
28.631374359131 -62.081005096436 -17.876792907715 2.897177219391
41.592864990234 -71.737419128418 -20.189762115479 1.905308127403
42.460327148438 -65.032798767090 -21.911109924316 0.819068789482
18.671291351318 -72.596488952637 -31.495679855347 2.049408674240
27.695171356201 -60.794208526611 -35.180194854736 1.825882077217
37.960964202881 -70.570960998535 -35.841037750244 1.221825242043
-57.510959625244 -64.206604003906 -43.668136596680 1.122291445732
-51.320995330811 -65.667243957520 -42.773517608643 3.425305604935
89.078269958496 -67.314247131348 -63.374168395996 1.604552388191
-96.405128479004 -63.657455444336 -65.144790649414 2.050684213638
95.297050476074 -72.486930847168 -64.285865783691 5.113444805145
67.304794311523 -66.944328308105 -69.039901733398 2.079600334167
101.140747070313 -68.509246826172 -77.379730224609 1.818163394928
63.757076263428 -68.888298034668 -76.148361206055 3.174764871597
-42.116371154785 -66.667137145996 -77.797431945801 0.992240607738
59.943382263184 -63.196578979492 -81.786247253418 2.367279291153
-55.883373260498 -62.700122833252 -79.244972229004 1.682736873627
60.499076843262 -65.447448730469 -84.823646545410 1.676290869713
61.441631317139 -64.669357299805 -84.695289611816 1.940548658371
-98.651428222656 -65.119667053223 -82.843597412109 2.624658584595
51.153442382813 -65.271919250488 -87.690650939941 2.553615570068
51.627414703369 -68.828575134277 -93.038795471191 0.987005531788
63.987609863281 -67.442428588867 -92.462730407715 1.275042176247
52.010303497314 -64.500259399414 -96.187141418457 2.017016649246
-81.819992065430 -63.321422576904 -106.244537353516 1.964405775070
82.636177062988 -68.992866516113 -105.860603332520 1.475726842880
-79.999191284180 -66.069198608398 -115.699066162109 2.348617315292
-76.958663940430 -62.979663848877 -107.354751586914 1.897879362106
-80.270103454590 -65.349967956543 -121.449340820313 1.971406698227
-86.963821411133 -64.080322265625 -113.713493347168 0.651771843433
-93.233116149902 -64.032897949219 -119.501609802246 2.632981538773
-80.347312927246 -64.989181518555 -123.818473815918 1.342818379402
-54.405437469482 -62.131038665771 -126.273582458496 1.464008092880
-78.514266967773 -63.007984161377 -133.845626831055 1.321969509125
-57.184749603271 -60.425415039063 -131.344268798828 2.123390674591
-88.518600463867 -62.450313568115 -136.307174682617 2.529859066010
28.899141311646 -64.251388549805 -137.749237060547 0.515744030476
19.176214218140 -65.207054138184 -140.493392944336 1.338221549988
-92.870292663574 -58.813243865967 -140.527770996094 3.424600839615
19.466537475586 -65.461471557617 -148.400970458984 0.699514091015
-90.918151855469 -65.086647033691 -145.494659423828 1.218146443367
-94.428283691406 -60.738952636719 -147.112594604492 2.249444961548
18.688203811646 -64.654510498047 -155.991317749023 3.599180221558
-96.434936523438 -62.601444244385 -145.695007324219 2.600268602371
-98.106636047363 -61.663188934326 -147.831863403320 2.075392484665
-103.281089782715 -62.323787689209 -157.016265869141 2.581757545471
-97.574005126953 -62.486175537109 -160.056152343750 1.566612601280
-105.191047668457 -63.572834014893 -176.268722534180 1.671666383743
-108.506576538086 -65.952590942383 -168.139419555664 1.640107631683
-101.221885681152 -62.760444641113 -164.782196044922 3.832938194275
-106.501113891602 -62.832897186279 -169.996414184570 1.363589525223
-141.562606811523 -63.985092163086 -177.174667358398 1.531581401825
-109.659698486328 -62.279052734375 -178.016357421875 1.218370556831
-142.727340698242 -62.237850189209 -187.178466796875 1.548237919807
-149.269012451172 -60.843082427979 -189.056396484375 2.782388448715
-152.333328247070 -60.725486755371 -190.749206542969 3.924743413925
-124.064109802246 -61.123458862305 -195.969635009766 2.009238958359
-131.524047851563 -63.187862396240 -196.506042480469 0.969436824322
-123.133483886719 -61.671848297119 -199.526062011719 1.761886835098
-142.965454101563 -64.177749633789 -201.796173095703 1.773981690407
-124.419555664063 -63.999706268311 -203.608703613281 1.703433871269
-146.579086303711 -63.451225280762 -204.679458618164 2.199470758438
-151.416534423828 -62.472209930420 -205.554824829102 1.572303891182
-155.714965820313 -60.446273803711 -227.796188354492 2.358982563019
-142.913406372070 -65.266860961914 -231.205978393555 1.189734101295
-127.614646911621 -60.901588439941 -232.009552001953 4.310182094574
-154.908416748047 -59.867580413818 -230.818496704102 2.129016160965
-3.650959014893 -66.594078063965 -238.146270751953 0.776091337204
12.144316673279 -61.166725158691 -239.391998291016 2.941630601883
-3.826584100723 -65.173179626465 -243.061111450195 1.456709027290
-149.237014770508 -60.716716766357 -244.546051025391 2.447779893875
-7.865543842316 -61.434391021729 -244.407867431641 2.065404415131
-150.180908203125 -63.285274505615 -252.949813842773 1.579887509346
-6.899964809418 -64.003738403320 -248.916702270508 2.701904058456
-150.774337768555 -62.008239746094 -253.070007324219 1.216874480247
22.097356796265 -65.457527160645 -252.963775634766 1.986683130264
-153.330215454102 -58.757495880127 -254.891845703125 4.065797805786
-149.437149047852 -60.874767303467 -254.757614135742 1.411006331444
-153.923065185547 -60.825923919678 -254.004196166992 1.758633017540
-150.202865600586 -59.805946350098 -256.987396240234 2.354730606079
34.048381805420 -62.808509826660 -257.271972656250 1.801783442497
29.507574081421 -62.080436706543 -262.592803955078 1.719636559486
-147.107772827148 -60.750679016113 -256.705780029297 1.444384098053
-151.749649047852 -58.526012420654 -260.377471923828 3.643524408340
-155.224853515625 -62.188888549805 -259.745208740234 2.282632827759
-148.311172485352 -59.238853454590 -260.183135986328 2.386713266373
26.088274002075 -61.727031707764 -262.387084960938 2.271139383316
28.176473617554 -62.615291595459 -264.937957763672 1.909471511841
-153.171691894531 -61.504718780518 -262.875549316406 1.125977396965
-143.953369140625 -60.607147216797 -262.709411621094 2.162930488586
-151.242767333984 -58.821884155273 -263.349945068359 3.096823215485
-145.348999023438 -60.325420379639 -263.245544433594 3.248388528824
-146.510635375977 -62.498851776123 -264.186950683594 1.487571001053
-149.429107666016 -62.754661560059 -265.461608886719 0.730283439159
-149.289581298828 -59.199726104736 -265.338592529297 2.900458574295
-150.753524780273 -58.518039703369 -284.456848144531 4.510444164276
-150.002624511719 -60.334014892578 -282.123962402344 2.030717134476
-149.115249633789 -60.524578094482 -280.002624511719 2.174842596054
16.947748184204 -63.125106811523 -282.621093750000 2.934112548828
-154.823226928711 -59.083976745605 -284.296356201172 3.882742404938
-147.772644042969 -59.735229492188 -286.236419677734 2.582225322723
-5.066860198975 -65.574127197266 -287.928009033203 1.702387332916
4.320576190948 -62.400417327881 -292.627716064453 1.055591464043
-152.072494506836 -61.440105438232 -295.014343261719 3.136047363281
26.639556884766 -73.292411804199 -22.007717132568 1.493298649788
44.495018005371 -66.855026245117 -28.703487396240 2.573024034500
49.135437011719 -72.541229248047 -32.703231811523 2.799133062363
41.507415771484 -63.860412597656 -33.740818023682 0.600229322910
24.713560104370 -73.306900024414 -37.361125946045 2.360301256180
44.214076995850 -71.930633544922 -39.641181945801 1.517791152000
80.271583557129 -64.752098083496 -61.384067535400 1.955276966095
76.217636108398 -66.507369995117 -61.719795227051 1.915144920349
-15.035506248474 -66.304069519043 -67.967041015625 2.094698429108
66.139854431152 -63.315578460693 -70.865806579590 1.293043255806
-28.596763610840 -68.199829101563 -74.409667968750 0.956734836102
-33.597190856934 -68.440643310547 -78.849975585938 2.011324167252
-56.555164337158 -62.953838348389 -77.031745910645 3.250484466553
-53.925254821777 -62.461643218994 -79.279281616211 1.316813230515
64.185974121094 -68.846839904785 -82.714408874512 1.838493585587
105.197822570801 -70.139877319336 -88.804237365723 3.188172817230
-61.463165283203 -62.857341766357 -86.585433959961 0.652551054955
55.764892578125 -65.800857543945 -95.518066406250 2.318313360214
62.288711547852 -63.453224182129 -92.785095214844 0.881859660149
103.003829956055 -66.423217773438 -95.179084777832 1.925009369850
-66.555999755859 -65.303306579590 -94.013755798340 2.346161127090
54.966606140137 -62.523097991943 -95.895210266113 1.252453684807
-68.110832214355 -66.613128662109 -105.165969848633 3.150817155838
67.515113830566 -67.138412475586 -97.398704528809 0.842700481415
67.721061706543 -64.768112182617 -102.903686523438 1.646119356155
-74.374954223633 -62.971824645996 -107.964881896973 0.658787071705
-98.237907409668 -61.125232696533 -111.140434265137 1.718677282333
-70.207656860352 -59.633464813232 -109.644783020020 2.465349435806
-84.040000915527 -64.228385925293 -111.423461914063 1.767241716385
-64.335479736328 -64.681907653809 -114.156951904297 1.919941902161
-84.700286865234 -61.538063049316 -110.108741760254 2.610763072968
-78.273628234863 -63.893810272217 -115.709205627441 0.535459280014
-76.997291564941 -64.705673217773 -116.876289367676 1.735988259315
-67.823822021484 -65.573554992676 -120.048202514648 2.327855825424
-84.588333129883 -65.186302185059 -125.387451171875 1.820676684380
34.149700164795 -63.749824523926 -127.335456848145 1.093810081482
-51.447185516357 -63.660789489746 -128.585586547852 2.064406156540
30.104045867920 -63.805923461914 -132.912200927734 1.707744598389
30.230348587036 -64.866622924805 -132.827026367188 1.507586359978
30.851299285889 -64.656524658203 -133.075637817383 0.811595499516
-53.382274627686 -62.272476196289 -133.985366821289 1.056487202644
19.872203826904 -63.569362640381 -145.729125976563 0.617390751839
23.505580902100 -64.378730773926 -143.812423706055 1.796324610710
-146.024688720703 -61.661624908447 -176.796539306641 2.205730676651
-150.519622802734 -59.124458312988 -175.126327514648 2.601948261261
-152.647994995117 -61.636135101318 -180.163726806641 2.152710676193
-148.594635009766 -59.955936431885 -185.730606079102 2.996253013611
-148.166366577148 -61.542785644531 -189.795562744141 3.202940702438
-148.884216308594 -63.174755096436 -192.597244262695 1.762397766113
-142.939361572266 -63.669387817383 -192.928710937500 2.154739141464
-145.441284179688 -58.663143157959 -198.869430541992 2.517438650131
-123.611816406250 -62.371189117432 -199.759887695313 1.305900692940
-133.965362548828 -61.877315521240 -202.475082397461 1.977950334549
-147.678985595703 -61.860397338867 -211.682800292969 1.861830592155
-148.245346069336 -57.691276550293 -223.098403930664 3.369406700134
-152.563690185547 -59.757144927979 -225.709548950195 1.552038311958
-147.027252197266 -60.181915283203 -227.852096557617 2.079193115234
-153.594741821289 -59.853584289551 -227.171295166016 2.070535659790
-150.819595336914 -58.501739501953 -229.153228759766 3.464774847031
-149.512481689453 -60.815017700195 -229.295822143555 1.668620347977
-146.882461547852 -60.449745178223 -231.518539428711 1.221176505089
-143.151397705078 -59.690227508545 -235.211196899414 2.862083196640
-147.853637695313 -61.428886413574 -231.063385009766 0.842664539814
-154.800186157227 -59.908058166504 -233.675155639648 2.085097789764
8.390234947205 -62.466358184814 -239.847137451172 2.414303541183
-10.298013687134 -66.201362609863 -240.903747558594 2.217460393906
-146.667938232422 -59.435840606689 -238.553741455078 3.074106693268
-152.083175659180 -60.830440521240 -236.212905883789 1.801350951195
-152.163208007813 -60.829032897949 -237.498229980469 2.266724109650
8.342419624329 -63.018066406250 -243.986221313477 1.558910012245
-150.785797119141 -59.871765136719 -239.065185546875 2.730502843857
-149.198287963867 -61.628578186035 -253.335815429688 0.437419950962
-3.489423036575 -61.897121429443 -250.037567138672 1.734218955040
-149.433837890625 -59.581310272217 -251.686050415039 2.574619293213
-147.067504882813 -59.347141265869 -253.334640502930 3.009196043015
-144.162811279297 -60.410293579102 -255.945465087891 2.236422777176
-143.587875366211 -60.004241943359 -256.073303222656 2.581728935242
26.675636291504 -63.336692810059 -261.272766113281 1.147491693497
-150.247055053711 -61.805931091309 -264.666168212891 1.459432363510
25.898574829102 -63.864891052246 -270.580963134766 2.687799215317
14.355381011963 -62.673526763916 -287.508758544922 2.628488540649
0.510414004326 -60.970161437988 -289.151153564453 1.775366902351
7.544522762299 -59.099849700928 -292.747802734375 0.664930284023
31.529853820801 -64.549217224121 -19.137096405029 3.612925291061
44.146430969238 -73.572601318359 -37.611450195313 2.306048870087
34.771835327148 -73.343399047852 -39.165225982666 1.958684682846
-43.648292541504 -63.294986724854 -46.498497009277 2.178285360336
-90.231498718262 -63.310153961182 -53.591278076172 1.259853124619
-94.480758666992 -63.011192321777 -59.123020172119 2.487221479416
-21.648099899292 -63.208747863770 -66.337867736816 2.221466541290
101.280403137207 -66.542579650879 -69.639129638672 1.194954156876
105.226844787598 -62.879188537598 -76.008995056152 1.541866302490
104.369598388672 -67.378364562988 -78.081428527832 1.400550365448
-50.888660430908 -65.070541381836 -83.005813598633 2.006170272827
-62.482364654541 -61.922027587891 -84.325843811035 0.557309806347
58.225296020508 -62.702365875244 -88.557952880859 1.853620409966
53.852069854736 -65.256851196289 -89.850296020508 1.377150893211
-63.275062561035 -65.503173828125 -96.482421875000 1.746986150742
-97.871383666992 -59.783802032471 -106.052452087402 2.600527524948
78.524337768555 -65.320869445801 -108.508262634277 1.480422019958
-79.983665466309 -63.115871429443 -109.894363403320 1.311220765114
-67.557624816895 -62.698810577393 -110.038185119629 2.618213415146
-81.293327331543 -64.413475036621 -112.912628173828 1.754318594933
-85.193016052246 -58.955841064453 -114.363624572754 1.503674387932
-82.646636962891 -63.189941406250 -116.432662963867 2.133187055588
-69.595626831055 -58.929153442383 -117.046905517578 1.107349395752
-65.781394958496 -62.564594268799 -118.086761474609 2.023086786270
-81.882682800293 -59.960834503174 -118.098236083984 1.508586645126
-78.605728149414 -62.094512939453 -116.906654357910 1.793860077858
-64.472343444824 -61.697795867920 -120.146636962891 1.497236132622
-84.870658874512 -61.919548034668 -117.773338317871 1.703490257263
-75.974563598633 -62.750514984131 -120.733985900879 2.268297195435
-75.090187072754 -62.470867156982 -128.245864868164 2.980950355530
-79.775833129883 -62.010528564453 -128.462585449219 0.974630117416
28.152376174927 -61.232227325439 -126.036933898926 3.611443042755
-56.783008575439 -61.290138244629 -131.972732543945 2.659984111786
26.512084960938 -64.060020446777 -133.574829101563 1.124899148941
22.409008026123 -64.963096618652 -137.761520385742 1.729773759842
-144.280517578125 -60.572856903076 -193.806655883789 0.963965773582
-138.864532470703 -62.237068176270 -198.818511962891 3.028442144394
-153.848861694336 -59.916225433350 -201.142044067383 2.097180128098
-150.662048339844 -58.478687286377 -200.074340820313 0.917413413525
-156.059600830078 -62.961441040039 -202.317810058594 3.012236833572
-149.162551879883 -58.236660003662 -202.703979492188 2.138488292694
-142.574401855469 -59.709564208984 -203.025070190430 1.464853525162
-150.195861816406 -58.836883544922 -206.119842529297 1.698104619980
-149.908172607422 -61.157413482666 -222.918441772461 1.043726086617
-149.164779663086 -59.001636505127 -221.789245605469 2.075965404510
-146.231475830078 -58.677860260010 -223.326309204102 2.325391769409
-145.937118530273 -60.582298278809 -222.141250610352 1.433393597603
-150.050186157227 -59.617092132568 -226.607254028320 1.784868001938
-145.294982910156 -59.032970428467 -224.416213989258 1.094865202904
-146.664138793945 -59.036334991455 -226.920196533203 2.697505474091
-143.339309692383 -58.421184539795 -225.726638793945 2.443528175354
-142.597549438477 -61.263767242432 -228.496124267578 0.510763287544
-144.358978271484 -59.199462890625 -232.630889892578 2.402556657791
-148.974502563477 -57.980308532715 -234.703353881836 2.524345636368
-148.762588500977 -58.150794982910 -233.975555419922 2.169799327850
1.842275977135 -62.763225555420 -238.475601196289 2.068399429321
17.609498977661 -61.975826263428 -242.152618408203 1.595902681351
23.491828918457 -58.516429901123 -254.049057006836 0.883658230305
24.196523666382 -59.690998077393 -257.776184082031 1.949147105217
7.126817226410 -61.660274505615 -263.816345214844 0.519937872887
21.282848358154 -63.436515808105 -278.200164794922 1.487361550331
3.316454887390 -62.195388793945 -280.253875732422 2.431872367859
6.133892059326 -59.018138885498 -291.159210205078 1.984008669853
10.196261405945 -62.039318084717 -289.817199707031 1.690282464027
49.021274566650 -72.429344177246 -20.801479339600 1.967650651932
32.728252410889 -62.658302307129 -37.880096435547 1.623695850372
-29.855634689331 -62.916061401367 -49.089126586914 1.937549233437
-17.796773910522 -63.020927429199 -51.462223052979 0.581948995590
-12.012692451477 -62.010253906250 -58.379886627197 2.804716348648
94.423820495605 -65.388488769531 -61.755764007568 3.098756551743
-97.688446044922 -59.790950775146 -70.199401855469 2.315953969955
101.577484130859 -65.958358764648 -72.920562744141 2.066523313522
56.171768188477 -63.385620117188 -85.902435302734 2.540335893631
65.840339660645 -63.210506439209 -89.672462463379 1.388523101807
-64.834442138672 -61.802604675293 -90.306755065918 3.148473262787
53.351512908936 -64.995475769043 -93.574584960938 1.571966648102
61.030864715576 -60.762603759766 -90.985435485840 1.675567984581
103.548973083496 -63.586101531982 -97.750053405762 2.044471263885
-67.673004150391 -60.923362731934 -95.503890991211 0.890067458153
-70.392944335938 -59.796794891357 -97.690475463867 1.123619318008
76.596839904785 -64.915298461914 -107.822463989258 0.369497627020
-76.818656921387 -62.294471740723 -106.789840698242 1.465082049370
-63.420246124268 -62.271049499512 -109.450157165527 0.764731109142
39.052227020264 -60.782249450684 -119.380050659180 1.070037007332
-83.400909423828 -61.949455261230 -123.863113403320 2.251664876938
40.131301879883 -62.574520111084 -120.576065063477 0.538628697395
-90.208869934082 -63.915019989014 -117.724067687988 2.060917139053
-97.269142150879 -61.075481414795 -124.561721801758 2.509964466095
-67.892570495605 -61.249118804932 -122.702575683594 1.682650446892
36.066951751709 -62.251365661621 -125.176391601563 0.983082175255
-63.392738342285 -62.582424163818 -128.137771606445 1.373946428299
-58.427455902100 -61.551849365234 -133.467224121094 1.856182575226
-56.929878234863 -62.936698913574 -138.037872314453 1.754507184029
-144.283889770508 -58.475112915039 -197.429458618164 0.983339786530
-148.796112060547 -57.446681976318 -191.837448120117 4.577796459198
-148.622161865234 -59.089656829834 -194.490921020508 1.758641481400
-154.119064331055 -59.827465057373 -195.984924316406 2.418331623077
-149.034652709961 -60.303062438965 -196.050109863281 0.633438348770
-144.084091186523 -57.626846313477 -196.036926269531 1.765271902084
-140.941375732422 -57.798633575439 -199.456237792969 3.274571895599
-146.690475463867 -59.288948059082 -200.760025024414 2.028353214264
-146.857574462891 -60.032608032227 -199.945022583008 2.181886196136
-153.467712402344 -57.649063110352 -204.501464843750 2.664742469788
-143.742782592773 -59.693923950195 -203.192916870117 1.256952881813
-146.899978637695 -60.659812927246 -205.576751708984 1.281276583672
-147.739761352539 -57.178604125977 -204.967254638672 2.484012126923
-150.132949829102 -57.740203857422 -204.952041625977 2.862097024918
-147.366287231445 -58.769027709961 -223.682250976563 2.812592506409
-6.242805004120 -63.175148010254 -235.958114624023 1.570499897003
5.062302112579 -59.501789093018 -241.612380981445 2.134307622910
10.246978759766 -59.080711364746 -241.278884887695 2.735730886459
5.335536003113 -60.456081390381 -244.276580810547 1.177271127701
19.676675796509 -60.642562866211 -248.890289306641 1.610895156860
0.016133999452 -62.919212341309 -257.512023925781 1.274124979973
7.791392803192 -60.994636535645 -271.051879882813 1.255847096443
25.706968307495 -62.217300415039 -267.847625732422 1.931799173355
17.827161788940 -60.072120666504 -283.047027587891 2.721898078918
28.445211410522 -65.658309936523 -12.524964332581 3.233518123627
-67.799415588379 -63.311294555664 -41.230278015137 3.863383293152
-36.430053710938 -62.748882293701 -46.409881591797 1.193070292473
69.494049072266 -62.400764465332 -63.090000152588 1.949005842209
-28.185468673706 -65.157882690430 -69.968353271484 3.163309097290
-34.717250823975 -63.546554565430 -77.678443908691 3.660292863846
-43.676528930664 -61.393470764160 -79.759925842285 2.001159906387
66.880729675293 -60.062149047852 -91.505805969238 2.079843759537
105.362373352051 -62.585906982422 -87.631896972656 1.280704379082
65.995025634766 -68.122352600098 -89.339157104492 1.381480693817
-72.188255310059 -58.845020294189 -98.807891845703 1.767671465874
101.480484008789 -63.618598937988 -100.473983764648 1.840510964394
99.088165283203 -63.666748046875 -106.094131469727 1.729147315025
-66.374862670898 -61.153068542480 -106.249969482422 1.537462949753
80.550651550293 -62.924766540527 -108.346580505371 0.892234742641
93.220970153809 -61.592372894287 -108.581672668457 1.868630528450
-59.401252746582 -62.849018096924 -110.872299194336 3.274926900864
47.452262878418 -62.370822906494 -113.949188232422 1.719682335854
-61.714267730713 -65.808792114258 -117.472259521484 1.238467812538
-82.721015930176 -60.928955078125 -111.642593383789 1.216041564941
-56.104377746582 -63.067359924316 -121.351753234863 1.144086360931
-77.355010986328 -60.757995605469 -115.246086120605 1.739899635315
35.442699432373 -63.165664672852 -123.089561462402 2.474864721298
-96.234642028809 -62.062107086182 -125.782142639160 3.327902793884
-53.659767150879 -60.441127777100 -129.631927490234 2.113401412964
22.179323196411 -60.457809448242 -139.510253906250 0.375249922276
8.573204040527 -58.471164703369 -241.433410644531 2.110646724701
-0.742156982422 -60.678756713867 -243.510147094727 0.642458736897
3.453267097473 -59.001857757568 -286.413513183594 2.475973844528
