-55.908370971680 -74.476455688477 -129.902236938477 2.248701572418
30.840833663940 -72.451248168945 -123.249366760254 1.660936236382
-76.633872985840 -71.134498596191 -137.683853149414 2.178109169006
-55.246742248535 -73.724922180176 -132.949340820313 2.178121805191
-79.120208740234 -69.944633483887 -135.183090209961 1.450379133224
35.104343414307 -71.605293273926 -129.509994506836 1.717089533806
-59.034549713135 -71.955368041992 -133.978897094727 1.795697331429
35.386299133301 -72.242874145508 -133.269515991211 2.083602190018
-72.089797973633 -70.073493957520 -139.902313232422 1.419704198837
-58.852142333984 -70.883506774902 -139.904159545898 1.176300048828
27.357902526855 -72.974105834961 -141.062896728516 0.424217224121
110.541389465332 -75.913246154785 -142.446212768555 1.493308186531
115.869071960449 -71.215057373047 -135.917739868164 1.740437626839
31.297172546387 -72.442794799805 -140.294219970703 2.065389633179
-46.746540069580 -72.053123474121 -140.740478515625 1.678619980812
108.354438781738 -72.224189758301 -151.073638916016 2.072870492935
-74.591392517090 -71.173896789551 -143.864471435547 1.105795741081
-58.352546691895 -71.698081970215 -142.703552246094 0.849237859249
31.899087905884 -70.594856262207 -148.022338867188 1.315816402435
-76.694305419922 -72.036468505859 -146.713119506836 1.567813873291
-70.484771728516 -71.557968139648 -150.923400878906 1.603503346443
115.906082153320 -75.975090026855 -148.922363281250 2.565732002258
-64.387916564941 -71.472007751465 -155.044982910156 2.065228462219
-38.821235656738 -70.161911010742 -152.778762817383 2.462496519089
26.863685607910 -71.205902099609 -146.640151977539 1.160358071327
-73.609176635742 -71.436332702637 -147.764709472656 1.381797552109
12.713982582092 -72.521133422852 -150.227966308594 2.713780164719
32.194869995117 -71.916053771973 -155.639450073242 1.154587268829
31.101720809937 -71.047073364258 -148.841873168945 1.855991721153
14.166687011719 -75.751869201660 -154.352035522461 3.666905164719
-49.003738403320 -72.083763122559 -153.671112060547 1.404855489731
26.250307083130 -72.659927368164 -152.916213989258 1.740975499153
-45.312599182129 -70.869117736816 -149.740631103516 1.672023653984
5.960495948792 -72.453971862793 -153.809692382813 1.475702285767
21.525430679321 -71.891517639160 -149.725143432617 2.070238113403
-69.687591552734 -70.977523803711 -157.044418334961 2.794003486633
-45.830535888672 -69.286575317383 -154.271072387695 2.137578010559
-67.570617675781 -70.435203552246 -155.318725585938 0.412552833557
17.093317031860 -71.410430908203 -158.153366088867 1.769482135773
24.940780639648 -71.810195922852 -149.840927124023 2.296408414841
2.906415939331 -71.971092224121 -163.082412719727 0.671045184135
21.256765365601 -72.869018554688 -154.376556396484 0.647579848766
31.168149948120 -72.576385498047 -165.807540893555 2.293779850006
-47.070163726807 -72.816429138184 -162.854156494141 0.515851497650
-35.364387512207 -75.316894531250 -162.586517333984 1.628170013428
-39.982437133789 -71.717117309570 -160.798080444336 1.553015708923
28.207269668579 -72.363258361816 -159.196838378906 2.690748453140
-43.705669403076 -70.631675720215 -167.323654174805 2.086198568344
-39.770023345947 -70.299522399902 -164.910385131836 2.598030328751
21.390033721924 -71.443572998047 -165.825378417969 1.429429769516
-39.643161773682 -71.704757690430 -174.539062500000 2.389310359955
28.667804718018 -70.184722900391 -169.824203491211 0.953978657722
112.898689270020 -71.379150390625 -165.110992431641 1.334174871445
-32.675445556641 -71.162727355957 -171.994628906250 1.707737445831
104.846504211426 -71.518501281738 -172.342849731445 2.044329643250
-34.206108093262 -70.945098876953 -177.186233520508 1.202828526497
-36.693275451660 -73.252899169922 -181.081939697266 0.950078964233
20.352832794189 -74.242919921875 -175.950424194336 1.617837905884
105.707191467285 -72.969032287598 -181.293670654297 0.750065088272
-30.027679443359 -70.196327209473 -183.682464599609 2.045465946198
-34.248790740967 -70.645469665527 -176.188858032227 0.660361528397
-23.139268875122 -73.127487182617 -186.446456909180 0.752572298050
-148.556961059570 -70.518692016602 -189.268005371094 2.303409576416
14.488672256470 -71.790847778320 -183.151626586914 1.725729584694
106.014709472656 -71.783554077148 -189.564392089844 1.370806217194
-157.232986450195 -69.232055664063 -194.394287109375 1.069770812988
-23.948638916016 -69.544982910156 -190.480758666992 1.513091564178
-115.181198120117 -71.074813842773 -197.536880493164 1.033388137817
-131.640335083008 -70.791404724121 -196.948669433594 1.367000341415
-108.292007446289 -70.105590820313 -200.087783813477 2.626824140549
-112.378440856934 -69.660835266113 -200.813934326172 1.658483505249
-12.686367988586 -71.716567993164 -196.356872558594 1.471926331520
20.736577987671 -71.463905334473 -196.016555786133 1.705002069473
-15.249391555786 -68.451385498047 -201.700637817383 2.321717262268
-125.134895324707 -69.917999267578 -205.764465332031 0.691904723644
-20.636356353760 -68.550590515137 -204.242126464844 2.513208150864
-129.803146362305 -69.616752624512 -203.608093261719 1.528719902039
-14.113570213318 -71.621864318848 -201.311462402344 1.715763807297
-144.851837158203 -68.770851135254 -204.485504150391 2.189701557159
92.377319335938 -70.035018920898 -206.105697631836 2.499042987823
-164.254867553711 -66.621826171875 -202.563385009766 2.291322469711
-2.767132997513 -73.153083801270 -216.099334716797 0.500102281570
11.465386390686 -71.987480163574 -209.429794311523 2.113399505615
10.966747283936 -72.259262084961 -216.691375732422 3.169584512711
83.459808349609 -72.016540527344 -216.569671630859 2.644861221313
8.401505470276 -72.034843444824 -212.701339721680 2.191417455673
14.047307014465 -70.748565673828 -214.363021850586 1.583811402321
-15.307262420654 -73.921661376953 -216.299270629883 1.893614292145
-89.942367553711 -69.926063537598 -216.044174194336 1.127008199692
-97.045410156250 -70.151710510254 -216.992324829102 1.028452038765
-0.956203997135 -70.054229736328 -219.737945556641 1.114443302155
-165.765151977539 -70.234199523926 -223.399841308594 1.108633160591
15.008634567261 -70.035209655762 -220.489624023438 1.553422570229
-143.903396606445 -68.805793762207 -222.812545776367 0.439018785954
13.132911682129 -71.311386108398 -224.813720703125 2.253765583038
-133.554626464844 -70.235740661621 -225.507202148438 0.944625437260
-115.638870239258 -70.435142517090 -226.990829467773 1.146387815475
17.021743774414 -70.555976867676 -221.156463623047 1.198408246040
78.256507873535 -71.971397399902 -222.087600708008 2.421668291092
7.752124786377 -70.649932861328 -223.193115234375 1.149657607079
-109.909240722656 -69.404121398926 -231.107208251953 1.428826808929
74.850166320801 -72.416839599609 -227.513824462891 1.536824464798
83.600296020508 -72.649002075195 -228.965194702148 2.330766201019
-123.725067138672 -69.382423400879 -234.537261962891 0.554547607899
-115.138648986816 -69.821296691895 -231.388854980469 2.042100191116
-9.851243019104 -68.923400878906 -228.984191894531 1.649818181992
72.622314453125 -72.596878051758 -229.832626342773 1.806020140648
65.390022277832 -72.321861267090 -233.394058227539 2.560257673264
74.739166259766 -71.472640991211 -229.691040039063 0.997067809105
-133.704910278320 -67.048736572266 -234.984100341797 1.155369043350
71.557785034180 -72.575202941895 -233.061340332031 1.857501268387
67.199356079102 -70.350799560547 -235.084777832031 0.258550047874
-165.577468872070 -68.326072692871 -230.782272338867 1.844609498978
1.674906969070 -75.660140991211 -240.071380615234 2.162924051285
19.176204681396 -71.937774658203 -239.639343261719 1.945499181747
-5.207602024078 -69.042816162109 -240.042831420898 2.090880632401
15.660882949829 -67.805870056152 -239.129425048828 2.749591112137
66.281600952148 -72.521621704102 -237.993301391602 1.291235327721
10.652809143066 -69.901512145996 -242.357666015625 1.387918233871
-9.697766304016 -65.808242797852 -241.156417846680 2.431766510010
1.055122017860 -68.482986450195 -238.724136352539 0.875808715820
65.748641967773 -72.365104675293 -242.252853393555 1.113922953606
4.878172874451 -71.813873291016 -242.613845825195 1.226329565048
-6.899773120880 -71.403793334961 -243.158828735352 1.438259124756
14.740197181702 -72.475395202637 -243.476684570313 2.466055154800
-166.694213867188 -69.542930603027 -242.069869995117 1.639532208443
57.983299255371 -71.132553100586 -246.968032836914 0.415194660425
51.613414764404 -67.643760681152 -249.089126586914 1.260803699493
57.907356262207 -72.265121459961 -242.242324829102 2.158589363098
-11.327548027039 -69.751365661621 -247.929382324219 1.147798657417
58.042591094971 -71.789863586426 -245.837249755859 1.327916383743
-72.666412353516 -69.311462402344 -249.520446777344 1.340060591698
51.910465240479 -71.758979797363 -248.711822509766 1.454484581947
-88.792404174805 -69.891227722168 -252.675781250000 1.045281648636
-123.361152648926 -70.306060791016 -256.369720458984 0.861036777496
-131.924621582031 -68.825225830078 -254.105834960938 1.783670783043
46.037242889404 -72.378242492676 -251.878463745117 1.806511640549
-133.081314086914 -70.885871887207 -254.918151855469 1.734688162804
-108.912322998047 -68.509910583496 -256.388336181641 1.240524411201
-114.279914855957 -67.302169799805 -257.748840332031 1.351674795151
-82.522773742676 -70.164665222168 -255.281890869141 1.713917613029
-110.487030029297 -68.763771057129 -260.396881103516 1.268655419350
-123.196723937988 -71.502456665039 -262.921936035156 1.187551736832
-145.095367431641 -66.631408691406 -267.705322265625 2.900131940842
-14.504072189331 -69.559806823730 -264.217346191406 1.032123446465
-169.091506958008 -69.520629882813 -265.104064941406 2.589449882507
-13.505849838257 -70.211410522461 -273.047912597656 0.646487653255
-158.388778686523 -66.150741577148 -268.164978027344 4.022755146027
-151.794067382813 -68.195632934570 -274.947113037109 2.745144367218
-168.366973876953 -68.251945495605 -278.308959960938 3.551737785339
-12.698411941528 -69.784523010254 -277.616394042969 1.325243711472
-130.710723876953 -70.386848449707 -284.120300292969 2.922381401062
-157.815475463867 -67.974617004395 -286.966339111328 3.055302381516
-143.631530761719 -67.807907104492 -282.024108886719 2.183236122131
-134.022659301758 -71.289314270020 -282.919189453125 1.017069101334
-7.243628978729 -66.075141906738 -284.642639160156 2.414758920670
-124.808799743652 -71.862731933594 -284.489685058594 1.002608537674
-140.322753906250 -67.554008483887 -286.150238037109 2.313910245895
-115.135055541992 -70.458671569824 -286.472656250000 0.867457926273
-76.732902526855 -68.216163635254 -287.726104736328 1.592777967453
-60.486621856689 -69.400588989258 -287.465667724609 2.466156005859
-5.472304821014 -70.670997619629 -287.932830810547 0.580901682377
-52.561359405518 -68.623626708984 -287.372314453125 2.154731273651
-56.580669403076 -67.681976318359 -288.864196777344 3.221655368805
-68.867889404297 -67.804412841797 -290.662506103516 2.574767827988
-86.511299133301 -68.684364318848 -293.219390869141 2.339265108109
-95.334053039551 -66.675506591797 -290.189849853516 3.474486351013
-160.111129760742 -66.962593078613 -292.201141357422 2.793270826340
-160.756225585938 -69.025588989258 -293.921997070313 2.611205339432
-124.098106384277 -70.613716125488 -294.881011962891 1.524585247040
-143.940124511719 -68.782417297363 -296.140899658203 2.373803615570
-153.144805908203 -69.932044982910 -303.422485351563 2.744907617569
-148.233718872070 -69.347419738770 -313.319305419922 1.186073541641
47.185779571533 -72.986145019531 -15.484041213989 3.018714904785
17.557052612305 -75.055366516113 -28.500398635864 4.384236335754
41.270465850830 -71.857604980469 -34.012619018555 0.901816189289
-16.316150665283 -75.529670715332 -66.634536743164 3.334856510162
81.741073608398 -72.567474365234 -64.708572387695 2.341202497482
87.294647216797 -70.947509765625 -65.398063659668 1.723364591599
77.148406982422 -75.378860473633 -65.297248840332 5.660165309906
72.979316711426 -74.314872741699 -68.377563476563 2.815680742264
91.163047790527 -76.378166198730 -73.683280944824 2.008451700211
-95.306808471680 -69.407356262207 -70.666282653809 0.917391479015
68.779594421387 -74.396156311035 -75.173065185547 3.036108255386
-36.828151702881 -72.216476440430 -77.251541137695 1.739360690117
99.283226013184 -73.917472839355 -85.604011535645 1.412056922913
60.709243774414 -71.651519775391 -89.903816223145 2.111183166504
106.615005493164 -76.851509094238 -93.986351013184 5.612519741058
102.795600891113 -75.568634033203 -97.515747070313 2.437909126282
71.519630432129 -72.754768371582 -99.625648498535 2.354108333588
-79.116294860840 -71.670967102051 -100.964340209961 1.112570524216
54.223331451416 -73.404785156250 -102.793647766113 1.889049053192
106.342979431152 -71.774566650391 -104.871810913086 0.706316590309
47.760761260986 -73.887306213379 -110.988952636719 1.468365192413
80.058288574219 -72.257797241211 -104.323844909668 2.114462614059
41.754978179932 -72.349807739258 -106.715118408203 1.465172052383
105.265289306641 -72.833496093750 -102.660514831543 1.820770621300
47.623435974121 -71.904365539551 -107.367393493652 2.551457166672
108.019592285156 -76.199836730957 -109.763412475586 2.451177120209
109.680183410645 -74.811515808105 -111.588752746582 1.164325237274
-78.959945678711 -69.886543273926 -114.345001220703 0.809285223484
-82.701507568359 -69.975311279297 -118.886695861816 1.078698515892
44.057556152344 -74.775291442871 -120.006790161133 1.929564833641
113.923019409180 -74.253784179688 -119.484016418457 1.051106214523
113.957931518555 -72.373977661133 -122.940742492676 0.619969785213
-86.036376953125 -70.206138610840 -127.467315673828 0.775290668011
106.601577758789 -73.924018859863 -124.195091247559 4.138486862183
-59.098342895508 -74.039436340332 -131.904067993164 2.465733289719
-86.095466613770 -70.925559997559 -127.170074462891 1.143859028816
-73.659240722656 -70.612510681152 -127.688659667969 1.740896701813
-58.471340179443 -67.755043029785 -126.845008850098 0.573115527630
31.441640853882 -71.469612121582 -129.397216796875 2.081372976303
41.284675598145 -71.759696960449 -133.570129394531 2.157758235931
-74.117767333984 -70.440086364746 -137.095703125000 2.223516941071
28.776956558228 -70.854545593262 -131.351913452148 0.869728386402
111.092765808105 -72.604423522949 -140.927383422852 2.371677637100
-41.266891479492 -70.732170104980 -147.506042480469 2.177370786667
28.656045913696 -71.329483032227 -148.097335815430 1.354358077049
114.599143981934 -71.274421691895 -146.062438964844 2.047571897507
35.366756439209 -72.024337768555 -142.657836914063 1.930465579033
110.916717529297 -71.485160827637 -140.840042114258 2.043195962906
-52.551723480225 -71.413459777832 -149.308578491211 1.059571743011
-69.639442443848 -68.884384155273 -150.756881713867 0.430266618729
-53.348457336426 -71.115165710449 -153.673645019531 0.763329267502
-41.463325500488 -72.744415283203 -164.988739013672 2.604272127151
5.689126014709 -71.555709838867 -155.761932373047 1.894702911377
110.716201782227 -72.138740539551 -153.094802856445 1.587724447250
109.593162536621 -72.154075622559 -158.096893310547 0.751914203167
9.699602127075 -70.321113586426 -157.621963500977 1.875583887100
4.417348861694 -71.719703674316 -161.646438598633 1.951227426529
18.149763107300 -71.477157592773 -155.700820922852 2.930402755737
25.650884628296 -70.399490356445 -155.348709106445 1.361192226410
109.966880798340 -71.546653747559 -165.046966552734 1.885436892509
108.980262756348 -74.350021362305 -167.119140625000 1.326370239258
24.220188140869 -68.998191833496 -172.935119628906 1.670607686043
25.759300231934 -72.321090698242 -162.684234619141 2.262429237366
112.971199035645 -70.814834594727 -161.107849121094 1.952588677406
-28.236999511719 -69.711631774902 -176.006912231445 1.652551651001
110.274871826172 -72.010765075684 -167.247421264648 2.371092081070
17.628211975098 -71.668579101563 -169.019668579102 1.112025022507
22.106536865234 -70.945388793945 -166.492355346680 1.287135720253
109.242843627930 -71.856491088867 -172.323532104492 2.347113847733
26.610166549683 -70.488777160645 -170.298156738281 1.547102093697
111.773704528809 -71.759773254395 -182.074752807617 1.568125605583
-37.685161590576 -69.672515869141 -176.542999267578 1.890014410019
26.177103042603 -70.496505737305 -171.869857788086 1.335400223732
107.670204162598 -71.545471191406 -182.557144165039 1.280745863914
23.815578460693 -71.719940185547 -179.246261596680 0.824611663818
-151.766983032227 -67.989608764648 -187.362472534180 1.366075873375
-27.928533554077 -67.909698486328 -188.823150634766 1.343006134033
25.306449890137 -69.573020935059 -184.349822998047 1.957190275192
-112.206558227539 -70.059524536133 -192.008819580078 1.396190524101
-109.724533081055 -67.702072143555 -190.790069580078 2.002865314484
23.472358703613 -71.100494384766 -188.696014404297 0.875263571739
12.683117866516 -69.879867553711 -184.987930297852 2.468611001968
-26.318325042725 -68.727622985840 -189.951370239258 1.629142642021
-29.649618148804 -72.814842224121 -189.139801025391 1.085650205612
-26.978984832764 -70.423286437988 -186.451538085938 2.025860071182
16.425518035889 -69.526290893555 -179.600479125977 1.145766496658
-150.413864135742 -68.810272216797 -195.122573852539 1.832804322243
-144.237884521484 -68.817123413086 -193.816604614258 1.524748325348
-142.550567626953 -70.665740966797 -198.222457885742 2.002062320709
-21.978078842163 -69.471565246582 -191.249755859375 1.365490317345
13.676119804382 -69.136093139648 -199.174682617188 0.936963737011
99.608238220215 -71.152954101563 -193.149383544922 0.507753551006
-113.322662353516 -68.510993957520 -198.707199096680 2.324585437775
21.793066024780 -72.662117004395 -198.449371337891 1.265499234200
-15.842211723328 -69.502433776855 -195.909042358398 0.337708473206
-17.508945465088 -69.246871948242 -198.755554199219 2.252935409546
101.101249694824 -70.680603027344 -198.413177490234 1.975788593292
8.970000267029 -71.466255187988 -199.755706787109 2.133447408676
-21.318677902222 -68.672309875488 -196.230545043945 1.054253816605
-121.323005676270 -71.243179321289 -202.799331665039 0.918158590794
-133.456756591797 -68.691635131836 -203.895126342773 1.283726930618
-113.373825073242 -66.102798461914 -204.623291015625 1.581513404846
-141.625595092773 -70.547073364258 -204.132400512695 1.946171998978
18.483098983765 -70.168579101563 -197.384155273438 1.643432140350
95.074897766113 -71.863662719727 -202.456665039063 1.979059934616
-165.681457519531 -65.245285034180 -203.018936157227 2.023812294006
100.416481018066 -71.346260070801 -201.960220336914 0.360332906246
-20.028968811035 -72.229309082031 -206.521179199219 2.020876407623
95.109756469727 -70.275146484375 -210.733825683594 1.764770627022
88.513000488281 -71.706604003906 -212.228637695313 1.288859009743
13.646686553955 -71.194458007813 -207.513229370117 2.370017766953
19.700527191162 -70.232421875000 -211.152023315430 1.874123930931
13.048260688782 -68.442451477051 -207.333068847656 2.046893835068
-10.255267143250 -70.287712097168 -221.529708862305 1.414622783661
-94.245559692383 -69.930992126465 -218.248367309570 1.572845458984
-8.763233184814 -71.373954772949 -212.910018920898 0.901886940002
90.360069274902 -70.918327331543 -215.001220703125 1.648170948029
-92.429466247559 -70.280700683594 -218.801681518555 1.517396807671
-101.336608886719 -67.710380554199 -221.075149536133 1.026618242264
-92.754692077637 -70.343551635742 -220.182510375977 1.019487261772
88.213287353516 -71.657463073730 -221.098846435547 2.168252468109
-134.336166381836 -68.494293212891 -225.716400146484 1.247692108154
-132.654998779297 -70.334571838379 -226.670150756836 1.316894292831
-116.147407531738 -68.288208007813 -225.382995605469 0.667624771595
-112.307998657227 -66.514961242676 -224.729660034180 2.263316392899
-133.112823486328 -67.801246643066 -227.321640014648 1.919998884201
-110.130447387695 -73.386909484863 -227.562896728516 1.236723542213
-112.183029174805 -68.967514038086 -228.315902709961 2.336102247238
-6.150406837463 -71.909072875977 -225.085525512695 1.971964478493
-15.847438812256 -71.122306823730 -223.186874389648 1.532225489616
-0.427253007889 -68.712913513184 -230.757995605469 1.092833876610
-9.647989273071 -67.876342773438 -227.047058105469 1.745885014534
15.822161674500 -70.465705871582 -233.020278930664 0.795365452766
-17.281188964844 -68.629043579102 -228.921539306641 1.988725066185
-166.228561401367 -66.733009338379 -224.038040161133 1.631636857986
-2.639585018158 -69.254920959473 -233.173690795898 1.747745513916
81.295722961426 -69.015708923340 -230.039794921875 2.753968477249
10.940623283386 -71.184272766113 -233.812332153320 1.732543230057
-5.572256088257 -69.114814758301 -234.343078613281 1.004537940025
-156.020248413086 -66.207244873047 -237.594619750977 2.390188932419
-140.994079589844 -67.287597656250 -232.239578247070 1.298428416252
64.272682189941 -69.314201354980 -235.061492919922 1.999554634094
-5.064087867737 -70.662010192871 -234.698989868164 0.804606378078
8.803820610046 -71.477447509766 -231.639495849609 1.756756424904
69.982719421387 -71.909469604492 -231.757888793945 1.453738689423
77.656135559082 -71.547706604004 -233.680648803711 1.929521083832
71.312080383301 -71.426292419434 -240.303649902344 1.313737154007
-0.706815004349 -71.630889892578 -236.282257080078 1.527773857117
58.383720397949 -69.487640380859 -238.419662475586 2.851084232330
-18.157339096069 -71.288787841797 -239.484878540039 2.136428594589
-15.170916557312 -68.290626525879 -240.779052734375 2.109769105911
9.177595138550 -69.836608886719 -239.818756103516 0.889942467213
65.942413330078 -72.670402526855 -238.347640991211 0.970117449760
64.825942993164 -69.545494079590 -239.774765014648 1.691954970360
50.927696228027 -70.234443664551 -246.100296020508 2.261831283569
61.918228149414 -72.654434204102 -242.511108398438 0.445940762758
-14.979085922241 -72.265716552734 -250.151428222656 1.039405226707
-82.653274536133 -67.045349121094 -252.911727905273 2.330251455307
-76.051399230957 -67.240905761719 -252.753738403320 3.119138240814
45.109531402588 -72.118713378906 -248.067886352539 2.161438703537
-146.643173217773 -68.446113586426 -251.842529296875 1.672794461250
37.217723846436 -70.268112182617 -255.484664916992 1.214088797569
-91.124725341797 -70.584602355957 -252.307220458984 2.289378881454
-154.856674194336 -65.261337280273 -255.771697998047 0.767470836639
-139.859466552734 -64.206703186035 -254.679199218750 2.102071762085
47.109863281250 -70.344139099121 -252.884277343750 1.627820134163
-123.827178955078 -64.871437072754 -257.943237304688 2.373852252960
-115.592308044434 -67.802391052246 -256.303527832031 1.074228525162
-92.046943664551 -65.508682250977 -257.710479736328 2.187070131302
-13.346731185913 -67.597656250000 -251.963073730469 1.622107744217
32.494701385498 -69.782890319824 -257.588256835938 1.696115732193
25.708961486816 -67.982963562012 -259.615020751953 1.481208562851
-157.412246704102 -64.921051025391 -260.542755126953 2.554086208344
-114.101379394531 -70.366210937500 -263.179748535156 2.061459541321
-13.430248260498 -68.867469787598 -261.827453613281 1.652682423592
-132.548217773438 -67.868423461914 -265.700592041016 2.899901151657
-13.042931556702 -68.148475646973 -270.348236083984 1.571396708488
-164.869003295898 -66.566299438477 -274.068237304688 3.949461460114
-7.286458015442 -69.943946838379 -280.182159423828 2.558552026749
-160.570724487305 -67.066955566406 -288.648468017578 2.569293022156
-162.392990112305 -67.934043884277 -278.465606689453 2.657124042511
-141.954589843750 -67.378776550293 -285.938385009766 1.655431747437
-168.353240966797 -68.422981262207 -285.535644531250 1.640355229378
14.595511436462 -70.511207580566 -287.388000488281 2.631979703903
-102.346099853516 -68.551551818848 -287.113739013672 2.525103330612
-86.014289855957 -65.590621948242 -286.708435058594 3.154124498367
-166.348052978516 -65.142745971680 -285.655700683594 4.426514625549
-90.741317749023 -69.832748413086 -285.893859863281 3.300925493240
-151.522613525391 -67.379531860352 -288.800628662109 0.463676720858
-73.574226379395 -68.340026855469 -291.921478271484 3.468014717102
-68.825714111328 -67.705215454102 -288.994628906250 2.284690856934
-81.168579101563 -68.340721130371 -291.318634033203 1.206020355225
-2.990505933762 -66.181617736816 -289.494445800781 1.467846632004
-85.753021240234 -67.997703552246 -289.951812744141 1.534954190254
-98.024269104004 -68.505844116211 -291.735076904297 2.078722476959
-114.638183593750 -68.023765563965 -293.059570312500 1.098488569260
-115.650382995605 -65.984588623047 -293.209503173828 2.561064004898
-133.329986572266 -66.147415161133 -293.435272216797 2.991381406784
-142.258407592773 -67.848358154297 -301.559020996094 2.618597984314
-143.141418457031 -68.479759216309 -312.243530273438 2.687698125839
23.399063110352 -72.166839599609 -15.477824211121 1.886839628220
31.419179916382 -72.433479309082 -16.592966079712 1.499095439911
28.767621994019 -74.448669433594 -18.346370697021 2.038815736771
43.488300323486 -72.250823974609 -20.973024368286 0.632069468498
25.349573135376 -73.011474609375 -31.475395202637 2.516719102859
-75.142150878906 -69.281005859375 -47.667598724365 2.582626581192
89.728408813477 -69.649574279785 -64.322738647461 1.674048066139
-16.709907531738 -70.940452575684 -67.947669982910 1.456753611565
101.604850769043 -71.380920410156 -71.824867248535 2.956981182098
95.842315673828 -75.874710083008 -75.058845520020 3.073577642441
68.640045166016 -74.000144958496 -77.829444885254 2.880345106125
69.131980895996 -74.656700134277 -82.550071716309 1.845956802368
-44.900959014893 -73.727890014648 -82.973648071289 0.999831974506
61.443607330322 -74.055717468262 -82.778091430664 4.415292739868
-94.999076843262 -70.669601440430 -88.327766418457 2.492045402527
-50.177341461182 -69.047477722168 -85.961128234863 1.542618632317
-55.645225524902 -77.098892211914 -89.405380249023 2.038943052292
100.073455810547 -76.464218139648 -96.390861511230 2.872821331024
58.677856445313 -74.619499206543 -92.994438171387 0.530702650547
65.015258789063 -71.484375000000 -90.699066162109 2.507009983063
-96.338546752930 -66.152381896973 -97.093315124512 2.064012765884
107.755691528320 -73.504371643066 -93.647201538086 4.620833873749
45.148479461670 -70.842369079590 -98.432441711426 1.784093737602
100.937995910645 -72.284584045410 -97.363281250000 0.475835889578
106.543518066406 -71.103408813477 -105.045082092285 0.890910685062
102.039230346680 -72.632041931152 -104.467216491699 1.666324973106
73.693077087402 -73.225929260254 -101.248107910156 1.834034442902
87.581245422363 -73.856132507324 -105.182151794434 3.730543136597
49.871219635010 -72.225395202637 -110.890594482422 1.588777661324
110.745018005371 -71.694473266602 -103.712471008301 2.014742851257
45.426597595215 -73.021598815918 -105.811164855957 3.323627471924
41.865188598633 -69.872138977051 -100.962127685547 1.090165734291
112.423820495605 -72.437919616699 -109.569679260254 1.864689588547
-78.622650146484 -68.450263977051 -110.451820373535 0.873059034348
46.516738891602 -71.153343200684 -112.607887268066 1.881675839424
35.798614501953 -72.477317810059 -114.198760986328 2.001595497131
105.243240356445 -70.446701049805 -109.093345642090 2.179403066635
40.713432312012 -68.979820251465 -111.128013610840 1.697257518768
-88.471183776855 -69.276901245117 -114.284751892090 1.112229466438
-95.683143615723 -67.800270080566 -115.487571716309 2.948548793793
105.352378845215 -73.737319946289 -118.012649536133 2.673856973648
-94.587402343750 -71.255035400391 -118.934707641602 1.186920881271
38.800556182861 -72.124382019043 -121.207504272461 2.538275241852
37.350124359131 -70.695220947266 -119.358978271484 1.388292789459
-82.300621032715 -69.114555358887 -124.757698059082 2.145829916000
32.098934173584 -69.503273010254 -134.816635131836 2.007094144821
110.247047424316 -73.245742797852 -130.468658447266 0.801204383373
-52.038089752197 -69.446479797363 -134.768539428711 1.986638188362
-88.220314025879 -68.705505371094 -131.092147827148 0.753797948360
37.917091369629 -73.191543579102 -132.131240844727 1.591701149940
-90.166473388672 -65.972160339355 -135.787002563477 1.707727193832
-89.124702453613 -70.451652526855 -139.251815795898 3.168648719788
-49.118118286133 -71.492591857910 -137.287292480469 1.694887757301
-70.426864624023 -68.322570800781 -140.135498046875 1.196299552917
-50.448265075684 -68.789299011230 -134.193130493164 1.230648994446
114.638397216797 -69.987876892090 -137.345260620117 2.234542846680
-73.761940002441 -70.284400939941 -138.409805297852 1.533265948296
36.132057189941 -70.831321716309 -131.434097290039 1.496675729752
-78.503540039063 -69.016998291016 -139.854141235352 0.714812040329
-73.670295715332 -68.840057373047 -136.290756225586 0.763511598110
-89.570671081543 -67.550460815430 -139.309631347656 1.236780881882
-52.735595703125 -68.636032104492 -148.042861938477 0.343837380409
31.726362228394 -68.041770935059 -145.354537963867 1.321932315826
28.004343032837 -68.916786193848 -149.572311401367 1.521620869637
18.820964813232 -67.316307067871 -144.011062622070 1.127729654312
113.348884582520 -71.246246337891 -145.664367675781 2.316573619843
-94.509422302246 -67.699256896973 -153.355926513672 1.628026843071
14.516466140747 -71.774261474609 -152.244918823242 0.985790133476
-71.722984313965 -68.726463317871 -152.601943969727 0.734909176826
23.651603698730 -70.089996337891 -149.909423828125 1.773866057396
-48.646652221680 -68.683609008789 -155.549331665039 2.049368381500
9.779967308044 -69.142379760742 -152.687515258789 1.726848721504
14.478201866150 -71.889312744141 -157.800231933594 0.822618842125
18.632167816162 -73.188011169434 -163.743621826172 0.965991735458
-47.346912384033 -70.661666870117 -162.125503540039 0.793056190014
-39.171123504639 -69.072624206543 -154.563095092773 1.159417033195
-45.334175109863 -69.204627990723 -160.426437377930 1.119770407677
-103.468490600586 -68.590614318848 -171.687316894531 0.861993789673
22.147726058960 -70.508796691895 -173.307586669922 3.056014060974
-34.888511657715 -68.767623901367 -174.744415283203 1.203101515770
15.883969306946 -72.305252075195 -178.113906860352 1.635964274406
-143.852447509766 -68.272506713867 -176.049316406250 1.599331378937
-32.146793365479 -67.187980651855 -173.016479492188 0.762716770172
-153.746582031250 -70.260948181152 -178.150177001953 1.438205599785
23.199525833130 -67.269279479980 -181.641677856445 2.965821504593
-31.764278411865 -69.654121398926 -172.155685424805 1.159878730774
-107.648506164551 -67.403877258301 -179.104217529297 2.765146970749
-106.728820800781 -70.706817626953 -183.465377807617 2.099952936172
-29.071420669556 -66.216316223145 -184.840484619141 1.993153572083
-22.759181976318 -71.969131469727 -181.875869750977 1.132797002792
15.426734924316 -68.935752868652 -189.209869384766 2.220068931580
18.141515731812 -68.053016662598 -196.006958007813 1.963784456253
14.771110534668 -69.153083801270 -186.460754394531 1.815382719040
-142.492065429688 -67.449119567871 -188.353363037109 1.182839751244
20.682626724243 -67.411491394043 -189.809280395508 2.359683036804
9.195095062256 -69.750221252441 -196.549560546875 1.883062124252
-137.699951171875 -66.573616027832 -195.505737304688 3.831373453140
-114.691482543945 -67.777191162109 -195.857208251953 0.680715560913
15.465810775757 -68.423103332520 -199.458648681641 1.771162509918
-114.454483032227 -67.418357849121 -197.092590332031 0.798986673355
-107.269195556641 -65.236785888672 -192.287750244141 3.423989772797
-163.896759033203 -68.313140869141 -199.768554687500 1.632751584053
-23.649677276611 -68.543769836426 -200.048873901367 1.875112175941
14.756765365601 -68.491622924805 -200.370269775391 1.299994230270
-141.175674438477 -67.401046752930 -204.299743652344 0.540532827377
-134.021881103516 -68.195640563965 -206.289062500000 2.605910062790
-18.482561111450 -67.838768005371 -206.864227294922 1.423184394836
-10.991408348083 -70.196029663086 -203.985397338867 1.677664995193
-14.719884872437 -69.086975097656 -205.931655883789 1.539176702499
-141.432098388672 -69.376213073730 -205.934799194336 2.135303020477
-15.392292022705 -69.586685180664 -212.865219116211 0.485196858644
-10.620969772339 -70.964820861816 -214.051589965820 2.496983528137
17.934867858887 -67.735267639160 -210.630645751953 0.704897642136
-12.924559593201 -70.767921447754 -211.264053344727 2.478231906891
11.274691581726 -68.896644592285 -210.429275512695 1.585906267166
-9.246931076050 -69.323143005371 -215.766433715820 1.457502961159
-18.897247314453 -67.406845092773 -212.138351440430 3.907305479050
13.960453033447 -71.701248168945 -221.017013549805 2.038084506989
-0.352026998997 -72.464546203613 -220.081588745117 1.135952115059
12.016406059265 -66.834403991699 -221.437805175781 1.577120900154
-4.986372947693 -69.917762756348 -225.949203491211 1.467628598213
-157.039031982422 -67.039062500000 -225.067871093750 1.151200056076
81.738517761230 -71.502006530762 -219.961257934570 1.305858016014
-134.169769287109 -66.048698425293 -225.142333984375 1.657811641693
-134.093276977539 -68.129394531250 -224.454116821289 0.787570953369
-7.869387149811 -69.419990539551 -225.254699707031 1.823949933052
10.512252807617 -69.029869079590 -232.785873413086 2.111126661301
-155.266571044922 -66.528526306152 -229.094787597656 2.926340103149
87.934341430664 -69.255409240723 -219.479965209961 2.248734235764
-1.700196027756 -68.122650146484 -225.233047485352 0.646266698837
1.344099998474 -69.678802490234 -223.869323730469 1.353683590889
74.838104248047 -71.627929687500 -228.018249511719 1.082550644875
1.712836027145 -67.470169067383 -233.893615722656 0.746415019035
-14.481369972229 -70.662887573242 -228.463714599609 2.475873231888
-125.023582458496 -67.000862121582 -235.075988769531 1.847448825836
-2.792562007904 -68.623855590820 -236.180221557617 1.296011567116
3.281024932861 -67.249435424805 -232.878890991211 1.178595781326
66.857276916504 -68.700202941895 -238.039962768555 1.280789375305
-157.444427490234 -67.043434143066 -239.432281494141 2.010138750076
-11.084936141968 -68.884300231934 -244.187500000000 1.986721754074
-167.494552612305 -68.070426940918 -239.338150024414 1.308269739151
10.372777938843 -67.784500122070 -242.331832885742 1.822649598122
-164.251312255859 -66.654617309570 -239.750976562500 1.951072096825
-160.241821289063 -67.297279357910 -246.147186279297 1.242395639420
57.349086761475 -68.886718750000 -245.155334472656 0.953913807869
63.917217254639 -70.073432922363 -242.660064697266 2.303365707397
57.443355560303 -69.558158874512 -243.443786621094 1.121807217598
52.889270782471 -69.148170471191 -248.411361694336 0.552840828896
-155.870376586914 -66.743392944336 -245.299896240234 2.933659315109
-155.677902221680 -65.413269042969 -250.097213745117 4.163126468658
-12.865969657898 -69.824333190918 -249.431015014648 1.942566156387
-150.808105468750 -66.498725891113 -246.945922851563 0.330824255943
21.498008728027 -70.789848327637 -251.195938110352 1.769850969315
-167.918792724609 -69.401191711426 -251.597183227539 2.163834333420
-165.873611450195 -65.111000061035 -247.843307495117 3.935580730438
-81.152717590332 -68.284423828125 -250.216979980469 2.937104225159
-167.699005126953 -66.284820556641 -261.571105957031 2.786759376526
-84.547943115234 -66.965812683105 -256.228729248047 2.911683320999
43.256996154785 -68.542846679688 -252.779617309570 2.173420190811
23.508052825928 -71.811431884766 -255.666458129883 1.740283608437
-158.075881958008 -66.704147338867 -261.733489990234 2.856202840805
-99.553298950195 -63.391193389893 -259.755615234375 2.633512496948
39.876628875732 -69.578804016113 -256.193695068359 1.734959959984
-102.603187561035 -71.265647888184 -259.997772216797 1.264820456505
-153.347183227539 -62.082256317139 -264.928924560547 1.517302036285
-104.918601989746 -66.034706115723 -259.951904296875 2.655560016632
-165.975585937500 -67.228126525879 -260.501678466797 2.515148878098
-112.060676574707 -68.011634826660 -263.467651367188 2.771829366684
-152.078201293945 -68.027076721191 -266.120788574219 1.408607006073
-157.036651611328 -65.846237182617 -264.698791503906 2.877526521683
-165.232376098633 -65.875335693359 -264.436859130859 2.544226408005
-162.289642333984 -64.875244140625 -263.016601562500 4.192263603210
-164.629760742188 -66.189666748047 -267.163269042969 1.916286826134
-162.967590332031 -66.650497436523 -265.032073974609 2.233392953873
26.266185760498 -69.840980529785 -264.975463867188 0.992920875549
-149.853836059570 -68.329696655273 -264.955474853516 2.428297281265
-147.646926879883 -65.633163452148 -284.242126464844 2.045936584473
23.884260177612 -69.964752197266 -276.839782714844 2.081000328064
-10.203595161438 -68.875862121582 -274.438568115234 3.198393106461
-125.019371032715 -66.250183105469 -284.713439941406 2.184532880783
-135.209869384766 -67.757530212402 -286.472869873047 0.986306488514
-133.834396362305 -65.265029907227 -288.526062011719 0.436829626560
-125.002365112305 -67.301490783691 -286.516143798828 1.344417452812
-114.056732177734 -65.753402709961 -289.204406738281 1.903431653976
-104.919525146484 -64.481597900391 -286.867645263672 3.364646673203
11.287059783936 -70.175468444824 -290.980468750000 2.737755537033
-84.290283203125 -67.348899841309 -289.860565185547 2.811400175095
-148.233383178711 -66.835052490234 -290.071350097656 1.603497147560
-100.182830810547 -66.513153076172 -290.980072021484 2.114522457123
-126.239692687988 -64.320236206055 -292.067962646484 2.074887037277
10.405041694641 -70.778999328613 -288.575988769531 2.718165397644
-111.514129638672 -63.398265838623 -290.669128417969 4.556241035461
3.141860008240 -68.315460205078 -292.736511230469 1.573617458344
-142.067703247070 -65.806427001953 -290.689178466797 2.111405134201
-152.187973022461 -66.839912414551 -297.107177734375 1.958644509315
-155.990371704102 -65.984054565430 -313.350433349609 3.763617277145
-153.606704711914 -65.942131042480 -312.932434082031 2.048297882080
48.429855346680 -73.904266357422 -24.191890716553 3.085879802704
22.241001129150 -72.693878173828 -34.338287353516 0.743169903755
31.742784500122 -73.292678833008 -36.462593078613 2.856125354767
-46.548290252686 -72.187927246094 -47.755783081055 3.689461946487
-13.810016632080 -69.908126831055 -61.678024291992 2.325768709183
93.894714355469 -73.648422241211 -68.181350708008 2.866002559662
68.856536865234 -69.276412963867 -69.594055175781 2.234456300735
-23.572786331177 -71.306983947754 -74.504432678223 0.804826319218
-96.697090148926 -72.816268920898 -85.568191528320 1.593932390213
-42.352607727051 -70.742607116699 -80.997344970703 1.874901294708
63.436824798584 -70.742630004883 -81.752479553223 2.862197160721
60.712627410889 -73.113128662109 -86.288612365723 1.624618053436
54.606121063232 -69.750343322754 -87.090744018555 1.966140508652
-58.555248260498 -68.862075805664 -90.100379943848 0.903061509132
66.460136413574 -68.891586303711 -88.888336181641 1.026262402534
44.174301147461 -73.411117553711 -97.173278808594 0.684574902058
68.043968200684 -72.251861572266 -94.021148681641 3.473037481308
-63.255958557129 -68.167190551758 -95.775329589844 2.678571939468
49.500736236572 -72.845939636230 -93.711654663086 1.658358693123
45.115936279297 -71.867271423340 -98.224868774414 1.771200418472
103.455139160156 -69.956459045410 -98.713943481445 1.375135660172
-67.244598388672 -69.576904296875 -99.339950561523 1.462068200111
110.053306579590 -71.297065734863 -100.056526184082 1.962420821190
-78.957809448242 -70.361701965332 -100.950157165527 0.790612399578
55.011905670166 -73.193435668945 -103.589141845703 2.124264717102
47.973747253418 -69.399436950684 -99.969779968262 2.122330188751
92.434486389160 -71.338386535645 -102.958793640137 1.332905769348
85.332908630371 -68.857849121094 -106.393852233887 0.839468538761
53.863819122314 -70.217071533203 -103.805587768555 1.145900011063
-75.753059387207 -69.707801818848 -110.459632873535 1.610825419426
-75.757278442383 -68.305541992188 -113.813400268555 1.217160820961
-79.771224975586 -70.299293518066 -118.797447204590 1.320367932320
-92.546768188477 -72.278450012207 -119.245803833008 1.092717885971
106.210304260254 -67.883506774902 -115.132026672363 1.247150301933
-86.981384277344 -70.452087402344 -119.550132751465 2.496727943420
-77.316612243652 -66.547950744629 -121.065704345703 1.032140016556
110.047630310059 -70.126396179199 -114.876403808594 1.276496171951
-62.372741699219 -63.525180816650 -118.501518249512 1.570335030556
114.159988403320 -73.173515319824 -130.605651855469 0.839540243149
110.335365295410 -71.884231567383 -128.491546630859 1.562899708748
108.650482177734 -71.423751831055 -123.865364074707 1.369462251663
-92.941108703613 -68.770103454590 -138.471374511719 1.132447481155
-47.593170166016 -68.889579772949 -141.681472778320 1.517579913139
-77.566467285156 -67.545921325684 -145.126235961914 2.322457313538
-68.958465576172 -68.744819641113 -149.383438110352 1.279043197632
-70.826385498047 -67.218139648438 -147.020217895508 1.067193269730
-54.918338775635 -68.246780395508 -143.487503051758 1.798413634300
-47.224594116211 -71.263435363770 -147.015243530273 1.989403843880
18.378545761108 -69.708679199219 -145.403793334961 1.612200856209
-94.009025573730 -66.667678833008 -144.045303344727 1.698011279106
-44.912986755371 -67.905364990234 -147.745346069336 1.484562277794
-52.398242950439 -65.195449829102 -148.176559448242 3.493578672409
-41.455532073975 -67.666198730469 -155.149383544922 1.294409990311
28.355228424072 -70.983055114746 -162.330978393555 1.017007946968
-49.084049224854 -68.393753051758 -150.496765136719 0.899033129215
-98.872398376465 -65.792808532715 -150.305694580078 2.147913932800
-43.587577819824 -66.860763549805 -157.835830688477 1.451819777489
26.361661911011 -70.529670715332 -149.190933227539 1.273254275322
-99.641716003418 -70.835494995117 -162.819946289063 3.111527681351
22.930223464966 -70.762641906738 -157.064437866211 2.443264722824
-106.809150695801 -66.266960144043 -170.742538452148 2.678879499435
-100.279998779297 -68.076370239258 -163.664642333984 2.422350645065
22.773794174194 -68.923469543457 -163.708663940430 2.471278429031
26.475601196289 -68.030174255371 -167.689941406250 1.680832743645
-106.321800231934 -69.020431518555 -174.235260009766 2.305246353149
-141.310821533203 -66.326576232910 -175.793334960938 1.093697786331
-20.186491012573 -68.749176025391 -188.444519042969 2.815592527390
-26.702100753784 -67.917564392090 -182.344055175781 1.792145371437
-113.678710937500 -68.060928344727 -187.443771362305 0.705665707588
-143.169296264648 -63.229030609131 -188.071044921875 0.503056526184
-103.921585083008 -65.877449035645 -182.132614135742 1.799360394478
-156.363388061523 -66.940368652344 -192.157165527344 1.768815040588
-130.694869995117 -69.964279174805 -195.569900512695 0.693454205990
-132.732727050781 -68.182327270508 -196.573226928711 1.561545848846
-19.487802505493 -67.058860778809 -190.529067993164 2.207118034363
-120.531013488770 -67.517265319824 -197.617996215820 2.071192502975
-115.299140930176 -64.982368469238 -198.498367309570 1.098340749741
-25.220005035400 -69.344200134277 -195.525894165039 1.667368173599
-153.605392456055 -65.004776000977 -199.901458740234 1.616248130798
-131.213714599609 -68.918106079102 -205.259063720703 1.637178421021
-124.178756713867 -65.623214721680 -205.426361083984 0.625362753868
18.520093917847 -69.568298339844 -201.578872680664 2.261978626251
-160.916030883789 -65.391784667969 -204.623764038086 3.243639469147
10.811236381531 -68.295028686523 -214.048995971680 2.202198743820
14.394292831421 -68.998199462891 -213.986358642578 0.804545462132
-17.233171463013 -65.864959716797 -208.040390014648 2.845181941986
-4.332518100739 -68.542602539063 -215.960906982422 0.953860342503
-167.805816650391 -64.549209594727 -210.640548706055 4.576764583588
-158.131942749023 -64.370216369629 -213.965621948242 2.647614240646
-93.804817199707 -67.288490295410 -218.462112426758 2.240461826324
-98.971740722656 -67.807922363281 -223.997543334961 1.366237282753
-160.141677856445 -65.998977661133 -224.837661743164 0.925663053989
-104.190048217773 -66.047943115234 -219.926391601563 3.003942251205
-11.523980140686 -67.042419433594 -215.596084594727 0.621365070343
-126.122077941895 -67.799697875977 -223.536453247070 1.561196804047
-140.683197021484 -67.293258666992 -225.355026245117 2.068527698517
-2.307892084122 -68.792755126953 -221.183273315430 1.587547898293
-133.521286010742 -65.521957397461 -225.767440795898 1.832171201706
-123.033523559570 -69.463806152344 -224.527236938477 1.835855364799
-113.557319641113 -67.697799682617 -225.893859863281 0.745486319065
2.369919061661 -65.418319702148 -227.253738403320 3.409751415253
-106.183952331543 -66.200531005859 -230.396255493164 2.391098737717
-158.827316284180 -62.776714324951 -223.854736328125 3.423980474472
-146.396362304688 -65.404083251953 -227.796051025391 2.093136310577
-164.890899658203 -65.580230712891 -225.474945068359 2.072678804398
-6.906957149506 -68.581237792969 -227.359558105469 2.243568658829
-7.754553794861 -67.883270263672 -231.805725097656 0.922973573208
79.253684997559 -70.420677185059 -225.233764648438 1.503132104874
1.489604949951 -69.217933654785 -229.731185913086 2.315216541290
-141.899002075195 -66.044502258301 -235.648605346680 3.113944053650
-13.173314094543 -67.220275878906 -228.914886474609 2.095659255981
74.988204956055 -69.248168945313 -227.818862915039 1.491690278053
75.890304565430 -69.332977294922 -232.501052856445 3.032489299774
-133.806701660156 -65.526565551758 -233.411575317383 1.016008019447
-157.253326416016 -67.204772949219 -229.165267944336 1.311652302742
-113.549278259277 -66.062385559082 -233.489913940430 1.640167832375
-123.391792297363 -63.593776702881 -235.588287353516 1.977261781693
-163.418243408203 -64.945083618164 -235.451675415039 2.231437683105
-158.697814941406 -66.033607482910 -236.639907836914 2.082329034805
-145.031738281250 -64.346458435059 -235.679733276367 1.845113515854
-10.512229919434 -68.059043884277 -235.822433471680 2.516687870026
-3.869395971298 -67.859016418457 -239.363540649414 1.314338326454
-160.038513183594 -64.500419616699 -240.258071899414 2.694853782654
6.234185218811 -69.063781738281 -238.732727050781 2.393472194672
4.976140022278 -68.291542053223 -235.567459106445 1.732792854309
-159.738372802734 -65.687866210938 -240.495925903320 1.561310529709
16.689416885376 -70.864974975586 -243.053207397461 2.370589017868
51.589199066162 -70.356529235840 -244.456771850586 1.746822834015
52.391811370850 -69.792892456055 -244.454086303711 1.106928348541
-14.318541526794 -68.738258361816 -246.735549926758 1.059831023216
49.659072875977 -67.425331115723 -248.347274780273 1.248907208443
-161.487167358398 -63.903900146484 -251.615417480469 5.185325145721
-159.594390869141 -65.757347106934 -248.736541748047 1.990207314491
-159.211410522461 -67.741706848145 -250.528167724609 1.939708471298
54.925010681152 -68.770347595215 -249.035705566406 2.004999637604
-90.342987060547 -65.897445678711 -253.179733276367 2.854586124420
-124.371154785156 -66.010406494141 -254.760696411133 1.153128981590
-104.754119873047 -69.177299499512 -254.771774291992 2.277332305908
28.463520050049 -70.670356750488 -257.057495117188 1.150219678879
43.107105255127 -67.204376220703 -250.537597656250 1.807287216187
-100.079696655273 -64.607437133789 -255.526657104492 3.326790332794
-93.094581604004 -63.793563842773 -253.405807495117 3.445967435837
46.099166870117 -70.751869201660 -253.496841430664 1.692240715027
43.831756591797 -67.356033325195 -256.037963867188 1.030457854271
-154.488143920898 -69.068077087402 -259.051239013672 1.934479475021
32.343265533447 -68.099998474121 -258.402862548828 0.766686916351
-141.647186279297 -68.490730285645 -264.566986083984 2.276712894440
-113.109718322754 -65.592887878418 -262.676788330078 1.375817775726
