-145.956314086914 -75.816398620605 -209.425323486328 2.726448774338
-145.325164794922 -71.385803222656 -211.594039916992 1.997132658958
-88.194152832031 -75.771766662598 -213.245651245117 1.392088890076
-36.540523529053 -75.250442504883 -210.662872314453 3.199252605438
-22.225856781006 -79.416473388672 -212.849334716797 2.782697916031
-31.924484252930 -77.082946777344 -210.234848022461 1.443322300911
-92.797904968262 -75.627357482910 -217.160873413086 1.501175642014
-89.142929077148 -76.057777404785 -215.501647949219 1.549985885620
7.049265861511 -79.637176513672 -220.646774291992 0.686313271523
-151.172546386719 -71.958625793457 -215.485366821289 1.784383535385
-14.342761993408 -78.618606567383 -213.217025756836 1.209158062935
7.253450870514 -81.029548645020 -218.126815795898 2.902889490128
-145.964523315430 -73.588790893555 -218.923492431641 1.566053509712
-22.305500030518 -78.003532409668 -218.397308349609 1.126830697060
-3.057807922363 -76.120132446289 -221.287017822266 1.483634352684
-6.345668792725 -78.376670837402 -219.046371459961 1.162423849106
-153.678512573242 -72.747016906738 -224.442810058594 1.478602647781
-139.428909301758 -70.371261596680 -226.801773071289 2.257973432541
-7.159880161285 -77.498451232910 -223.365112304688 1.426974296570
-150.218582153320 -78.769790649414 -228.113281250000 0.461973696947
0.296243995428 -75.118553161621 -230.173431396484 2.902719736099
15.757439613342 -77.536460876465 -233.452194213867 1.405828714371
-2.201607942581 -77.899887084961 -232.052032470703 1.816546082497
-1.018779039383 -74.522941589355 -234.978317260742 2.241363763809
6.485682010651 -77.654769897461 -231.754989624023 1.651612043381
-152.345962524414 -74.229431152344 -237.096099853516 1.642361283302
-20.747024536133 -75.632415771484 -236.564468383789 3.635761499405
-36.134677886963 -77.733757019043 -239.163940429688 0.688476264477
3.277224063873 -75.863822937012 -232.852111816406 1.824925899506
-0.507058024406 -79.208595275879 -239.040313720703 1.337797164917
1.995656967163 -77.027595520020 -234.412887573242 1.712904572487
-56.626140594482 -75.009002685547 -242.730194091797 2.374005794525
-150.185974121094 -72.484359741211 -247.339019775391 1.503812551498
-153.053192138672 -74.678573608398 -248.174743652344 2.192027568817
8.926994323730 -78.573150634766 -246.614074707031 0.740957856178
21.538549423218 -78.247367858887 -247.449890136719 1.479585289955
-61.514682769775 -74.514648437500 -248.186248779297 1.447618961334
-145.431198120117 -76.487380981445 -252.982376098633 1.415492653847
-154.383163452148 -75.896636962891 -254.768890380859 1.695380568504
-152.510330200195 -78.712432861328 -257.829803466797 2.795460700989
-143.375671386719 -72.398506164551 -261.549926757813 2.293076992035
-139.822418212891 -73.958084106445 -256.934753417969 2.450366973877
-11.421294212341 -77.435455322266 -256.596099853516 0.680014789104
-145.528686523438 -75.199531555176 -263.382568359375 2.055852413177
-13.652883529663 -77.580039978027 -265.034637451172 2.428348541260
-148.440887451172 -73.245956420898 -275.170532226563 3.502123832703
-148.473464965820 -73.734741210938 -282.693267822266 2.575178384781
-150.790359497070 -73.075210571289 -283.178527832031 2.166436433792
-4.479899883270 -73.544471740723 -284.723968505859 2.226488113403
-145.590957641602 -70.154472351074 -285.525848388672 2.248636484146
-30.512399673462 -76.111198425293 -286.740844726563 1.477716445923
-31.124340057373 -74.882003784180 -287.070343017578 1.850709438324
-17.115913391113 -75.111022949219 -290.409149169922 2.063851356506
-12.319897651672 -74.941688537598 -289.654388427734 1.701677799225
12.684323310852 -78.303428649902 -291.376464843750 2.442826032639
-126.352783203125 -74.237785339355 -289.733337402344 2.096492290497
-59.305114746094 -75.047531127930 -288.330474853516 2.302340030670
-40.707321166992 -74.472442626953 -289.509643554688 2.485100507736
-33.262580871582 -76.364761352539 -288.954101562500 0.943677544594
-10.274987220764 -75.417076110840 -291.325286865234 1.944787383080
4.001702785492 -76.839103698730 -288.482513427734 1.229431629181
-144.059249877930 -75.268371582031 -294.953277587891 2.419548511505
8.348331451416 -76.978713989258 -292.494018554688 2.068881034851
-153.152206420898 -72.194511413574 -301.721679687500 2.826213598251
-151.993087768555 -75.283737182617 -301.507263183594 2.867142200470
-153.704833984375 -71.684921264648 -311.611389160156 2.066429138184
-146.161560058594 -72.878135681152 -310.830383300781 2.340520620346
-51.809741973877 -76.418220520020 -53.945724487305 2.924453973770
-57.395606994629 -78.162956237793 -56.434577941895 1.802573800087
-66.536422729492 -75.650100708008 -55.788036346436 2.623057126999
-43.774688720703 -76.439880371094 -60.082199096680 1.532574892044
-38.411960601807 -76.980583190918 -59.335453033447 1.824028015137
-22.802541732788 -76.648750305176 -68.516609191895 0.651322126389
-83.874946594238 -75.113128662109 -68.677742004395 3.037206888199
81.457489013672 -80.116760253906 -78.087310791016 3.770329236984
-91.322685241699 -75.201423645020 -79.417762756348 2.979330539703
80.861892700195 -79.505874633789 -80.011497497559 1.880996108055
84.850013732910 -78.221839904785 -83.419464111328 1.492390513420
93.163307189941 -78.477188110352 -86.902183532715 1.541380524635
-61.101020812988 -80.101264953613 -95.488929748535 1.905784249306
81.595146179199 -79.476844787598 -94.807060241699 2.888672351837
76.843750000000 -81.148147583008 -91.983795166016 3.844986677170
85.439697265625 -80.385452270508 -89.991111755371 1.359081149101
-63.295391082764 -78.664558410645 -97.515663146973 1.259770274162
50.208835601807 -78.056823730469 -97.197257995605 2.688255310059
44.472747802734 -78.846458435059 -106.411270141602 2.331231117249
39.620872497559 -79.279052734375 -104.357986450195 2.905427694321
36.254596710205 -78.769477844238 -106.054893493652 3.534985303879
-92.610778808594 -74.213882446289 -109.513160705566 2.623101234436
34.789051055908 -78.023162841797 -117.210227966309 1.450355291367
-86.109725952148 -76.628044128418 -109.661422729492 1.983707070351
40.808647155762 -80.085281372070 -124.146667480469 1.064012050629
32.612300872803 -79.183357238770 -121.762435913086 1.701741814613
32.540096282959 -74.824661254883 -121.640869140625 1.476959109306
41.979167938232 -78.214294433594 -118.971054077148 1.814498543739
38.747020721436 -79.956871032715 -127.116706848145 2.603570222855
-53.936637878418 -72.707313537598 -135.551116943359 1.607951283455
35.289154052734 -80.083374023438 -135.055343627930 2.060939073563
34.931991577148 -77.783462524414 -142.481338500977 1.416215181351
-54.272342681885 -73.847091674805 -140.990676879883 1.107803702354
-48.185714721680 -76.285499572754 -140.652282714844 1.193679928780
33.610759735107 -78.391983032227 -143.197540283203 1.232664823532
109.981071472168 -77.692718505859 -141.403625488281 2.762614250183
112.145416259766 -78.193519592285 -142.946563720703 3.310546398163
25.394109725952 -78.762382507324 -143.341201782227 1.929684758186
-42.621566772461 -77.581436157227 -149.061996459961 1.296285271645
112.261405944824 -82.268783569336 -153.652603149414 5.962586402893
-40.788707733154 -75.362449645996 -153.354278564453 1.540915012360
-69.164886474609 -75.875747680664 -159.504684448242 1.371622443199
109.466514587402 -81.421798706055 -159.621932983398 4.505822658539
21.632452011108 -77.780181884766 -163.773437500000 1.631571173668
-0.808701992035 -78.239295959473 -162.924804687500 2.262484788895
111.130996704102 -79.799095153809 -155.266876220703 3.720089197159
-65.297500610352 -75.328010559082 -164.842102050781 2.242338657379
-38.623485565186 -76.027221679688 -161.993789672852 2.335633754730
111.528991699219 -79.399795532227 -164.316162109375 3.174426555634
27.861543655396 -75.782249450684 -158.427719116211 1.070743680000
-64.093482971191 -72.384864807129 -165.965728759766 1.493378996849
110.497894287109 -79.958618164063 -166.402267456055 2.930961132050
-66.096023559570 -77.229713439941 -168.615921020508 1.325690150261
-51.963169097900 -77.359870910645 -179.473907470703 1.177245855331
105.238639831543 -78.350090026855 -171.413803100586 3.703667879105
-60.919776916504 -74.327400207520 -170.252792358398 1.225742697716
110.426109313965 -79.087745666504 -175.166290283203 1.978440284729
-61.341831207275 -75.629127502441 -174.658340454102 1.012602329254
-15.454620361328 -75.459823608398 -177.409942626953 2.523209333420
-13.028578758240 -79.308212280273 -180.045166015625 1.679387807846
106.780776977539 -80.279342651367 -170.160034179688 3.737274408340
19.857318878174 -77.821578979492 -171.925186157227 1.434186935425
28.040594100952 -76.024032592773 -170.328598022461 1.359345436096
-57.629234313965 -74.973014831543 -176.966140747070 1.116343140602
17.772579193115 -76.540077209473 -182.043395996094 1.673995137215
-58.787342071533 -75.370666503906 -176.249557495117 1.464280724525
-52.395580291748 -74.771537780762 -188.836914062500 1.073015809059
12.544109344482 -75.978729248047 -183.431594848633 2.703072071075
-58.687088012695 -73.885299682617 -180.708663940430 0.678430497646
106.212532043457 -78.322593688965 -185.784637451172 3.575104475021
22.961479187012 -78.296409606934 -181.054687500000 1.726046562195
-33.834949493408 -74.782844543457 -188.507934570313 2.395714521408
-43.458610534668 -76.381263732910 -191.645614624023 1.401002407074
10.166913986206 -77.256401062012 -193.459014892578 2.736472606659
-19.540363311768 -77.278404235840 -190.378921508789 1.053544402122
-50.488574981689 -76.553741455078 -194.147674560547 2.336124897003
102.090240478516 -80.807441711426 -184.023452758789 4.248235225677
12.961465835571 -78.282058715820 -190.714355468750 1.659536004066
-135.259185791016 -75.854362487793 -198.519271850586 0.941541612148
-45.075740814209 -77.300819396973 -193.890289306641 1.571097016335
95.428817749023 -78.652420043945 -198.768661499023 2.883729934692
-149.256042480469 -78.422882080078 -202.069763183594 2.344790458679
17.338144302368 -77.231872558594 -196.014114379883 0.957129478455
-43.159587860107 -74.169082641602 -205.218673706055 3.980656623840
-32.578960418701 -77.435279846191 -204.920196533203 1.484423041344
-38.064888000488 -75.954765319824 -204.130035400391 2.889912843704
-45.028442382813 -77.798217773438 -197.134063720703 1.360856890678
98.940162658691 -79.087364196777 -202.387893676758 2.933330774307
-21.053009033203 -77.561958312988 -202.036804199219 1.987297415733
-151.156173706055 -73.503379821777 -203.972061157227 1.588487386703
15.142186164856 -77.752838134766 -204.475585937500 1.482158303261
-77.422370910645 -78.183349609375 -207.810134887695 1.910299777985
-149.008560180664 -72.595642089844 -211.350891113281 1.971734523773
94.710807800293 -78.835342407227 -210.744796752930 3.010281085968
-33.633502960205 -75.054649353027 -207.207794189453 1.528950214386
-29.819656372070 -75.940216064453 -213.402511596680 1.823512077332
7.380104064941 -77.636001586914 -210.837570190430 1.054633259773
-72.236488342285 -76.965927124023 -211.041000366211 2.054804563522
-29.721099853516 -79.072296142578 -208.862457275391 1.665250778198
-6.785054206848 -76.725067138672 -215.245330810547 2.085464954376
-74.263305664063 -76.632369995117 -214.377899169922 1.463321447372
-15.386657714844 -76.366439819336 -217.293960571289 2.478588581085
7.214272022247 -73.108894348145 -212.918350219727 0.819271564484
14.632415771484 -78.355361938477 -219.908767700195 2.170312643051
-149.951751708984 -73.955680847168 -216.770767211914 1.670545101166
-8.804221153259 -76.173065185547 -214.610687255859 2.135078430176
-97.880432128906 -71.328338623047 -220.482192993164 2.572966575623
-22.622316360474 -75.363288879395 -219.921340942383 0.902140319347
89.822593688965 -80.939636230469 -211.662948608398 4.232554912567
6.176956176758 -76.057044982910 -226.295761108398 1.797616839409
16.992416381836 -76.075569152832 -216.568832397461 0.843663632870
80.346900939941 -78.498878479004 -218.660995483398 4.756109237671
0.169404000044 -77.502799987793 -227.675888061523 0.926961719990
85.073455810547 -78.586082458496 -217.131805419922 2.332133769989
-19.032091140747 -74.637306213379 -222.725082397461 1.331810951233
14.531913757324 -76.143646240234 -219.482650756836 2.366810321808
-147.419448852539 -74.629020690918 -222.046798706055 1.466205239296
-22.347743988037 -77.128143310547 -224.898635864258 1.384428381920
0.759464025497 -76.515434265137 -228.224884033203 1.410426139832
-156.264495849609 -76.173477172852 -227.397796630859 3.530689954758
-137.495117187500 -73.859519958496 -228.391220092773 2.575121402740
5.386670112610 -76.494575500488 -225.170593261719 2.199952125549
-4.892035007477 -75.261169433594 -229.791778564453 0.960512638092
-137.131561279297 -71.772262573242 -230.792297363281 1.755202293396
-146.937850952148 -74.005424499512 -237.726364135742 2.704467058182
-148.221694946289 -73.131195068359 -236.266143798828 1.814330935478
-33.506309509277 -76.139701843262 -237.978973388672 1.304796218872
-145.853820800781 -73.969078063965 -242.562637329102 1.443813323975
18.018013000488 -76.939323425293 -241.586242675781 1.487150430679
4.172082901001 -76.373649597168 -243.361038208008 2.175716638565
-151.034362792969 -70.661758422852 -236.745223999023 2.066492319107
-149.908477783203 -73.262077331543 -243.633697509766 0.565141379833
-47.759773254395 -76.163238525391 -243.074981689453 1.682023644447
-32.258800506592 -76.460151672363 -244.933547973633 1.735986232758
4.084772109985 -77.720512390137 -245.022705078125 1.311478018761
-38.943420410156 -76.281539916992 -245.345748901367 1.105456948280
21.759544372559 -77.281082153320 -247.010787963867 1.719540238380
-6.170875072479 -78.317222595215 -250.081573486328 1.760373830795
-148.993225097656 -73.317932128906 -252.858154296875 1.474109649658
-9.116787910461 -79.094696044922 -251.677886962891 1.842956304550
-148.231781005859 -72.335327148438 -250.446914672852 3.219291687012
-67.856277465820 -75.680801391602 -249.621704101563 1.825927376747
-149.786483764648 -79.369384765625 -259.943115234375 3.032837152481
-127.208320617676 -72.871826171875 -258.914672851563 3.824193477631
-151.175155639648 -70.716567993164 -259.793762207031 3.025143861771
-13.021722793579 -73.995162963867 -266.025665283203 2.561800241470
-147.028778076172 -76.075843811035 -268.011718750000 2.066751718521
-150.769454956055 -73.225921630859 -267.102935791016 1.599213838577
-11.424086570740 -77.193572998047 -270.129028320313 1.458171248436
-146.924621582031 -73.380905151367 -271.039611816406 3.949802398682
-5.390758037567 -75.898376464844 -278.334197998047 1.630572915077
-46.922805786133 -74.656829833984 -285.882537841797 2.154164791107
-134.896682739258 -71.991294860840 -288.605316162109 2.730312347412
-134.570190429688 -72.032730102539 -286.170257568359 1.749598979950
-125.998512268066 -71.580032348633 -285.138610839844 0.593529462814
-53.613605499268 -74.062484741211 -286.570556640625 0.810219824314
-114.897987365723 -71.296737670898 -286.910339355469 1.064303278923
15.097455024719 -76.009223937988 -290.401702880859 1.143258571625
-59.760322570801 -73.556686401367 -288.798431396484 3.079565048218
-142.249481201172 -71.990577697754 -291.562561035156 0.809427797794
-63.216712951660 -73.499839782715 -290.220031738281 1.786395192146
-144.186004638672 -75.489280700684 -292.154693603516 1.173960089684
-117.935890197754 -72.006576538086 -290.489929199219 3.042976856232
-47.652362823486 -75.403419494629 -290.444244384766 1.539489626884
-35.442550659180 -75.264396667480 -291.022125244141 2.368880748749
-135.845840454102 -71.161621093750 -293.007904052734 1.140375614166
-12.669901847839 -73.707473754883 -287.726776123047 1.932417631149
1.481184005737 -75.835922241211 -289.685058593750 2.388242483139
5.728733062744 -75.413490295410 -291.228485107422 2.086376428604
14.342694282532 -76.712745666504 -294.060272216797 1.481024026871
-150.430236816406 -73.969421386719 -296.845489501953 0.818438172340
-147.689804077148 -71.354194641113 -297.560302734375 1.817577481270
-69.921905517578 -75.939262390137 -60.753738403320 2.654685020447
86.472663879395 -79.301719665527 -73.686729431152 4.720192432404
77.348304748535 -79.359344482422 -76.147865295410 4.576752185822
-28.230005264282 -78.015739440918 -76.716049194336 2.417670726776
83.026657104492 -77.919387817383 -75.612655639648 2.598525285721
-37.580043792725 -77.529373168945 -80.093093872070 2.472054004669
84.769363403320 -78.171028137207 -79.391181945801 1.873658895493
92.707237243652 -77.944869995117 -80.894653320313 1.804918408394
-66.100608825684 -70.149452209473 -94.035140991211 2.199398517609
73.345626831055 -78.778053283691 -93.371017456055 3.959894418716
79.250648498535 -77.963981628418 -96.780464172363 3.327524185181
92.239135742188 -80.184020996094 -94.035438537598 3.175827741623
53.972095489502 -78.809043884277 -97.550727844238 2.708971977234
-74.037567138672 -76.458847045898 -101.515869140625 1.700266361237
-75.805969238281 -71.350189208984 -101.534843444824 2.110261678696
48.248512268066 -79.214782714844 -104.577606201172 1.532948017120
-91.179283142090 -76.571388244629 -104.417953491211 2.489844560623
44.471088409424 -76.993156433105 -117.015251159668 1.654320836067
109.412353515625 -78.503601074219 -118.208923339844 2.477534532547
111.228622436523 -80.034683227539 -130.951858520508 4.466385364532
23.700605392456 -76.190124511719 -137.857360839844 2.448214769363
109.137443542480 -79.532005310059 -126.179092407227 3.433066129684
26.289154052734 -76.637893676758 -133.984436035156 2.941903829575
112.408607482910 -76.600967407227 -129.626358032227 1.814506053925
37.032871246338 -76.978523254395 -134.311798095703 0.977814018726
-54.017974853516 -76.284255981445 -142.710723876953 1.827973127365
34.183567047119 -77.794586181641 -142.685379028320 1.284345865250
108.327301025391 -77.538482666016 -136.551284790039 3.534400701523
-50.040508270264 -74.966270446777 -144.422485351563 2.532834291458
31.079828262329 -77.107437133789 -148.461914062500 1.922925353050
-57.258857727051 -72.822250366211 -139.934356689453 2.038573265076
-56.198211669922 -75.994354248047 -146.680160522461 0.815596401691
-52.187244415283 -76.873352050781 -149.768814086914 1.633678793907
-65.810432434082 -76.635452270508 -156.213516235352 0.435142785311
112.851371765137 -80.556312561035 -147.764801025391 3.291822910309
-51.370578765869 -78.061531066895 -155.378570556641 2.513390064240
21.021146774292 -79.060340881348 -155.082550048828 3.436182737350
108.153160095215 -79.190139770508 -158.312011718750 3.066624641418
-67.389343261719 -74.408309936523 -156.056274414063 1.696467995644
-47.284992218018 -76.257675170898 -156.355117797852 2.050292968750
7.464558124542 -74.720779418945 -154.684112548828 2.116921186447
-68.540634155273 -74.523406982422 -158.221328735352 1.738106131554
-63.165721893311 -75.987243652344 -160.583145141602 2.087891340256
-1.736127972603 -76.507072448730 -162.047775268555 2.040224552155
-43.182514190674 -74.313346862793 -167.356491088867 1.248158216476
29.312273025513 -75.514343261719 -165.065994262695 1.780143976212
-63.326774597168 -73.604637145996 -166.522201538086 1.383906245232
-57.917274475098 -75.903686523438 -167.864822387695 1.483716487885
17.043571472168 -77.996093750000 -160.580154418945 4.126185894012
-31.925140380859 -75.510543823242 -169.092147827148 1.812820076942
-30.842237472534 -77.363502502441 -167.066543579102 0.648546159267
15.369243621826 -77.255325317383 -174.423507690430 3.014878034592
-42.401062011719 -76.853553771973 -172.889724731445 2.128381729126
-12.538647651672 -76.374206542969 -172.719650268555 1.442723155022
-62.902729034424 -73.227653503418 -172.305145263672 2.599193334579
-6.888011932373 -74.293167114258 -172.029113769531 0.675664246082
-23.671457290649 -76.192115783691 -179.612442016602 0.790890812874
22.432558059692 -75.433303833008 -181.797424316406 1.545497894287
-39.947830200195 -75.612457275391 -172.126434326172 1.350507259369
18.251688003540 -74.722763061523 -177.232528686523 1.258402824402
-23.775112152100 -72.885574340820 -183.850540161133 1.821635723114
-33.275760650635 -76.741569519043 -180.494888305664 2.758662700653
-148.389526367188 -72.046485900879 -188.532775878906 1.755736947060
-21.580644607544 -77.639556884766 -185.358627319336 0.495149195194
-143.987136840820 -72.287406921387 -188.801193237305 2.193889617920
-152.039810180664 -72.215507507324 -187.494369506836 1.905469655991
-49.020282745361 -73.909133911133 -187.324783325195 1.428094267845
97.391563415527 -77.753616333008 -194.197357177734 4.089682102203
-145.593627929688 -73.419929504395 -192.492843627930 1.913398265839
-151.574157714844 -72.651832580566 -196.586807250977 2.544786930084
20.676519393921 -75.844772338867 -197.201858520508 2.119228363037
-137.476348876953 -72.297775268555 -197.578704833984 2.474520683289
16.195642471313 -74.601005554199 -198.284744262695 2.551897287369
-140.728500366211 -73.099334716797 -198.647201538086 1.780677914619
12.191229820251 -74.584327697754 -196.636062622070 1.297411561012
-135.363906860352 -71.090126037598 -199.553283691406 2.245223760605
5.921682834625 -75.022300720215 -205.174407958984 1.148448228836
-151.039398193359 -72.252845764160 -205.171112060547 0.910609245300
93.082527160645 -77.768974304199 -204.292739868164 0.916341602802
-16.428808212280 -77.063507080078 -204.290863037109 0.811300575733
-31.189760208130 -74.501502990723 -207.402236938477 1.763246417046
-11.445117950439 -74.150169372559 -205.511795043945 1.637507915497
-148.848846435547 -74.161941528320 -211.753677368164 1.609216928482
-36.291236877441 -75.070007324219 -205.039321899414 1.740752100945
-83.244697570801 -75.635513305664 -208.123565673828 3.332773447037
-27.664663314819 -76.170799255371 -209.360565185547 2.318395853043
16.318241119385 -76.217872619629 -210.665298461914 2.057384252548
-148.184402465820 -72.127090454102 -213.850433349609 1.659472465515
-91.295936584473 -74.106750488281 -216.059173583984 1.642054915428
-30.546848297119 -74.091987609863 -215.133331298828 1.751976251602
-26.988534927368 -74.238441467285 -218.980514526367 0.848663568497
-13.157581329346 -76.289695739746 -211.998825073242 2.110258340836
-28.287759780884 -74.543548583984 -211.008499145508 1.833329081535
-82.886497497559 -73.729881286621 -218.307312011719 2.025327682495
-88.359519958496 -76.040031433105 -218.473876953125 1.937609434128
-24.481647491455 -74.978454589844 -219.911483764648 1.271471381187
-2.987054109573 -78.484268188477 -222.479492187500 0.377645134926
-152.622192382813 -72.809555053711 -217.372009277344 1.127361655235
-3.252599954605 -76.943504333496 -219.314834594727 1.277288436890
84.640296936035 -79.257942199707 -224.489913940430 3.273596048355
-142.328369140625 -74.374000549316 -224.556930541992 1.437809348106
-8.560824394226 -76.376853942871 -222.835815429688 1.572400450706
-141.635696411133 -73.554107666016 -226.567962646484 2.170257568359
-148.029281616211 -79.184951782227 -226.750015258789 1.253901839256
-7.287852764130 -74.254844665527 -229.223999023438 2.516570329666
17.049583435059 -76.165779113770 -219.108886718750 0.863159656525
-141.119552612305 -71.663276672363 -229.624496459961 1.894513487816
-17.073694229126 -75.677574157715 -228.714477539063 1.831299901009
75.260925292969 -77.717468261719 -226.459991455078 3.599097490311
75.417129516602 -76.962776184082 -231.755096435547 2.063307523727
8.114263534546 -76.531631469727 -230.718322753906 2.172640323639
-30.071939468384 -76.197265625000 -237.165023803711 2.268039703369
-21.099578857422 -78.721862792969 -240.874023437500 0.714621841908
4.017002105713 -74.232368469238 -242.971405029297 1.561931967735
-48.255176544189 -72.347343444824 -242.396453857422 1.150709390640
-23.265316009521 -74.292724609375 -242.781845092773 1.619014978409
8.009089469910 -74.521553039551 -241.805358886719 1.512786984444
-64.182609558105 -74.207000732422 -245.406692504883 1.699844479561
-33.550430297852 -76.326545715332 -243.646957397461 0.594080269337
-42.223110198975 -72.921333312988 -245.093063354492 1.377956032753
-150.132492065430 -71.416114807129 -246.367538452148 1.871244311333
-47.060153961182 -76.009757995605 -247.419342041016 1.133860349655
-53.983673095703 -71.738868713379 -247.922271728516 1.936096072197
-67.243438720703 -74.066047668457 -250.077194213867 1.660181760788
-11.559864997864 -76.637649536133 -249.174606323242 1.748211264610
-81.146575927734 -73.750068664551 -253.441909790039 1.418996691704
-156.279861450195 -75.967407226563 -255.824707031250 2.451127529144
-142.222991943359 -72.621231079102 -255.861724853516 1.196026444435
-124.793601989746 -73.076889038086 -260.548309326172 1.259122014046
-155.912139892578 -69.006782531738 -262.337554931641 1.369084358215
19.681045532227 -78.640205383301 -264.136962890625 1.496063351631
-13.920033454895 -76.256317138672 -268.226623535156 1.980299353600
-152.751937866211 -73.837501525879 -272.572052001953 2.077230453491
-152.095367431641 -75.616630554199 -278.104034423828 1.987616181374
-145.406066894531 -75.186462402344 -285.176116943359 1.775233149529
-58.570079803467 -71.210433959961 -283.625732421875 2.326586008072
-39.062236785889 -72.240943908691 -286.013366699219 1.408818125725
-23.622203826904 -72.568359375000 -287.417999267578 1.857970476151
-12.039270401001 -73.402175903320 -283.807708740234 2.016693592072
-66.254196166992 -74.811813354492 -286.513427734375 2.241395950317
-80.351844787598 -74.208160400391 -286.781646728516 1.618770837784
-3.833226919174 -75.649749755859 -285.685760498047 1.777238130569
5.862698078156 -75.653526306152 -289.372222900391 2.012301921844
-137.714263916016 -71.195510864258 -289.029541015625 3.531371593475
-79.315307617188 -71.946327209473 -287.991607666016 2.227061510086
-147.920501708984 -71.445259094238 -288.522399902344 2.424118995667
-94.832252502441 -75.593818664551 -287.704132080078 2.163857698441
-79.012619018555 -72.790473937988 -288.158111572266 3.116639137268
-84.952079772949 -71.363197326660 -292.603332519531 1.702552199364
-61.495002746582 -73.147476196289 -290.992187500000 3.230978488922
-28.248798370361 -71.344650268555 -292.881500244141 3.028491973877
-5.885227203369 -74.357490539551 -291.438323974609 1.973513603210
-153.172195434570 -68.157638549805 -296.334533691406 1.224742531776
-151.243881225586 -70.652641296387 -300.409454345703 1.499733209610
-145.776733398438 -71.861396789551 -302.799835205078 1.970910429955
-156.351852416992 -71.215629577637 -306.656280517578 1.409923195839
-58.394145965576 -74.179725646973 -55.262046813965 2.253897666931
-47.608142852783 -74.542633056641 -53.000965118408 2.025041818619
-40.302707672119 -75.827789306641 -54.836563110352 2.947564601898
-77.522750854492 -75.934555053711 -60.053569793701 2.319538116455
-30.058134078979 -75.267265319824 -62.916931152344 3.523499250412
-33.157276153564 -75.663200378418 -79.235496520996 2.387148618698
73.995010375977 -79.810317993164 -80.587921142578 4.889949321747
74.152351379395 -79.203300476074 -80.567176818848 4.308931350708
73.033149719238 -77.747055053711 -83.495025634766 2.561196804047
96.390716552734 -76.938987731934 -89.317207336426 3.212728500366
70.375000000000 -79.283660888672 -89.037826538086 4.533881187439
50.390010833740 -78.332435607910 -91.138481140137 4.610306739807
47.845397949219 -80.534683227539 -99.650680541992 2.581018209457
-68.309417724609 -74.493331909180 -100.472282409668 2.223064661026
-73.674514770508 -69.268920898438 -101.726524353027 2.233807086945
43.833873748779 -78.111915588379 -102.921775817871 1.391517281532
-83.530235290527 -78.044937133789 -109.058876037598 2.576268196106
-94.497291564941 -72.700157165527 -111.810699462891 1.683504700661
49.795635223389 -76.969711303711 -106.151832580566 1.574980139732
106.377021789551 -77.606384277344 -111.346626281738 3.418628215790
31.428335189819 -78.370452880859 -121.438583374023 1.460334420204
43.602733612061 -77.766174316406 -118.403068542480 0.934656441212
40.624538421631 -77.257164001465 -124.464584350586 1.355561614037
28.639896392822 -77.671989440918 -123.958404541016 1.477747797966
107.815887451172 -78.328323364258 -118.994255065918 2.908719062805
38.286495208740 -77.993530273438 -129.062194824219 3.015410900116
30.565246582031 -74.490432739258 -130.794876098633 1.672636628151
-47.154277801514 -74.610855102539 -143.551788330078 2.061212301254
-72.683128356934 -75.229598999023 -145.002532958984 1.055653810501
-55.183647155762 -73.329330444336 -145.573715209961 2.286716222763
-73.103080749512 -75.626770019531 -146.055221557617 0.909820914268
-41.656967163086 -73.688423156738 -147.068359375000 1.177970886230
106.903266906738 -76.984222412109 -151.782638549805 3.538948535919
-72.851615905762 -75.084869384766 -155.414581298828 3.290550231934
22.846269607544 -77.896415710449 -148.152572631836 1.771888017654
30.586183547974 -77.935028076172 -151.603195190430 1.848413586617
112.509643554688 -79.564926147461 -159.522689819336 3.131725072861
8.119907379150 -76.670127868652 -158.980255126953 0.960973978043
30.968412399292 -75.241516113281 -154.999603271484 0.576156556606
-65.456932067871 -74.618698120117 -158.969223022461 1.296036005020
-43.598140716553 -75.554718017578 -170.056350708008 3.276171207428
18.703229904175 -74.909393310547 -162.934783935547 1.440408587456
-65.240013122559 -73.171211242676 -161.332611083984 1.176815748215
-69.762855529785 -74.401527404785 -165.185470581055 3.026490211487
108.799148559570 -78.834518432617 -165.400924682617 2.297381401062
-8.578598022461 -75.601242065430 -167.202484130859 2.301639795303
-63.933208465576 -73.847885131836 -174.910034179688 2.325288057327
-31.448221206665 -75.572036743164 -169.217758178711 1.680105686188
-56.104572296143 -73.214775085449 -173.053970336914 2.962560176849
27.736320495605 -76.013427734375 -170.647338867188 0.970781207085
109.455337524414 -76.762672424316 -172.152908325195 1.761865735054
101.683418273926 -77.306640625000 -182.881423950195 1.760248899460
105.486991882324 -77.860191345215 -188.605911254883 1.028794527054
106.187957763672 -76.565277099609 -176.795730590820 2.546653985977
-53.768497467041 -73.678184509277 -188.997390747070 2.372758865356
-51.184810638428 -72.253631591797 -182.508041381836 2.745404481888
25.231313705444 -76.584785461426 -182.755538940430 0.724427163601
-50.252204895020 -72.838851928711 -187.608825683594 1.682921051979
-21.224414825439 -75.571655273438 -184.242950439453 2.307736396790
-51.773124694824 -75.282958984375 -191.423950195313 1.480111122131
-151.573913574219 -71.792778015137 -193.280746459961 2.323400974274
100.519294738770 -78.130599975586 -192.475997924805 1.970252156258
-45.796314239502 -72.463066101074 -193.188491821289 2.452509164810
-16.509120941162 -76.176658630371 -197.654266357422 1.973887205124
-141.310073852539 -73.049148559570 -195.675140380859 0.566311180592
-45.084487915039 -72.543197631836 -196.813552856445 4.194696903229
101.704330444336 -77.299995422363 -196.729782104492 1.727000951767
105.563102722168 -76.656036376953 -185.383819580078 2.626331090927
-46.174201965332 -74.202262878418 -196.708007812500 3.091848850250
-24.601421356201 -78.228248596191 -196.978836059570 1.696391940117
-149.416198730469 -76.493804931641 -199.844970703125 1.929128766060
-25.950559616089 -75.584800720215 -197.421615600586 1.512681603432
-156.999191284180 -73.048042297363 -198.760940551758 3.284394502640
-153.773529052734 -76.160957336426 -203.567825317383 1.788397789001
-143.277114868164 -73.930534362793 -202.010452270508 2.779765605927
-39.296409606934 -74.735572814941 -198.978637695313 1.171721220016
99.904701232910 -77.549514770508 -200.090759277344 2.143394470215
-41.224712371826 -72.772621154785 -199.371078491211 2.201373577118
-144.749923706055 -75.167892456055 -205.175903320313 2.228893995285
-38.966464996338 -71.971343994141 -205.721405029297 1.382255196571
-20.882938385010 -77.493621826172 -209.663879394531 2.996193885803
95.632118225098 -78.048049926758 -204.234725952148 1.238839149475
90.987770080566 -77.404930114746 -211.742919921875 1.175915002823
-33.738063812256 -73.300270080566 -216.848953247070 3.008018970490
-87.911064147949 -73.857017517090 -211.470962524414 2.528853654861
-76.550491333008 -73.647926330566 -211.635925292969 1.684580087662
-19.181516647339 -74.809837341309 -215.655670166016 2.040971755981
-150.644058227539 -72.063148498535 -208.319992065430 1.951901078224
88.472885131836 -77.321952819824 -212.522216796875 1.131085634232
88.302246093750 -76.223373413086 -217.719924926758 2.480450153351
89.514358520508 -76.566864013672 -219.029159545898 0.959295630455
-102.840476989746 -72.132888793945 -221.203552246094 1.371011614799
-153.022750854492 -74.065353393555 -222.823486328125 1.193537116051
-20.691312789917 -73.928306579590 -221.621139526367 1.664638161659
78.605094909668 -75.258613586426 -224.603897094727 1.140904664993
-150.147125244141 -74.537467956543 -225.470916748047 2.981740474701
-28.257287979126 -75.187683105469 -219.753112792969 2.513492822647
-133.849151611328 -70.996711730957 -230.469207763672 2.019464492798
-13.084588050842 -76.526000976563 -228.757720947266 2.394434213638
16.776212692261 -75.064270019531 -223.910476684570 1.394147753716
18.515563964844 -76.085601806641 -231.903335571289 1.148736238480
-155.297332763672 -74.652626037598 -233.805770874023 3.007806539536
-126.277664184570 -69.830795288086 -232.893508911133 2.335922002792
-8.992044448853 -73.832122802734 -234.650543212891 1.874264359474
-0.821013987064 -74.333961486816 -236.561721801758 0.897418200970
68.393798828125 -76.029273986816 -233.330245971680 1.816774964333
70.650573730469 -74.410194396973 -236.628662109375 2.266463518143
-1.267464995384 -74.128059387207 -239.911636352539 1.473994970322
15.835867881775 -72.601615905762 -239.047485351563 1.589271545410
-30.236978530884 -70.283378601074 -239.804794311523 4.879212856293
-35.331680297852 -77.208412170410 -240.799804687500 1.823300600052
-46.554832458496 -72.907699584961 -240.096374511719 1.568462133408
-39.316471099854 -72.328567504883 -241.342224121094 2.772946119308
-18.928546905518 -75.441543579102 -242.290771484375 1.892204046249
-53.544593811035 -72.282531738281 -243.391052246094 2.089529037476
1.119022965431 -74.748130798340 -244.596618652344 1.445495128632
-68.856544494629 -72.790107727051 -244.869903564453 1.537628889084
19.383260726929 -75.429206848145 -246.591064453125 0.517691254616
-146.016296386719 -73.392044067383 -245.968063354492 3.256982564926
-73.278274536133 -74.894012451172 -250.441665649414 0.921437382698
13.793416023254 -76.707290649414 -248.257568359375 1.675671815872
-162.248550415039 -70.244514465332 -249.796813964844 1.805431127548
15.384325981140 -77.283020019531 -251.773086547852 2.211440563202
-80.468215942383 -70.749092102051 -250.621322631836 1.719230413437
-75.636009216309 -73.630981445313 -251.027008056641 1.743531942368
19.482751846313 -75.914947509766 -255.095199584961 1.389006853104
-89.781623840332 -71.973854064941 -252.989135742188 1.103610515594
-126.380668640137 -70.207038879395 -255.643539428711 3.032199859619
-135.061386108398 -72.613357543945 -259.143096923828 2.140128612518
-135.208114624023 -73.187812805176 -256.319580078125 1.566242575645
-148.030410766602 -70.975891113281 -260.731018066406 1.857139587402
-144.040115356445 -69.935173034668 -256.985076904297 1.148545026779
-135.996841430664 -70.120117187500 -261.950103759766 1.608846783638
-162.381439208984 -69.279701232910 -261.331146240234 1.233972787857
-127.154388427734 -70.262207031250 -265.675079345703 1.018673300743
-135.436065673828 -69.563819885254 -262.560791015625 0.659676134586
-165.241912841797 -68.966178894043 -266.043273925781 2.112032890320
-158.165008544922 -69.089141845703 -264.164642333984 1.255120873451
-150.868057250977 -69.838714599609 -265.656463623047 1.827407956123
-148.353790283203 -71.207427978516 -265.870300292969 3.028321504593
15.532909393311 -76.934562683105 -277.813751220703 1.190012454987
-166.689788818359 -70.345214843750 -268.218414306641 2.160412073135
-152.940643310547 -71.014533996582 -273.747039794922 1.189166307449
-7.085472106934 -79.914039611816 -272.993835449219 1.122575759888
-159.389724731445 -69.335456848145 -271.282135009766 1.757764816284
11.481774330139 -77.914031982422 -280.626800537109 1.577300310135
-152.737564086914 -70.503715515137 -282.369140625000 1.818456411362
-164.333053588867 -70.860862731934 -287.536712646484 2.228574514389
-155.311996459961 -71.584388732910 -282.000457763672 2.489878416061
-166.183135986328 -69.504257202148 -287.222473144531 1.415744185448
1.071882963181 -75.643028259277 -287.248046875000 0.915285587311
6.515223979950 -77.567291259766 -283.521606445313 1.523043155670
-100.754997253418 -70.798324584961 -289.721832275391 1.997953772545
-153.371536254883 -72.917160034180 -287.946166992188 3.190994501114
-149.179199218750 -69.553283691406 -286.698516845703 1.819661617279
-108.896499633789 -70.797744750977 -289.965667724609 2.406068086624
-152.350616455078 -71.688201904297 -291.419433593750 3.072562932968
-149.340347290039 -72.180122375488 -290.062805175781 2.121393918991
-71.132499694824 -73.681274414063 -291.867340087891 1.897080659866
-165.226058959961 -71.394607543945 -290.176452636719 2.100060462952
-124.195137023926 -69.413581848145 -291.489776611328 0.643018364906
-44.191764831543 -75.267105102539 -289.008972167969 2.058361530304
-155.389877319336 -70.381851196289 -289.284362792969 0.730839192867
-134.909118652344 -67.798507690430 -293.483489990234 2.233848571777
-18.471284866333 -72.070899963379 -292.845397949219 2.139127254486
-128.063949584961 -69.667037963867 -293.788208007813 1.290806770325
4.779272079468 -74.674392700195 -293.459594726563 1.474765181541
14.726306915283 -73.016601562500 -292.119049072266 1.818235993385
-134.471679687500 -69.665534973145 -292.509429931641 1.278094887733
-146.551742553711 -71.374992370605 -296.520294189453 1.276523232460
-156.807357788086 -71.014556884766 -313.233764648438 1.817418575287
-73.649894714355 -70.885505676270 -52.094661712646 1.608611226082
-23.859285354614 -71.712486267090 -62.297714233398 3.125427961349
-22.127216339111 -76.278854370117 -64.864624023438 1.665265321732
72.148544311523 -75.773246765137 -75.349899291992 1.942235350609
90.056671142578 -77.639938354492 -74.910575866699 3.095657587051
-38.806053161621 -74.132141113281 -78.220436096191 0.765873551369
73.410995483398 -76.995445251465 -77.981163024902 2.434673070908
87.662338256836 -80.251167297363 -81.076126098633 3.807413816452
67.634178161621 -76.733512878418 -82.354026794434 4.139449119568
70.970649719238 -76.790824890137 -86.900131225586 2.357505798340
-50.942634582520 -76.124572753906 -87.012336730957 1.611176371574
-93.188110351563 -74.958084106445 -87.801414489746 3.117276191711
56.974319458008 -77.733543395996 -93.152832031250 4.029471397400
48.588081359863 -77.202682495117 -97.726692199707 2.309896707535
93.027458190918 -76.191703796387 -97.028732299805 2.129252433777
-94.291633605957 -70.592430114746 -101.910095214844 3.480379343033
81.739990234375 -75.662750244141 -97.744972229004 1.104911565781
72.589492797852 -77.082519531250 -98.537643432617 3.163829326630
90.588066101074 -78.218292236328 -97.691902160645 3.723955869675
81.573051452637 -76.424003601074 -98.223068237305 1.647656440735
83.091308593750 -79.417282104492 -97.544670104980 3.634171009064
-84.770294189453 -74.950477600098 -102.401084899902 4.676725387573
40.196609497070 -75.885902404785 -107.451217651367 1.894976377487
104.527648925781 -77.992477416992 -109.967407226563 3.734018802643
107.556884765625 -77.793807983398 -110.036582946777 3.455600738525
45.804008483887 -77.631507873535 -117.255432128906 1.264115810394
108.646018981934 -78.652587890625 -121.249839782715 3.439772605896
114.941101074219 -79.213188171387 -134.034942626953 2.626392126083
-53.070014953613 -72.596641540527 -132.456298828125 1.126056790352
25.928211212158 -75.184364318848 -133.865417480469 2.811030626297
39.095367431641 -77.273803710938 -133.016143798828 1.989199519157
24.336175918579 -73.233207702637 -142.816696166992 0.929017126560
111.882362365723 -78.738723754883 -138.523864746094 2.728351116180
110.773849487305 -77.546684265137 -132.083145141602 2.678336143494
-74.744621276855 -73.335212707520 -148.339950561523 2.145749568939
-45.313808441162 -73.616828918457 -144.331283569336 1.512548089027
-72.225967407227 -71.772491455078 -150.618835449219 0.703694045544
19.294359207153 -74.520904541016 -150.361694335938 3.125955581665
111.720054626465 -76.099815368652 -149.609558105469 1.901071548462
-54.455032348633 -74.249977111816 -150.215988159180 0.633639693260
-71.651725769043 -71.920852661133 -150.335586547852 0.847064495087
-39.862991333008 -76.645988464355 -153.132232666016 1.718501925468
31.747491836548 -71.903190612793 -152.400390625000 2.256253480911
109.728019714355 -75.462722778320 -151.059356689453 1.404725432396
113.368934631348 -76.397758483887 -159.108169555664 2.024053812027
-69.258460998535 -70.704551696777 -154.542221069336 0.764084756374
-72.306884765625 -73.874336242676 -161.883666992188 3.467668533325
20.501070022583 -77.180320739746 -162.917297363281 1.584326148033
-60.966644287109 -71.692146301270 -166.772323608398 1.478260874748
-34.065391540527 -73.337165832520 -161.812683105469 2.369424581528
6.340034008026 -75.383819580078 -162.826141357422 1.106529235840
108.581687927246 -76.005264282227 -161.218566894531 1.992450594902
5.391574859619 -76.425003051758 -165.867034912109 1.805862069130
-34.153247833252 -74.160301208496 -165.492919921875 0.727214336395
-1.975831031799 -72.193817138672 -166.225479125977 2.058703422546
107.183364868164 -75.155807495117 -168.309524536133 1.748772740364
-42.154441833496 -71.389015197754 -166.816390991211 1.292083859444
27.488338470459 -72.708236694336 -171.102279663086 2.315890073776
110.982192993164 -78.422332763672 -171.901031494141 2.678328990936
-58.259525299072 -70.950317382813 -176.616027832031 2.572345018387
-29.465780258179 -75.350379943848 -173.980117797852 2.058079481125
102.789596557617 -76.401687622070 -173.399246215820 3.800181865692
27.957708358765 -73.976737976074 -170.591384887695 1.255511403084
108.472892761230 -78.451599121094 -174.203903198242 3.322774887085
-37.889560699463 -71.696342468262 -177.455627441406 2.106561660767
106.474777221680 -78.002037048340 -180.091690063477 1.979324817657
-61.950744628906 -71.665565490723 -177.735687255859 3.677782535553
-26.408323287964 -76.669815063477 -179.513183593750 2.073121786118
-146.628280639648 -68.140693664551 -183.461502075195 1.978930830956
-55.203884124756 -72.450325012207 -181.898544311523 1.401421070099
-147.866226196289 -71.225234985352 -187.000167846680 2.111602306366
-34.404712677002 -72.002944946289 -186.021591186523 1.273373484612
24.443931579590 -76.967048645020 -183.444976806641 0.876089990139
105.931121826172 -76.818397521973 -182.615905761719 0.420637995005
-33.481010437012 -74.354423522949 -185.121994018555 0.965317249298
10.372345924377 -75.094154357910 -190.537307739258 1.548874020576
17.176803588867 -74.200668334961 -202.125686645508 1.386175155640
-148.362106323242 -71.487564086914 -191.340682983398 1.807062745094
103.163375854492 -77.473236083984 -194.820251464844 1.012378096581
-20.885272979736 -71.576850891113 -193.340072631836 2.020208358765
100.866493225098 -76.832267761230 -188.503540039063 2.387677192688
12.600419998169 -72.874366760254 -188.638732910156 1.429145932198
-135.734680175781 -70.660140991211 -202.878067016602 2.345764636993
-140.361236572266 -71.113693237305 -200.685333251953 1.521992087364
98.073783874512 -77.589126586914 -200.724990844727 0.948326289654
-12.896718025208 -76.648971557617 -200.703750610352 1.638037562370
-16.624483108521 -74.815399169922 -202.067474365234 2.245296239853
9.156158447266 -75.691062927246 -207.154693603516 1.760120272636
-150.836700439453 -68.712112426758 -206.229003906250 1.861396551132
-146.911544799805 -72.049652099609 -207.679656982422 1.637912988663
98.635482788086 -73.721633911133 -203.479843139648 1.618843913078
-81.413124084473 -71.732810974121 -208.848983764648 2.183082818985
-37.397747039795 -73.343414306641 -202.430053710938 1.504058599472
17.137468338013 -76.020866394043 -212.046066284180 1.924021601677
-26.404729843140 -73.748443603516 -211.316558837891 1.498397231102
-78.302917480469 -71.060829162598 -209.446823120117 2.101244211197
90.172042846680 -75.951927185059 -209.709915161133 2.511493206024
-81.949554443359 -70.383972167969 -212.742141723633 3.101760625839
-147.695541381836 -71.353530883789 -218.790298461914 1.561388850212
-80.498718261719 -71.455612182617 -213.952804565430 2.338078737259
-14.968365669250 -70.447418212891 -211.295639038086 1.615529537201
-21.508152008057 -71.584060668945 -218.127838134766 1.391981124878
17.789400100708 -73.813621520996 -212.276245117188 0.866863489151
-6.491581916809 -74.891334533691 -217.879776000977 2.055254459381
-88.949790954590 -73.207099914551 -218.898254394531 1.258529782295
91.556381225586 -75.401893615723 -213.063629150391 1.180688142776
-98.068756103516 -71.371551513672 -216.142608642578 1.343064427376
-151.932296752930 -70.604240417480 -223.856582641602 1.508986115456
-23.517139434814 -72.321250915527 -223.095458984375 1.043197274208
16.226997375488 -74.261344909668 -216.089645385742 1.223653674126
-102.657974243164 -71.301544189453 -220.326766967773 0.749389469624
6.707865238190 -72.409523010254 -219.593566894531 2.442433118820
-25.499109268188 -73.561462402344 -216.247482299805 2.280997753143
82.410255432129 -74.640556335449 -223.393447875977 1.286710977554
-146.553619384766 -70.589126586914 -220.825622558594 2.247339010239
7.205473899841 -72.444488525391 -225.617568969727 1.894881129265
-10.296978950500 -75.889190673828 -224.309234619141 0.995248377323
16.674741744995 -70.156097412109 -221.677612304688 0.956279814243
82.638633728027 -76.087829589844 -221.608428955078 0.669090986252
-13.823528289795 -74.614181518555 -228.069168090820 1.260270476341
-131.350021362305 -71.315124511719 -226.719329833984 1.676677107811
-13.891794204712 -73.993988037109 -224.614624023438 1.579302549362
16.031103134155 -74.954650878906 -232.152755737305 1.492040514946
-126.811203002930 -72.236839294434 -227.782760620117 0.635738909245
-151.120956420898 -67.790946960449 -229.116744995117 2.339766979218
-142.641265869141 -69.750938415527 -229.235321044922 3.564217567444
-133.088592529297 -69.414764404297 -229.290817260742 3.276345014572
-14.926230430603 -72.321853637695 -225.851272583008 2.353509187698
71.051605224609 -74.987937927246 -228.480255126953 2.465188741684
-143.206222534180 -68.072456359863 -234.808395385742 1.805303812027
71.354522705078 -76.438865661621 -228.759307861328 3.102229118347
-20.792676925659 -75.700683593750 -228.659622192383 2.237538576126
-142.866943359375 -73.790725708008 -230.584243774414 1.625603437424
76.983764648438 -77.966743469238 -228.248657226563 2.610150098801
8.604181289673 -76.565803527832 -234.277740478516 0.972526252270
-143.347076416016 -74.594520568848 -235.242233276367 0.915682673454
-151.041824340820 -69.375022888184 -234.864471435547 1.247839570045
15.619593620300 -71.797836303711 -231.820999145508 1.798159718513
-3.611879110336 -74.856132507324 -236.710906982422 2.858836412430
-27.215785980225 -72.816841125488 -237.470352172852 1.715524792671
-2.383462905884 -70.488876342773 -238.343093872070 1.606214880943
-161.656173706055 -71.057258605957 -238.166656494141 2.464807271957
8.560928344727 -73.537742614746 -243.947296142578 0.827988862991
-165.356994628906 -69.837043762207 -238.012634277344 1.960071682930
-14.105931282043 -74.368598937988 -237.801040649414 1.390377402306
62.462200164795 -75.598152160645 -238.900787353516 2.194287538528
-13.518495559692 -72.859939575195 -239.054199218750 0.707296550274
-25.511941909790 -71.980644226074 -242.576828002930 1.966008663177
-26.115522384644 -72.477035522461 -241.812438964844 1.860268235207
-14.844654083252 -74.122619628906 -241.402694702148 2.023634433746
-147.000183105469 -70.251281738281 -233.216552734375 3.415406227112
7.512375831604 -73.440299987793 -242.766281127930 0.139597401023
63.601585388184 -74.434402465820 -242.673751831055 1.496273040771
