79.725097656250 -73.832992553711 -159.306182861328 27.994298934937
45.863723754883 -64.839981079102 -8.812698364258 6.300188541412
35.489471435547 -60.912727355957 -5.801818847656 5.015359401703
48.295349121094 -66.296386718750 -26.120452880859 3.661093473434
39.292419433594 -61.878959655762 2.851394653320 14.238510131836
96.474700927734 -71.993041992188 -175.378906250000 8.993553161621
60.513092041016 -67.688987731934 -63.153610229492 8.616286277771
63.255920410156 -78.222549438477 -77.514739990234 8.893647193909
39.270050048828 -70.110160827637 -0.224624633789 10.843729972839
57.841598510742 -61.173606872559 -74.672164916992 4.977607727051
48.335678100586 -65.085289001465 -10.534347534180 4.294724464417
79.435272216797 -68.573646545410 -83.649719238281 6.863580703735
71.209014892578 -72.319107055664 -91.095504760742 2.416578769684
71.639312744141 -67.944046020508 -79.970489501953 4.231115818024
89.437927246094 -77.236206054688 -158.226104736328 18.597745895386
63.689727783203 -70.241333007813 -74.035858154297 4.533208370209
65.217620849609 -66.586669921875 -65.726760864258 4.156387329102
62.246612548828 -68.478172302246 -45.305770874023 14.582783699036
62.901458740234 -73.918060302734 -47.766006469727 16.482826232910
55.913085937500 -66.717170715332 -32.104019165039 7.259621143341
63.184356689453 -68.304023742676 -21.653991699219 13.418686866760
73.674377441406 -66.101478576660 -15.914733886719 24.494375228882
-165.386779785156 -76.146430969238 -261.781463623047 2.675709247589
-161.140258789063 -73.001342773438 -270.649383544922 2.268587589264
-159.939758300781 -68.795471191406 -266.602966308594 1.951565742493
-154.773895263672 -77.535766601563 -280.326538085938 3.868297338486
-148.524047851563 -72.954605102539 -255.894989013672 2.339009761810
-162.001617431641 -67.865562438965 -158.045043945313 19.521522521973
-96.242248535156 -83.136840820313 -309.237731933594 18.440706253052
-127.338012695313 -75.031036376953 -204.514862060547 3.873835802078
-84.938835144043 -77.654136657715 -322.625671386719 30.969646453857
-86.550117492676 -71.689025878906 -310.865570068359 18.203521728516
-90.384559631348 -74.796951293945 -285.776031494141 2.297878742218
-86.302429199219 -70.505256652832 -289.977966308594 1.608126521111
-119.349197387695 -64.792739868164 -177.667709350586 8.256625175476
-90.989334106445 -68.262390136719 -278.336578369141 9.941159248352
-125.730255126953 -66.130424499512 -128.561828613281 28.494249343872
-118.158836364746 -72.264488220215 -174.202178955078 8.920313835144
-120.708221435547 -61.265296936035 -165.304626464844 11.987783432007
-61.050827026367 -69.345321655273 -314.336700439453 23.093059539795
-82.376632690430 -70.990997314453 -275.845733642578 9.597947120667
-79.328727722168 -76.601280212402 -282.495849609375 3.713771581650
-118.611480712891 -75.109466552734 -124.924224853516 23.049066543579
-68.617233276367 -75.429962158203 -321.248413085938 27.944681167603
-78.481101989746 -76.529533386230 -254.621719360352 1.678112864494
-62.245574951172 -78.441574096680 -313.535736083984 22.109792709351
-53.112716674805 -82.305984497070 -315.640777587891 25.225692749023
-58.563644409180 -77.397285461426 -309.237731933594 18.427820205688
-70.187347412109 -71.489845275879 -286.768035888672 2.439916133881
-56.815124511719 -74.289703369141 -295.563568115234 4.684487819672
-64.736038208008 -77.345191955566 -259.976867675781 9.107494354248
-57.209594726563 -83.972778320313 -319.948089599609 29.959718704224
-72.217720031738 -69.356826782227 -260.251861572266 6.431921482086
-76.899406433105 -76.079589843750 -249.907272338867 2.018188238144
-47.410903930664 -77.578575134277 -320.880310058594 30.274995803833
-103.526336669922 -73.204421997070 -137.312042236328 11.107090950012
-64.711151123047 -76.718292236328 -254.530014038086 3.730604410172
-64.414825439453 -70.236740112305 -241.346664428711 2.884422302246
-49.385696411133 -81.633956909180 -313.374694824219 23.340251922607
-68.296340942383 -77.801651000977 -246.252471923828 2.116541862488
-104.073974609375 -67.655296325684 -128.740783691406 10.036814689636
-102.903198242188 -72.504592895508 -119.576881408691 7.752303123474
-41.425872802734 -71.325820922852 -306.263183593750 14.976601600647
-98.040809631348 -66.796104431152 -118.484153747559 2.125532150269
-58.351959228516 -69.836196899414 -247.276062011719 3.073268413544
-56.755767822266 -74.204666137695 -243.027587890625 2.480892658234
-90.964668273926 -67.853439331055 -125.938056945801 2.963753223419
-47.897659301758 -77.177818298340 -237.535324096680 3.680360794067
-27.683776855469 -77.590682983398 -314.177703857422 21.732923507690
-66.590927124023 -70.040267944336 -152.340057373047 1.814453125000
-81.820602416992 -70.233131408691 -121.064201354980 2.574966907501
-49.999206542969 -69.007537841797 -243.582580566406 3.806391716003
-78.492576599121 -74.453460693359 -121.964080810547 4.834025382996
-74.334510803223 -63.991661071777 -119.284439086914 2.568464994431
-69.237854003906 -70.243942260742 -156.327728271484 2.408482551575
-72.721931457520 -72.496665954590 -135.545776367188 3.478964090347
-73.203025817871 -70.755653381348 -157.184539794922 1.749874830246
-21.813018798828 -83.707450866699 -317.522064208984 25.882411956787
-77.408264160156 -66.133987426758 -137.241149902344 1.821570992470
-49.863876342773 -73.267333984375 -242.837615966797 1.430791020393
-71.876396179199 -71.640457153320 -127.772644042969 3.495506048203
-76.127815246582 -68.504402160645 -136.131668090820 1.414651632309
-75.171302795410 -70.701034545898 -111.338439941406 2.301953315735
-62.400772094727 -75.075477600098 -148.378906250000 4.548046112061
-36.719329833984 -81.486175537109 -231.746246337891 7.952865600586
-35.268386840820 -76.491554260254 -227.070190429688 7.931662082672
-41.273513793945 -82.082473754883 -221.810028076172 12.463725090027
-13.827926635742 -80.292663574219 -309.371643066406 17.332813262939
-65.887710571289 -70.623962402344 -113.985633850098 5.772459030151
-36.467224121094 -72.278228759766 -209.762115478516 3.282311916351
-56.279968261719 -70.361129760742 -130.522735595703 1.373339533806
-36.104415893555 -76.885589599609 -223.816207885742 7.799269676208
-50.404647827148 -72.495346069336 -151.693389892578 1.773157954216
-34.829101562500 -75.903770446777 -208.982391357422 1.872223854065
-27.430572509766 -70.617492675781 -215.096923828125 3.597014904022
-23.400985717773 -67.627212524414 -213.129730224609 5.529022693634
-42.658248901367 -67.541862487793 -147.289672851563 1.722554087639
-46.940414428711 -73.610214233398 -162.321136474609 1.196578621864
-42.722885131836 -69.479705810547 -151.221801757813 2.314147949219
-47.917541503906 -66.952194213867 -95.391632080078 8.323292732239
-11.048095703125 -72.767578125000 -214.663970947266 2.756792306900
-22.976226806641 -71.867294311523 -160.664978027344 7.278586864471
-9.783477783203 -68.386749267578 -207.898941040039 2.667832136154
-56.117218017578 -67.277214050293 -57.243362426758 7.116988182068
-29.083709716797 -77.031204223633 -164.238311767578 1.603896617889
-57.901229858398 -56.408287048340 -42.608489990234 0.806391060352
-4.429031372070 -83.330848693848 -215.703536987305 3.137145996094
-32.150970458984 -69.375495910645 -161.988555908203 3.302710294724
-47.502838134766 -71.709243774414 -91.412094116211 4.952796936035
-37.976043701172 -60.609207153320 -88.869430541992 9.344838142395
-15.860763549805 -80.077255249023 -160.500000000000 9.189850807190
-17.951049804688 -66.054397583008 -168.578460693359 9.078162193298
-0.946685791016 -76.446105957031 -200.877120971680 6.884646892548
10.325881958008 -79.798233032227 -201.345016479492 2.151494741440
-1.706420898438 -74.081100463867 -202.484146118164 6.363596916199
-46.483840942383 -69.372543334961 -53.715560913086 2.994001388550
3.375656127930 -81.677345275879 -213.374542236328 5.096574306488
4.712921142578 -76.057846069336 -192.085998535156 6.444440364838
-37.984680175781 -69.476051330566 -59.900665283203 4.076730251312
-29.496444702148 -69.181320190430 -80.506622314453 3.892642259598
15.336273193359 -78.416168212891 -199.375045776367 1.817032694817
-30.053665161133 -70.482460021973 -72.616165161133 2.500830888748
-31.022903442383 -77.554840087891 -85.104461669922 4.917676925659
-37.998382568359 -63.617828369141 -25.471328735352 19.192064285278
-0.592407226563 -75.715240478516 -163.038146972656 1.584425210953
8.562011718750 -77.876632690430 -195.982009887695 3.894388198853
-30.191390991211 -65.646965026855 -45.488601684570 3.111659765244
-24.762512207031 -62.463394165039 -51.720474243164 1.776253104210
7.945281982422 -76.556922912598 -162.465240478516 2.786552906036
8.515899658203 -73.226303100586 -172.802276611328 8.352234840393
8.407745361328 -72.217987060547 -172.187988281250 8.048020362854
-29.908996582031 -60.833099365234 -54.252120971680 4.218345165253
13.868652343750 -74.629562377930 -165.867202758789 4.332649707794
18.533752441406 -67.161697387695 -174.618652343750 0.432845652103
22.360336303711 -80.574523925781 -200.627105712891 4.637158870697
13.146514892578 -67.096389770508 -166.158050537109 6.125226974487
17.727371215820 -73.674667358398 -193.946166992188 2.142842531204
17.738037109375 -72.305038452148 -171.365661621094 2.119948863983
10.437988281250 -78.661071777344 -159.545791625977 2.160860538483
29.696731567383 -67.118400573730 -191.887512207031 6.164690971375
24.070129394531 -67.096733093262 -178.797866821289 1.258641481400
28.668807983398 -81.618545532227 -191.191146850586 5.691784858704
32.629974365234 -70.767089843750 -172.021347045898 3.865940570831
-12.176223754883 -64.207260131836 -24.304748535156 25.611145019531
47.696685791016 -75.621765136719 -258.281372070313 7.246410369873
-8.916488647461 -70.861503601074 -49.304016113281 9.813526153564
-10.871612548828 -63.955368041992 -50.861007690430 4.839343547821
28.396850585938 -73.705322265625 -171.984161376953 2.847227811813
42.714279174805 -76.497558593750 -181.761016845703 14.521083831787
-6.991104125977 -66.490211486816 -25.035781860352 24.685970306396
50.917602539063 -82.613136291504 -267.168701171875 18.753158569336
31.788818359375 -77.178543090820 -177.583068847656 5.174527645111
26.462463378906 -74.544601440430 -181.460525512695 1.831563830376
57.770233154297 -75.075294494629 -248.619277954102 4.381581783295
41.899185180664 -79.488609313965 -175.887496948242 11.082589149475
25.758972167969 -72.797828674316 -167.033416748047 1.900939822197
2.857681274414 -72.886619567871 -53.996383666992 15.558661460876
41.807434082031 -75.721015930176 -170.036132812500 9.186397552490
35.342620849609 -78.761947631836 -180.482986450195 8.557662010193
61.237640380859 -83.340965270996 -239.008148193359 7.581579208374
-2.026535034180 -62.973335266113 -24.741088867188 19.675949096680
46.656494140625 -77.534774780273 -160.195892333984 11.978374481201
-3.281906127930 -61.639427185059 -11.747970581055 25.456647872925
48.762725830078 -82.721389770508 -184.948471069336 22.292833328247
-1.662002563477 -63.650520324707 -19.227249145508 20.489139556885
7.830108642578 -63.625000000000 -19.978897094727 11.623193740845
65.763458251953 -77.959335327148 -230.014389038086 4.871268749237
63.650085449219 -75.852645874023 -232.695480346680 5.207964420319
66.443267822266 -77.343978881836 -226.356994628906 6.385340213776
68.358032226563 -78.567176818848 -221.563095092773 10.478222846985
5.037322998047 -64.486259460449 -28.777572631836 12.753623962402
6.938659667969 -71.728736877441 -23.469299316406 13.335218429565
50.777313232422 -68.754615783691 -161.052719116211 16.688854217529
10.442367553711 -67.935874938965 -28.606430053711 8.367377281189
60.257080078125 -76.689987182617 -188.676208496094 32.594772338867
8.525009155273 -57.634620666504 -7.371520996094 14.873576164246
8.454788208008 -68.201568603516 -9.229980468750 15.999278068542
28.321090698242 -67.880096435547 -94.582443237305 15.604907989502
13.735687255859 -67.382354736328 -5.915649414063 15.135581970215
39.299728393555 -71.246788024902 -88.212448120117 8.800002098083
70.101593017578 -79.743309020996 -212.473861694336 13.479446411133
67.913177490234 -73.220748901367 -190.907745361328 27.029983520508
24.079315185547 -65.002929687500 -17.215835571289 2.290058374405
35.777313232422 -79.333282470703 -71.638656616211 22.970130920410
69.708221435547 -78.725143432617 -209.480651855469 14.695427894592
32.480209350586 -58.640052795410 -66.903274536133 24.315666198730
27.543685913086 -70.929962158203 -20.378723144531 1.895498275757
31.469192504883 -70.799575805664 -71.348266601563 24.353584289551
16.353561401367 -61.807212829590 -6.714920043945 10.101317405701
36.760070800781 -68.487258911133 -59.638610839844 16.250152587891
27.769104003906 -64.023605346680 -20.205490112305 2.420353412628
21.860504150391 -70.751754760742 -15.212478637695 4.371562480927
21.790252685547 -67.595809936523 -9.466003417969 7.717667102814
20.101425170898 -68.503387451172 -9.471694946289 9.219727516174
21.801895141602 -66.191154479980 -9.224105834961 7.067376136780
15.634033203125 -64.797683715820 -6.740844726563 12.056155204773
77.233795166016 -76.013534545898 -193.804443359375 17.784362792969
25.524734497070 -60.841583251953 -27.815124511719 1.708405971527
46.465499877930 -67.546066284180 -16.002746582031 0.932486653328
86.898529052734 -78.415344238281 -193.311431884766 11.239465713501
74.826293945313 -71.504547119141 -153.239349365234 33.128765106201
53.265945434570 -72.744094848633 -42.235855102539 6.536838531494
51.805267333984 -68.570213317871 -30.954925537109 3.727875709534
55.845413208008 -69.364852905273 -33.129379272461 5.732767105103
53.132141113281 -68.863975524902 -38.615615844727 4.292966842651
64.443298339844 -71.792755126953 -52.278381347656 13.136211395264
57.627853393555 -76.147659301758 -63.186096191406 15.219049453735
100.895477294922 -72.207260131836 -166.183639526367 6.027439117432
70.736785888672 -70.021041870117 -80.076599121094 2.426727533340
47.545227050781 -67.151435852051 -19.666717529297 1.616473793983
65.616760253906 -69.199562072754 -62.055099487305 5.440512180328
58.260955810547 -71.887512207031 -31.481994628906 8.080290794373
93.131164550781 -74.703094482422 -171.643890380859 12.212726593018
58.365036010742 -79.226074218750 -55.509063720703 18.960100173950
98.439361572266 -76.478469848633 -164.574569702148 8.954595565796
48.933319091797 -68.467208862305 -24.706146240234 2.970520496368
55.256271362305 -67.862762451172 -13.641845703125 8.243001937866
75.095520019531 -69.626785278320 0.592071533203 31.623987197876
69.328674316406 -70.893676757813 -4.994171142578 24.414482116699
-148.338851928711 -70.009788513184 -279.972106933594 2.922268390656
-141.864929199219 -73.980972290039 -256.648010253906 1.342584013939
-142.506164550781 -72.260696411133 -259.576477050781 2.952763080597
-151.459747314453 -65.674087524414 -190.411758422852 2.771388292313
-127.386642456055 -75.008232116699 -215.169830322266 8.983751296997
-93.774322509766 -77.173995971680 -315.045410156250 23.225576400757
-100.854789733887 -83.564300537109 -288.510070800781 8.083810806274
-121.460128784180 -72.677612304688 -197.067367553711 1.434113740921
-127.799385070801 -61.725715637207 -120.721817016602 28.773954391479
-114.216049194336 -71.047485351563 -177.234146118164 5.596239566803
-93.060714721680 -76.080772399902 -274.813537597656 12.099720001221
-85.943046569824 -72.208000183105 -282.509002685547 4.154376983643
-87.044860839844 -79.148414611816 -266.502197265625 11.026150703430
-114.657836914063 -70.567962646484 -159.855804443359 9.399639129639
-81.062362670898 -82.965835571289 -282.338165283203 7.486485481262
-78.359405517578 -70.255805969238 -255.890182495117 1.735783815384
-74.347259521484 -73.419670104980 -282.845977783203 2.672290086746
-109.092330932617 -71.852066040039 -158.203002929688 7.185168743134
-83.435852050781 -73.547233581543 -266.893615722656 10.020693778992
-77.996337890625 -72.110061645508 -260.615447998047 4.548165798187
-57.344955444336 -83.917800903320 -312.286712646484 22.800886154175
-109.284797668457 -69.575653076172 -153.343658447266 8.371668815613
-58.583786010742 -80.206481933594 -322.159454345703 31.405048370361
-109.402557373047 -63.979026794434 -138.502716064453 12.682371139526
-67.132598876953 -72.734359741211 -263.791351318359 10.957755088806
-74.479202270508 -77.799911499023 -260.324493408203 6.782923221588
-60.000030517578 -83.976966857910 -299.803375244141 11.597066879272
-60.705123901367 -76.849533081055 -292.282592773438 2.263150453568
-68.160202026367 -74.840621948242 -268.156158447266 14.195650100708
-98.542083740234 -68.014389038086 -136.802246093750 5.026509761810
-94.226699829102 -69.449775695801 -133.652130126953 3.686416864395
-95.254234313965 -67.793731689453 -131.516754150391 2.813144683838
-99.093696594238 -60.472373962402 -119.599533081055 2.223316907883
-43.804595947266 -87.659660339355 -306.863891601563 19.809085845947
-97.436157226563 -64.091270446777 -121.947036743164 2.360480785370
-89.422035217285 -75.403793334961 -136.602844238281 6.403728485107
-42.617187500000 -80.600242614746 -313.864227294922 23.427570343018
-90.153106689453 -81.057723999023 -152.660766601563 12.969856262207
-27.098159790039 -73.736831665039 -314.383087158203 21.534152984619
-29.842544555664 -77.040512084961 -311.580505371094 18.690759658813
-32.439575195313 -76.668273925781 -306.612640380859 13.552796363831
-80.673141479492 -67.560256958008 -114.227020263672 2.124509811401
-61.665206909180 -71.357711791992 -159.717712402344 1.918014764786
-71.239395141602 -73.625778198242 -123.360397338867 6.765640258789
-62.669952392578 -70.486465454102 -134.480270385742 1.087835311890
-60.169418334961 -71.524719238281 -135.153182983398 3.186545372009
-62.672515869141 -71.623016357422 -149.457458496094 3.359962463379
-60.222427368164 -64.680938720703 -159.079605102539 8.020566940308
-39.930343627930 -74.555191040039 -212.766921997070 5.916632652283
-77.130836486816 -74.580352783203 -113.150802612305 4.868300437927
-58.556488037109 -73.703796386719 -156.625244140625 5.654393196106
-59.660140991211 -82.247337341309 -152.502624511719 6.545183181763
-49.812072753906 -75.015769958496 -158.272232055664 1.315979361534
-24.491546630859 -72.172065734863 -223.249084472656 1.496687173843
-53.812835693359 -69.146820068359 -150.620300292969 1.478146553040
-72.819389343262 -75.892242431641 -101.653701782227 2.860899448395
-51.405990600586 -76.454391479492 -152.460998535156 1.846735477448
-39.427597045898 -70.894157409668 -226.113372802734 12.364541053772
-54.080734252930 -59.690818786621 -106.096588134766 7.238676548004
-26.919036865234 -71.778427124023 -220.506469726563 1.868731021881
-54.636718750000 -73.662933349609 -91.038467407227 2.340836524963
-56.346923828125 -67.977935791016 -98.756805419922 8.032165527344
-18.953552246094 -75.071197509766 -216.633361816406 1.604342937469
-17.561843872070 -78.348831176758 -221.033325195313 2.668078422546
-50.794754028320 -64.270477294922 -86.788452148438 1.706047892570
-59.856384277344 -71.028488159180 -57.033309936523 4.569716930389
-6.646057128906 -73.228279113770 -172.098022460938 1.228943347931
-20.803115844727 -74.378341674805 -165.372100830078 8.221118927002
-39.273788452148 -65.703689575195 -77.157180786133 1.327317833900
-47.897018432617 -72.033020019531 -52.442764282227 2.661178827286
-40.117187500000 -73.792251586914 -95.021713256836 10.034629821777
-50.133941650391 -65.532043457031 -35.896102905273 9.068117141724
-34.165115356445 -60.825378417969 -62.334518432617 6.250871658325
-34.016983032227 -63.925827026367 -60.264648437500 9.034282684326
-12.130264282227 -76.058486938477 -171.799118041992 2.039778709412
-26.603683471680 -67.434745788574 -73.180603027344 2.534552812576
-26.177780151367 -74.024841308594 -71.237945556641 2.753030538559
-9.356185913086 -69.253120422363 -160.475952148438 9.340911865234
-42.414459228516 -70.034835815430 -39.843643188477 6.947859764099
-25.865722656250 -66.542640686035 -57.495239257813 4.446758747101
-25.494094848633 -71.953826904297 -65.458755493164 4.300056934357
13.580245971680 -71.535385131836 -204.144012451172 3.380198717117
-38.006774902344 -65.008247375488 -29.992752075195 15.143080711365
27.314514160156 -79.150238037109 -194.783767700195 2.375378847122
25.798812866211 -73.936935424805 -196.069732666016 3.859391689301
12.847732543945 -80.494125366211 -168.962097167969 5.579975605011
21.420608520508 -75.395362854004 -176.866790771484 2.689605951309
-31.563903808594 -69.893463134766 -16.550643920898 30.367177963257
-26.966125488281 -72.737754821777 -29.799972534180 18.932762145996
-1.652847290039 -71.310775756836 -89.803192138672 23.630453109741
-0.390838623047 -67.030929565430 -88.930145263672 23.248918533325
-11.950271606445 -64.556533813477 -24.412338256836 25.608388900757
-6.579162597656 -73.175247192383 -75.233779907227 10.305642127991
13.116851806641 -77.260635375977 -172.281066894531 4.734881401062
-9.678085327148 -65.695495605469 -57.261535644531 2.225451946259
-12.277297973633 -67.387489318848 -42.334884643555 10.971837043762
26.113937377930 -71.926704406738 -177.462265014648 2.031794309616
-8.444229125977 -70.977577209473 -50.912429809570 8.593104362488
-7.437728881836 -62.299644470215 -62.200073242188 2.517474651337
-3.159347534180 -64.613876342773 -70.511672973633 8.920194625854
34.025909423828 -84.699012756348 -174.982559204102 7.398427486420
7.336059570313 -73.344711303711 -73.648010253906 21.567373275757
-17.883422851563 -75.379722595215 -23.984649658203 27.708496093750
-9.402328491211 -68.318237304688 -39.803512573242 14.657023429871
-14.478652954102 -67.043861389160 -21.096969604492 28.818580627441
27.753112792969 -78.247573852539 -171.070404052734 1.960951566696
37.126586914063 -74.635421752930 -169.113952636719 4.966540336609
52.365692138672 -75.790634155273 -254.718475341797 6.485969543457
33.455490112305 -71.831008911133 -176.456893920898 5.510542392731
3.877182006836 -68.034912109375 -37.738098144531 16.634147644043
30.640838623047 -78.421234130859 -163.606079101563 1.268942952156
53.374771118164 -79.258079528809 -249.436523437500 6.442456245422
59.070770263672 -79.360076904297 -247.658538818359 6.229686260223
-0.911102294922 -70.912223815918 -48.527297973633 14.930166244507
-9.586318969727 -61.205589294434 -29.384246826172 21.359519958496
6.029296875000 -72.579742431641 -67.989456176758 17.918027877808
6.622497558594 -75.846282958984 -54.961669921875 19.619129180908
-5.087188720703 -68.620994567871 -20.816131591797 23.723848342896
-4.827545166016 -65.655044555664 -21.733139038086 22.894157409668
-4.703735351563 -75.149093627930 -34.342849731445 24.245260238647
34.358352661133 -78.768371582031 -161.037414550781 2.213682651520
45.836929321289 -77.748947143555 -168.053939819336 12.116435050964
3.429382324219 -68.647689819336 -20.432891845703 15.949607849121
43.046173095703 -75.808395385742 -181.556137084961 14.567263603210
43.818191528320 -73.988014221191 -175.122451782227 11.816736221313
-2.859680175781 -67.492874145508 -23.836242675781 20.831029891968
50.208343505859 -70.990531921387 -193.803726196289 24.126050949097
65.616668701172 -75.527976989746 -222.179504394531 9.721733093262
61.644592285156 -74.053604125977 -220.623794555664 12.202217102051
46.917602539063 -74.122428894043 -155.847488403320 10.912918090820
67.670440673828 -80.105522155762 -217.016891479492 13.855657577515
7.986221313477 -73.292007446289 -19.769119262695 13.132299423218
7.259124755859 -66.567192077637 -23.984375000000 10.827705383301
8.574325561523 -60.282524108887 -17.867996215820 12.677930831909
67.167236328125 -80.571830749512 -227.061157226563 7.899061203003
30.456298828125 -73.042602539063 -80.480972290039 19.728782653809
24.265197753906 -71.768692016602 -51.789794921875 11.725893020630
26.841567993164 -63.540565490723 -69.699127197266 27.279745101929
68.783813476563 -71.459976196289 -193.149551391602 25.426605224609
66.884124755859 -82.078201293945 -208.709442138672 18.214990615845
30.357299804688 -74.677268981934 -74.377716064453 23.357530593872
26.267471313477 -77.734382629395 -83.260696411133 23.444009780884
73.329864501953 -71.977691650391 -214.552642822266 8.573730468750
72.685668945313 -81.525779724121 -208.450576782227 13.355544090271
18.359451293945 -60.239990234375 -22.838760375977 3.557922124863
72.302246093750 -77.887268066406 -195.692962646484 22.211753845215
28.885620117188 -65.328895568848 -29.815765380859 2.451072216034
35.297027587891 -70.292045593262 -60.698699951172 16.995111465454
26.582168579102 -72.706130981445 -35.429977416992 2.406748771667
76.260681152344 -79.930046081543 -200.594329833984 16.789978027344
30.762481689453 -71.021972656250 -47.354705810547 5.790434837341
56.488296508789 -77.954071044922 -159.098129272461 21.300125122070
80.385192871094 -73.506568908691 -184.871109008789 19.649583816528
66.841522216797 -67.895690917969 -165.535217285156 33.341941833496
89.188049316406 -74.678405761719 -181.333663940430 13.770087242126
42.077423095703 -64.175971984863 -14.224319458008 1.076973319054
80.555541992188 -79.324340820313 -151.396392822266 28.826396942139
41.618316650391 -63.959274291992 -17.402404785156 1.623408913612
53.859588623047 -65.699127197266 -45.675811767578 11.221714973450
42.866394042969 -58.952362060547 -3.889495849609 10.498119354248
57.201782226563 -71.099235534668 -50.997726440430 16.055589675903
64.372436523438 -70.191497802734 -61.655792236328 7.067234039307
84.872833251953 -78.815689086914 -155.446655273438 23.636619567871
60.541290283203 -68.017776489258 -58.451705932617 10.642768859863
52.075500488281 -73.231170654297 -50.285568237305 13.415057182312
59.633666992188 -74.851539611816 -40.780273437500 9.855962753296
53.537322998047 -68.413436889648 -25.879760742188 3.159482955933
57.220535278320 -75.437042236328 -37.717453002930 6.915778636932
47.420028686523 -60.846763610840 -8.674972534180 6.913523674011
51.668945312500 -73.531448364258 -18.808471679688 3.773326873779
60.301208496094 -72.544898986816 -1.954132080078 19.624816894531
68.920349121094 -71.050018310547 -6.260452270508 23.456104278564
57.984222412109 -71.907943725586 -2.224227905273 17.783575057983
72.904754638672 -68.277488708496 -22.417037963867 22.462303161621
75.376403808594 -64.885437011719 -11.321655273438 27.462390899658
-169.968582153320 -73.252204895020 -274.886932373047 3.015078544617
-154.543823242188 -68.252105712891 -285.781829833984 0.881521284580
-158.965438842773 -74.501953125000 -259.196228027344 3.070278167725
-147.083129882813 -74.152404785156 -285.055267333984 1.230799674988
-145.390319824219 -70.897949218750 -259.673370361328 2.468792438507
-145.918304443359 -73.084274291992 -263.472839355469 1.285683989525
-154.535202026367 -74.869628906250 -173.695541381836 5.012961387634
-108.439735412598 -83.023681640625 -298.594940185547 11.042863845825
-96.801498413086 -75.809616088867 -303.855438232422 12.038312911987
-149.509887695313 -64.789878845215 -139.469482421875 34.409584045410
-132.987854003906 -75.359649658203 -213.464752197266 8.666607856750
-141.668975830078 -65.894287109375 -133.742950439453 40.129329681396
-94.705917358398 -74.549636840820 -317.150543212891 25.187799453735
-124.689781188965 -75.633941650391 -213.157928466797 8.526369094849
-87.234825134277 -72.680343627930 -284.576995849609 2.222773075104
-119.378120422363 -65.603752136230 -176.575988769531 8.792532920837
-122.404510498047 -68.592918395996 -197.714172363281 0.324685811996
-87.024917602539 -83.281600952148 -271.193695068359 15.552454948425
-117.220054626465 -59.775512695313 -179.122192382813 8.132512092590
-83.694602966309 -89.069747924805 -279.926727294922 13.907451629639
-82.558486938477 -69.599357604980 -267.054412841797 9.969325065613
-78.845512390137 -78.188903808594 -269.973571777344 14.463049888611
-82.538276672363 -67.445953369141 -272.751800537109 13.930088996887
-78.528747558594 -83.107147216797 -269.028533935547 15.867291450500
-63.606506347656 -84.104965209961 -309.124908447266 20.009794235229
-59.499206542969 -86.736747741699 -317.417175292969 28.686502456665
-71.229904174805 -73.583175659180 -273.140045166016 11.501142501831
-58.511856079102 -85.344261169434 -317.728363037109 28.491003036499
-113.036972045898 -69.973861694336 -139.916625976563 16.530712127686
-106.630760192871 -68.676956176758 -142.834289550781 9.723932266235
-63.499313354492 -83.979721069336 -310.968231201172 21.458187103271
-73.664108276367 -75.114990234375 -265.486022949219 10.271492004395
-73.288917541504 -74.814437866211 -283.047515869141 3.909654378891
-100.083442687988 -69.311439514160 -144.120208740234 5.551357269287
-105.544395446777 -70.496505737305 -129.611541748047 13.087289810181
-63.129318237305 -73.112983703613 -296.324432373047 5.416806697845
-77.042823791504 -72.559768676758 -250.893814086914 1.870435118675
-52.076843261719 -84.910659790039 -314.310974121094 24.924461364746
-62.642822265625 -72.383895874023 -257.975372314453 7.599724292755
-57.240051269531 -78.715194702148 -321.064788818359 29.957590103149
-98.931358337402 -68.831871032715 -136.912750244141 5.641331195831
-52.812530517578 -85.802268981934 -309.773956298828 21.218694686890
-91.772720336914 -72.750030517578 -129.006347656250 3.244239330292
-79.169525146484 -67.651489257813 -151.171478271484 5.736745834351
-83.310798645020 -70.965576171875 -152.773651123047 9.251439094543
-79.649810791016 -67.047241210938 -138.324417114258 1.361332774162
-73.519393920898 -69.606002807617 -157.706817626953 2.971415042877
-79.560317993164 -67.387641906738 -124.576629638672 1.535823464394
-81.678863525391 -75.152923583984 -131.164047241211 4.439642429352
-79.183555603027 -68.426040649414 -129.866180419922 1.566490054131
-65.639541625977 -64.489662170410 -143.633163452148 5.902280330658
-68.992019653320 -69.573890686035 -135.537017822266 3.746657371521
-75.640808105469 -63.262100219727 -147.664581298828 5.396576881409
-63.789321899414 -71.657821655273 -148.318206787109 2.178550481796
-42.405593872070 -80.828430175781 -211.636596679688 6.074019432068
-76.842643737793 -67.631271362305 -115.733238220215 0.781212806702
-55.031555175781 -64.606674194336 -153.997192382813 4.277568817139
-67.876937866211 -70.884559631348 -110.470321655273 4.816513538361
-73.632972717285 -72.608245849609 -103.155029296875 1.687023282051
-30.668197631836 -72.496604919434 -219.022689819336 2.360499143600
-28.379913330078 -74.019889831543 -212.494277954102 1.639045357704
-57.317153930664 -65.588912963867 -106.590850830078 6.314496517181
-70.551536560059 -67.353538513184 -100.263916015625 1.414153814316
-52.963989257813 -70.976280212402 -100.299911499023 9.648835182190
-15.898330688477 -76.753730773926 -214.932403564453 2.482417106628
-50.394638061523 -68.673507690430 -85.490295410156 1.690389990807
-21.071792602539 -76.726142883301 -221.275161743164 2.525475740433
-57.171066284180 -65.909202575684 -50.803146362305 2.632492542267
-11.843414306641 -76.981933593750 -210.571228027344 1.870809435844
0.076477050781 -75.270507812500 -214.630096435547 2.671224832535
-49.901794433594 -68.617439270020 -45.009048461914 2.680823564529
-12.690521240234 -73.646148681641 -213.723999023438 3.469720125198
-6.298355102539 -85.972702026367 -209.321411132813 7.788125991821
-51.967987060547 -61.515403747559 -51.614944458008 6.495104789734
-46.361145019531 -71.270423889160 -43.315689086914 4.659245967865
-0.432769775391 -75.333312988281 -208.826049804688 4.477799415588
2.437454223633 -71.994094848633 -207.147308349609 3.514255523682
-38.324142456055 -64.018386840820 -52.499237060547 5.629874706268
-26.821701049805 -68.640937805176 -81.607025146484 3.948076725006
13.777954101563 -76.711715698242 -212.448440551758 2.159740447998
-34.038406372070 -66.965324401855 -67.208862304688 7.367433071136
10.415283203125 -71.959289550781 -194.517944335938 2.582570075989
-35.907989501953 -76.598403930664 -64.849853515625 3.290327072144
-51.910644531250 -68.872657775879 -32.765304565430 12.376154899597
-42.265380859375 -68.516395568848 -33.994857788086 11.336479187012
-44.917098999023 -63.264465332031 -39.444244384766 4.176789760590
8.532653808594 -73.339630126953 -162.701004028320 1.376133084297
-42.330917358398 -62.485031127930 -24.127517700195 19.221332550049
-8.669219970703 -79.419830322266 -160.405334472656 6.653312683105
-5.514495849609 -72.557250976563 -173.171752929688 2.123996496201
3.683456420898 -83.592872619629 -191.669616699219 11.251366615295
-29.866561889648 -65.396347045898 -34.181411743164 13.830430984497
-20.546127319336 -71.726730346680 -83.763290405273 5.070705413818
-0.124221801758 -79.329757690430 -170.809204101563 1.994511246681
-38.796173095703 -74.592819213867 -30.247756958008 18.124689102173
13.908920288086 -75.347946166992 -202.491760253906 2.213235855103
-35.780181884766 -68.648666381836 -18.874084472656 26.780288696289
-25.030212402344 -65.854873657227 -71.457153320313 2.947656631470
-16.988327026367 -72.628524780273 -71.659561157227 1.545891761780
-24.898132324219 -68.545928955078 -67.657455444336 4.287165164948
3.388793945313 -76.344879150391 -169.618789672852 3.314920902252
3.409927368164 -73.106475830078 -166.015457153320 2.592386484146
-28.040130615234 -66.839324951172 -25.473022460938 22.429744720459
-28.010375976563 -69.937164306641 -29.844787597656 18.207403182983
-21.319152832031 -65.456047058105 -22.771682739258 25.280225753784
-19.584228515625 -64.313156127930 -49.885009765625 2.592672586441
-10.173599243164 -69.044273376465 -39.247299194336 14.971237182617
23.686798095703 -78.336158752441 -180.703445434570 2.506491899490
20.491348266602 -68.041213989258 -173.538085937500 2.101961374283
-2.997222900391 -73.618392944336 -82.914291381836 17.998832702637
39.144729614258 -78.553108215332 -167.762237548828 6.629942417145
-11.285369873047 -70.875907897949 -14.006072998047 32.071613311768
10.574066162109 -73.153816223145 -76.533370971680 25.269338607788
32.362304687500 -75.607795715332 -181.342254638672 4.622370719910
34.495956420898 -76.874069213867 -179.317062377930 7.059943199158
7.704238891602 -70.308090209961 -69.030776977539 19.006559371948
31.016387939453 -74.170166015625 -177.200714111328 4.456628322601
5.066085815430 -74.235191345215 -62.051147460938 16.509941101074
33.074935913086 -80.622528076172 -169.143676757813 4.890698909760
39.250427246094 -77.869369506836 -174.753784179688 7.821318149567
43.290740966797 -77.889915466309 -171.819961547852 10.895682334900
61.657287597656 -85.932777404785 -245.370101928711 10.374382019043
39.968673706055 -72.093063354492 -167.202850341797 8.574512481689
43.185577392578 -76.142936706543 -187.405364990234 16.429731369019
44.735809326172 -78.164703369141 -186.513442993164 18.106948852539
44.624694824219 -74.723472595215 -180.022979736328 14.774990081787
47.972717285156 -74.247787475586 -179.346847534180 17.282594680786
61.924957275391 -87.468215942383 -234.289016723633 12.838443756104
64.393524169922 -86.883552551270 -240.119338989258 10.884199142456
55.268463134766 -78.357757568359 -177.311645507813 23.537685394287
61.380065917969 -76.930747985840 -222.465286254883 11.819163322449
60.218017578125 -73.729598999023 -227.816726684570 8.556138038635
68.987976074219 -85.478477478027 -216.003341674805 15.681187629700
67.683410644531 -84.377700805664 -212.398651123047 17.241317749023
75.122833251953 -81.213714599609 -208.128570556641 11.694027900696
28.288116455078 -77.674743652344 -44.737167358398 6.704636096954
48.218429565430 -77.830085754395 -165.283935546875 13.513249397278
69.721649169922 -82.161987304688 -200.196197509766 21.044034957886
60.327026367188 -81.462554931641 -214.571990966797 20.163009643555
64.710113525391 -74.758056640625 -200.942657470703 23.546569824219
34.618240356445 -67.569808959961 -68.756408691406 24.692293167114
67.906097412109 -77.004104614258 -198.490417480469 22.861408233643
25.888519287109 -66.406326293945 -30.525009155273 2.808191299438
26.757415771484 -66.443893432617 -58.635803222656 16.159603118896
31.241439819336 -70.497360229492 -61.932891845703 19.067831039429
62.323944091797 -72.693267822266 -169.080993652344 28.502866744995
17.992660522461 -66.781639099121 -23.347503662109 2.808339834213
77.878601074219 -78.724731445313 -204.631240844727 12.341778755188
28.947937011719 -72.726837158203 -67.917938232422 25.301439285278
69.440246582031 -72.005020141602 -194.333404541016 24.463666915894
31.814575195313 -64.931396484375 -38.724182128906 2.399665594101
38.384658813477 -71.181274414063 -54.871490478516 11.021340370178
35.437622070313 -71.226608276367 -60.769409179688 16.920333862305
33.100524902344 -61.208885192871 -60.745208740234 18.380334854126
17.553314208984 -66.076560974121 -34.269912719727 3.994831562042
70.329315185547 -78.055953979492 -198.592041015625 21.301738739014
32.898117065430 -73.241195678711 -56.532958984375 13.249589920044
26.546630859375 -67.195831298828 -29.166061401367 3.590977907181
72.026641845703 -80.608932495117 -161.331314086914 35.397178649902
40.631942749023 -66.046791076660 -20.616363525391 2.834947586060
90.520965576172 -76.009384155273 -151.627105712891 19.134811401367
81.310852050781 -80.347396850586 -157.827972412109 27.059967041016
55.152160644531 -71.117111206055 -31.601303100586 5.723512172699
59.065521240234 -69.926467895508 -34.658004760742 7.872180938721
59.895263671875 -71.581718444824 -29.089889526367 9.351015090942
55.603012084961 -74.650665283203 -39.118972778320 5.825106143951
52.578262329102 -69.654815673828 -9.345413208008 8.955121040344
57.186706542969 -68.093315124512 -5.559631347656 13.572974205017
62.457824707031 -64.568206787109 -14.816085815430 14.497768402100
65.793090820313 -66.759185791016 -13.547088623047 17.523801803589
58.801269531250 -70.607124328613 -19.610397338867 8.904320716858
66.389526367188 -70.067031860352 -10.491561889648 19.022367477417
77.990264892578 -74.080635070801 -13.431671142578 29.069982528687
-156.431427001953 -70.497245788574 -254.257888793945 3.008321046829
-136.001770019531 -71.951950073242 -281.770507812500 3.162559270859
-144.604476928711 -66.181091308594 -255.943176269531 1.070341110229
-134.229537963867 -75.108489990234 -260.605072021484 1.426471590996
-150.628616333008 -79.602165222168 -188.979507446289 1.334240913391
-158.624786376953 -74.055953979492 -157.752593994141 18.513206481934
-104.705612182617 -77.879486083984 -302.191497802734 11.729192733765
-106.568275451660 -76.194335937500 -295.751098632813 5.602821350098
-103.969100952148 -73.934005737305 -295.027770996094 3.740640401840
-146.123046875000 -67.760429382324 -125.215492248535 47.690101623535
-86.020454406738 -73.227897644043 -315.836914062500 23.351562500000
-109.936981201172 -69.075263977051 -192.830352783203 2.427456855774
-97.711746215820 -79.851341247559 -279.841552734375 6.470199584961
-116.600563049316 -76.329269409180 -178.782318115234 10.443593978882
-124.415214538574 -72.825897216797 -165.171493530273 16.459821701050
-84.542053222656 -76.867736816406 -267.021759033203 11.334067344666
-70.304786682129 -82.692245483398 -315.213989257813 23.693067550659
-80.284439086914 -79.854621887207 -276.562927246094 8.852021217346
-83.522750854492 -79.145767211914 -270.564453125000 13.977995872498
-74.494895935059 -81.488624572754 -259.215362548828 7.731334686279
-71.524154663086 -82.217529296875 -267.096649169922 15.039574623108
-63.838562011719 -82.427459716797 -313.102081298828 22.482059478760
-62.475494384766 -79.010375976563 -277.702117919922 8.809192657471
-69.242553710938 -77.050628662109 -263.592895507813 10.331770896912
-61.025009155273 -71.260559082031 -284.775634765625 1.807425856590
-55.045959472656 -84.764907836914 -308.706909179688 19.750764846802
-112.980926513672 -73.820312500000 -144.674285888672 14.980833053589
-104.398994445801 -69.820373535156 -128.731903076172 11.557116508484
-101.516677856445 -69.506668090820 -132.758499145508 9.210745811462
-88.617973327637 -71.016723632813 -150.810913085938 4.918076515198
-80.204002380371 -66.986419677734 -152.139434814453 7.286663055420
-96.046829223633 -70.355773925781 -117.523933410645 1.559515118599
-92.397956848145 -67.034439086914 -139.109237670898 0.894269227982
-79.362312316895 -65.878379821777 -131.290283203125 1.710565924644
-80.704444885254 -76.009162902832 -148.718414306641 6.785536766052
-85.090538024902 -74.608108520508 -121.397636413574 4.880328178406
-85.079124450684 -71.696502685547 -119.385848999023 2.294263839722
-69.898986816406 -68.915344238281 -158.073348999023 3.422778367996
-67.477340698242 -69.773895263672 -155.596649169922 1.086360573769
-74.867271423340 -65.969688415527 -129.187622070313 1.782746791840
-65.632827758789 -68.896453857422 -150.112060546875 1.546324372292
-66.195343017578 -65.036079406738 -131.625762939453 1.735032320023
-46.683303833008 -79.137084960938 -220.876647949219 15.073556900024
-63.897720336914 -65.980484008789 -146.528427124023 5.130654811859
-61.172790527344 -76.436950683594 -147.193588256836 4.746931552887
-34.199050903320 -70.663673400879 -207.501968383789 1.733096003532
-36.514739990234 -78.105361938477 -217.144210815430 5.642585754395
-59.403244018555 -66.215362548828 -58.757019042969 9.024418830872
-46.338333129883 -71.896438598633 -87.034469604492 4.101292610168
-34.487274169922 -74.671661376953 -81.169250488281 2.483674526215
-46.847244262695 -64.532546997070 -42.327026367188 2.965162992477
-38.699645996094 -70.253318786621 -81.301879882813 3.374804258347
-39.293365478516 -73.739105224609 -42.032440185547 6.723076343536
-26.562896728516 -70.704696655273 -76.830688476563 1.136989474297
-34.915084838867 -71.850326538086 -40.455856323242 8.966666221619
-29.063949584961 -68.743385314941 -41.206619262695 6.742440700531
-32.926666259766 -61.560836791992 -37.539489746094 8.935430526733
-11.836914062500 -68.256538391113 -35.553131103516 16.564571380615
-9.490646362305 -64.509101867676 -36.313034057617 15.723724365234
4.807098388672 -75.014465332031 -76.587310791016 21.110229492188
-2.563034057617 -70.952728271484 -85.702301025391 19.933942794800
3.358078002930 -76.579177856445 -58.823730468750 16.708795547485
0.426437377930 -70.402618408203 -76.942687988281 15.826658248901
-8.517318725586 -67.789314270020 -26.437637329102 25.457532882690
27.972610473633 -77.351875305176 -176.090560913086 2.240599393845
-2.522552490234 -64.591880798340 -50.901000976563 9.309819221497
-2.580062866211 -67.965545654297 -28.762435913086 20.631635665894
-2.168701171875 -64.337387084961 -43.327529907227 14.415485382080
34.865570068359 -78.872421264648 -167.109802246094 4.586559295654
51.478302001953 -78.244415283203 -182.205566406250 21.899606704712
61.639770507813 -88.274780273438 -234.796813964844 13.661939620972
59.171112060547 -73.156829833984 -189.277404785156 31.845989227295
60.745483398438 -80.875091552734 -225.521911621094 11.839026451111
65.256530761719 -76.196884155273 -210.786239624023 18.317216873169
74.556121826172 -86.386093139648 -231.584686279297 10.432378768921
9.168563842773 -68.407012939453 -25.199203491211 9.467590332031
18.131912231445 -64.835289001465 -30.930114746094 4.214413642883
72.215118408203 -81.986488342285 -212.658782958984 12.192062377930
64.914764404297 -78.982612609863 -196.935623168945 26.104434967041
71.663269042969 -85.272064208984 -217.478240966797 13.188292503357
27.477569580078 -65.904663085938 -28.665954589844 3.763282775879
19.174942016602 -71.264007568359 -38.099990844727 4.208820343018
28.948303222656 -73.640121459961 -50.608261108398 9.677989006042
22.428359985352 -70.374053955078 -43.010620117188 4.596035957336
22.972900390625 -68.026290893555 -36.107818603516 1.429188370705
29.445510864258 -71.631553649902 -51.505661010742 9.983550071716
23.494537353516 -71.985000610352 -31.668319702148 1.148982048035
25.385208129883 -66.681587219238 -47.597290039063 6.238426685333
35.702239990234 -69.317863464355 -53.746490478516 10.521381378174
32.706512451172 -69.971054077148 -42.987289428711 1.879949569702
33.116363525391 -75.480667114258 -49.625717163086 7.404647827148
68.764953613281 -77.068374633789 -162.397857666016 33.673587799072
72.743591308594 -85.073745727539 -197.567657470703 22.366971969604
30.084060668945 -77.102874755859 -27.251037597656 5.197712421417
82.780029296875 -77.344734191895 -191.047515869141 15.184661865234
78.143585205078 -85.497100830078 -157.441772460938 31.396408081055
90.783813476563 -72.180496215820 -180.093811035156 12.980693817139
52.743560791016 -69.550529479980 -25.888214111328 2.619732856750
54.845916748047 -67.491378784180 -42.656829833984 8.630173683167
56.691299438477 -76.941589355469 -35.578109741211 7.230869770050
50.621673583984 -74.769889831543 -5.751037597656 11.162595748901
56.130828857422 -78.030593872070 -38.635269165039 8.118659019470
58.157608032227 -73.752082824707 -47.821533203125 13.681494712830
66.155731201172 -67.374092102051 -39.557891845703 15.689813613892
50.635742187500 -65.413108825684 -13.793212890625 3.086223602295
-167.072723388672 -70.449752807617 -268.139984130859 2.278506994247
-160.637542724609 -69.442413330078 -264.713317871094 1.161466479301
-154.650604248047 -76.997245788574 -271.869232177734 3.251132011414
-150.774108886719 -80.809570312500 -280.975891113281 1.002722501755
-150.495620727539 -67.728172302246 -263.191864013672 1.350774407387
-149.006072998047 -70.570968627930 -250.833938598633 2.678046941757
-151.803924560547 -68.654930114746 -197.964935302734 2.275538921356
-156.427566528320 -65.612319946289 -150.524429321289 24.501077651978
-133.302032470703 -72.391075134277 -208.812988281250 3.264475822449
-103.154678344727 -80.700790405273 -295.941711425781 8.505873680115
-90.541618347168 -81.014999389648 -323.674255371094 32.522197723389
-87.100982666016 -81.738037109375 -280.326110839844 8.328931808472
-87.732116699219 -84.563758850098 -276.634948730469 12.582242965698
-77.561546325684 -78.538543701172 -311.279296875000 20.104352951050
-116.405082702637 -73.944732666016 -154.479156494141 14.716170310974
-119.233909606934 -69.917083740234 -153.625427246094 16.026302337646
-84.098266601563 -81.381126403809 -266.250457763672 13.009220123291
-112.710472106934 -66.317726135254 -150.190368652344 11.891798973083
-108.246620178223 -70.923538208008 -142.695129394531 11.987722396851
-112.848060607910 -68.706047058105 -122.967384338379 15.069887161255
-112.453552246094 -75.826568603516 -140.990966796875 17.338155746460
-74.540260314941 -83.030006408691 -258.297668457031 7.966331958771
-104.420822143555 -67.591705322266 -151.546417236328 4.099114894867
-72.134849548340 -80.621154785156 -257.801361083984 6.021635055542
-58.507858276367 -82.031707763672 -303.916534423828 14.415280342102
-50.690933227539 -80.084426879883 -295.361297607422 7.194468975067
-94.094306945801 -71.725219726563 -141.563568115234 4.930296897888
-102.913665771484 -67.599090576172 -126.728675842285 8.270312309265
-89.197288513184 -72.137191772461 -149.444488525391 5.500499248505
-99.382484436035 -75.884979248047 -117.230499267578 7.484148502350
-84.864685058594 -67.824737548828 -133.832412719727 1.098528504372
-90.199066162109 -79.681182861328 -115.520118713379 2.940812587738
-92.349243164063 -72.828292846680 -147.579528808594 3.987837076187
-85.626823425293 -79.673233032227 -149.720077514648 12.330600738525
-85.406028747559 -67.779045104980 -118.612449645996 1.443099856377
-82.656654357910 -68.472793579102 -145.634429931641 6.313616275787
-80.651702880859 -71.967956542969 -124.239570617676 1.442779421806
-79.772911071777 -70.284973144531 -122.112701416016 1.704480409622
-70.158172607422 -65.560432434082 -145.752777099609 1.419023394585
-74.503654479980 -76.448196411133 -146.917694091797 2.333293914795
-74.183776855469 -81.165145874023 -151.356445312500 3.753889083862
-88.935104370117 -74.022537231445 -108.906921386719 2.817067861557
-74.079826354980 -76.307952880859 -107.520446777344 5.278841495514
-80.215965270996 -70.394088745117 -115.337837219238 2.645000219345
-34.968994140625 -73.979034423828 -217.532135009766 3.591807126999
-65.940185546875 -72.089103698730 -154.645690917969 1.853156805038
-33.934005737305 -76.552902221680 -219.300384521484 4.612782955170
-53.724609375000 -69.641983032227 -101.751617431641 11.472767829895
