# This PCD file was generated using the MATLAB® pcwrite function
# from Computer Vision Toolbox®.
# .PCD v.7 - Point Cloud Data file format
VERSION .7
FIELDS x y z
SIZE 4 4 4
TYPE F F F
COUNT 1 1 1
WIDTH 1454
HEIGHT 1
VIEWPOINT 0 0 0 1 0 0 0
POINTS 1454
DATA ascii
-55.270222 209.467651 -80.833069
-56.758556 214.730225 -78.419601
-50.432163 211.153015 -85.136856
-57.811455 211.433197 -75.717606
-53.364063 218.340881 -77.009766
-149.779083 246.149139 -76.168327
-146.783585 262.985077 -78.984528
-150.081299 261.893280 -76.195076
-146.274612 259.274780 -82.062859
-145.585770 264.378754 -80.929863
-151.938904 265.967865 -80.483658
7.057246 271.075928 -82.351357
-143.285706 264.537292 -79.658905
-149.250198 268.870880 -77.006470
-140.814209 262.003723 -79.168648
1.257527 267.326355 -75.222221
-1.167036 272.778809 -77.493103
-140.986679 272.558716 -78.489891
-137.168427 269.101624 -78.902451
-142.198212 270.834351 -80.644958
-4.799750 270.513153 -74.181351
6.278213 271.206085 -80.466812
-147.966125 271.765778 -80.140869
-143.074661 273.020386 -77.988235
-136.186035 269.117279 -76.522049
-147.189636 275.523712 -79.843040
-6.429273 273.730042 -81.978859
-146.621490 274.016785 -76.800133
-148.756485 273.892609 -76.724350
-146.238281 274.880829 -78.841385
-1.892409 273.022522 -80.088135
13.516249 277.521362 -78.589806
0.312512 277.650116 -80.566040
-147.762924 279.273041 -77.318253
-150.747131 280.015320 -79.795517
-144.658722 297.971100 -78.818100
-144.788513 297.682159 -78.791489
-148.749680 299.921967 -80.468880
-155.590591 303.807404 -82.329895
-146.083649 301.241608 -77.089211
-50.165958 86.048599 -79.653252
-41.425385 87.617874 -70.626984
-69.598984 88.786308 -78.443436
-56.834854 90.766754 -74.988052
-58.844395 88.187645 -77.899811
-44.623032 88.724876 -74.457352
-48.074242 91.197144 -77.194542
-74.031075 86.734306 -79.259315
-69.823853 90.258217 -80.177963
-43.691013 88.882980 -79.303177
-73.379044 96.832260 -74.944145
-78.965851 92.346848 -75.428543
-76.470009 100.692429 -77.868271
-59.747723 105.254478 -78.972183
-64.089951 103.404404 -83.306969
-63.992298 107.167473 -74.979851
-73.670052 111.110619 -81.156204
-83.857910 120.343582 -78.198303
-24.503321 194.591751 -77.228996
-19.252909 193.986572 -80.473320
-26.508015 196.083893 -80.240456
-29.929281 197.491882 -78.971588
-62.824364 209.562088 -79.172646
-62.053497 213.873016 -77.147629
-65.084023 215.052994 -75.881943
-145.567719 216.059067 -80.475113
-59.899586 221.671188 -82.158279
-62.599926 216.045731 -76.405045
-150.819458 227.292450 -79.621353
-145.616898 230.726746 -75.214096
-148.413467 232.299255 -76.961754
-146.404037 228.421387 -81.664917
-150.670990 237.554779 -74.466263
-143.925812 239.069931 -77.649170
-149.131012 233.118835 -81.347954
-153.262100 234.795212 -77.221954
-139.570953 237.103882 -76.481300
-150.604675 232.746277 -74.537720
-137.206741 242.297241 -76.281960
-144.281769 237.764282 -79.046494
-147.139709 242.123154 -79.136086
-147.402283 244.198914 -84.037498
-144.044388 243.320053 -78.486412
-148.783813 244.793839 -79.419731
-146.923386 246.295715 -75.321663
-148.626114 247.974594 -80.205269
-147.705139 250.231857 -80.501251
-147.143951 249.715469 -78.709770
-153.257919 256.092224 -80.416985
2.316727 260.095276 -79.705666
7.790747 261.233063 -77.868683
-147.462402 261.631012 -77.520851
10.336120 265.326538 -74.695862
-151.024963 265.306396 -78.663429
3.569448 264.155670 -77.748276
-151.024658 261.245392 -84.318123
-145.535706 264.522552 -82.319275
-146.362244 263.290497 -78.558113
-139.632553 268.866241 -76.162384
8.392295 263.431427 -75.483704
-151.950928 265.899506 -77.204498
-155.461288 268.986511 -81.289116
-149.547104 271.200989 -75.443329
-145.988007 270.184204 -81.884621
9.681591 269.811157 -75.882660
-151.240723 272.972260 -78.621490
9.184807 272.431122 -80.875000
-147.819336 271.267365 -75.352798
4.650912 275.738800 -78.019745
-4.330013 275.073700 -72.500916
19.423233 279.924194 -82.082657
5.080104 280.707062 -77.072205
-146.326233 282.509430 -77.558327
2.318179 283.434540 -76.076569
2.724920 287.090698 -79.563759
1.686967 283.162628 -77.142380
-151.425613 285.805542 -82.482506
-144.181046 288.426666 -78.241249
-147.064392 292.851868 -81.736298
-149.488724 297.376556 -79.963753
-147.180283 292.914642 -79.958084
-155.001831 297.924805 -80.629616
-147.365234 295.634308 -80.529839
-139.835693 291.750214 -76.392143
-137.262604 296.036621 -79.150589
-134.307785 297.649872 -77.861610
-148.750641 294.517914 -76.501579
-156.649979 300.566620 -78.164497
-152.281311 298.720215 -78.490593
-135.776932 299.626038 -77.828171
-131.050980 302.781433 -78.344200
-154.642212 303.991608 -82.471069
-151.016022 304.979279 -75.230980
-153.530533 313.711700 -77.511841
-153.634933 309.899261 -73.990387
-146.813354 310.775482 -76.776443
-59.761112 87.324501 -81.753731
-43.724102 86.134659 -75.153503
-65.280876 86.502884 -76.120735
-71.163651 89.324776 -75.395210
-42.848305 92.503777 -80.681961
-77.896805 90.345276 -79.620857
-45.545406 90.518829 -74.441826
-42.585709 91.246574 -77.150497
-77.195045 94.552177 -78.387817
-50.621922 100.526207 -78.837662
-79.987701 96.956779 -81.952492
-54.425076 100.868202 -74.216637
-69.074532 111.946785 -74.994911
-70.915611 112.821983 -78.625748
-75.042809 106.907913 -71.148132
-83.202866 108.359116 -78.317215
-88.509094 116.952240 -81.763878
-13.632556 184.839081 -82.406227
-23.515366 186.858582 -81.364754
-12.428296 187.412323 -81.519363
-23.618729 197.965286 -79.029160
-148.174164 196.239166 -76.901382
-29.548737 197.345047 -74.727676
-149.554764 199.438873 -76.564331
-37.526241 203.570755 -77.769463
-148.079437 207.188156 -76.282288
-41.221478 204.843109 -75.122932
-36.218018 203.816238 -78.658257
-48.918373 203.629440 -74.078110
-149.332214 201.416489 -74.992706
-140.437103 202.172424 -80.826248
-43.796612 210.942108 -76.235168
-140.620773 209.567078 -78.527458
-137.537155 209.569473 -76.912651
-151.730072 217.197693 -79.620316
-147.713852 210.504837 -75.504532
-145.889099 209.792679 -70.309799
-148.352600 216.956406 -73.741379
-150.287857 212.526031 -76.624313
-56.836945 212.604767 -74.458717
-64.609688 220.352066 -76.168526
-152.695404 219.519409 -75.604111
-68.471107 218.592255 -78.808525
-66.094330 219.389389 -77.609444
-62.825081 221.918549 -77.143600
-148.348083 223.713593 -75.555260
-151.051132 223.080978 -75.992218
-145.196411 227.108459 -78.486794
-145.619644 233.711075 -74.415230
-148.040253 234.976196 -73.551056
-146.116776 238.369492 -74.259232
-137.616638 234.815674 -75.088936
-134.923431 243.520950 -75.051529
-137.737808 240.075775 -76.425980
-141.703140 244.950439 -79.543777
-151.051468 242.422440 -75.722786
13.996147 247.452591 -79.356552
12.047976 245.841965 -73.966362
13.415612 250.204803 -72.878510
15.963203 254.123581 -81.715561
13.540531 255.620636 -76.276306
16.798246 252.132660 -80.245064
-142.709274 255.221054 -75.309746
-148.133942 257.651367 -78.499939
-2.918315 261.990326 -82.435776
-148.844208 265.398621 -79.948669
-148.051376 266.735596 -76.211861
-0.288029 262.363495 -77.989090
14.352566 266.000183 -75.592354
11.890323 270.084778 -75.834785
-135.103104 270.297394 -78.141281
-135.834732 269.691498 -72.511475
-143.072647 275.549561 -79.167572
-9.743768 271.763672 -78.594986
12.198346 278.384033 -80.116966
11.248063 276.636078 -76.248238
-150.918442 281.435760 -78.377670
-148.903763 283.946075 -76.414215
-148.128952 280.827301 -83.523270
11.668736 286.555084 -76.353867
5.020188 288.603119 -75.314415
-150.510834 282.459778 -78.266151
-1.251666 286.523407 -74.639175
-149.309479 290.885406 -78.973480
-139.625122 298.116699 -83.891045
-145.480820 301.415833 -78.503807
-141.181671 303.490967 -78.439911
-58.942577 82.125626 -76.925438
-61.956886 81.830063 -71.080498
-56.522987 84.051651 -76.258537
-52.100185 81.855453 -81.546516
-44.862209 83.121880 -75.295036
-61.655773 83.568314 -76.609390
-65.845779 84.601486 -70.899948
-48.900620 85.154938 -77.834229
-72.955666 88.117577 -73.253265
-39.902416 80.296967 -75.393661
-47.278473 84.842369 -75.635460
-38.973602 86.445366 -73.015617
-79.236649 90.583214 -75.554405
-37.615887 87.342819 -75.098289
-74.176910 90.192986 -76.115501
-82.480652 95.209114 -75.577003
-87.052650 104.356102 -72.982300
-58.596100 105.332809 -79.162338
-82.998558 104.459457 -78.957642
-65.238220 109.698662 -78.781288
-88.028114 114.612984 -68.831154
-78.979774 119.762383 -76.749443
-7.866939 184.783997 -76.255585
-11.508724 186.155701 -80.193817
-13.591873 183.591827 -73.626976
-9.874420 193.460968 -77.610939
-16.338655 186.261688 -76.879089
-17.455715 197.544281 -76.920982
-30.514908 198.068893 -76.156311
-146.875748 194.439545 -76.139526
-141.703354 198.964279 -75.113571
-48.930229 201.547592 -78.939285
-41.194172 199.310440 -76.915657
-48.578819 204.158035 -76.683441
-29.417974 202.333694 -71.911819
-43.608448 202.411667 -75.713348
-146.449127 200.534805 -77.401398
-42.719227 205.828415 -75.717720
-154.203156 207.513519 -78.299141
-146.722610 203.696655 -74.213348
-141.604874 205.411438 -74.520622
-142.161087 207.655319 -74.211349
-48.551220 205.804611 -77.098015
-149.923630 206.899216 -77.512573
-139.295914 205.701172 -74.731560
-134.780182 209.662460 -76.313194
-145.652878 209.232391 -77.643311
-141.616943 212.395844 -79.999458
-135.227921 215.126938 -73.453835
-47.077946 213.010498 -75.794769
-58.183674 211.782425 -77.143440
-57.113350 221.620117 -73.664436
-70.778305 216.754227 -74.746101
-72.491287 217.975815 -77.274193
-69.421623 222.527588 -80.291801
-148.854568 228.911758 -73.977013
-147.517639 237.373901 -73.483032
-140.746277 236.634094 -75.927238
-144.907776 236.876816 -73.755402
-152.811737 237.959488 -76.069336
-143.912933 243.449448 -75.856926
7.232158 234.106720 -75.380447
-146.071640 239.789688 -77.851181
-143.453598 239.910675 -76.907310
-152.371246 243.400909 -74.966713
-147.268158 243.046341 -81.093750
-149.085663 242.441879 -77.668587
11.778622 245.461792 -72.055420
16.495750 245.085327 -74.842102
-143.497787 249.364670 -72.355240
-152.284683 248.805054 -80.926277
8.166387 253.907898 -79.784042
-146.962280 248.979187 -76.649590
-145.929169 251.976074 -76.485741
13.561553 246.228302 -72.708885
-144.224258 257.199829 -73.230743
11.078496 260.760254 -78.265228
6.606295 257.857635 -74.547096
6.517810 260.393402 -73.860603
4.871315 268.577820 -74.366379
-153.789291 265.098907 -76.491287
-138.116119 265.492004 -73.449654
-154.708694 262.535065 -78.563438
-143.267838 271.836609 -75.103226
-145.372421 264.298157 -71.464966
17.788418 273.280945 -78.301231
-13.896560 272.110382 -77.207054
-138.618835 272.100769 -75.812141
-8.436031 275.370667 -76.343742
-150.027420 271.292664 -76.528168
-0.490901 274.448883 -77.333755
-144.868927 275.397552 -75.659943
-1.461721 284.883423 -78.713585
2.651863 283.757385 -76.869080
4.932133 281.566711 -76.209274
-151.394287 295.537445 -79.477135
-146.603455 293.767395 -78.608170
-142.942078 302.479614 -74.208511
-59.857300 77.420036 -68.898712
-57.067692 80.078804 -75.642281
-74.456985 85.249390 -72.587708
-70.484009 80.476654 -74.156067
-51.246902 79.177116 -79.118057
-71.034706 80.909622 -74.116119
-40.002941 81.873222 -75.817238
-52.335232 83.867119 -72.643265
-40.312149 83.499039 -77.527245
-35.566547 83.082809 -71.405632
-27.120388 86.371063 -71.761673
-74.566093 92.132362 -72.376823
-34.006252 93.005821 -76.096222
-36.339924 88.572563 -71.932777
-81.140495 91.769951 -74.811836
-34.558094 96.040253 -71.394028
-45.186150 95.729279 -76.305405
-89.812096 114.263100 -71.718674
-79.957497 108.821251 -75.279579
-88.824135 121.436310 -72.451439
36.815170 127.875443 -79.364548
44.027599 130.391296 -76.465042
34.452763 136.303284 -76.136734
37.804752 137.620590 -75.328743
46.169716 138.409378 -77.228981
27.593090 147.399918 -76.512672
32.609116 145.243637 -69.852730
36.541233 145.147720 -74.450401
31.207199 150.508789 -74.535027
32.068424 156.900452 -77.210701
28.289099 158.314163 -73.859558
-38.303474 176.451767 -78.565178
-4.686217 178.649490 -77.125648
-58.936039 186.433594 -76.757751
-59.876251 185.736160 -76.650978
-14.857252 189.946777 -75.901161
-10.697829 188.725174 -76.365616
-21.231817 189.238235 -76.873955
-49.832729 194.350906 -75.894981
-48.260826 194.472885 -79.319016
-52.458744 192.281570 -73.169830
-25.064356 200.037781 -74.601608
-51.251663 196.147003 -76.251656
-36.302212 199.036224 -73.657623
-48.619076 198.740692 -70.110825
-26.247238 197.925797 -79.173454
-46.386837 204.941269 -75.604485
-44.226952 205.647675 -74.950134
-41.968010 201.079514 -72.912453
-144.091583 201.599915 -76.558884
-34.641171 203.581787 -71.769981
-142.535950 205.620865 -73.390160
-51.913628 202.390778 -75.663773
-146.424545 205.126602 -77.666748
-138.531021 206.043777 -75.698853
-137.376663 206.902008 -76.549530
-41.203739 205.737122 -74.460289
-41.361855 208.144073 -76.893822
-153.579926 210.529297 -77.330673
-143.164291 211.569855 -71.511520
-150.121689 207.118469 -71.226166
-149.097214 208.566910 -70.856659
-147.645676 213.119156 -74.609993
-41.273533 210.851944 -74.898018
-41.012039 208.818710 -74.982140
-147.653015 210.034073 -78.619591
-144.483078 215.327606 -77.988800
-144.614182 208.068588 -76.844040
-56.002972 207.896774 -73.660042
-37.306244 212.802155 -76.339127
-151.309784 212.248169 -74.487564
-143.912109 217.017609 -75.389648
-46.974472 213.243942 -76.047775
-63.796642 214.596008 -73.217796
-148.361557 213.549103 -72.844604
-148.143631 216.773773 -75.583046
-70.254570 214.443680 -77.418556
-56.351471 215.933411 -75.595535
-36.374985 209.608566 -77.038338
-35.181831 218.061661 -81.491142
-147.455719 218.575012 -78.939339
-144.689209 219.687881 -81.892273
-150.505447 218.840103 -73.355843
-77.899734 222.560349 -77.428635
-77.168449 219.074371 -78.007462
-80.116753 224.925873 -80.946785
-147.222046 226.495499 -76.620316
11.966361 228.366302 -75.550064
-144.947418 228.788910 -72.034172
-151.143036 224.799423 -76.161774
13.019537 227.504608 -74.506927
-154.325684 233.468933 -80.735886
10.331000 233.117706 -73.300323
10.706911 233.914902 -77.576469
-154.781479 239.461945 -74.941147
-135.676498 235.245255 -75.355965
13.613634 238.807999 -73.142128
-133.643585 233.960846 -76.267464
6.823022 239.839859 -74.252525
9.486706 246.608139 -79.211494
15.220331 245.848389 -73.630165
-150.677643 254.960373 -77.591263
10.947218 250.345596 -69.369499
12.541927 250.787460 -73.134193
12.352876 255.555435 -75.591736
18.412428 255.218231 -76.458740
9.688210 258.134460 -78.494560
11.614387 256.722412 -78.380066
15.614966 259.723114 -74.790161
16.266628 258.200714 -74.590515
18.888874 259.355011 -79.584267
-150.074066 258.352844 -78.767647
2.288791 261.660889 -72.232132
14.524268 258.712677 -69.506371
-1.305833 262.340851 -77.011040
-143.238647 264.070038 -73.929939
-136.370148 266.474884 -76.802979
16.533596 269.128723 -77.092529
-8.918699 267.068451 -74.112488
17.130836 269.168396 -76.202927
-151.997513 276.427185 -73.234375
11.530283 271.714355 -78.833054
-8.420873 275.345520 -71.112869
17.341799 281.904602 -74.765472
-5.770591 286.591125 -77.563667
-1.978384 283.630219 -73.311211
12.963284 286.300751 -75.725327
6.371194 287.627045 -77.888885
-157.466766 299.257996 -77.976952
-147.758911 300.841644 -71.132637
-146.446899 302.539001 -76.383614
-150.801697 300.735413 -78.931480
-152.406906 300.126617 -74.913589
-134.892761 296.900391 -80.930664
-140.609528 309.250366 -76.420013
-150.830566 315.835236 -79.588661
-57.522743 79.882103 -80.385269
-55.139717 79.074654 -72.792603
-59.588696 76.204216 -73.692528
-47.624840 81.662971 -73.556465
-73.650375 76.273262 -75.083336
-62.603252 80.883415 -76.668930
-40.594913 79.003082 -74.304604
-37.404083 79.867172 -69.665756
-45.082649 79.084320 -72.446609
-72.572075 80.546188 -74.286049
-41.017593 84.800751 -76.509636
-78.258949 78.099510 -76.542496
-35.749474 81.907784 -70.398827
-81.490517 88.412567 -75.579720
-87.957787 97.084099 -72.594536
-47.576935 98.029289 -75.302116
-87.495697 98.521584 -75.839775
-51.033363 96.143272 -76.974586
-51.860703 102.412537 -70.062454
-56.403885 103.136642 -75.322548
-61.578075 104.227470 -78.062149
-58.889709 102.315247 -78.018730
-67.535294 115.205536 -75.807442
-74.823753 110.593262 -74.811394
-87.704735 121.704010 -74.253471
42.688240 113.585472 -74.209686
45.082756 120.482895 -71.166779
43.228374 122.531189 -72.793190
36.012024 125.363152 -75.285919
41.123993 121.634850 -72.050903
34.852032 134.522018 -75.679306
35.001930 142.064621 -74.044472
35.796383 141.713913 -74.388474
38.729248 138.501831 -73.697762
33.706100 143.736359 -77.861229
29.569637 150.546722 -69.156403
-41.729382 165.007935 -76.522354
-53.672958 160.122711 -69.843178
30.711618 162.110306 -75.903671
24.271299 162.963440 -78.419357
-43.036861 166.138092 -75.016464
31.055861 166.526749 -76.694893
-45.996216 172.632507 -76.575249
-36.835518 169.217758 -76.846062
25.197283 170.626205 -73.665024
-39.214924 166.949585 -76.400558
26.229696 174.059937 -65.136200
-35.846455 176.762756 -74.106117
-43.535366 176.942459 -70.236679
-62.532455 179.709045 -76.665382
-6.586231 180.387039 -78.609856
26.910410 183.727081 -77.251495
-37.369366 179.386642 -70.348396
-58.227253 180.463058 -70.545395
29.859558 180.098618 -80.600952
-3.516875 182.767700 -71.337143
-57.346405 180.653198 -70.781029
-30.444767 180.510239 -72.861717
-31.392717 182.049240 -74.536644
-65.465462 186.416412 -71.469910
-28.210716 187.160629 -75.371758
-30.217838 187.342636 -73.743950
-56.154503 189.953552 -72.519943
-31.207273 188.983856 -70.865234
-25.853500 193.225082 -74.631462
-25.582157 188.212646 -69.908691
-17.827868 196.988220 -70.876564
-26.654066 196.423264 -70.418625
-29.592539 195.221970 -75.184296
-28.798031 199.709732 -77.355530
-25.935394 197.558517 -73.878967
-147.201996 200.976395 -72.665611
-143.709991 195.079620 -77.745445
-28.195599 200.703674 -75.003250
-26.180357 197.347961 -76.880989
-147.969482 202.010864 -72.798698
-18.063129 201.650787 -76.677063
-34.478554 197.535965 -79.598190
-25.392212 200.051300 -78.612991
-47.117599 207.193344 -77.340942
-33.835735 204.422974 -72.443604
-25.658442 200.637207 -74.483414
-39.650715 201.835419 -71.221451
-21.578381 206.065491 -74.983566
-149.638138 205.897507 -72.457825
-39.709988 205.123489 -75.522224
-48.527821 203.528702 -76.011223
-144.905502 207.410172 -75.758698
-139.564468 207.505157 -74.034721
-148.783981 206.917160 -72.276527
-34.029240 203.654602 -75.623421
-132.534958 209.272202 -72.441628
-24.132874 210.701508 -72.879471
-48.774586 204.962997 -68.620689
-42.236160 209.837540 -74.648773
-16.330906 212.537750 -77.916435
-129.989594 210.790070 -75.967560
-22.285841 208.081894 -78.021126
-56.467167 210.267548 -75.544777
-47.286526 211.135986 -73.212135
-10.126186 209.294540 -71.485992
-36.553619 211.322937 -79.473923
-50.923153 216.070175 -74.815788
-35.166203 217.721832 -80.039963
12.949035 216.015045 -73.174309
-71.002396 210.513947 -76.522957
-58.974907 218.131287 -74.516251
-31.437881 216.326797 -74.491257
-32.849800 219.770035 -71.384270
-59.765770 221.971542 -75.090431
-8.496041 218.840012 -72.905067
-147.751358 225.554291 -73.816788
-9.896267 222.704895 -74.544861
7.829689 223.607712 -71.331970
-77.026596 228.525269 -74.254814
-28.333054 222.203613 -72.181366
-30.542099 222.861130 -74.742989
-83.257919 221.375610 -70.392456
-79.898460 222.850128 -74.434151
13.264787 217.785080 -76.572174
14.169461 223.675018 -78.569061
18.807051 225.922455 -73.117378
-11.058985 227.502365 -74.708847
-11.649738 232.571030 -77.250740
-4.538545 228.798569 -76.451515
4.202746 229.450348 -72.715271
-1.821140 228.553406 -74.982826
-4.077881 236.570251 -72.704132
-3.403640 233.285965 -73.507896
-4.743744 238.629654 -79.343925
19.080702 233.163208 -75.743210
-0.800080 240.271088 -70.742142
-136.053940 239.317413 -76.028008
-151.693848 245.325363 -75.126793
-143.719269 244.416809 -75.802544
-152.511230 240.896622 -70.286308
8.493713 244.115417 -72.239296
-143.270996 242.695709 -73.560165
19.687798 244.561111 -72.343918
-27.268167 249.726791 -72.453156
-35.080700 249.097214 -74.493179
-31.143078 251.395615 -75.361633
-40.045849 251.486450 -71.359894
-32.660564 254.075333 -71.018280
-36.308128 249.708282 -75.842422
-31.256014 254.800995 -71.738083
-41.085522 257.873749 -73.890419
-36.771816 253.891403 -70.581963
9.615310 255.980988 -72.175026
-2.427064 261.172943 -76.608467
-0.061553 261.696442 -75.112984
15.645568 258.275269 -76.975601
-10.946939 267.037292 -69.918922
16.396177 268.846985 -75.345177
-148.063187 271.410767 -73.185089
18.650631 267.235718 -77.839401
-153.448517 269.113983 -73.910690
10.368286 274.950592 -78.624092
-151.812881 281.599091 -70.802025
-8.003551 286.364349 -73.900444
-148.965164 284.620850 -67.774330
-149.195663 289.064484 -81.624352
-148.120926 286.016998 -72.070107
0.785788 285.161072 -71.551003
9.514585 294.431915 -75.728691
-151.331696 293.570740 -74.914413
-146.383453 289.994934 -70.699852
-153.071915 297.560883 -77.874924
-143.323624 292.527283 -75.308693
-141.074661 297.032623 -73.237244
-160.999283 298.197815 -74.908875
-148.832947 296.540619 -73.644447
-131.025116 303.332642 -74.489807
-142.093506 298.776794 -76.158310
-161.439758 301.166229 -73.375374
-149.909729 299.720215 -71.468735
-157.110016 298.506897 -79.293098
-154.181213 307.759460 -79.746414
-154.969574 304.651367 -73.372658
-143.142380 311.676544 -71.478905
-148.879364 308.022736 -72.909882
-57.615009 70.169769 -74.541954
-51.183018 69.250221 -74.246323
-66.775520 76.938263 -72.748535
-58.976788 71.371513 -73.943199
-68.553345 76.627625 -71.298462
-45.228397 78.482201 -71.822319
-77.938606 79.670036 -77.490799
-31.362530 80.927315 -73.087158
-33.500534 87.648216 -71.608444
-26.985668 88.259499 -68.553429
-81.110260 89.665817 -75.690384
-27.197084 86.746674 -74.732193
-85.857338 93.514381 -72.223541
-88.326134 104.485893 -71.704391
-77.447884 108.940323 -72.211800
-77.912788 110.840744 -68.433029
41.648251 118.436150 -77.494278
44.449024 115.148666 -73.608177
-77.514137 113.816475 -71.458702
40.635868 117.799446 -70.291122
-79.248604 117.481743 -77.753418
-85.756836 119.179062 -72.393791
49.752705 119.962082 -75.836884
-86.589684 118.231819 -74.428787
40.749008 123.688438 -74.935181
47.816532 127.679314 -75.053581
42.807758 129.970261 -70.773712
40.378807 132.408813 -72.000259
31.084343 131.480545 -69.740967
32.367065 130.933777 -71.153290
37.867252 134.763733 -74.753242
31.610769 141.260620 -73.112846
34.574814 140.287476 -72.601974
32.242226 142.628967 -70.309578
32.467068 147.667191 -75.898071
41.962162 142.947479 -71.906441
32.654766 149.025620 -76.466003
28.987169 148.142532 -74.579063
29.238451 153.669510 -72.232399
-43.209305 155.393021 -71.148399
25.739300 160.951752 -67.638092
27.120560 155.736786 -73.905724
-49.726135 164.161667 -72.143021
32.204926 158.859116 -74.061829
-40.577633 163.502045 -72.841301
-43.769630 163.080566 -74.221252
21.705208 166.905243 -69.313606
-42.160912 167.919449 -70.848618
23.556940 166.807663 -73.139832
-65.593391 172.554596 -72.611443
-46.096630 171.018906 -69.471451
28.397089 170.342316 -72.115570
-63.393944 175.522293 -75.203857
-64.099892 170.528671 -75.020119
-32.313084 180.857162 -75.197357
-4.748504 176.084702 -73.370857
-61.170708 178.037567 -75.731590
-0.901402 175.873032 -72.378448
-29.912161 176.788727 -74.990089
-41.216198 179.284988 -71.649139
-62.187061 180.683823 -68.208893
31.706926 178.296570 -72.326881
-7.664716 182.135910 -78.212990
22.085051 182.883911 -70.324120
-7.699477 183.500504 -71.570709
-5.788589 184.746719 -75.747490
-36.661690 183.251740 -73.952309
-28.693245 181.814972 -70.546822
29.537020 188.491714 -76.727478
-7.833817 182.033340 -69.891350
-26.553246 182.505753 -71.892654
20.455553 191.648605 -73.547714
20.822281 191.411713 -72.232361
-34.312794 188.437454 -70.134995
-55.004238 191.548874 -76.304955
20.617928 189.734665 -74.591675
-46.561802 192.548477 -77.853035
-52.494061 193.101730 -73.369797
-54.682419 186.204987 -72.835175
-18.925135 187.908142 -75.002846
-52.137142 195.096985 -70.528183
-148.669495 192.726166 -74.891907
-47.089325 197.544113 -71.206772
22.103893 199.659653 -69.314964
-30.266706 200.665436 -76.615387
-37.853237 198.600906 -70.248772
-24.096922 196.621521 -70.640785
21.153807 198.578522 -76.619011
-24.158865 197.192810 -75.413635
-45.947849 196.152542 -73.870392
-48.660522 200.868332 -70.859520
-21.253836 203.963745 -72.460106
-145.467972 203.161850 -72.900650
14.559071 205.103149 -74.509621
-19.778080 207.073059 -69.370010
-47.854023 205.934174 -76.250977
-17.899485 215.179718 -68.858261
15.262014 208.201080 -74.279114
20.626549 208.172943 -68.761986
-40.263950 212.085297 -71.392990
-47.678059 211.888016 -74.802803
17.434401 209.071259 -73.860451
-143.956345 216.016281 -70.996933
-149.996689 209.789780 -74.299515
-17.854450 211.643661 -77.914650
-55.350235 215.662140 -74.373314
-150.321976 213.327316 -72.662689
-140.776688 213.798431 -73.957481
15.922091 215.838516 -72.805901
-67.027985 213.630020 -76.844406
-58.749218 216.802109 -72.639488
-69.951027 218.684357 -75.975937
-60.474754 219.305466 -74.527863
9.136611 221.793610 -72.535339
-60.103264 220.899918 -72.762268
-79.809540 217.535324 -75.605171
-11.186331 223.183487 -71.260422
-61.335552 215.420105 -72.907829
-16.300817 221.710709 -75.240112
-81.832375 221.278366 -71.519630
-3.722855 223.064621 -77.394730
-70.074196 220.357407 -73.676353
-78.268555 222.373871 -74.059944
-23.279713 224.564972 -71.892441
10.159948 230.916611 -67.871063
-32.832607 220.624390 -70.355721
-85.531044 227.720184 -74.078682
-0.498137 226.984116 -75.708435
16.187180 225.925552 -75.856850
-26.302876 225.100632 -75.445831
-27.149368 231.176727 -74.473869
15.304091 231.987015 -67.417366
-11.041509 232.123413 -69.818344
16.258614 231.837021 -68.791183
-2.704883 233.341370 -70.010704
11.940962 229.796112 -74.387405
-7.902658 232.788452 -70.992897
5.240567 234.046814 -70.955971
14.062605 232.510223 -75.406548
-141.379425 239.167847 -72.043152
4.075227 232.556732 -73.245186
-150.142349 237.633057 -79.312698
-147.270340 242.019165 -74.433929
15.452576 239.054520 -72.975151
-151.577759 232.432205 -73.340714
-148.173340 242.667206 -70.873352
16.740154 236.924316 -76.772705
-148.421783 240.403809 -76.147926
4.201531 244.310043 -77.267479
-4.185816 242.121460 -75.251083
0.200515 243.978348 -74.603310
-0.296212 244.542542 -69.117538
12.111976 248.823746 -75.312508
19.914907 243.578857 -69.909447
9.179087 246.985687 -71.364304
-22.576195 252.778946 -73.658081
-33.767143 250.342941 -77.042572
-19.649158 248.034515 -70.724991
-45.387180 253.039383 -73.502266
16.582659 253.165192 -77.706810
-29.620600 252.486816 -73.210983
8.430736 247.544510 -73.611122
17.926056 247.233932 -75.745293
-55.579639 252.948807 -77.080246
-30.783527 249.022552 -75.165085
-50.984451 255.955032 -68.975662
-44.875370 255.726181 -72.161842
-52.756111 258.110321 -73.185600
-44.432652 255.898544 -71.661263
-41.390491 259.118713 -73.447540
10.458032 258.984619 -75.023132
-154.291229 256.388489 -75.195724
-143.517349 255.694641 -74.668816
9.882220 254.866287 -77.640015
-0.055242 262.399323 -73.687988
21.967422 257.347900 -71.918495
25.717796 257.149689 -69.447998
-148.772934 261.827087 -68.328484
-146.685776 263.963196 -73.813942
-154.783005 268.753082 -75.568939
-141.141129 263.062744 -74.711098
-9.011535 262.122681 -71.701401
-156.451584 269.573486 -77.791626
-148.229294 265.616180 -76.146309
-137.300095 267.270172 -73.517548
-134.919922 274.181213 -73.800774
-140.650146 269.326477 -73.078217
-8.306716 272.988129 -74.712845
-144.173782 269.625275 -77.517883
20.543671 268.529572 -72.233253
20.184526 269.205383 -72.919243
-148.871994 273.692322 -73.649979
-141.168793 273.056183 -71.168274
-150.657684 278.125549 -71.088638
16.990051 278.150787 -71.247696
-153.858170 286.608429 -73.524612
-146.637146 278.666840 -73.940056
-150.960526 285.174072 -74.940788
14.930326 280.531433 -74.603264
17.860622 286.479492 -72.251350
-11.494875 287.525848 -76.242859
-153.407898 287.013000 -73.013680
-0.021846 288.181915 -73.983887
11.787200 287.673035 -72.477112
4.210988 289.944702 -72.234329
-155.096191 290.454071 -78.185722
7.611995 291.180634 -74.256767
-133.583908 302.299896 -74.259811
-139.375885 301.914612 -73.973976
-136.524918 301.539307 -70.706764
-136.337967 301.345123 -71.410744
-141.525101 304.655823 -75.184135
-142.790604 303.005035 -73.659683
-151.473785 300.948730 -74.870209
-147.094757 307.633240 -73.832413
-151.301895 309.228119 -71.233841
-148.345871 305.926910 -72.206825
-149.272827 310.045135 -75.662659
-58.861378 66.019600 -77.497208
-51.523685 74.712685 -70.309402
-60.923698 69.559616 -72.586327
-69.219360 72.403313 -66.581955
-64.878235 69.871536 -77.558800
-51.955830 71.144539 -72.367668
-46.352535 72.507614 -75.591736
-45.379135 70.840363 -73.454033
-37.228924 75.522598 -70.394653
-75.576263 76.525780 -70.399818
-75.483513 78.720535 -68.889908
-36.270981 74.985634 -73.101814
-78.486580 72.717430 -72.340248
-28.020292 80.155739 -70.362015
-27.976564 82.664223 -68.558479
-24.712044 83.503471 -69.921455
-86.741821 87.953911 -66.749939
-43.438751 94.774948 -74.986595
80.443893 92.413994 -71.144814
-38.997089 98.123291 -69.654854
-45.270046 93.203735 -68.924965
81.849670 98.837524 -68.534767
-53.178543 100.532181 -74.203125
-61.591839 105.613243 -75.226402
48.600594 112.399529 -71.167114
-71.823616 112.504631 -72.788452
-91.660202 109.248482 -72.516502
45.741962 107.895767 -74.115425
52.265976 117.161263 -67.799194
50.305325 122.931564 -71.317726
43.617821 125.895096 -70.676270
45.758503 121.092545 -74.794220
42.516502 121.624039 -74.281754
40.343464 126.292244 -70.976654
37.417797 130.256516 -71.630814
41.679344 127.767494 -67.218521
29.412355 133.290161 -72.880287
46.458839 136.391510 -75.221321
40.586884 139.152451 -74.801437
28.156023 143.902145 -73.096657
26.950069 152.506989 -73.879639
-46.089096 148.834854 -73.188393
34.060780 156.878174 -76.206787
28.241352 151.125168 -67.370293
31.226217 154.243729 -71.773277
36.160309 163.163330 -75.945602
36.705616 157.887482 -75.033119
-40.415413 165.372345 -70.899994
25.291000 163.152023 -70.476089
-39.067070 166.117477 -72.653374
-67.353394 168.891907 -67.277626
-64.044960 162.383118 -70.884727
-38.825668 165.477997 -71.677124
-67.508492 167.098282 -70.765778
-45.877357 173.474747 -68.627693
30.250433 172.215897 -74.308350
-61.569557 171.496262 -72.211563
25.809843 171.242813 -70.780594
26.513741 171.803604 -68.745285
-64.759857 178.151764 -74.836929
-36.210590 169.658630 -69.886154
4.636679 172.598465 -78.699806
3.824559 173.595978 -71.784721
27.200388 176.428864 -73.337189
-25.741159 180.800720 -74.601532
-5.418073 178.512253 -71.676132
21.978819 177.840683 -74.811714
-37.071419 177.941452 -70.551384
20.181501 178.915817 -67.746864
-29.888920 177.483749 -67.757324
-37.762032 176.552200 -70.510056
-42.748466 179.089417 -71.334862
-61.409176 180.674255 -73.166405
-59.994217 184.378754 -69.858749
23.762297 179.339355 -74.807297
22.597870 183.266739 -71.624344
-56.403214 179.511780 -68.891380
-34.407673 184.593948 -71.315002
-16.585836 188.585846 -72.203575
-31.208731 183.588028 -74.148735
-56.356808 184.917542 -74.833580
-9.610888 190.699509 -68.201416
-60.664570 187.433151 -74.209076
-37.127151 191.079285 -70.605370
-29.655891 188.125931 -72.385674
28.252226 195.518280 -74.570183
-23.751190 192.277756 -66.961182
-56.299038 190.499451 -74.871429
19.658571 192.704926 -71.728828
-53.662670 191.495621 -70.942886
-49.846687 190.784607 -76.921448
-16.575663 195.155411 -69.621849
-55.682091 192.931290 -77.773560
-31.695353 198.524719 -73.088371
-31.335371 193.213684 -74.761703
-23.160189 189.128265 -70.447182
20.686785 193.381348 -75.368919
-49.730427 197.075424 -78.272545
-26.607222 194.702744 -73.574913
20.225216 192.924683 -68.082352
-48.919231 196.944336 -76.072205
-27.993916 200.273727 -77.024033
-52.248844 198.871994 -71.246117
11.588522 198.614853 -71.209785
-42.561558 201.527267 -74.776665
-18.375851 200.008270 -74.944878
-20.032423 201.427216 -71.255157
21.809084 198.339600 -73.721573
-41.929935 204.698074 -73.531227
-151.983688 203.412125 -70.961647
-49.980743 205.171234 -72.100235
-17.423229 202.175369 -74.389824
-44.304768 205.632874 -76.489182
-22.670095 202.327072 -71.882095
-21.148270 206.008163 -74.702744
-38.583946 203.008621 -72.750183
-37.814743 209.435074 -70.928215
-22.105360 205.822205 -68.948044
-19.807116 206.830490 -76.468338
-144.991257 206.149567 -73.988747
-41.957550 206.694733 -74.281631
8.970473 204.345627 -70.370842
-39.788898 207.968369 -75.850868
18.155777 209.628540 -74.062370
-16.696644 211.958801 -69.304039
-31.403051 209.968582 -71.647659
-16.426756 215.120728 -73.145584
-62.050842 215.200729 -71.868340
-38.022907 214.232315 -73.309013
-17.096922 213.878021 -73.092117
-65.187424 219.630661 -71.385208
-67.637451 214.912201 -70.401703
-36.044937 219.237061 -69.145386
11.466238 218.327148 -75.069664
17.252481 222.621704 -76.385933
-67.711670 217.206589 -73.230568
-10.168882 220.315445 -71.151176
-68.765343 221.334915 -68.161972
-10.530930 214.862946 -73.075615
-149.785400 222.229050 -72.213326
-30.446707 226.647995 -70.366768
-14.853306 222.835831 -70.873383
10.347429 222.482605 -68.805786
-85.841911 226.858810 -68.805977
14.025671 225.816269 -68.206833
-72.578140 220.027435 -73.665848
-81.507805 226.412643 -74.290154
-13.924194 220.441772 -74.945686
-8.133040 229.215836 -63.180248
-144.157333 225.894577 -72.165665
4.913976 227.137039 -69.036583
-22.885754 230.486984 -76.952591
-26.471781 225.790298 -74.718819
9.945015 228.169464 -71.983208
-24.923635 232.090027 -71.836357
-8.868380 231.313538 -70.807922
-16.730326 232.270081 -73.185730
-144.827454 234.592026 -69.549995
-153.220917 230.390106 -76.986221
-17.649897 233.127930 -70.007423
-5.877769 232.938080 -72.278793
-3.101198 232.109421 -73.035294
-148.409607 235.792252 -75.184814
-140.539093 232.814575 -68.073746
16.350832 236.751434 -71.226852
-141.402893 235.615280 -74.595352
-140.585007 243.810959 -73.775551
-0.925512 234.798874 -78.251923
13.194327 238.762756 -77.047760
19.410368 238.407043 -72.449379
-132.484604 242.734436 -75.142113
-145.251740 244.551285 -68.681015
8.569846 237.827209 -72.545662
-139.346634 240.851608 -68.249329
-156.593155 245.931946 -72.808594
-141.014267 241.859329 -75.532166
-0.759123 237.009888 -71.574242
-141.288223 242.324173 -74.217331
6.431290 247.014542 -74.319733
-152.479095 242.321777 -73.814728
-143.309052 239.211090 -73.057236
22.133717 248.191879 -71.971748
17.281000 245.914001 -76.001740
-7.178530 248.544724 -73.222321
-147.937912 242.989746 -71.604752
-23.293100 246.491913 -67.164261
5.443429 246.368927 -72.961655
-26.446308 247.881531 -70.328163
-18.119856 245.943207 -69.273880
-148.396133 245.712173 -74.319275
-143.443161 248.040161 -75.219131
5.630426 255.851135 -71.665306
-148.890274 251.602173 -70.942833
-22.661573 250.776016 -73.495560
-49.303844 256.616852 -72.451347
-20.644030 254.379150 -72.069046
-34.224136 259.618439 -75.034378
-56.801414 253.597580 -72.541977
13.570584 256.108521 -73.791382
-60.293148 255.610382 -78.114563
-2.027614 257.814545 -72.978737
8.052605 255.007217 -73.004143
10.950134 257.862671 -70.793686
-58.929504 256.702057 -71.974030
-149.906586 259.610962 -71.756371
-54.025585 254.725113 -73.474617
-63.985027 256.551025 -70.645882
-55.482113 257.874512 -72.292603
11.967723 259.057953 -70.312355
-10.134311 261.060852 -75.407013
-7.565656 260.466461 -72.340622
-150.545181 262.536835 -72.086105
-145.379990 266.290802 -67.161903
-138.002792 266.397675 -68.600800
-136.084396 265.853943 -73.724983
-10.178998 268.746643 -70.420906
-133.364990 270.577637 -72.631325
-141.828552 270.802277 -74.059395
-16.012789 273.923065 -72.251961
-8.732709 277.630249 -76.281448
-148.640152 283.724426 -71.496948
-150.016235 282.288605 -75.345650
-149.653610 285.414764 -71.848709
-145.631500 284.453186 -74.077187
-153.133804 284.824860 -71.840088
-150.913803 288.808533 -70.221939
-2.660730 285.565979 -70.593079
16.638758 292.344635 -72.224754
16.359159 290.759064 -71.862015
-143.645081 295.118866 -71.565140
-154.685883 292.101715 -74.605530
2.112634 295.568604 -69.471458
-142.260696 292.840240 -79.008293
-138.592361 299.365875 -71.040840
-19.847912 293.715302 -73.442169
-44.244423 300.067169 -71.482048
-24.506920 298.990082 -70.895409
-28.861319 298.552460 -77.251114
-24.267792 298.659912 -75.123550
-18.438145 298.567444 -71.981323
-13.723600 298.206543 -69.469063
-139.328598 299.545532 -70.486420
14.361010 298.360748 -74.582771
18.151339 297.982910 -70.902962
-143.250397 304.149841 -71.651237
11.189748 295.634735 -71.881485
-145.264008 305.831146 -71.378769
-152.495193 311.368744 -73.823227
-153.745255 316.497131 -73.658493
-149.386658 319.717804 -75.813629
-152.648560 321.226288 -74.486305
-148.182343 317.032410 -74.241501
-143.632126 320.805664 -73.731277
-60.522949 66.384468 -70.971321
-55.187832 67.213287 -66.563995
-44.677025 71.184723 -71.982674
-74.545296 71.524239 -71.951530
-49.615875 69.192780 -70.190605
-45.001431 68.148933 -69.471100
-42.857533 74.053429 -72.552887
-33.969578 73.390121 -69.116829
-75.289452 77.276649 -71.550034
-25.904230 78.845284 -74.352982
-25.453012 77.676361 -69.330284
-31.168167 89.941841 -76.753197
-29.248646 89.899948 -73.390884
78.968193 89.023125 -69.479599
84.881805 97.830589 -75.846649
94.133095 88.933258 -69.527458
91.647522 96.647667 -67.741951
76.357864 94.135872 -72.208130
81.493645 96.931244 -74.741669
84.726280 95.503578 -73.800110
81.121056 100.048660 -71.427406
88.511864 96.167633 -70.218361
-44.502720 99.201538 -70.978607
80.060341 100.590973 -72.423347
79.098579 102.102058 -73.854530
87.458977 100.405518 -69.524155
-58.868332 100.733093 -68.020737
79.069092 99.921463 -73.740906
-57.780930 101.430756 -70.495544
86.434715 103.713188 -70.910194
-59.324986 106.819817 -75.364014
54.781036 110.710770 -71.265755
41.048443 114.202957 -71.459328
-88.017639 119.114159 -68.891975
43.535057 119.098808 -74.837547
-83.968262 120.844841 -72.563759
50.615017 121.196358 -71.524063
-91.382965 121.842422 -69.878136
47.314606 129.670639 -70.705444
32.370060 129.923218 -70.252487
42.728104 136.997055 -69.674248
39.386265 137.360413 -71.698311
32.042686 140.411407 -72.498230
31.158684 138.498169 -68.668709
39.764278 139.340561 -67.966034
39.874508 144.207184 -71.664360
-48.668552 145.216721 -69.090347
25.813669 154.784149 -68.396217
-49.005291 156.590485 -74.288734
-49.660610 150.433640 -69.007698
-55.465839 154.883286 -68.377861
35.929775 155.896790 -70.105980
-50.001106 155.019318 -67.326599
-44.056648 161.319138 -69.751221
-45.472557 158.067535 -68.339844
111.328957 160.336945 -72.331970
-52.701302 156.932358 -72.138542
-47.049778 161.304779 -72.671753
-41.452724 162.274765 -74.457016
26.081882 164.544067 -73.988640
-46.633930 164.264481 -65.770378
-73.022377 167.867294 -70.124588
-69.660713 163.819702 -75.124985
109.389496 167.876083 -71.290855
115.603485 165.501328 -67.554184
-49.200336 166.755280 -73.679764
22.431213 170.434235 -70.807198
111.290787 174.560196 -71.804855
-33.880516 176.161591 -74.419128
3.284444 170.157120 -71.535034
28.904671 172.919174 -65.557083
112.466743 170.822159 -67.733467
-60.610176 179.292435 -71.000618
-39.689568 174.405853 -75.357567
-64.468620 175.631378 -72.153023
112.902916 182.459854 -70.512627
1.152106 181.235153 -70.943428
25.203768 185.325409 -71.600510
-60.192612 182.865036 -69.882584
-13.873060 182.309402 -71.498077
-62.734425 179.839050 -72.911026
108.112160 177.183319 -71.885231
-62.370617 180.659302 -71.765900
-54.071415 180.281128 -68.952652
-12.976939 185.428009 -72.011353
-5.830086 178.631897 -74.869652
-57.119701 178.169388 -74.510971
112.206970 180.529099 -64.276497
112.041565 176.308533 -69.725426
-26.235298 183.332306 -72.281868
26.655138 184.339706 -75.357933
111.184372 182.732788 -72.749519
-36.766693 184.986771 -72.661636
-12.071493 185.825195 -72.730125
-6.325920 188.549332 -72.868782
-23.324543 187.940948 -71.685066
26.028660 188.432632 -68.603363
-56.030994 186.217819 -72.037445
22.702967 187.459946 -67.904144
-55.094749 185.798370 -75.699265
-10.357275 185.822281 -64.836815
109.182274 184.711716 -74.397598
-13.179626 186.228973 -72.909996
102.830559 189.371124 -70.008850
-21.720482 189.782349 -73.533051
20.380245 185.106491 -78.039207
107.124817 192.493195 -73.278770
-52.056435 190.905075 -74.224571
111.571350 196.471054 -75.547691
-50.646564 196.975372 -69.611046
24.271992 197.150696 -71.443634
-58.782932 190.012665 -70.149277
-33.605324 190.654343 -72.488190
-17.832769 193.099243 -70.819901
-26.576313 202.118561 -69.957115
22.884314 196.021957 -69.136932
-20.818518 195.163010 -74.688179
-151.308685 197.167679 -71.722755
-52.743835 195.560822 -74.431976
-45.772243 198.379211 -73.559868
106.682724 195.698029 -70.588943
-51.954357 196.009460 -77.526825
-53.501892 196.176773 -73.499100
108.722878 198.959656 -70.625916
-28.882881 196.475998 -68.847984
18.909027 196.413101 -70.050812
-139.260544 201.375519 -72.900810
102.412605 198.835541 -72.423691
-47.678638 201.654617 -73.791145
21.095570 201.752197 -68.485321
-48.196453 203.789215 -76.546539
-44.297836 203.412567 -75.642548
-141.187683 203.590210 -72.597412
95.814980 202.661041 -74.252365
-41.594025 208.183243 -72.138451
18.990101 206.847092 -66.790108
-142.358170 204.995056 -73.034439
-147.936081 210.177597 -71.460480
-46.050316 208.859680 -71.691696
95.683060 205.046524 -76.648262
-140.223831 202.416977 -71.634659
-40.732498 204.162720 -70.837059
-143.598404 203.416321 -69.000191
-41.812035 205.532166 -70.015755
-17.653931 207.969223 -70.293770
-15.161235 205.748413 -69.441429
17.063066 205.287109 -70.474976
-135.365326 207.859756 -72.272415
-42.007980 210.799255 -71.295868
-35.789276 207.919312 -74.818405
22.339798 205.247284 -68.598747
-24.462704 213.705261 -73.445297
102.302727 202.040207 -70.695183
10.475212 209.108002 -72.653244
103.604187 210.306763 -71.642639
-24.419544 207.353149 -72.405365
-146.360107 209.585709 -69.386139
99.328583 214.966248 -71.621361
-149.105286 205.435150 -69.133430
-43.428143 209.277298 -69.236885
14.404327 209.196198 -71.000771
-132.237778 213.935913 -69.901039
13.069513 215.985199 -72.741852
-14.603703 216.806137 -72.711121
-147.554489 209.948547 -70.184814
-37.307068 213.191696 -72.196518
-34.635540 214.120163 -68.899300
-145.811340 211.574356 -75.864143
-144.755600 213.909042 -75.504044
8.866169 212.273590 -71.016663
-149.428101 216.725967 -72.959633
98.770981 212.180161 -68.253540
-145.706924 217.220459 -71.860222
10.839289 214.186249 -65.924904
96.885292 214.085144 -71.688873
93.451736 218.462723 -71.174446
-70.066185 218.765549 -69.195442
-142.033585 219.010834 -71.252007
-75.691208 218.739944 -71.789742
-31.575972 220.294006 -64.636742
-23.925127 218.204742 -68.991035
-13.635072 220.953812 -72.290741
-39.367535 217.691635 -68.631950
-152.260117 216.410706 -73.373734
-78.707893 225.920425 -68.629295
-67.251328 220.143494 -72.327690
-28.749668 226.019989 -76.584930
94.631226 219.220200 -72.601555
-5.735764 221.759583 -68.315262
89.622650 216.839035 -72.611160
-155.493134 222.815323 -74.839981
-74.384125 225.751999 -69.189384
-35.031506 220.389954 -74.247299
-26.368242 221.805603 -69.640862
12.178198 221.651596 -75.244942
-30.477491 220.476135 -69.948997
-23.759315 219.372787 -69.836700
90.882919 222.633743 -73.951767
-85.592491 220.876617 -70.518494
-10.095505 229.754181 -72.946487
87.510170 221.038544 -71.575562
-87.314384 229.150803 -69.634468
-77.627426 222.454697 -71.112732
17.124712 222.240051 -73.922623
16.313204 222.797653 -71.252487
-22.082161 225.516312 -70.892677
85.890236 224.956619 -70.571770
-151.681244 227.140106 -71.630325
-90.475372 226.841476 -70.530304
-87.389153 224.206253 -75.246857
-147.094620 230.210236 -73.207191
-5.843367 227.138092 -68.975136
-6.621296 227.810303 -72.896729
-145.706039 232.993607 -73.862404
-18.037771 228.426636 -71.357613
-11.084305 230.270386 -71.790817
17.257828 231.548615 -72.713928
17.047060 233.751755 -73.002182
-18.483583 234.155060 -74.132378
-9.720304 234.684204 -77.011269
3.844120 237.473099 -74.324516
-155.260834 236.183731 -74.153717
-135.810226 236.506531 -72.738953
-10.903307 234.645615 -67.509171
-138.330215 234.842117 -70.692345
-2.993206 237.189209 -72.033852
4.620850 238.919540 -73.809433
0.740473 245.651276 -73.678238
-6.750601 238.215118 -72.126305
-137.427780 240.043167 -68.936966
-137.948868 238.287018 -77.238640
10.521005 243.670853 -70.750923
3.920042 243.534286 -75.403877
9.520612 242.471466 -73.165405
-146.413177 242.657608 -77.335365
-150.787308 246.908524 -70.615738
-0.837735 243.475967 -70.002594
9.227604 244.513535 -70.093246
4.888456 244.272217 -72.994148
-21.014641 250.704941 -68.807838
-32.634865 246.527206 -75.589828
4.445248 250.234665 -73.428207
11.653955 249.771301 -72.773079
-38.919510 248.955872 -72.128479
-15.581695 253.121384 -71.450150
-48.142113 253.940155 -70.824020
3.596694 247.819901 -70.033363
-142.703842 255.077530 -72.096275
-144.532959 249.339340 -71.855789
-19.001297 251.170013 -66.783066
8.741483 255.151077 -73.630058
-24.239841 257.911896 -72.484627
12.139265 255.223587 -71.368210
-58.600098 254.386047 -71.594795
-38.569405 258.556091 -68.417076
8.826817 253.772675 -72.690285
-148.209351 256.288177 -73.110046
-143.246994 253.725662 -74.246033
15.021873 255.074799 -68.870605
-142.206406 254.255157 -71.196815
-44.439350 254.395050 -71.774391
-67.440376 257.805939 -68.460686
21.098427 259.057404 -72.159973
13.324423 260.101868 -74.716179
23.480980 261.205231 -71.468513
19.752899 257.988922 -72.351784
-65.038506 257.175232 -75.054138
-58.779263 255.666458 -70.696121
-64.248695 262.149109 -72.286095
14.288017 266.297760 -73.607094
-149.494034 264.973907 -72.366341
-151.812790 262.513916 -71.450005
-142.620224 269.466766 -68.972565
-150.685532 259.352844 -70.507133
-11.476590 263.962036 -69.421753
-132.845993 267.295593 -72.379227
-11.303068 270.260529 -73.062141
18.638832 265.159821 -71.448715
-137.984695 267.952148 -66.399986
-11.877125 275.899109 -74.692291
-150.147491 272.954620 -74.019043
-143.710236 275.351593 -72.208008
-147.893387 277.907318 -72.990456
22.015480 278.776184 -72.847946
-152.039825 281.192505 -70.759705
19.880421 283.286713 -70.451851
-146.252518 281.575958 -72.675941
-10.525720 279.360352 -71.834007
-4.669025 286.292694 -75.202385
13.395033 287.573975 -70.602287
-4.840305 292.109985 -72.544312
9.279691 292.001831 -73.007790
3.197990 295.315369 -67.088608
-25.557203 293.515167 -67.494850
-31.251522 300.238251 -73.577454
-48.087952 295.201385 -74.607155
-41.075233 300.176208 -75.051300
-132.812057 299.426666 -73.196106
-15.408628 298.087067 -75.280609
-5.656340 298.148224 -69.260956
-132.115463 296.665009 -65.485748
-32.118057 300.225159 -71.300041
-28.538694 293.426453 -72.837250
-121.361923 294.378540 -67.178375
-55.333374 295.290710 -70.761139
-2.308377 300.047516 -73.864151
-124.796089 300.993164 -72.245689
11.282698 299.604401 -71.093391
11.918976 298.601379 -70.005913
-51.055176 298.111237 -70.475601
15.032925 299.280914 -67.396751
-129.536102 296.493042 -71.697601
-122.047432 300.286346 -70.019974
-36.908634 297.417969 -69.395355
-1.680652 300.786774 -71.077454
10.926413 306.206390 -77.133705
-133.087967 298.135376 -75.499641
-39.869282 300.254028 -67.486984
-38.995106 301.334320 -67.970192
-34.786079 302.707458 -71.145393
-2.773667 298.373352 -73.542671
-27.778896 296.337982 -76.788574
-13.690233 300.429749 -72.321976
-6.946646 296.182251 -74.773880
-6.238736 300.882294 -70.146072
11.209658 299.884399 -74.801163
9.938641 305.250610 -71.061172
-155.951630 308.798859 -70.800232
-146.832718 309.951874 -72.416428
-145.379288 317.503845 -73.493324
-154.023163 316.635742 -73.508263
-146.376053 318.982208 -73.164055
-153.153122 319.592590 -71.308189
-158.633820 317.105835 -72.025124
-66.314507 70.648102 -72.935303
-60.054020 61.918591 -69.623543
-58.935902 66.174896 -72.995895
-42.453518 66.500404 -72.949684
-39.736935 68.788841 -74.614029
-69.141533 68.031273 -74.934502
-74.898872 67.792297 -71.881439
-33.403801 68.572823 -69.267654
-39.477661 67.808357 -68.801163
-76.741837 70.031303 -71.546242
-33.015713 72.437599 -67.610710
