23.651336669922 -66.879539489746 -155.691848754883 2.270873785019
14.328353881836 -64.612007141113 -149.476226806641 1.091574430466
78.808593750000 -76.798767089844 -202.690429687500 12.709868431091
-72.674606323242 -64.894859313965 -78.883148193359 12.512837409973
2.368713378906 -67.089256286621 -140.874664306641 12.882116317749
-57.965675354004 -67.724342346191 -92.196777343750 2.764093637466
-61.971134185791 -62.294960021973 -87.741851806641 1.250326871872
-84.524780273438 -58.150192260742 -67.087036132813 12.542368888855
88.163970947266 -73.285156250000 -204.605880737305 4.129560470581
-74.207504272461 -67.247955322266 -74.615325927734 13.175755500793
26.531143188477 -70.070335388184 -155.016418457031 0.991224050522
88.700698852539 -76.316177368164 -205.717041015625 3.066780567169
10.046997070313 -71.846359252930 -145.904968261719 4.838600158691
16.123962402344 -67.999320983887 -139.538864135742 4.840966701508
17.294311523438 -67.308662414551 -142.745422363281 1.698446512222
29.890975952148 -70.112205505371 -164.314346313477 2.031803846359
92.563018798828 -78.059402465820 -204.789016723633 2.561203956604
32.227294921875 -75.187705993652 -154.989135742188 0.677193880081
27.113632202148 -71.142372131348 -148.344680786133 1.007006525993
16.310562133789 -63.127555847168 -141.841873168945 2.269132614136
20.627273559570 -65.490036010742 -138.152328491211 1.914839267731
35.973602294922 -74.213150024414 -160.620559692383 4.035465717316
14.829742431641 -67.962532043457 -136.059341430664 7.359869956970
87.337265014648 -76.130622863770 -188.619903564453 12.392463684082
23.371109008789 -68.209548950195 -135.476242065430 3.567706584930
43.863464355469 -66.108688354492 -156.048126220703 12.594323158264
-96.104896545410 -62.430725097656 -37.134185791016 15.670880317688
26.240203857422 -71.198097229004 -141.448318481445 1.490119576454
21.037460327148 -69.685836791992 -132.664398193359 7.029258251190
-99.237121582031 -62.387107849121 -25.285522460938 26.879858016968
29.722976684570 -64.817749023438 -134.577621459961 0.829579174519
47.252273559570 -73.900672912598 -146.726242065430 11.448957443237
-74.396850585938 -59.175476074219 -40.185791015625 3.768046140671
-18.629440307617 -70.699371337891 -94.606094360352 18.952684402466
-14.334815979004 -64.910163879395 -95.297592163086 22.534738540649
76.631286621094 -74.531684875488 -170.358123779297 28.740785598755
-27.982566833496 -65.742568969727 -81.909240722656 5.337542057037
47.946121215820 -66.427154541016 -142.950286865234 12.488764762878
-13.570671081543 -63.501083374023 -81.383178710938 12.563736915588
26.601409912109 -69.979606628418 -126.637466430664 5.007361888885
-76.322296142578 -60.424652099609 -41.349578857422 2.926660299301
77.324096679688 -74.737655639648 -164.577331542969 29.740062713623
-22.207473754883 -64.421417236328 -82.197570800781 9.276787757874
-40.203674316406 -66.040664672852 -66.305023193359 10.726744651794
-39.254653930664 -64.585769653320 -69.818725585938 8.001050949097
-55.153083801270 -60.209587097168 -56.510955810547 10.588701248169
-44.395965576172 -65.248550415039 -61.657196044922 11.973639488220
-41.241096496582 -63.603027343750 -60.086578369141 11.964713096619
59.984909057617 -69.393379211426 -147.572967529297 24.007722854614
-50.879219055176 -61.961250305176 -37.389068603516 6.477142810822
43.872116088867 -69.034461975098 -103.607391357422 1.356552720070
-62.287395477295 -61.578414916992 -20.240814208984 22.095188140869
-79.166656494141 -61.092430114746 -2.997528076172 40.724006652832
-38.706222534180 -62.125015258789 -27.095916748047 18.965684890747
-32.239082336426 -60.382728576660 -34.403045654297 13.109941482544
3.114395141602 -65.508392333984 -59.060974121094 12.572574615479
12.745651245117 -69.300186157227 -66.159484863281 23.465742111206
27.388595581055 -68.063903808594 -79.648284912109 24.761285781860
46.256668090820 -66.462677001953 -97.539459228516 1.224037051201
50.561141967773 -69.204589843750 -94.056411743164 1.346665859222
30.704971313477 -69.544944763184 -81.622863769531 20.923332214355
31.682693481445 -66.116485595703 -83.511550903320 19.162542343140
45.310729980469 -70.671401977539 -92.697387695313 2.650725126266
6.402023315430 -65.877296447754 -57.829711914063 15.968456268311
15.434661865234 -66.643501281738 -70.140899658203 26.463699340820
50.331527709961 -68.726089477539 -96.618621826172 2.890305042267
50.597763061523 -69.238739013672 -95.074981689453 2.283450365067
60.255813598633 -73.823112487793 -97.710418701172 1.931694269180
61.458312988281 -72.073471069336 -103.928329467773 5.896894454956
-9.307800292969 -62.129852294922 -42.948211669922 10.788534164429
-48.795417785645 -60.692367553711 -10.308074951172 32.802963256836
-26.197662353516 -58.711372375488 -27.952178955078 20.577089309692
-57.041999816895 -59.491889953613 -1.792785644531 40.589859008789
-57.302070617676 -61.155319213867 2.500183105469 44.914829254150
-43.527893066406 -59.449417114258 -2.202758789063 41.588012695313
-65.130577087402 -76.423965454102 -343.270263671875 52.344070434570
-83.731842041016 -74.834609985352 -323.908752441406 32.721530914307
-62.274562835693 -74.160827636719 -340.010894775391 49.077514648438
-55.161972045898 -74.101089477539 -334.091186523438 43.251056671143
-1.981262207031 -76.669845581055 -328.130981445313 35.751831054688
4.372467041016 -75.401260375977 -328.700775146484 35.676765441895
14.825531005859 -75.830963134766 -327.019866943359 32.862033843994
10.411636352539 -73.310546875000 -327.412780761719 33.556831359863
-15.359977722168 -74.351936340332 -299.876098632813 7.965882301331
-22.001213073730 -64.160255432129 -288.322021484375 7.470258712769
-11.690574645996 -75.920120239258 -297.493377685547 5.552706241608
-115.295387268066 -72.381004333496 -215.957611083984 9.290938377380
-7.753730773926 -74.035232543945 -302.716491699219 10.622934341431
22.720138549805 -76.028030395508 -316.108093261719 23.445127487183
3.936965942383 -70.041976928711 -298.168548583984 6.114418983459
20.331527709961 -80.265823364258 -309.263824462891 16.937696456909
-115.713928222656 -69.199028015137 -204.620193481445 2.000956535339
-16.085357666016 -70.018516540527 -276.192138671875 4.120203971863
-116.899627685547 -65.776199340820 -192.837890625000 3.444579124451
-8.313949584961 -75.011474609375 -275.320465087891 2.182224988937
-22.291122436523 -75.795410156250 -272.570343017578 9.092770576477
34.012100219727 -81.278213500977 -315.304870605469 29.388067245483
-19.001014709473 -71.917213439941 -267.172821044922 4.378385066986
-13.871070861816 -72.015548706055 -266.814208984375 1.781666278839
-11.432220458984 -75.536857604980 -263.530731201172 2.507804632187
34.866088867188 -78.676864624023 -310.708038330078 26.378084182739
-108.871170043945 -68.113037109375 -186.388854980469 2.590636968613
43.260833740234 -77.897521972656 -299.071411132813 28.042490005493
-12.500625610352 -77.033386230469 -255.526885986328 1.606884121895
-6.442863464355 -73.747962951660 -260.257354736328 6.413563251495
-12.903244018555 -75.475807189941 -254.526794433594 1.822722554207
-78.043457031250 -69.290992736816 -193.503677368164 16.504171371460
-13.458312988281 -66.612434387207 -251.991668701172 1.614955663681
-93.835418701172 -71.958831787109 -178.516708374023 11.367408752441
-83.267150878906 -65.307273864746 -191.806289672852 19.787536621094
-97.882537841797 -67.873016357422 -176.221832275391 5.508990287781
-8.820915222168 -75.076110839844 -253.753967285156 3.165809392929
-79.638648986816 -67.953849792480 -185.263137817383 21.817264556885
-12.363357543945 -74.475433349609 -247.770965576172 2.808685064316
-88.596328735352 -69.349349975586 -174.900238037109 13.968315124512
-78.658370971680 -68.005256652832 -187.130340576172 22.064558029175
-14.519332885742 -72.634719848633 -239.882675170898 2.815163612366
58.590835571289 -74.861862182617 -288.283874511719 35.818534851074
52.713699340820 -81.338699340820 -291.591186523438 36.383594512939
-3.156524658203 -76.079956054688 -239.200836181641 2.188371658325
-65.941116333008 -75.162872314453 -191.200759887695 12.627008438110
61.393157958984 -76.265235900879 -278.435638427734 28.957790374756
-84.076370239258 -67.426856994629 -171.713394165039 16.834829330444
-78.536529541016 -65.203918457031 -190.600753784180 20.393011093140
1.186584472656 -69.751243591309 -226.600662231445 2.282888650894
-86.166404724121 -66.040840148926 -168.725952148438 13.455094337463
-81.326736450195 -66.583221435547 -170.497756958008 16.637388229370
68.112091064453 -77.795188903809 -281.553771972656 35.252040863037
-72.900894165039 -68.548576354980 -166.566589355469 7.480732917786
-51.600112915039 -70.727172851563 -186.416458129883 3.974692106247
-4.380790710449 -74.807426452637 -231.449218750000 1.293259501457
-84.149673461914 -66.686882019043 -163.540710449219 13.288621902466
-17.798782348633 -69.465881347656 -220.861572265625 2.424333572388
3.954818725586 -74.645736694336 -228.294830322266 0.876974225044
2.556625366211 -75.087448120117 -236.333831787109 1.782840847969
-14.148887634277 -72.271476745605 -214.705841064453 1.578933715820
-61.737442016602 -69.387657165527 -178.738204956055 5.750384330750
0.718292236328 -73.541023254395 -225.135833740234 0.836783409119
-58.964828491211 -65.554779052734 -187.567779541016 10.561001777649
-19.325050354004 -67.025093078613 -211.833526611328 3.229419231415
-9.719024658203 -76.135314941406 -226.127914428711 2.243899345398
-77.352775573730 -66.543548583984 -166.692321777344 11.969450950623
-58.600677490234 -69.302482604980 -185.783477783203 6.943173408508
-73.603134155273 -65.955825805664 -170.462020874023 11.456375122070
-9.260932922363 -77.238662719727 -216.851257324219 1.118768095970
-5.750595092773 -72.270835876465 -230.586975097656 1.345487713814
-16.050132751465 -73.837089538574 -207.264587402344 2.939510345459
-8.625923156738 -70.732719421387 -218.827560424805 2.260158777237
9.027633666992 -73.957519531250 -219.814147949219 1.846108436584
-54.746803283691 -64.227348327637 -171.493209838867 10.035717010498
-42.292877197266 -71.937622070313 -182.375335693359 6.281308174133
-51.424736022949 -65.631690979004 -179.377197265625 8.827756881714
1.511917114258 -72.391220092773 -218.561553955078 2.984780073166
-50.068161010742 -69.754707336426 -167.487426757813 6.325851440430
-47.617866516113 -66.776977539063 -180.783096313477 8.774431228638
1.644210815430 -76.507888793945 -209.549575805664 5.757450103760
-45.656227111816 -67.629425048828 -170.044998168945 5.075224399567
12.307662963867 -72.727890014648 -213.068695068359 2.698418617249
77.837829589844 -77.989044189453 -269.777893066406 29.767963409424
-35.792076110840 -71.412551879883 -173.527938842773 2.026118755341
75.493637084961 -81.821456909180 -260.464996337891 22.334045410156
-34.710700988770 -68.138175964355 -173.892654418945 1.323525905609
-34.978485107422 -67.286003112793 -167.978713989258 3.658678531647
7.452545166016 -71.126235961914 -206.546463012695 1.708041429520
74.997100830078 -77.424148559570 -247.679443359375 10.913431167603
-31.270591735840 -71.435272216797 -164.904205322266 1.779039144516
-39.866455078125 -67.973403930664 -175.681106567383 4.247239112854
-23.014221191406 -68.827743530273 -165.276062011719 8.123966217041
-119.472038269043 -64.810966491699 -91.141021728516 20.338096618652
7.466888427734 -71.717636108398 -196.422882080078 2.838841438293
83.011611938477 -77.258499145508 -248.164337158203 15.642821311951
-119.974037170410 -59.066436767578 -78.118164062500 20.586837768555
-22.109237670898 -61.968742370605 -162.693984985352 13.457839012146
-90.105010986328 -67.404869079590 -102.443481445313 6.922340393066
-97.398406982422 -68.058944702148 -93.332595825195 2.193840503693
-85.437950134277 -65.429382324219 -108.337951660156 2.069569110870
-83.022827148438 -67.730033874512 -104.558181762695 1.656891942024
-7.197868347168 -73.059738159180 -164.123748779297 4.548346042633
16.830062866211 -68.333587646484 -190.539047241211 0.988174855709
-5.938117980957 -72.708000183105 -165.232879638672 3.006326198578
-91.782836914063 -63.497001647949 -89.662414550781 6.933474540710
-9.170753479004 -74.543190002441 -152.826065063477 12.466417312622
-98.948120117188 -63.803573608398 -85.375869750977 0.480797022581
-5.223709106445 -71.483177185059 -164.450256347656 3.774994134903
-107.948822021484 -63.400833129883 -78.652008056641 9.400858879089
81.059768676758 -77.423248291016 -223.709655761719 2.444415807724
-126.309928894043 -64.722129821777 -69.779876708984 28.043142318726
10.693893432617 -66.998100280762 -160.374114990234 3.222842693329
19.654190063477 -74.793807983398 -174.253738403320 1.071866631508
26.240768432617 -71.866088867188 -165.257614135742 2.258906364441
78.377944946289 -78.048103332520 -205.783065795898 11.613039016724
17.766052246094 -71.232795715332 -171.424316406250 0.690820813179
27.264083862305 -73.943611145020 -167.091613769531 2.731311321259
1.336860656738 -69.806632995605 -150.081359863281 7.351053237915
-54.046356201172 -66.234992980957 -102.068710327148 11.675123214722
-61.746917724609 -68.053009033203 -101.525329589844 6.108227729797
16.936355590820 -73.724197387695 -151.658325195313 3.276883602142
-110.162597656250 -62.135398864746 -51.260955810547 17.135057449341
29.745834350586 -72.563613891602 -163.480194091797 0.720035493374
-94.331176757813 -67.646423339844 -65.388824462891 2.221235513687
28.652130126953 -70.243003845215 -164.728073120117 3.003973245621
-85.757675170898 -63.439949035645 -64.720672607422 7.550570964813
-68.858856201172 -66.447143554688 -79.838378906250 9.669933319092
31.448287963867 -67.773384094238 -164.946884155273 4.075020790100
84.067031860352 -77.861434936523 -199.112136840820 10.822554588318
24.905761718750 -73.948829650879 -156.488555908203 2.657622098923
-63.104484558105 -62.895248413086 -77.245422363281 6.248817443848
79.735916137695 -73.904937744141 -198.351913452148 14.185979843140
88.566436767578 -77.089355468750 -201.551330566406 5.656672954559
-73.761764526367 -68.784194946289 -72.071868896484 11.172943115234
-65.291381835938 -63.711402893066 -78.859375000000 6.767161369324
17.163986206055 -75.536071777344 -142.112457275391 7.028035640717
79.226684570313 -77.497390747070 -195.849075317383 16.524147033691
77.349472045898 -71.725837707520 -183.835388183594 23.353660583496
83.653976440430 -70.929336547852 -191.580368041992 14.281480789185
-77.369567871094 -64.520004272461 -63.852752685547 10.927472114563
83.078994750977 -71.996994018555 -185.848190307617 17.291278839111
82.269424438477 -74.662765502930 -186.759597778320 17.632694244385
-106.226821899414 -58.739669799805 -48.752593994141 14.154470443726
27.035369873047 -74.835433959961 -141.412261962891 1.933978557587
48.385391235352 -68.269699096680 -150.498092651367 14.451846122742
27.065109252930 -69.732223510742 -138.900161743164 2.076194286346
39.243652343750 -69.266906738281 -150.474441528320 5.752743244171
82.582855224609 -76.681518554688 -184.964569091797 18.104633331299
41.582153320313 -67.614143371582 -146.932235717773 7.699139118195
22.508346557617 -75.505790710449 -131.706832885742 6.080510616302
29.427093505859 -72.854850769043 -142.274185180664 2.730243206024
87.720733642578 -71.580314636230 -175.176727294922 17.110546112061
35.315521240234 -69.858184814453 -146.146774291992 1.815813541412
20.794631958008 -72.611282348633 -137.288421630859 5.240438938141
41.443435668945 -69.395233154297 -146.852813720703 6.931565761566
-104.811569213867 -62.912498474121 -36.717163085938 21.444267272949
80.297637939453 -75.408187866211 -172.080581665039 24.864810943604
79.179901123047 -73.766990661621 -168.849197387695 26.601274490356
72.700988769531 -69.043342590332 -174.767929077148 31.413829803467
30.078216552734 -66.709251403809 -126.086563110352 4.624156475067
78.053543090820 -71.128517150879 -171.160110473633 27.342655181885
-18.183944702148 -66.480003356934 -93.345428466797 18.729227066040
82.358779907227 -69.629425048828 -165.265899658203 24.920549392700
-36.444046020508 -63.344734191895 -76.255981445313 3.111194849014
-58.251068115234 -62.437339782715 -55.064971923828 10.396968841553
-64.799827575684 -63.832427978516 -52.884033203125 7.838997364044
69.344146728516 -70.988990783691 -159.199951171875 35.878559112549
-69.908843994141 -61.827514648438 -45.239227294922 3.149590015411
-44.636810302734 -61.862319946289 -60.004516601563 13.799694061279
-49.647811889648 -67.225952148438 -58.138793945313 8.791392326355
-28.642181396484 -67.055068969727 -76.200439453125 1.456019759178
-48.898368835449 -65.589027404785 -57.851623535156 10.146936416626
-51.074676513672 -65.422317504883 -45.897338867188 1.908183455467
-69.729095458984 -64.946586608887 -29.361175537109 14.460577011108
29.580627441406 -69.042068481445 -113.756896972656 6.416450977325
-86.254005432129 -60.647399902344 -20.272003173828 25.666278839111
35.108200073242 -68.825012207031 -103.079681396484 6.045453548431
-76.847167968750 -61.376739501953 -24.425689697266 19.597024917603
-69.114868164063 -65.180389404297 -16.349822998047 27.086227416992
-79.751075744629 -63.068496704102 -9.369262695313 34.948795318604
41.860946655273 -68.801055908203 -107.373291015625 1.979154109955
-45.991928100586 -60.963203430176 -21.416198730469 22.210144042969
-67.236930847168 -61.096618652344 -4.998138427734 37.685356140137
-60.246383666992 -64.279243469238 -13.923767089844 28.751676559448
-45.883789062500 -63.479461669922 -21.606872558594 22.234394073486
49.977996826172 -73.662292480469 -99.197723388672 1.933526277542
-38.369911193848 -59.323242187500 -30.042266845703 16.410100936890
-56.483764648438 -57.243064880371 -19.865478515625 22.543537139893
-34.341766357422 -64.356903076172 -38.326477050781 8.738821029663
-3.045623779297 -66.562324523926 -57.135345458984 8.095580101013
6.428039550781 -65.489456176758 -69.527557373047 17.662944793701
56.168334960938 -73.676979064941 -99.706100463867 1.563180327415
19.605865478516 -71.452163696289 -66.138122558594 27.606132507324
14.542785644531 -68.200698852539 -66.855621337891 25.098308563232
10.538787841797 -70.592437744141 -60.497619628906 21.264188766479
-1.196853637695 -64.293289184570 -48.500946044922 12.014451026917
-18.037490844727 -66.603073120117 -40.733001708984 11.589873313904
-65.537719726563 -63.330718994141 -4.585174560547 38.054950714111
-65.806739807129 -58.362609863281 4.073944091797 46.372512817383
-39.430953979492 -64.540328979492 -19.121459960938 26.429748535156
-51.734985351563 -63.000175476074 -10.065765380859 32.833461761475
-51.797172546387 -57.466339111328 -0.263031005859 42.522140502930
-45.129364013672 -63.294715881348 4.717987060547 48.354412078857
-67.838119506836 -74.375617980957 -344.497924804688 53.532588958740
-86.211906433105 -73.227195739746 -320.233093261719 28.658636093140
-58.926269531250 -77.409317016602 -331.332702636719 40.812175750732
-85.239524841309 -73.896522521973 -272.414337158203 14.170251846313
-13.803459167480 -77.390007019043 -335.486968994141 43.518535614014
-6.587142944336 -77.183959960938 -329.083557128906 36.996326446533
-19.082321166992 -78.923934936523 -325.620452880859 34.004619598389
-17.532150268555 -75.610549926758 -322.621093750000 30.793031692505
-0.989463806152 -75.557792663574 -330.153900146484 37.642257690430
-143.275527954102 -70.545837402344 -211.705535888672 3.515286445618
-12.136177062988 -71.417343139648 -314.930541992188 23.087106704712
-98.473930358887 -74.528854370117 -248.371093750000 6.136305809021
16.067993164063 -79.398666381836 -326.020080566406 32.159606933594
-16.600013732910 -75.370628356934 -298.022644042969 6.352749824524
22.109283447266 -76.509773254395 -319.761291503906 26.732681274414
23.484344482422 -81.415924072266 -315.233215332031 23.712846755981
-2.344711303711 -73.850616455078 -295.283843994141 3.303418397903
-120.822532653809 -64.357917785645 -207.914932250977 3.539202690125
-10.619995117188 -73.419006347656 -282.520263671875 2.574899196625
29.035217285156 -76.850753784180 -313.129058837891 23.946163177490
-14.477371215820 -69.016479492188 -271.105957031250 1.175615906715
12.445785522461 -77.955421447754 -294.372741699219 1.996627569199
-19.801795959473 -76.803306579590 -269.689117431641 6.977652072906
30.258880615234 -79.734321594238 -313.129516601563 25.057727813721
-12.779243469238 -78.278282165527 -277.811126708984 5.230127334595
37.477386474609 -76.774169921875 -308.938995361328 26.951444625854
39.832122802734 -76.839149475098 -305.539550781250 27.101667404175
-111.086013793945 -70.716995239258 -194.491607666016 1.296895027161
-111.739135742188 -69.617202758789 -186.165512084961 1.096060395241
-11.051185607910 -71.301940917969 -261.355102539063 3.156778097153
45.210800170898 -79.015243530273 -305.748138427734 32.225131988525
47.458770751953 -78.523521423340 -303.598205566406 33.471763610840
-106.797637939453 -66.946907043457 -175.887161254883 2.514074563980
43.609222412109 -76.436706542969 -298.837249755859 28.171176910400
-81.858062744141 -68.055534362793 -189.937652587891 20.514049530029
-111.042961120605 -67.777893066406 -176.347656250000 1.366082072258
-97.792198181152 -70.300048828125 -183.638854980469 8.540225982666
-81.375007629395 -70.856193542480 -194.779006958008 15.146814346313
-16.437561035156 -75.448631286621 -248.751495361328 4.380980968475
-7.424736022949 -74.721481323242 -247.840393066406 1.779542088509
-89.873573303223 -68.736549377441 -177.137237548828 13.448878288269
-12.051513671875 -74.276092529297 -239.748535156250 0.933618962765
56.317138671875 -75.762359619141 -282.075927734375 29.614019393921
-63.007625579834 -67.599822998047 -188.762908935547 11.906212806702
-7.900115966797 -78.508041381836 -231.409286499023 3.010253906250
65.392837524414 -79.215187072754 -286.760650634766 38.625949859619
-3.437942504883 -76.202903747559 -237.542327880859 1.818459033966
52.913024902344 -78.307945251465 -282.835235595703 29.483211517334
-67.871040344238 -66.790603637695 -183.357604980469 13.099907875061
-76.811485290527 -75.003837585449 -170.461730957031 10.945758819580
-63.867988586426 -70.989631652832 -179.393417358398 6.117377758026
-52.819732666016 -68.591392517090 -174.130630493164 6.303594589233
-17.832115173340 -74.888511657715 -210.019561767578 1.144364476204
68.680603027344 -76.739822387695 -277.963806152344 32.172031402588
65.125335693359 -78.094497680664 -274.591064453125 28.066406250000
-13.079414367676 -74.922309875488 -209.944824218750 3.312308549881
-13.553451538086 -70.163581848145 -204.566040039063 1.219510078430
-11.756141662598 -74.706573486328 -216.487457275391 2.371397018433
-1.980155944824 -76.598297119141 -221.990051269531 0.897309958935
71.171859741211 -79.865875244141 -270.276000976563 27.499969482422
67.661560058594 -75.087112426758 -265.290832519531 20.282857894897
7.454696655273 -75.889419555664 -209.792526245117 1.881878972054
-0.388221740723 -75.658325195313 -223.570068359375 0.997794270515
73.591293334961 -78.632797241211 -271.782440185547 29.545810699463
-32.968292236328 -70.747161865234 -176.744400024414 1.454701900482
74.920806884766 -79.507469177246 -264.091552734375 24.122516632080
1.171104431152 -73.899902343750 -201.564117431641 7.589041709900
1.416221618652 -72.478981018066 -215.197418212891 4.763016223907
69.685241699219 -76.321907043457 -258.794647216797 16.270324707031
7.957931518555 -75.727027893066 -211.831115722656 1.851737856865
77.770370483398 -83.044128417969 -258.215911865234 22.517702102661
-45.641647338867 -70.925048828125 -167.709503173828 2.574639081955
11.501708984375 -75.730087280273 -207.337738037109 2.102999448776
76.644714355469 -79.670639038086 -250.410156250000 14.737004280090
14.700592041016 -77.030693054199 -201.540359497070 1.479327440262
-122.862136840820 -68.762237548828 -90.719955444336 24.692804336548
-25.861442565918 -74.696693420410 -162.531433105469 6.117965221405
16.711578369141 -80.949127197266 -197.581573486328 1.901782274246
-85.158119201660 -64.494728088379 -109.982574462891 2.447927713394
-86.060760498047 -65.923881530762 -114.950546264648 2.765543937683
14.283187866211 -78.866920471191 -198.028656005859 0.467180252075
6.357086181641 -77.072372436523 -196.264526367188 4.550251483917
-25.829421997070 -69.011009216309 -164.431365966797 6.217195510864
-17.461288452148 -68.254074096680 -163.541534423828 13.276911735535
-26.288848876953 -70.660018920898 -162.378936767578 6.489644050598
7.652191162109 -75.317810058594 -202.712600708008 2.818182468414
-118.694496154785 -64.929107666016 -84.581451416016 19.773063659668
-112.033851623535 -64.754745483398 -87.228668212891 13.327435493469
-111.284950256348 -62.043891906738 -88.558685302734 12.306069374084
-15.369651794434 -72.004585266113 -168.243347167969 7.687517166138
15.688232421875 -71.708450317383 -178.520996093750 1.704634904861
79.701675415039 -80.744033813477 -238.930694580078 9.469297409058
-82.538650512695 -65.296089172363 -108.316452026367 1.855799794197
23.252334594727 -72.170898437500 -190.125228881836 1.577373147011
-9.710212707520 -69.236434936523 -169.752029418945 6.178290843964
-12.981269836426 -71.553672790527 -161.231384277344 10.186276435852
79.068054199219 -78.760108947754 -234.434143066406 5.270801544189
19.104904174805 -71.350982666016 -177.964157104492 1.595221996307
-15.203460693359 -70.561820983887 -164.371017456055 10.068177223206
-90.892044067383 -68.905036926270 -94.966583251953 5.817962646484
-96.418823242188 -65.480438232422 -86.635986328125 3.038034915924
-82.147499084473 -63.116622924805 -103.227645874023 2.871711730957
-100.574966430664 -64.823959350586 -81.287094116211 3.704727649689
17.720169067383 -75.782508850098 -185.498764038086 2.685727119446
83.942306518555 -75.675231933594 -223.799713134766 0.929867982864
-124.461723327637 -67.634963989258 -69.276611328125 26.942441940308
86.513107299805 -79.709533691406 -232.214523315430 8.287515640259
-4.906158447266 -72.967727661133 -155.510101318359 7.566060543060
87.043945312500 -72.733543395996 -220.427612304688 1.523735523224
83.782958984375 -78.187423706055 -214.633117675781 3.517285585403
20.292663574219 -71.573623657227 -170.483947753906 1.850634217262
28.813430786133 -72.647979736328 -174.871765136719 1.072754144669
20.308807373047 -73.869293212891 -176.454620361328 2.028412580490
7.795120239258 -70.577751159668 -151.390518188477 1.691292643547
-60.620246887207 -67.385902404785 -100.374237060547 6.337100028992
8.106979370117 -68.938156127930 -159.485885620117 1.888991832733
89.720733642578 -78.241096496582 -217.980072021484 2.125323057175
-56.102317810059 -66.588035583496 -102.255081176758 10.620045661926
-65.469596862793 -66.277763366699 -94.836029052734 1.559480905533
-53.107765197754 -64.369895935059 -101.966796875000 11.311804771423
87.064193725586 -79.647186279297 -209.744384765625 4.355766296387
-84.851676940918 -63.508392333984 -71.851196289063 10.829723358154
-84.178054809570 -66.839065551758 -70.258728027344 8.455632209778
-76.341987609863 -64.371849060059 -81.801330566406 14.428109169006
-68.033279418945 -65.267181396484 -88.873428344727 4.697374343872
-88.877388000488 -60.525901794434 -65.541259765625 7.404380321503
-67.349967956543 -62.322311401367 -81.187988281250 6.283576011658
-68.849914550781 -60.229103088379 -79.725830078125 8.311980247498
15.187850952148 -70.602432250977 -148.894821166992 1.404042363167
5.598007202148 -73.206855773926 -143.606506347656 9.134147644043
24.444824218750 -72.708557128906 -147.045745849609 1.164556860924
15.686965942383 -73.225624084473 -145.344726562500 4.110219001770
40.455841064453 -69.231048583984 -157.201217651367 8.368074417114
6.656463623047 -77.691970825195 -140.562561035156 13.087500572205
-107.660034179688 -61.545860290527 -50.015441894531 15.462246894836
26.281768798828 -71.189575195313 -147.232894897461 0.618049085140
87.751312255859 -73.152702331543 -201.063201904297 6.263291358948
34.594192504883 -70.933601379395 -153.153808593750 2.876327276230
23.770370483398 -70.106727600098 -142.988647460938 2.817908525467
-93.547180175781 -63.444564819336 -43.304229736328 9.949876785278
-84.577308654785 -63.693038940430 -56.451599121094 3.851116180420
77.551727294922 -73.815956115723 -183.211532592773 23.258970260620
22.507492065430 -72.311187744141 -140.606674194336 2.553785085678
28.792816162109 -74.334083557129 -148.920608520508 3.906788349152
84.223220825195 -76.062042236328 -189.634277343750 14.700156211853
90.681610107422 -72.322593688965 -193.572006225586 7.450402736664
85.362564086914 -78.719726562500 -183.088302612305 16.932428359985
26.014144897461 -70.082786560059 -139.134368896484 1.575456738472
78.139892578125 -74.636344909668 -173.916671752930 26.293079376221
12.845245361328 -71.134048461914 -128.806289672852 14.743373870850
17.148086547852 -69.189735412598 -127.632141113281 12.185974121094
37.843978881836 -76.959396362305 -145.100906372070 2.997617721558
79.596267700195 -76.650123596191 -179.897720336914 23.038547515869
78.179733276367 -74.253936767578 -180.996978759766 23.604713439941
73.519561767578 -75.170036315918 -166.111083984375 32.824485778809
75.085372924805 -74.278770446777 -175.011215209961 28.751651763916
24.035614013672 -69.983634948730 -122.750900268555 7.490283489227
-26.577796936035 -69.309356689453 -79.262176513672 3.452449798584
-23.687042236328 -65.868507385254 -85.084655761719 10.262659072876
66.094863891602 -73.379684448242 -160.185104370117 32.870296478271
-79.526901245117 -63.293640136719 -42.057037353516 4.124862670898
70.503005981445 -73.505287170410 -154.360824584961 35.791744232178
-34.708343505859 -65.344268798828 -76.558349609375 2.837225198746
-81.499450683594 -65.971244812012 -34.295837402344 12.516872406006
-73.786346435547 -62.452484130859 -44.893005371094 0.776223361492
75.175460815430 -75.610000610352 -160.460891723633 32.696384429932
-56.687881469727 -65.572525024414 -52.980224609375 6.664867401123
-57.126525878906 -63.453109741211 -58.950927734375 11.714888572693
-35.646591186523 -69.022064208984 -71.227691650391 5.510517597198
27.452728271484 -71.025436401367 -126.445266723633 3.994313001633
70.136993408203 -76.144866943359 -142.283737182617 31.342338562012
59.176864624023 -70.766197204590 -141.332366943359 21.168935775757
-82.151931762695 -66.800956726074 -30.152954101563 16.725402832031
-45.858673095703 -64.979270935059 -56.554962158203 9.182301521301
31.033386230469 -73.972625732422 -119.201416015625 1.531986117363
-62.129394531250 -60.442642211914 -38.329772949219 4.142362594604
36.988845825195 -71.791999816895 -107.864471435547 2.348464965820
-83.851806640625 -60.113182067871 -9.730651855469 35.108425140381
50.139343261719 -68.368133544922 -97.849624633789 2.064582347870
-67.738723754883 -61.494812011719 -3.839324951172 38.928981781006
-75.133934020996 -59.866424560547 -11.289520263672 31.825126647949
-58.612213134766 -63.323669433594 -17.272277832031 25.419353485107
-78.227828979492 -61.075965881348 0.774047851563 44.258800506592
67.542999267578 -74.453460693359 -110.794265747070 10.946042060852
-29.608772277832 -66.885757446289 -39.582061767578 9.448967933655
-9.404876708984 -69.769172668457 -51.401153564453 8.608063697815
-72.931274414063 -62.335342407227 -2.313293457031 40.827117919922
-16.100708007813 -66.033706665039 -48.255767822266 5.686882019043
-60.116813659668 -63.614463806152 -13.949371337891 28.619310379028
3.533142089844 -70.177078247070 -57.196350097656 15.224821090698
5.160797119141 -67.084587097168 -61.812133789063 15.032503128052
-2.925880432129 -67.078804016113 -53.373901367188 9.831939697266
59.044189453125 -74.142799377441 -101.158248901367 3.892027854919
-5.740432739258 -73.585845947266 -49.532714843750 14.076548576355
-16.152946472168 -64.803504943848 -37.923034667969 13.792852401733
-30.232460021973 -66.095344543457 -33.202056884766 14.816900253296
-33.358291625977 -64.999130249023 -27.288146972656 19.661281585693
-44.500938415527 -67.032005310059 -13.758270263672 30.704923629761
-44.191574096680 -65.997543334961 -1.141479492188 42.903343200684
-41.892349243164 -63.651565551758 2.697448730469 46.766376495361
-88.835083007813 -74.167472839355 -329.075744628906 37.380775451660
-84.028900146484 -75.087142944336 -335.415985107422 44.069660186768
-83.941505432129 -76.149406433105 -330.748168945313 39.557102203369
-68.402496337891 -79.835220336914 -335.044830322266 44.461570739746
-77.122611999512 -72.377975463867 -319.993041992188 28.808666229248
-148.856002807617 -66.800933837891 -245.675933837891 1.834644794464
-7.385566711426 -84.682655334473 -333.780548095703 42.725696563721
-85.573699951172 -72.141960144043 -270.472229003906 13.971212387085
5.993194580078 -79.476814270020 -335.275634765625 42.191825866699
7.799728393555 -76.690452575684 -329.097900390625 35.598552703857
-14.577529907227 -76.476577758789 -312.614288330078 20.754236221313
-15.980705261230 -74.712455749512 -306.241516113281 14.337101936340
-98.880836486816 -71.203903198242 -239.661804199219 13.354543685913
-18.607467651367 -84.652824401855 -303.028869628906 14.339806556702
-138.076965332031 -63.755500793457 -204.827865600586 4.278485298157
-105.679061889648 -74.891876220703 -237.117584228516 9.108126640320
-106.359687805176 -66.593597412109 -221.874740600586 2.168986320496
19.910446166992 -76.436340332031 -316.302276611328 22.819169998169
-13.128395080566 -79.569259643555 -290.464538574219 2.110949039459
-8.438117980957 -76.989334106445 -297.365905761719 6.294912338257
-134.351669311523 -75.346038818359 -195.608032226563 2.418756723404
32.571716308594 -78.957229614258 -321.316497802734 32.823451995850
-21.754150390625 -75.206680297852 -282.576904296875 5.355050563812
20.711853027344 -77.362655639648 -316.496490478516 23.273788452148
27.119277954102 -73.843826293945 -311.400970458984 21.410673141479
31.449356079102 -76.087356567383 -310.714843750000 23.703729629517
2.753387451172 -77.071098327637 -291.482147216797 1.987681150436
20.437255859375 -80.361175537109 -302.621398925781 11.502261161804
-11.606781005859 -73.065650939941 -270.364074707031 2.362046957016
33.250015258789 -80.668266296387 -312.982360839844 27.106212615967
-12.222930908203 -78.105758666992 -270.915679931641 2.313024997711
-19.423339843750 -79.483810424805 -280.097900390625 8.373407363892
43.445175170898 -80.944145202637 -308.881744384766 32.310256958008
-112.731140136719 -68.625564575195 -191.915664672852 1.205458521843
-8.240737915039 -75.628143310547 -269.323669433594 3.707239389420
-20.524589538574 -79.653686523438 -262.141784667969 7.655073165894
30.529434204102 -78.324600219727 -307.616058349609 21.114980697632
-14.703208923340 -77.927886962891 -263.648193359375 3.291468143463
-115.859283447266 -66.375144958496 -183.953857421875 3.912851333618
-121.333251953125 -65.716377258301 -185.912322998047 8.610782623291
38.490295410156 -80.252296447754 -305.298522949219 26.185234069824
-117.476768493652 -59.600936889648 -179.993957519531 8.593001365662
-15.250587463379 -76.628356933594 -257.617431640625 2.935283899307
-14.102699279785 -75.064239501953 -261.227478027344 0.943756699562
-103.453315734863 -71.281143188477 -180.811691284180 3.905212163925
-2.813995361328 -79.475044250488 -239.491668701172 3.648732900620
54.573455810547 -82.065986633301 -290.786865234375 38.021301269531
-77.155212402344 -73.558181762695 -193.121520996094 16.363962173462
-108.655570983887 -69.122611999512 -175.538848876953 3.079649686813
-5.358749389648 -71.800544738770 -244.117050170898 1.978365063667
-105.511840820313 -65.404785156250 -170.392791748047 2.925065994263
-100.599815368652 -66.507575988770 -164.924560546875 2.551637649536
-71.261276245117 -65.516448974609 -193.199890136719 19.226524353027
-85.867942810059 -67.534873962402 -180.873687744141 18.246801376343
-75.954940795898 -72.587142944336 -194.894149780273 14.715542793274
54.484344482422 -83.967384338379 -290.382110595703 38.491596221924
-92.305442810059 -71.610076904297 -176.486877441406 11.897865295410
-10.200355529785 -79.507675170898 -249.152755737305 3.272651910782
-92.815551757813 -66.839523315430 -171.806182861328 8.717299461365
-88.732360839844 -73.793365478516 -177.264404296875 16.105398178101
-103.288825988770 -71.844429016113 -165.728637695313 2.974952459335
-66.214355468750 -69.064147949219 -183.885940551758 10.878216743469
-2.854110717773 -77.537429809570 -231.550476074219 1.611371755600
-4.963798522949 -74.608497619629 -229.158157348633 1.515236139297
-15.268493652344 -75.440612792969 -224.065429687500 1.417757511139
62.813858032227 -82.091415405273 -285.897003173828 37.701984405518
-98.591491699219 -69.397697448730 -149.158187866211 1.976314425468
-8.276351928711 -78.125488281250 -218.884719848633 2.035676717758
-82.864440917969 -69.427825927734 -163.554199218750 13.969225883484
-10.103637695313 -76.015510559082 -225.997375488281 1.877274632454
-61.640373229980 -72.158576965332 -177.789077758789 3.521152257919
-18.532211303711 -73.041687011719 -217.627716064453 2.126692533493
-9.660369873047 -77.780296325684 -218.455871582031 1.957725763321
-3.811668395996 -74.018417358398 -216.934051513672 1.495671153069
-48.767395019531 -68.226860046387 -173.329818725586 8.450222015381
-59.306724548340 -70.080451965332 -183.913681030273 5.765882015228
-56.494346618652 -71.756172180176 -178.210418701172 2.404534578323
-96.030525207520 -65.182640075684 -127.483398437500 4.947398662567
7.514251708984 -74.309257507324 -205.308700561523 1.260497093201
-38.286964416504 -74.630638122559 -171.764678955078 1.997361898422
2.000366210938 -77.066390991211 -204.084136962891 6.718028545380
-121.389152526855 -62.697418212891 -103.367462158203 22.427040100098
-39.830268859863 -71.504531860352 -173.582702636719 0.397962659597
-128.224456787109 -64.848632812500 -101.897537231445 29.196403503418
15.394302368164 -72.880661010742 -200.590972900391 4.024935722351
-36.054580688477 -73.226974487305 -173.228286743164 2.089967250824
-91.252044677734 -71.090225219727 -117.547515869141 1.413182616234
-88.322883605957 -68.798416137695 -116.025619506836 1.374442338943
-24.320312500000 -70.931694030762 -168.710662841797 4.492197513580
-24.702415466309 -67.474655151367 -170.509338378906 5.549585819244
11.338607788086 -74.241127014160 -188.333938598633 2.414060115814
17.479598999023 -80.337448120117 -187.588546752930 1.933429241180
8.280334472656 -76.515640258789 -190.341995239258 4.160137176514
-115.418357849121 -63.210052490234 -92.695098876953 15.987824440002
10.857299804688 -74.654693603516 -192.001174926758 0.587312936783
13.713424682617 -71.933052062988 -180.560668945313 1.807074189186
-104.960800170898 -68.534278869629 -89.899063110352 8.059466362000
-89.338340759277 -64.796569824219 -107.599746704102 4.987626552582
11.497482299805 -70.537376403809 -185.268005371094 1.903421163559
-87.619628906250 -63.277053833008 -107.726974487305 4.378046035767
-85.004905700684 -64.282707214355 -113.559631347656 2.108886241913
-122.975898742676 -60.460678100586 -73.332366943359 23.673295974731
-13.516983032227 -66.401489257813 -159.395416259766 14.397639274597
24.914428710938 -72.622932434082 -181.696258544922 1.169215798378
-103.957427978516 -62.755867004395 -88.458419799805 5.292338371277
-94.185707092285 -67.820556640625 -92.045745849609 2.990795850754
-5.537574768066 -74.487442016602 -158.214691162109 6.184243202209
-0.910583496094 -73.758972167969 -160.147323608398 1.907190918922
-2.967811584473 -71.544692993164 -155.393600463867 6.739056110382
-105.650886535645 -64.233314514160 -82.855697631836 7.378412246704
-0.973228454590 -67.884124755859 -152.590438842773 7.959300041199
1.610504150391 -73.236679077148 -153.626251220703 4.478828907013
23.807617187500 -73.417037963867 -177.894012451172 3.252620697021
2.261947631836 -69.796615600586 -156.081405639648 3.197050094604
23.201400756836 -77.799003601074 -173.077499389648 1.986817717552
11.792510986328 -74.603179931641 -153.261383056641 1.421304941177
-2.824630737305 -73.163269042969 -148.064865112305 11.418444633484
27.753814697266 -72.347595214844 -163.850112915039 1.924557209015
20.545776367188 -76.824096679688 -153.150329589844 3.004656076431
30.432357788086 -73.029663085938 -161.681991577148 1.733902573586
14.957214355469 -70.216896057129 -151.688430786133 1.851236701012
-100.940628051758 -59.379333496094 -56.388183593750 6.263217926025
83.570495605469 -72.283447265625 -207.604705810547 5.796499729156
-84.053619384766 -63.511985778809 -70.728729248047 10.833723068237
-85.850906372070 -67.706375122070 -71.797485351563 7.383357524872
15.541641235352 -77.615074157715 -144.056838989258 8.258142471313
30.266708374023 -71.094154357910 -153.085708618164 1.108300566673
-101.397239685059 -67.709953308105 -56.905883789063 9.725482940674
87.225875854492 -76.479156494141 -208.523651123047 3.650705575943
18.216964721680 -73.182159423828 -151.873382568359 3.363090515137
21.232269287109 -67.099487304688 -150.879425048828 2.799330234528
82.437316894531 -74.353164672852 -198.288742065430 12.341252326965
25.380828857422 -73.439758300781 -145.510879516602 0.647797048092
11.248413085938 -70.537475585938 -137.921127319336 9.104397773743
-74.221023559570 -60.913703918457 -68.462341308594 9.261627197266
22.166610717773 -75.266250610352 -141.426513671875 2.567963600159
29.287429809570 -73.299949645996 -150.762573242188 3.022366762161
84.981613159180 -79.085601806641 -180.637527465820 18.406867980957
-94.474105834961 -64.855659484863 -42.706970214844 11.388168334961
23.201004028320 -72.060157775879 -125.714569091797 6.654033184052
-100.784622192383 -61.575820922852 -37.603118896484 17.775516510010
38.777313232422 -75.581626892090 -142.080703735352 2.280823230743
-106.198104858398 -62.425636291504 -37.112243652344 22.064956665039
-94.381408691406 -63.074920654297 -40.580657958984 12.431389808655
75.190032958984 -76.761535644531 -169.418655395508 30.463027954102
80.431167602539 -79.179931640625 -177.164215087891 23.666433334351
77.425628662109 -74.579475402832 -178.914169311523 25.278263092041
74.023773193359 -76.596809387207 -163.768737792969 33.204174041748
-94.273826599121 -65.794235229492 -36.511688232422 16.233890533447
-84.954727172852 -66.918594360352 -33.122955322266 15.001680374146
23.692916870117 -70.013175964355 -121.034255981445 8.364194869995
-83.800544738770 -61.714576721191 -40.503601074219 6.531467914581
53.723724365234 -72.975540161133 -145.405548095703 16.992343902588
-94.016571044922 -61.440696716309 -29.674743652344 20.352083206177
-97.427772521973 -64.717086791992 -36.006195068359 18.075601577759
-27.139556884766 -65.817733764648 -87.211212158203 10.364255905151
-85.911300659180 -63.340957641602 -20.204376220703 26.055061340332
-27.120437622070 -66.623222351074 -81.501953125000 5.636328697205
72.964904785156 -78.384216308594 -156.588882446289 35.751647949219
55.460418701172 -70.999122619629 -143.442443847656 18.372138977051
-82.928909301758 -62.524169921875 -26.954864501953 18.647260665894
-36.085441589355 -65.511688232422 -65.015533447266 8.666983604431
70.659744262695 -74.838348388672 -151.826217651367 35.029853820801
-38.988960266113 -63.970901489258 -59.932373046875 11.315758705139
-78.637825012207 -68.399986267090 -25.521240234375 20.451721191406
-42.300193786621 -69.526359558105 -63.238067626953 8.385972976685
-89.859863281250 -63.507003784180 -23.696258544922 24.366905212402
-44.704017639160 -67.504631042480 -54.246032714844 5.795056819916
-74.178710937500 -65.146705627441 -30.594360351563 14.030905723572
-77.841766357422 -61.089073181152 -27.381958007813 16.779216766357
-84.786285400391 -60.969680786133 -16.484222412109 28.878431320190
-85.876487731934 -65.122901916504 -25.383148193359 21.745048522949
-79.080947875977 -60.589447021484 -19.901275634766 24.279951095581
-81.392547607422 -68.007202148438 -20.027587890625 26.075540542603
63.777908325195 -72.596954345703 -137.454956054688 23.543586730957
-75.400939941406 -67.481422424316 -23.411071777344 21.630697250366
-61.156867980957 -67.222587585449 -12.191955566406 31.072008132935
72.454055786133 -73.086219787598 -124.499893188477 18.472148895264
41.239471435547 -74.722221374512 -107.432800292969 1.701234579086
-44.261512756348 -62.303169250488 -28.789947509766 15.485904693604
-49.870773315430 -61.591339111328 -24.799530029297 18.453483581543
-50.706542968750 -65.918579101563 -22.090454101563 21.658016204834
-38.553955078125 -63.032867431641 -27.122772216797 19.070007324219
-30.743728637695 -65.716156005859 -36.019317626953 11.953748703003
-29.415382385254 -65.679916381836 -35.991973876953 12.459954261780
68.843719482422 -79.655624389648 -107.633453369141 12.019667625427
-11.166168212891 -72.351539611816 -51.817840576172 9.244474411011
-55.816543579102 -60.924148559570 -7.962921142578 34.685520172119
-17.996261596680 -69.791091918945 -43.772979736328 10.798207283020
-36.408088684082 -69.882637023926 -21.531372070313 26.002832412720
68.634902954102 -75.027900695801 -105.344146728516 7.720626831055
-28.647346496582 -66.410034179688 -30.605468750000 17.795915603638
66.263031005859 -72.844787597656 -98.566040039063 5.005402565002
-50.630744934082 -68.281776428223 -11.976013183594 31.949630737305
-54.118515014648 -63.351402282715 -3.890625000000 38.922367095947
-49.804306030273 -59.846069335938 12.639312744141 55.465507507324
-43.903785705566 -61.455116271973 13.915832519531 57.519351959229
-58.480430603027 -75.637283325195 -340.717895507813 49.989025115967
-73.341384887695 -71.942810058594 -314.775512695313 23.573495864868
-69.897392272949 -72.609680175781 -326.164672851563 35.073074340820
-125.978187561035 -69.663642883301 -267.552825927734 3.287103414536
-92.305908203125 -74.913589477539 -270.932769775391 13.333853721619
3.950668334961 -81.119308471680 -331.643981933594 39.030055999756
-20.374221801758 -78.232803344727 -314.811981201172 23.221830368042
-92.283096313477 -72.285614013672 -258.650390625000 1.825460553169
-137.418273925781 -65.374900817871 -205.066009521484 3.723230361938
-98.867126464844 -74.239822387695 -242.992691040039 10.926441192627
-12.208190917969 -81.359725952148 -307.273162841797 16.286725997925
-19.717781066895 -80.614562988281 -297.103698730469 7.281059265137
-19.110404968262 -79.928680419922 -294.865142822266 5.233141899109
-109.938156127930 -70.069778442383 -224.411560058594 0.397638231516
-13.923370361328 -77.600936889648 -302.631866455078 11.083354949951
-21.305572509766 -76.051826477051 -283.937286376953 4.004863739014
-1.701972961426 -78.842880249023 -294.343872070313 3.935399055481
-110.068962097168 -72.126518249512 -215.301483154297 8.179965019226
-14.737022399902 -79.429481506348 -281.577148437500 6.090664386749
-21.188179016113 -75.281578063965 -282.170867919922 5.842339038849
28.844940185547 -77.568595886230 -315.023132324219 25.419006347656
-109.030685424805 -71.545875549316 -211.751007080078 9.898868560791
34.829818725586 -80.240348815918 -317.809783935547 31.576055526733
-123.352745056152 -68.898139953613 -208.064071655273 2.827540636063
-9.403106689453 -76.596984863281 -283.080352783203 3.873716354370
-16.062973022461 -74.729782104492 -281.857330322266 5.588436126709
20.145874023438 -79.006477355957 -305.570892333984 13.262418746948
14.910980224609 -84.249427795410 -294.797271728516 6.469233989716
-11.761314392090 -77.980194091797 -279.858764648438 4.583073139191
-108.489562988281 -63.135368347168 -199.217727661133 2.756979465485
-110.770172119141 -71.151359558105 -195.557373046875 2.448682785034
-106.494934082031 -69.441131591797 -189.603256225586 1.287893295288
-120.101501464844 -68.755325317383 -178.910766601563 9.480530738831
38.134552001953 -82.612327575684 -306.043334960938 26.671461105347
-116.263763427734 -68.984115600586 -186.210998535156 4.158301353455
-106.299415588379 -72.431480407715 -190.904800415039 3.885983943939
35.864593505859 -81.187850952148 -304.769836425781 23.837402343750
-97.825294494629 -74.365142822266 -197.830642700195 11.936276435852
52.958755493164 -82.176788330078 -298.270874023438 37.698131561279
42.943649291992 -82.233139038086 -288.955108642578 27.035276412964
46.761642456055 -86.999954223633 -299.260070800781 33.161472320557
-109.777206420898 -73.467712402344 -163.441879272461 7.858243942261
-71.200912475586 -69.551658630371 -185.885986328125 15.078411102295
