-119.681915283203 -71.047790527344 -198.385360717773 2.238435745239
-88.323730468750 -74.036895751953 -296.105468750000 4.976513385773
-186.050506591797 -76.891128540039 -261.240234375000 19.216730117798
-159.658996582031 -73.577209472656 -222.700500488281 1.605285167694
-82.368164062500 -66.927314758301 -126.401573181152 1.233005046844
-105.389587402344 -80.034378051758 -287.357421875000 5.966608524323
46.288635253906 -76.709167480469 -236.534713745117 9.702610969543
-49.572525024414 -62.528564453125 -170.133697509766 11.235404014587
66.030593872070 -77.990097045898 -84.367485046387 6.013630867004
-81.990295410156 -70.992904663086 -260.257781982422 4.433621406555
-82.692916870117 -68.319488525391 -281.641113281250 6.443490505219
-26.670928955078 -64.953201293945 -178.874343872070 5.052358150482
43.672882080078 -58.256950378418 -235.408630371094 14.449928283691
-102.079132080078 -74.865142822266 -290.838531494141 1.024984955788
-81.581817626953 -73.316787719727 -125.796669006348 3.183550119400
7.487228393555 -81.132217407227 -241.850997924805 2.653841018677
27.296417236328 -75.931312561035 -238.326263427734 7.011877536774
-146.976959228516 -69.327445983887 -169.512222290039 5.108510017395
-107.290252685547 -80.415588378906 -279.784515380859 10.332726478577
-81.021255493164 -85.968933105469 -285.635620117188 10.279916763306
-19.513732910156 -68.080741882324 -48.990737915039 5.676075935364
-18.058486938477 -74.509262084961 -131.388793945313 28.305238723755
56.210060119629 -69.242088317871 -52.370895385742 17.441518783569
133.938415527344 -69.850456237793 -172.298385620117 19.792922973633
77.586380004883 -67.278442382813 -79.754753112793 8.112072944641
-85.202789306641 -86.875846862793 -277.151367187500 14.239768981934
-60.979156494141 -72.069107055664 -162.534530639648 2.078920125961
-43.726928710938 -59.896186828613 -177.179946899414 11.663154602051
1.559555053711 -81.609039306641 -233.968048095703 3.131495475769
68.258926391602 -60.499404907227 -120.819351196289 13.313385963440
-115.167144775391 -61.923095703125 -133.296691894531 20.593097686768
78.670280456543 -71.326400756836 -242.657546997070 6.891411781311
-3.487045288086 -73.328567504883 -203.212509155273 5.864582061768
-172.301818847656 -82.888748168945 -269.695861816406 10.109416007996
-67.523498535156 -61.902885437012 -142.860092163086 6.975288391113
-61.947448730469 -54.393676757813 -198.435226440430 24.877702713013
-3.245071411133 -70.746543884277 -205.935256958008 5.583565235138
82.523857116699 -71.875976562500 -74.542900085449 3.540001153946
-28.543487548828 -69.636047363281 -123.400680541992 21.760662078857
63.109733581543 -66.515373229980 -64.030731201172 6.255054473877
-98.203369140625 -83.923652648926 -279.288299560547 11.240489006042
34.951629638672 -73.359260559082 -242.676177978516 10.237880706787
-80.242645263672 -66.222465515137 -144.007629394531 4.844606876373
-141.927429199219 -82.588424682617 -256.568237304688 0.807004332542
1.133941650391 -77.756927490234 -215.442077636719 4.021879673004
-36.004180908203 -73.518630981445 -176.867401123047 2.731951951981
82.783515930176 -74.914077758789 -74.222969055176 0.793013930321
-86.400878906250 -64.167205810547 -284.509704589844 5.374518871307
-64.060516357422 -71.642631530762 -76.286804199219 10.593338966370
-17.261215209961 -68.694915771484 -131.865585327148 28.725225448608
-137.997406005859 -78.796928405762 -270.895935058594 8.282502174377
-79.494506835938 -82.529968261719 -122.562118530273 11.695260047913
13.865783691406 -74.427810668945 -242.792785644531 2.071431398392
-167.872467041016 -76.834312438965 -247.219543457031 3.856792449951
-169.126068115234 -68.476577758789 -256.977691650391 3.002361059189
60.402191162109 -69.537040710449 -269.107971191406 18.992574691772
73.948181152344 -65.275650024414 -121.306015014648 11.841956138611
-73.581085205078 -62.730575561523 -162.387542724609 11.038342475891
-102.112426757813 -65.677932739258 -176.791183471680 2.497872829437
62.379409790039 -75.122261047363 -209.592849731445 21.046831130981
-113.091766357422 -78.476585388184 -120.303283691406 19.574184417725
59.012512207031 -68.296318054199 -120.065078735352 12.611845016479
-30.154800415039 -59.247306823730 -179.561630249023 9.240147590637
84.041297912598 -68.151153564453 -216.681091308594 3.241247892380
-15.675094604492 -69.724777221680 -128.884216308594 31.606126785278
-31.769195556641 -67.658927917480 -179.569213867188 2.893306016922
-78.018371582031 -58.425598144531 -120.107849121094 1.353192329407
123.555938720703 -81.709037780762 -171.008728027344 10.807945251465
-114.097930908203 -66.821868896484 -284.268402099609 4.543839454651
137.218978881836 -66.109428405762 -151.536834716797 21.480531692505
-26.419525146484 -68.607192993164 -127.933486938477 22.089389801025
-9.291870117188 -68.705879211426 -194.376449584961 5.355775356293
19.188278198242 -65.837036132813 -139.367324829102 1.641416788101
-157.327819824219 -76.271850585938 -251.902770996094 4.333044052124
44.076080322266 -72.728881835938 -133.709854125977 3.245678186417
83.947265625000 -68.484397888184 -78.620445251465 5.980329513550
-32.469970703125 -64.496093750000 -181.840454101563 4.655220985413
-80.198562622070 -69.485382080078 -279.448364257813 8.086554527283
1.720565795898 -75.882827758789 -233.160873413086 2.572717905045
-69.586257934570 -65.325027465820 -81.856742858887 7.707708835602
-78.706512451172 -61.823791503906 -132.749664306641 2.507466316223
-100.369689941406 -66.699935913086 -280.784362792969 7.501417636871
-165.829895019531 -73.862174987793 -233.457031250000 1.395455718040
46.801788330078 -80.486526489258 -128.927505493164 6.105201244354
63.423400878906 -64.957489013672 -238.004272460938 1.549281835556
-11.682220458984 -74.299102783203 -201.775115966797 1.276221871376
-76.122070312500 -70.302268981934 -264.947875976563 9.792572021484
-71.387207031250 -64.146865844727 -151.164901733398 4.138428211212
-35.279037475586 -68.000755310059 -207.191574096680 4.605088710785
-19.431427001953 -62.746429443359 -197.998031616211 4.782588958740
-164.608581542969 -74.345565795898 -228.371978759766 2.484426975250
-155.881072998047 -74.278678894043 -219.629562377930 3.298571825027
-40.883804321289 -63.172515869141 -172.217788696289 5.941529273987
-119.002349853516 -72.926368713379 -124.673034667969 23.153923034668
-154.378021240234 -80.112586975098 -209.120544433594 3.627289772034
0.713165283203 -63.947074890137 -149.049377441406 10.519586563110
-165.449096679688 -71.828765869141 -229.218841552734 1.594247579575
61.393569946289 -77.808731079102 -231.267044067383 8.335456848145
-2.026794433594 -76.917846679688 -236.269195556641 1.384419441223
54.842002868652 -70.608909606934 -126.735404968262 11.009819030762
13.656631469727 -81.012939453125 -251.336196899414 1.451829552650
121.235992431641 -80.365516662598 -149.087677001953 7.711338043213
10.538635253906 -72.455215454102 -255.873565673828 9.553929328918
-39.320373535156 -69.292228698730 -167.962539672852 1.423338294029
61.830680847168 -64.199592590332 -126.719406127930 18.064107894897
10.269744873047 -75.836059570313 -220.562713623047 1.795958161354
-92.434219360352 -72.112297058105 -283.874206542969 4.453668594360
65.329818725586 -70.991241455078 -117.758300781250 14.322834968567
-130.616912841797 -67.838790893555 -277.861694335938 7.175470829010
6.125900268555 -62.097709655762 -126.517333984375 17.831796646118
60.415412902832 -73.037185668945 -215.709106445313 17.054954528809
-119.447662353516 -68.843299865723 -279.021759033203 8.594968795776
143.315750122070 -74.309371948242 -142.541793823242 26.195001602173
-181.575653076172 -72.269592285156 -267.347747802734 13.328243255615
-87.575271606445 -73.652847290039 -102.658630371094 6.173630714417
-161.733673095703 -75.703643798828 -246.869674682617 2.602397203445
-21.763153076172 -74.760574340820 -191.281204223633 2.501600503922
59.297554016113 -66.812744140625 -56.771408081055 12.845698356628
77.692611694336 -60.376235961914 -223.346023559570 7.873775482178
-136.523406982422 -67.575531005859 -274.180664062500 8.148838043213
118.302818298340 -65.338508605957 -157.041473388672 6.095373630524
-105.710876464844 -71.785041809082 -280.938385009766 4.488760471344
3.039001464844 -62.281700134277 -127.550460815430 19.495058059692
-70.849838256836 -68.661697387695 -163.569183349609 5.260878562927
-86.302108764648 -64.064216613770 -154.824722290039 8.109322547913
-74.083572387695 -67.796783447266 -138.504211425781 1.546814799309
132.708648681641 -65.638717651367 -171.548187255859 19.035665512085
-112.333282470703 -72.043258666992 -265.727905273438 3.722090005875
127.564636230469 -75.273696899414 -168.676406860352 12.350183486938
7.881652832031 -83.645889282227 -242.350921630859 4.040533065796
-83.140319824219 -77.212913513184 -124.462333679199 6.504856586456
-21.493865966797 -65.367042541504 -126.999923706055 27.436796188354
10.727767944336 -81.088943481445 -240.259674072266 2.156317710876
52.919601440430 -60.037475585938 -123.703704833984 9.642335891724
-101.802612304688 -73.451202392578 -299.563354492188 8.806074142456
68.721405029297 -61.763206481934 -63.631759643555 1.901038765907
68.946182250977 -70.613533020020 -64.165679931641 4.928233146667
-58.036254882813 -59.846839904785 -154.144363403320 9.911364555359
39.112571716309 -63.322517395020 -252.067657470703 1.359412550926
-97.589050292969 -77.641494750977 -124.669738769531 9.321099281311
-83.208831787109 -76.396987915039 -286.366729736328 1.541684031487
-8.458862304688 -67.785636901855 -208.425781250000 3.004645824432
-39.064086914063 -61.841743469238 -171.595504760742 6.420492172241
-72.980621337891 -80.163757324219 -135.073944091797 6.347499370575
-42.940322875977 -65.388595581055 -177.184951782227 7.945490360260
-52.976638793945 -74.611282348633 -165.872116088867 5.565793991089
-91.348648071289 -67.690666198730 -101.458656311035 6.255702495575
-126.239898681641 -68.678382873535 -271.185455322266 4.871418476105
-109.916442871094 -72.539306640625 -202.178100585938 3.770573854446
-32.075668334961 -64.202735900879 -173.956909179688 3.768670320511
-87.154907226563 -76.741119384766 -230.052871704102 10.666451454163
-162.972625732422 -69.370147705078 -262.108978271484 0.517252802849
72.688438415527 -71.710166931152 -110.583259582520 6.542044162750
50.486694335938 -83.802276611328 -271.917205810547 22.040922164917
-137.688385009766 -72.662269592285 -272.460845947266 7.547561168671
67.061531066895 -66.697219848633 -121.008270263672 14.751776695251
77.399665832520 -65.112220764160 -214.345077514648 7.622234821320
-59.316665649414 -80.844696044922 -286.027526855469 5.111194133759
66.791030883789 -69.688262939453 -117.967185974121 13.136882781982
-17.715133666992 -64.473686218262 -46.686920166016 4.696916103363
11.126602172852 -65.735298156738 -47.627120971680 15.041818618774
-28.569824218750 -78.539108276367 -255.941619873047 12.438541412354
-4.718582153320 -71.422080993652 -234.828857421875 1.196506500244
13.568618774414 -79.622192382813 -249.139511108398 1.250368118286
-24.869766235352 -71.681152343750 -250.640106201172 8.768580436707
123.623916625977 -66.427932739258 -152.970214843750 9.282773971558
-33.521148681641 -72.276733398438 -125.823074340820 16.390689849854
27.988784790039 -66.217720031738 -52.921264648438 11.126583099365
68.276679992676 -62.467704772949 -237.810607910156 4.994655132294
-75.183883666992 -76.354370117188 -261.594665527344 7.651138305664
-1.346679687500 -71.221450805664 -126.078605651855 25.007684707642
50.063941955566 -55.930519104004 -227.958679199219 18.869853973389
-93.891769409180 -62.173339843750 -166.372665405273 6.635497093201
-41.765945434570 -56.985603332520 -175.246627807617 12.690766334534
109.633163452148 -74.461341857910 -109.630676269531 1.866973638535
33.292274475098 -61.429321289063 -254.044006347656 3.103433609009
-139.676574707031 -72.895263671875 -167.147888183594 9.087777137756
62.195732116699 -66.189292907715 -130.373870849609 19.964082717896
25.571060180664 -83.952758789063 -244.400390625000 6.076374053955
-172.601562500000 -69.655044555664 -278.533020019531 5.617217540741
-56.223770141602 -65.637641906738 -147.962585449219 3.526894092560
139.801055908203 -70.940521240234 -167.328720092773 23.214385986328
-39.909500122070 -60.120513916016 -208.981582641602 13.527320861816
-73.668991088867 -66.110908508301 -213.956832885742 6.828790664673
-85.480651855469 -59.664649963379 -117.469596862793 1.741602540016
-77.479370117188 -64.215110778809 -147.569076538086 5.524294853210
-178.216247558594 -73.415618896484 -257.916137695313 11.145730972290
24.213348388672 -82.085121154785 -252.057586669922 4.732411384583
-73.990417480469 -66.762054443359 -155.167312622070 3.582744836807
11.371749877930 -63.668136596680 -130.902587890625 11.453700065613
33.299087524414 -62.225250244141 -118.712211608887 4.183284759521
144.620223999023 -69.975753784180 -163.387237548828 27.488325119019
73.570182800293 -68.499023437500 -259.445281982422 17.372463226318
-165.032806396484 -82.376754760742 -266.663696289063 6.035553932190
-75.040420532227 -60.281616210938 -210.292907714844 11.247113227844
-77.449905395508 -72.208572387695 -151.831146240234 4.689398765564
85.789604187012 -68.010993957520 -211.633392333984 4.235312461853
-16.543884277344 -67.224777221680 -50.562255859375 4.146934509277
-150.429229736328 -79.332511901855 -271.712646484375 0.651977419853
79.370277404785 -80.437133789063 -266.365875244141 28.661348342896
-77.726165771484 -65.202415466309 -218.089385986328 9.170645713806
-139.331787109375 -84.120239257813 -277.757720947266 6.709389209747
-24.279800415039 -68.744644165039 -190.863616943359 1.624610662460
-108.656921386719 -58.085777282715 -111.048645019531 11.113015174866
8.352783203125 -74.780738830566 -236.492797851563 2.752153396606
-72.456481933594 -80.826171875000 -82.125915527344 1.371818900108
-14.044418334961 -60.485443115234 -201.376983642578 7.352022171021
-7.060684204102 -69.686691284180 -202.656539916992 4.705745220184
-96.380920410156 -65.852081298828 -140.260070800781 0.596884429455
-68.862731933594 -67.491821289063 -77.727424621582 10.226053237915
-47.390441894531 -64.108947753906 -121.543319702148 7.465099811554
-148.680725097656 -60.707214355469 -271.447753906250 4.847175598145
-84.598953247070 -60.724174499512 -124.727577209473 3.139185905457
-97.134582519531 -58.351486206055 -112.174697875977 4.103706836700
-28.280212402344 -73.319839477539 -180.388824462891 3.258039236069
11.132293701172 -69.825157165527 -154.493591308594 2.011461257935
-80.853866577148 -68.883995056152 -277.958404541016 9.770517349243
-57.956863403320 -62.771865844727 -182.851684570313 10.788912773132
9.162582397461 -71.657302856445 -208.353790283203 0.323931366205
43.153091430664 -62.767593383789 -123.663749694824 3.969920873642
39.011100769043 -63.874404907227 -133.741699218750 5.329641819000
-79.837722778320 -78.591339111328 -128.148422241211 8.400103569031
-95.791183471680 -64.010139465332 -183.982116699219 10.131900787354
-92.245697021484 -77.632080078125 -296.755035400391 6.590338706970
-22.083572387695 -61.712547302246 -162.695190429688 12.988703727722
4.697204589844 -59.101646423340 -45.297439575195 15.733572959900
8.880020141602 -63.446418762207 -51.311248779297 17.930873870850
-50.162536621094 -69.001899719238 -148.683898925781 1.042044520378
-7.747390747070 -63.640502929688 -134.903915405273 23.510572433472
81.058570861816 -63.618461608887 -225.435607910156 4.488230228424
9.242111206055 -64.272560119629 -50.672622680664 18.541479110718
-143.145660400391 -65.815750122070 -187.407943725586 0.422407209873
-159.834503173828 -70.999458312988 -243.620468139648 2.881756544113
26.835800170898 -79.663253784180 -244.678634643555 4.651255607605
-64.332611083984 -61.048606872559 -135.131057739258 3.294973611832
45.523162841797 -78.812347412109 -277.649993896484 22.256683349609
48.250839233398 -58.267013549805 -252.088272094727 5.794984340668
-94.992828369141 -77.135482788086 -100.983596801758 5.549734592438
17.651809692383 -74.489288330078 -137.328155517578 7.765345096588
120.403839111328 -67.499641418457 -166.004028320313 6.200727462769
-143.520385742188 -73.769470214844 -280.055175781250 2.794488906860
95.173065185547 -69.310310363770 -109.774452209473 4.689125061035
68.578834533691 -67.420684814453 -205.762557983398 17.822839736938
-39.242050170898 -59.160972595215 -166.948791503906 9.481328010559
41.914733886719 -56.354949951172 -125.988632202148 2.960427999496
93.534973144531 -82.543869018555 -193.208297729492 9.173117637634
52.168556213379 -64.360404968262 -224.720062255859 16.028747558594
-98.263824462891 -74.733978271484 -100.503799438477 6.596698760986
9.126739501953 -67.986854553223 -135.718826293945 10.625802040100
23.469528198242 -66.641448974609 -136.323745727539 1.406742334366
-91.856933593750 -72.372077941895 -234.958816528320 12.688354492188
-75.516830444336 -59.780632019043 -117.057373046875 2.867735385895
108.828018188477 -65.931678771973 -82.255470275879 4.633953094482
-75.184082031250 -71.211196899414 -127.564399719238 1.149326086044
-56.100723266602 -76.492019653320 -147.207290649414 0.782008290291
-15.228530883789 -66.994781494141 -48.182006835938 5.674985408783
47.588676452637 -72.604469299316 -232.679718017578 11.148234367371
80.189544677734 -74.040359497070 -72.306610107422 1.357253551483
-113.843505859375 -74.734954833984 -287.794281005859 1.070658922195
129.762313842773 -66.549842834473 -173.503219604492 16.804470062256
-122.721191406250 -75.814193725586 -109.326225280762 26.573385238647
-175.370208740234 -71.541168212891 -257.955291748047 8.160298347473
-107.336303710938 -71.887115478516 -274.135437011719 11.482296943665
76.323745727539 -78.100669860840 -267.486572265625 26.730007171631
79.877845764160 -73.954597473145 -114.259979248047 10.629950523376
-157.570373535156 -70.299156188965 -227.705108642578 2.505207300186
-95.060226440430 -66.803634643555 -281.118316650391 7.956802368164
-72.851684570313 -60.925491333008 -210.952163696289 11.203015327454
21.051376342773 -64.198562622070 -138.145339965820 1.674886465073
138.423446655273 -69.490524291992 -157.138458251953 21.904151916504
-56.060852050781 -66.739135742188 -150.052505493164 2.702408790588
-32.998779296875 -60.557357788086 -179.210235595703 8.823218345642
22.327697753906 -66.846099853516 -247.557449340820 1.976245045662
-169.531433105469 -77.259506225586 -274.297027587891 4.655416488647
-138.373107910156 -79.326019287109 -272.390014648438 8.165586471558
-74.353439331055 -61.435256958008 -76.593048095703 11.479403495789
-97.845458984375 -68.168601989746 -170.804031372070 4.262192249298
-68.641662597656 -63.220642089844 -162.254791259766 8.356553077698
-2.454589843750 -65.570877075195 -215.495391845703 3.477966070175
-80.802337646484 -71.195373535156 -294.296234130859 3.905643701553
-175.460479736328 -76.764358520508 -262.093048095703 9.350569725037
-62.732086181641 -61.916450500488 -147.877151489258 7.304471492767
-58.729309082031 -60.710998535156 -191.764328002930 16.241302490234
-18.526901245117 -62.071044921875 -195.391921997070 5.187181472778
-73.904083251953 -59.889343261719 -120.387908935547 2.633080959320
-100.738677978516 -80.637771606445 -286.678710937500 5.689378261566
29.792160034180 -58.803054809570 -128.065399169922 1.360739707947
-64.242355346680 -67.147903442383 -75.324264526367 10.203578948975
-31.465972900391 -67.399177551270 -171.427627563477 1.159852862358
-127.289764404297 -73.021789550781 -293.346069335938 1.645282745361
-82.041931152344 -66.895004272461 -124.770767211914 2.507759332657
0.770782470703 -66.398757934570 -208.874298095703 8.730041503906
-62.808074951172 -74.827468872070 -299.241546630859 8.275666236877
-19.531677246094 -63.874572753906 -194.279754638672 3.076642274857
80.616844177246 -64.249778747559 -73.346870422363 8.705222129822
39.817893981934 -59.768341064453 -128.905502319336 3.564349889755
16.613952636719 -63.317749023438 -136.718475341797 5.363237857819
-30.977478027344 -72.201835632324 -184.284500122070 2.706781387329
-59.051132202148 -70.111587524414 -77.490119934082 8.676970481873
93.804191589355 -60.630905151367 -113.377746582031 4.172577857971
-166.796325683594 -64.973815917969 -266.743804931641 3.860167503357
-63.847076416016 -71.606971740723 -68.821166992188 8.070836067200
42.760032653809 -66.293716430664 -52.492111206055 11.515254020691
-52.963333129883 -64.171112060547 -195.491195678711 12.811780929565
-67.191680908203 -64.589553833008 -74.918151855469 9.038043022156
143.374084472656 -76.981513977051 -168.069717407227 26.877317428589
-92.563385009766 -72.539527893066 -231.661788940430 9.329075813293
1.872817993164 -81.057273864746 -218.969619750977 3.526891946793
-150.708343505859 -72.510345458984 -213.410446166992 1.635100007057
59.770713806152 -59.155197143555 -235.293640136719 8.640097618103
-169.676727294922 -60.292114257813 -261.341949462891 8.868138313293
80.512771606445 -63.719581604004 -242.246536254883 10.650757789612
-18.585754394531 -66.444801330566 -123.916000366211 31.115234375000
-0.002227783203 -73.201507568359 -232.229644775391 2.156763315201
-63.871948242188 -61.907371520996 -196.967437744141 19.166526794434
-76.636215209961 -72.757881164551 -117.569122314453 3.418678283691
83.049057006836 -64.621597290039 -229.816848754883 6.041634559631
50.496337890625 -60.968353271484 -236.665939331055 8.972923278809
137.414932250977 -70.626022338867 -144.310028076172 20.211431503296
-50.264373779297 -65.254638671875 -134.639068603516 0.789788246155
-129.143829345703 -76.359954833984 -276.778076171875 7.145387172699
74.357330322266 -62.984931945801 -101.485099792480 4.484241008759
-73.183654785156 -62.934455871582 -292.701599121094 7.091346263885
-83.577880859375 -63.631233215332 -156.184082031250 11.112537384033
-13.221069335938 -70.129066467285 -130.097717285156 29.666477203369
36.328147888184 -60.220108032227 -125.126106262207 1.517783999443
-159.521087646484 -75.627113342285 -219.828704833984 4.665026187897
-81.863754272461 -63.990791320801 -131.290878295898 3.239224195480
-52.377304077148 -64.108169555664 -181.902130126953 8.766554832458
8.758071899414 -84.052841186523 -241.103149414063 3.893511533737
-116.260559082031 -61.546852111816 -132.624023437500 21.503856658936
-47.124191284180 -64.227424621582 -62.854507446289 12.078501701355
-19.267211914063 -59.173332214355 -55.089736938477 4.953890323639
3.541213989258 -62.431167602539 -129.979309082031 17.393602371216
-48.610107421875 -58.833168029785 -179.395385742188 15.098298072815
-63.643951416016 -84.375503540039 -297.374176025391 11.018185615540
124.557632446289 -74.281723022461 -146.835693359375 8.048906326294
-73.888214111328 -73.588615417480 -291.544097900391 2.794957160950
129.962371826172 -74.460037231445 -145.047424316406 12.963780403137
-103.684906005859 -55.414863586426 -123.079124450684 7.215012550354
-18.171859741211 -65.192939758301 -192.863296508789 3.216922760010
-70.163040161133 -61.733444213867 -206.462356567383 12.661260604858
137.400863647461 -65.788810729980 -170.309997558594 23.136648178101
-3.398849487305 -72.811080932617 -208.161727905273 4.523176670074
-60.009475708008 -65.835456848145 -179.475784301758 7.828036308289
-66.245697021484 -63.244674682617 -169.424285888672 9.348001480103
98.416290283203 -62.590866088867 -113.755691528320 5.874660491943
-151.161132812500 -74.033233642578 -271.550537109375 2.721333026886
82.709419250488 -71.149230957031 -117.352478027344 11.560842514038
-178.213226318359 -72.452331542969 -272.582427978516 10.486672401428
85.007179260254 -71.560455322266 -227.238296508789 1.905786395073
-17.782669067383 -68.364089965820 -225.916717529297 1.513618111610
-22.894241333008 -74.691673278809 -129.485778808594 24.728038787842
-1.945175170898 -79.097023010254 -211.656127929688 4.990083217621
-52.130813598633 -61.428405761719 -164.167419433594 10.179699897766
-41.092773437500 -63.102485656738 -127.784080505371 10.885737419128
-81.354354858398 -74.486221313477 -128.719955444336 4.592829704285
90.647514343262 -60.971313476563 -91.183822631836 4.506717205048
-135.319793701172 -68.087211608887 -156.518035888672 19.741609573364
68.352996826172 -74.711357116699 -267.499877929688 21.686185836792
-127.635131835938 -78.950927734375 -277.361511230469 7.996308803558
-177.700592041016 -74.834045410156 -268.419921875000 9.669867515564
-129.502777099609 -71.386421203613 -253.246520996094 2.216725587845
123.113639831543 -70.677688598633 -161.860595703125 6.463509559631
45.162460327148 -66.056663513184 -227.900070190430 16.209617614746
60.293479919434 -77.892242431641 -230.516372680664 8.927375793457
-30.446670532227 -56.057594299316 -131.933868408203 20.862634658813
-72.587493896484 -70.415077209473 -285.739471435547 2.668718814850
50.930603027344 -61.378707885742 -251.386993408203 3.267400503159
-54.501266479492 -62.133789062500 -63.255142211914 10.498204231262
-28.890014648438 -66.072509765625 -180.433044433594 2.505418300629
46.867561340332 -82.027679443359 -266.885986328125 16.286931991577
-14.382263183594 -62.958381652832 -203.281890869141 4.329596996307
-78.688903808594 -64.368293762207 -293.834136962891 6.399711132050
-168.969543457031 -59.915405273438 -255.997482299805 10.083459854126
-116.815399169922 -63.677688598633 -281.364471435547 8.335865974426
16.573577880859 -74.816360473633 -244.508850097656 2.725631237030
-82.163909912109 -58.946311950684 -117.158927917480 0.610634386539
-16.817443847656 -62.028579711914 -199.284118652344 6.260456562042
72.928390502930 -76.245208740234 -126.744773864746 22.051992416382
-20.311798095703 -70.556045532227 -128.128387451172 27.426008224487
-139.290100097656 -63.318183898926 -278.749664306641 7.607045650482
-105.642639160156 -72.823905944824 -126.937934875488 13.608418464661
-167.248596191406 -65.479522705078 -266.000732421875 4.050601005554
141.166717529297 -77.287063598633 -164.791625976563 24.169942855835
2.785888671875 -64.433914184570 -124.963409423828 21.677890777588
-6.207870483398 -68.391799926758 -203.684463500977 5.486949443817
117.678703308105 -68.890304565430 -99.435203552246 8.308494567871
-174.389770507813 -68.486526489258 -258.569366455078 7.119056224823
-141.042358398438 -72.383071899414 -271.591552734375 4.934803485870
34.325218200684 -78.122604370117 -244.212982177734 11.231538772583
26.712219238281 -59.644989013672 -134.833908081055 0.284316122532
109.313377380371 -73.558273315430 -106.155082702637 2.517106056213
-60.849426269531 -61.534294128418 -122.572929382324 3.550055265427
-23.170242309570 -64.997222900391 -183.885131835938 4.812480926514
-179.468322753906 -75.554473876953 -262.654510498047 12.686560630798
68.557228088379 -69.616218566895 -98.777427673340 1.925819277763
-172.808044433594 -65.377189636230 -260.223602294922 6.202527523041
-88.670806884766 -81.229331970215 -135.333526611328 10.810536384583
-10.217758178711 -63.230094909668 -197.882476806641 6.123352050781
1.795898437500 -77.106796264648 -245.956909179688 1.492423772812
147.729934692383 -69.054031372070 -158.387985229492 30.835403442383
-169.757720947266 -75.990875244141 -246.541687011719 5.047675132751
141.646163940430 -67.123161315918 -161.573272705078 25.100599288940
134.723022460938 -74.748687744141 -168.222534179688 18.473527908325
-21.247558593750 -67.802612304688 -201.056167602539 1.818720102310
23.152679443359 -85.205093383789 -245.027984619141 5.272400379181
94.542098999023 -78.146942138672 -226.418533325195 6.886563301086
-60.111984252930 -60.631019592285 -166.671600341797 10.714489936829
-104.039947509766 -68.023788452148 -143.108032226563 8.110178947449
90.324180603027 -85.265151977539 -249.255477905273 22.338230133057
-137.900878906250 -81.243698120117 -251.024749755859 5.388880729675
-10.895904541016 -68.881561279297 -130.354400634766 27.857904434204
109.111717224121 -76.651557922363 -77.774398803711 10.190841674805
-32.066192626953 -65.490768432617 -136.725997924805 14.036999702454
0.425338745117 -63.824386596680 -142.807678222656 13.074936866760
60.396217346191 -71.750816345215 -275.487945556641 25.197786331177
-31.337265014648 -74.245941162109 -176.279327392578 3.681493043900
-103.024597167969 -76.270339965820 -121.555778503418 10.507284164429
95.429420471191 -74.717590332031 -244.660324096680 19.203245162964
-29.206268310547 -64.737480163574 -131.242294311523 19.209184646606
44.215019226074 -63.014747619629 -53.401657104492 13.502969741821
-34.368606567383 -67.169120788574 -203.451614379883 6.560765743256
-139.934997558594 -67.279541015625 -262.638549804688 0.913365066051
-30.016098022461 -63.438636779785 -54.578704833984 5.073008537292
-86.525466918945 -66.838317871094 -92.034942626953 9.717110633850
-109.001007080078 -78.641571044922 -281.675537109375 8.354977607727
-62.261642456055 -59.294525146484 -119.038360595703 2.901463747025
17.151397705078 -73.606292724609 -134.683319091797 8.854221343994
-53.729858398438 -66.417015075684 -147.999862670898 2.030769824982
85.789794921875 -81.746902465820 -120.433525085449 19.671447753906
5.730621337891 -66.620033264160 -126.256675720215 19.064542770386
93.743400573730 -78.180068969727 -205.473358154297 1.729961991310
87.389984130859 -72.160339355469 -74.293960571289 3.040518045425
-20.975814819336 -74.748657226563 -128.682434082031 26.796426773071
58.146034240723 -66.739112854004 -260.824676513672 10.491104125977
-21.481033325195 -61.941009521484 -122.727043151855 29.665809631348
27.531707763672 -80.367095947266 -268.119323730469 6.766896724701
-50.531936645508 -75.862953186035 -160.931030273438 2.276159524918
-76.014022827148 -70.759948730469 -141.657119750977 1.485393643379
92.367622375488 -82.698989868164 -237.085968017578 15.422746658325
-66.268783569336 -63.339523315430 -168.192474365234 9.179339408875
-117.559906005859 -78.312469482422 -291.360168457031 2.555586576462
25.275375366211 -77.254943847656 -248.438156127930 2.307848215103
-175.874176025391 -79.605072021484 -260.093414306641 11.125999450684
-86.656738281250 -60.578437805176 -129.945770263672 3.149008035660
-99.348052978516 -77.462402343750 -298.301971435547 7.391276836395
-60.822891235352 -63.594932556152 -136.934234619141 2.455415487289
-48.631149291992 -69.840423583984 -157.339019775391 0.575364410877
12.843460083008 -77.387451171875 -261.704223632813 5.283313751221
-94.397689819336 -63.746330261230 -166.977935791016 6.873240470886
-112.377410888672 -74.493255615234 -202.684600830078 3.955225229263
65.553840637207 -62.394706726074 -253.946166992188 9.849119186401
74.104591369629 -71.154907226563 -260.150756835938 18.490573883057
-42.693969726563 -59.635902404785 -165.045715332031 10.096688270569
-1.617797851563 -79.990432739258 -211.204666137695 5.575978279114
-2.907257080078 -71.268585205078 -132.084793090820 21.346860885620
-73.520294189453 -67.546409606934 -76.333808898926 12.623444557190
-14.612167358398 -66.881317138672 -202.917160034180 2.246448993683
10.316970825195 -75.306671142578 -257.210540771484 8.357875823975
-77.853210449219 -67.048927307129 -141.754302978516 2.248495578766
-80.222305297852 -73.508132934570 -138.513183593750 3.213636398315
144.150344848633 -72.028747558594 -156.312332153320 27.309804916382
-161.545440673828 -82.148071289063 -235.858551025391 8.173192024231
-90.431518554688 -80.735809326172 -292.700866699219 7.232298851013
87.431282043457 -75.574829101563 -190.758789062500 11.799113273621
-26.264877319336 -65.476966857910 -53.945678710938 2.831385612488
-145.689056396484 -72.275741577148 -265.190185546875 0.667198240757
-92.199844360352 -71.926597595215 -286.089416503906 3.434735536575
74.325477600098 -69.674293518066 -197.622756958008 19.422994613647
-106.232604980469 -70.123718261719 -293.826507568359 2.307237863541
-59.793655395508 -68.581047058105 -131.178680419922 2.074503660202
85.187347412109 -79.032745361328 -258.070770263672 24.790790557861
-28.926559448242 -61.258331298828 -167.056549072266 8.891263008118
81.856590270996 -74.933380126953 -192.638320922852 14.849159240723
-65.436676025391 -71.260147094727 -165.128814697266 1.892117261887
-77.773666381836 -67.835250854492 -121.718231201172 1.392000675201
-143.003112792969 -63.211051940918 -265.216308593750 1.522805333138
-43.508239746094 -79.447189331055 -247.856338500977 2.323017120361
-139.674987792969 -60.823539733887 -272.448669433594 9.023200988770
-141.618377685547 -69.582275390625 -266.796875000000 3.427870035172
138.219650268555 -65.595680236816 -149.023864746094 22.502933502197
-6.287521362305 -75.080627441406 -229.953964233398 1.665461421013
35.056442260742 -66.264480590820 -244.537506103516 6.642430782318
-54.544937133789 -62.377578735352 -157.209045410156 8.806786537170
38.246261596680 -55.187858581543 -239.198333740234 12.154988288879
9.868316650391 -77.455444335938 -240.279571533203 1.166320681572
51.925369262695 -70.611488342285 -226.538101196289 13.650763511658
40.101295471191 -68.269989013672 -123.968597412109 2.413382291794
2.219451904297 -75.549468994141 -244.573181152344 0.870637476444
-22.649108886719 -78.156723022461 -252.328155517578 8.849631309509
-66.062759399414 -66.239089965820 -294.436096191406 6.825312137604
45.403106689453 -62.131538391113 -256.754791259766 3.119167804718
93.117019653320 -63.372444152832 -82.039054870605 8.612909317017
93.222938537598 -70.854949951172 -207.264556884766 1.953081727028
117.263778686523 -74.085159301758 -93.816871643066 11.178070068359
-45.883499145508 -60.954406738281 -133.193084716797 5.303726673126
-178.301635742188 -76.772933959961 -257.284027099609 12.406009674072
1.651885986328 -63.313621520996 -44.005340576172 16.159734725952
-23.374008178711 -62.995689392090 -135.659027099609 22.786922454834
-1.141632080078 -69.260070800781 -131.463378906250 21.026708602905
-107.217864990234 -68.934539794922 -146.078994750977 9.450683593750
-90.066329956055 -78.335174560547 -97.825622558594 1.323319673538
43.256790161133 -60.340744018555 -232.262527465820 15.457971572876
-90.023666381836 -76.712203979492 -144.966857910156 8.613256454468
21.931427001953 -77.513458251953 -223.530441284180 3.838939428329
-6.022277832031 -71.724052429199 -48.279342651367 13.030191421509
-139.609680175781 -78.446975708008 -291.868316650391 0.981240570545
44.554115295410 -56.505310058594 -240.641693115234 11.400694847107
-36.074295043945 -73.545181274414 -172.734130859375 2.350826263428
-65.502304077148 -66.331764221191 -139.433013916016 4.353052139282
29.314285278320 -58.056083679199 -247.240127563477 4.809066772461
-184.821380615234 -75.735061645508 -265.532409667969 17.115724563599
-118.977874755859 -75.096984863281 -269.715606689453 7.607742786407
-57.900726318359 -71.301742553711 -129.104202270508 1.422397851944
82.748954772949 -67.499900817871 -104.772781372070 0.798366129398
-143.234527587891 -66.541671752930 -174.483642578125 0.770279049873
-18.866851806641 -70.304122924805 -128.092041015625 28.800952911377
-54.279968261719 -64.911201477051 -122.930801391602 1.064016699791
37.716407775879 -67.102104187012 -237.402587890625 12.685560226440
33.165740966797 -76.182136535645 -238.727264404297 12.523737907410
-119.821929931641 -65.397872924805 -277.526000976563 10.382078170776
-33.809692382813 -69.342727661133 -127.591018676758 15.333757400513
36.530883789063 -62.294952392578 -240.501373291016 10.014355659485
-61.162933349609 -55.726844787598 -150.076385498047 12.321243286133
-106.001464843750 -88.780944824219 -284.920715332031 14.739998817444
74.942741394043 -78.245315551758 -124.416946411133 21.402946472168
-85.305755615234 -72.959533691406 -287.283020019531 1.377696514130
-88.229522705078 -67.187202453613 -106.910781860352 2.490422725677
-120.654968261719 -72.383560180664 -277.492187500000 8.395895957947
49.272666931152 -62.929901123047 -248.797286987305 2.061831474304
41.958770751953 -66.828689575195 -52.075012207031 10.726699829102
-75.166122436523 -67.101074218750 -120.184700012207 2.141557931900
50.762397766113 -61.404647827148 -125.416778564453 9.366709709167
19.909042358398 -70.938156127930 -126.012741088867 10.268899917603
-16.050704956055 -64.243263244629 -136.613937377930 28.143472671509
57.535057067871 -61.216232299805 -228.923797607422 11.461557388306
46.539497375488 -63.468688964844 -122.643936157227 6.582072734833
55.669616699219 -81.363616943359 -229.227569580078 13.519342422485
65.926055908203 -67.394546508789 -127.874679565430 21.093904495239
-128.908721923828 -83.564880371094 -279.575531005859 9.463777542114
37.871757507324 -55.731452941895 -246.926788330078 9.133367538452
96.588134765625 -78.908874511719 -196.178878784180 3.779185295105
-26.392227172852 -64.653572082520 -191.696655273438 3.948273897171
45.687416076660 -62.836128234863 -127.360427856445 6.684127330780
-80.080032348633 -72.572067260742 -270.699310302734 14.539337158203
5.236297607422 -64.112937927246 -49.105529785156 16.386983871460
-0.299896240234 -76.219421386719 -246.618453979492 1.161543846130
-182.534820556641 -75.846191406250 -265.963714599609 14.861933708191
-61.949645996094 -58.774162292480 -127.124168395996 1.549014091492
-6.339340209961 -75.617568969727 -249.943572998047 2.140320062637
11.115097045898 -70.887725830078 -207.401931762695 0.880360066891
-77.159500122070 -75.753723144531 -262.538726806641 8.218673706055
-153.563781738281 -68.969871520996 -277.644470214844 2.409765005112
-91.969329833984 -71.749412536621 -96.268783569336 1.773039937019
-22.930450439453 -63.400733947754 -127.872955322266 26.347949981689
-158.253936767578 -76.551750183105 -271.714874267578 3.880356550217
96.899429321289 -74.691024780273 -211.429199218750 2.007825613022
-66.128417968750 -72.311271667480 -146.575164794922 0.288738608360
-54.156265258789 -62.693305969238 -126.553932189941 1.151893019676
-48.157608032227 -76.082534790039 -256.536346435547 9.137740135193
-73.219131469727 -75.264083862305 -283.803833007813 3.612381458282
-168.309753417969 -79.611946105957 -269.790283203125 5.110333919525
-77.917343139648 -75.501968383789 -145.887115478516 3.751591920853
93.795074462891 -82.615776062012 -249.524536132813 23.387605667114
-166.603759765625 -62.333526611328 -272.839843750000 7.815427303314
-25.546234130859 -65.599479675293 -163.332214355469 8.379317283630
-0.131591796875 -71.706390380859 -147.926055908203 9.252394676208
-121.071899414063 -75.332305908203 -275.266387939453 9.678898811340
-70.889266967773 -64.296028137207 -74.716087341309 10.508306503296
-11.388473510742 -63.183998107910 -199.692825317383 5.129012584686
-23.924285888672 -62.788452148438 -216.500701904297 9.005978584290
-86.773101806641 -80.759040832520 -293.529449462891 6.975698471069
-51.501342773438 -65.957077026367 -189.771316528320 8.743615150452
126.295593261719 -75.379180908203 -153.722076416016 9.700978279114
-107.188232421875 -55.199729919434 -118.808753967285 9.817425727844
33.291854858398 -57.205177307129 -48.864852905273 6.976577281952
80.708930969238 -64.317611694336 -122.463882446289 13.473702430725
-118.324249267578 -76.974685668945 -276.314178466797 10.325597763062
-51.214950561523 -65.299278259277 -134.356262207031 0.997235596180
-73.632522583008 -68.458648681641 -283.202087402344 4.304400444031
-126.159545898438 -70.064506530762 -110.471878051758 28.035764694214
-108.931640625000 -79.241752624512 -117.953430175781 16.284442901611
59.465293884277 -57.420410156250 -228.680038452148 13.519486427307
-96.516937255859 -67.228080749512 -171.310470581055 5.167851448059
-49.658615112305 -68.451583862305 -58.313064575195 6.272618770599
-152.683654785156 -72.068328857422 -285.064086914063 2.757729768753
29.213439941406 -72.724113464355 -251.067428588867 5.341996669769
130.951354980469 -80.083465576172 -166.711791992188 15.705860137939
-170.689086914063 -84.687049865723 -265.120239257813 10.594922065735
-5.448547363281 -65.824989318848 -213.799880981445 3.354528665543
31.237838745117 -68.721870422363 -243.422927856445 10.594432830811
-24.546218872070 -69.961799621582 -55.675460815430 2.784059286118
27.768997192383 -84.440399169922 -230.201629638672 10.603254318237
82.392517089844 -73.144889831543 -257.175048828125 21.270818710327
-1.592590332031 -67.205398559570 -152.146728515625 8.493415832520
74.827133178711 -63.721237182617 -102.189224243164 3.518429994583
-100.038055419922 -76.812812805176 -290.096069335938 3.580545902252
-115.647796630859 -77.021270751953 -273.105285644531 11.215876579285
26.737335205078 -62.354705810547 -257.978576660156 2.446111440659
-34.496597290039 -63.928428649902 -140.453033447266 10.852722167969
-27.437164306641 -78.583274841309 -248.964096069336 5.448899745941
17.747634887695 -75.363128662109 -265.779235839844 3.804216146469
65.648483276367 -67.277748107910 -128.242004394531 21.429210662842
83.484115600586 -69.911315917969 -120.693519592285 13.974955558777
95.923309326172 -64.155616760254 -99.068572998047 4.593650341034
-37.658889770508 -61.007263183594 -58.408538818359 10.886512756348
-94.795196533203 -66.781181335449 -169.406280517578 7.182717800140
-115.802795410156 -64.191131591797 -129.809921264648 19.946405410767
127.222610473633 -69.303749084473 -143.837310791016 10.347382545471
98.333328247070 -82.023185729980 -206.357299804688 5.241208553314
-24.952041625977 -71.573333740234 -195.575286865234 1.743827939034
48.669593811035 -66.474166870117 -126.106475830078 7.402420520782
123.524917602539 -75.134613037109 -168.330947875977 8.649371147156
-183.270751953125 -65.833541870117 -257.865173339844 16.038965225220
-20.150421142578 -62.893104553223 -188.972610473633 4.777204990387
-132.550048828125 -77.375625610352 -268.715240478516 6.453352928162
-53.281585693359 -70.051216125488 -190.662292480469 5.721041202545
68.589248657227 -66.127723693848 -102.468223571777 2.317748785019
-82.705261230469 -65.328681945801 -132.734985351563 2.209161281586
-136.878417968750 -65.207015991211 -147.061706542969 28.382164001465
-107.410766601563 -62.372955322266 -136.097091674805 12.420143127441
-20.288070678711 -64.998916625977 -229.978179931641 6.323356151581
-141.590454101563 -69.879112243652 -250.353607177734 2.692459344864
141.546127319336 -79.135208129883 -152.187042236328 25.458105087280
62.029800415039 -58.364059448242 -226.573028564453 13.549616813660
-40.796005249023 -66.673835754395 -57.206176757813 7.114145755768
-134.244812011719 -71.579826354980 -151.742614746094 24.948789596558
-99.778991699219 -70.675659179688 -241.120468139648 11.677351951599
110.480133056641 -67.889259338379 -106.162300109863 2.416228771210
-137.951690673828 -67.866127014160 -150.052749633789 25.175735473633
-127.869323730469 -65.135650634766 -124.976440429688 30.420125961304
-22.949691772461 -65.998130798340 -199.609054565430 3.424830675125
-187.442138671875 -67.055923461914 -256.192474365234 19.699430465698
-104.447265625000 -84.082015991211 -260.200866699219 9.443753242493
60.801292419434 -59.607444763184 -244.879913330078 6.155973434448
1.351943969727 -78.291259765625 -244.408874511719 2.281432628632
2.454879760742 -79.675018310547 -212.967483520508 5.625821590424
3.399200439453 -78.501876831055 -220.893798828125 3.924958944321
-92.435501098633 -81.871482849121 -138.615325927734 13.337450981140
-50.164108276367 -61.435684204102 -132.967010498047 1.182950019836
80.623252868652 -77.807403564453 -117.044509887695 14.823951721191
7.568237304688 -59.491813659668 -133.045227050781 12.859016418457
-9.467361450195 -59.440734863281 -133.115539550781 27.274990081787
-147.463775634766 -70.208229064941 -177.311553955078 2.636002302170
-110.129821777344 -64.828231811523 -270.060546875000 8.791585922241
30.774017333984 -61.676933288574 -137.464752197266 1.730980992317
-20.740783691406 -61.915824890137 -187.468673706055 5.883676528931
-112.445922851563 -82.779220581055 -287.863830566406 7.378878116608
-71.497985839844 -65.161514282227 -206.505828857422 9.454299926758
-141.860168457031 -75.892028808594 -176.316467285156 2.989756822586
-9.546920776367 -70.574096679688 -227.408218383789 2.150700092316
-7.931243896484 -67.990371704102 -134.093872070313 23.235731124878
9.555603027344 -68.321128845215 -144.040145874023 5.711261272430
-66.239929199219 -71.835662841797 -163.018096923828 2.066922426224
16.779281616211 -59.444793701172 -135.451095581055 5.312590599060
93.651275634766 -80.233749389648 -233.277954101563 13.010723114014
81.751342773438 -68.804954528809 -122.815299987793 15.218943595886
93.570983886719 -73.953109741211 -224.526885986328 4.863601207733
-77.033676147461 -64.663177490234 -281.685028076172 7.392721652985
147.430938720703 -75.885040283203 -165.313735961914 30.268732070923
-80.447723388672 -76.131515502930 -139.588363647461 5.380939960480
22.286804199219 -62.825691223145 -250.561569213867 0.594057381153
61.430885314941 -61.596115112305 -129.151153564453 18.618165969849
76.576316833496 -69.385543823242 -195.991394042969 17.787950515747
-158.240875244141 -74.348876953125 -227.045364379883 1.674737572670
0.184371948242 -68.885231018066 -130.898803710938 20.268363952637
-29.719436645508 -62.226257324219 -132.110763549805 18.910409927368
-85.347457885742 -65.104934692383 -222.944015502930 8.000218391418
70.113945007324 -64.207717895508 -242.188461303711 5.995772838593
51.681022644043 -73.220909118652 -129.339416503906 9.148362159729
-39.361480712891 -75.600967407227 -251.302368164063 5.921118259430
-15.518890380859 -66.596336364746 -53.741607666016 3.005090236664
-103.342895507813 -68.956298828125 -284.137878417969 3.359056472778
-64.016952514648 -62.356277465820 -159.902725219727 8.417751312256
-80.750030517578 -64.584609985352 -293.848144531250 5.735979080200
-11.274322509766 -77.613784790039 -251.584533691406 2.434825658798
-73.051925659180 -75.245101928711 -84.028579711914 7.253254890442
-13.276168823242 -70.050895690918 -199.814971923828 2.225938558578
107.998199462891 -69.217170715332 -86.114967346191 4.703740119934
-47.633407592773 -71.622421264648 -160.933609008789 2.087031126022
32.043449401855 -69.816032409668 -132.976409912109 1.424068212509
-71.831298828125 -63.589309692383 -83.728286743164 9.005544662476
-22.703842163086 -71.309494018555 -212.824447631836 3.168446540833
132.944534301758 -74.336647033691 -142.656112670898 15.907081604004
57.992408752441 -65.572845458984 -56.312240600586 13.574416160583
86.219657897949 -77.076736450195 -203.099746704102 7.075666427612
48.460845947266 -75.140625000000 -274.007873535156 18.706447601318
-101.122406005859 -65.584732055664 -180.996231079102 4.482812404633
42.956649780273 -63.125190734863 -49.041824340820 9.241191864014
-72.899917602539 -69.605827331543 -209.848266601563 4.531938076019
47.037155151367 -64.520606994629 -252.994995117188 1.694581031799
142.647659301758 -73.181457519531 -142.492294311523 25.460018157959
-112.105346679688 -75.747550964355 -263.734588623047 3.956537246704
10.363449096680 -78.569091796875 -224.458923339844 2.473404884338
-153.612396240234 -75.590232849121 -266.667388916016 2.298569440842
70.707824707031 -71.804237365723 -78.152565002441 1.828109622002
-22.183090209961 -68.631210327148 -134.013778686523 23.576316833496
-120.999206542969 -70.416793823242 -282.999511718750 4.952603816986
-71.539871215820 -63.554679870605 -289.191802978516 5.803137779236
-66.869155883789 -66.894454956055 -132.852066040039 3.819321870804
-129.546905517578 -77.414016723633 -240.982513427734 8.147191047668
40.967117309570 -61.558067321777 -54.779983520508 13.640639305115
68.225532531738 -70.860939025879 -266.922912597656 20.518301010132
-133.631744384766 -79.740341186523 -290.173980712891 2.117093324661
-42.404678344727 -61.118263244629 -206.083175659180 12.404102325439
-29.045806884766 -80.177017211914 -254.989059448242 11.767215728760
-105.687103271484 -79.926475524902 -249.958801269531 8.956144332886
77.994346618652 -64.997940063477 -111.435783386230 3.591352462769
-65.960342407227 -76.528442382813 -254.475250244141 4.264732360840
8.462539672852 -77.756195068359 -263.205993652344 6.768074989319
-158.891174316406 -72.981803894043 -285.117248535156 3.021134614944
-75.591430664063 -58.207817077637 -140.920989990234 7.907531261444
-113.279510498047 -68.455223083496 -102.053924560547 15.654784202576
-19.456054687500 -72.397216796875 -195.249252319336 2.014141559601
60.023872375488 -63.119041442871 -213.012496948242 19.942153930664
