# This PCD file was generated using the MATLAB® pcwrite function
# from Computer Vision Toolbox®.
# .PCD v.7 - Point Cloud Data file format
VERSION .7
FIELDS x y z
SIZE 4 4 4
TYPE F F F
COUNT 1 1 1
WIDTH 1476
HEIGHT 1
VIEWPOINT 0 0 0 1 0 0 0
POINTS 1476
DATA ascii
50.248726 108.562706 -55.906158
76.573883 -32.598667 -64.247528
77.709908 90.380875 -66.131783
76.744308 -2.618148 -245.637787
76.183167 25.378109 -273.051025
52.139503 85.956017 -53.817017
50.269306 83.135063 -48.272408
77.353485 95.193008 -69.262672
62.874859 -50.635857 -65.346382
77.603088 90.436729 -70.774170
74.725380 82.298851 -62.433525
28.648376 -83.629707 -75.852997
63.947586 -83.973900 -41.814964
63.559933 38.913509 -20.215385
77.542564 98.990723 -67.532669
42.359863 109.736511 -56.396378
76.236809 90.217346 -75.613373
75.371948 1.200092 -256.506958
52.343182 35.381657 -249.684875
37.747482 -43.944710 -43.292732
70.199280 -79.588608 -43.605545
77.260361 -54.607010 -77.471161
77.671349 55.420696 -88.036469
37.009586 -47.822384 -62.023117
74.510323 91.380859 -52.468437
76.499550 -37.278866 -121.148102
76.930084 26.133755 -188.980957
75.529083 -35.437435 -125.952255
68.280159 -156.035522 -218.987671
67.931862 -123.776108 -183.569504
20.985998 -63.567837 -41.912567
67.122276 -91.281853 -236.528809
66.903236 -151.583206 -177.258850
53.169640 46.596634 -16.465828
76.248650 -29.765997 -131.040665
59.405052 53.457478 -100.306847
77.360237 -49.794739 -144.193863
77.376656 -6.999464 -185.372498
72.043571 -111.065170 -206.423004
68.138969 -113.275948 -213.773132
75.001198 -57.681084 -135.761078
76.987015 34.289585 -136.796982
76.651436 -58.181271 -142.416016
75.517990 -7.262314 -192.640686
77.495857 0.014365 -186.343521
76.733330 118.828804 -146.687561
51.442165 35.851391 -1.507454
75.933929 -45.921211 -151.189438
76.342888 -14.556191 -179.568008
69.743172 18.602709 -205.262115
66.137527 -68.983437 -115.731415
76.565430 121.408928 -155.740479
76.458588 -53.967773 -151.690186
74.770561 120.650360 -150.683685
77.253494 -5.704296 -156.196854
75.872177 -24.890493 -138.896179
52.622238 106.358131 -65.738457
75.595131 121.090836 -159.848999
76.480736 34.239910 -167.523804
77.168343 26.232985 -176.286621
75.272606 -38.206974 -270.862671
76.323494 -134.355637 -171.368790
62.521706 25.403231 -220.066956
69.908302 -14.782692 -55.187340
67.547966 -12.991416 -51.812508
65.286064 -66.859337 -94.688713
76.046494 116.372993 -171.926697
71.927467 -143.306198 -194.349396
74.916504 -130.594650 -177.332657
66.474724 -140.640427 -192.492996
63.196880 -116.195885 -210.086533
62.981773 -136.029510 -195.012177
68.316383 52.397415 -95.262421
68.618164 -92.883682 -239.996216
65.476746 -80.284943 -98.428284
71.738480 69.418716 -226.374222
76.238953 -37.142715 -176.558899
77.138184 21.613884 -176.717255
62.828991 -94.124565 -151.316986
76.890053 31.224148 -176.653107
67.395493 52.412830 -0.773863
64.131065 -93.813553 -141.328079
58.292679 -71.095955 -25.767292
57.397015 -56.194195 -105.146103
74.694527 -1.851453 -180.931747
73.539604 18.283953 -204.760696
75.599693 -12.034878 -179.985001
72.403328 -118.430504 -183.304184
69.281418 -113.060753 -183.861328
76.997284 27.217735 -180.764572
77.014954 107.030792 -180.038803
77.522369 107.437248 -184.225296
77.097343 -60.322701 -188.456024
75.547096 -52.548412 -143.847809
77.541023 -5.328775 -188.172043
67.113800 -143.584137 -213.388138
75.812408 -62.943092 -269.639954
77.282722 -135.251785 -197.820740
44.865532 -20.785469 -34.367371
60.293118 54.994400 -17.617432
77.015678 -20.133410 -196.753189
74.717812 -63.273651 -125.731628
77.562843 7.980156 -198.873642
64.530174 11.786916 -218.808823
76.032265 15.968195 -202.203369
75.025238 -24.944403 -223.236694
76.788940 -7.599790 -206.612808
55.620872 -24.977554 -49.778656
67.298248 26.044266 -183.223343
67.976128 -50.301800 -109.219391
51.683411 10.828551 -217.396317
76.249741 -139.189377 -208.158737
68.381584 -146.653427 -204.704117
76.758728 -128.544266 -211.023911
63.472969 -119.128159 -176.469391
71.396072 5.261920 -215.476532
67.353539 1.967850 -213.721375
76.815277 -139.847015 -215.340622
67.217072 -95.814438 -163.017319
68.272537 -147.777863 -214.139801
70.169846 -61.323662 -270.232544
28.871567 -86.266235 -64.951004
75.905830 -46.692017 -223.421234
65.010826 -66.414352 -116.701233
20.431179 -79.014572 -53.397949
78.778717 11.574879 -226.721527
70.763123 119.998550 -133.015274
76.410110 30.741364 -236.489349
69.334320 122.232437 -130.644974
56.777428 32.999043 -252.680542
76.531860 -44.080120 -36.773849
40.603790 -85.593575 -38.844154
74.881912 -82.968002 -76.531769
75.563332 30.789881 -249.788147
55.909843 83.911064 -75.167953
75.548027 30.063898 -251.329285
58.470078 32.739594 -234.126709
75.280327 -70.984711 -233.221802
76.724297 -35.855797 -266.697662
75.868317 -62.463280 -231.089722
67.876762 -105.727425 -213.669403
76.532135 -28.835821 -266.702209
77.439682 -29.145046 -267.720703
75.815903 -16.986067 -44.611786
64.799988 51.691490 -236.121582
72.784042 123.655693 -131.583099
77.559883 -2.001127 -268.309174
69.517197 124.211609 -133.547775
77.053589 -5.730157 -267.326172
77.136459 -18.404224 -270.938171
74.824020 -136.892166 -255.332123
74.453949 90.280289 -209.975647
74.828644 -73.531326 -44.857109
77.143280 -121.636528 -268.999237
64.601456 79.911537 -82.854752
72.501549 125.920036 -139.575562
75.440147 0.134122 -266.832581
77.413780 5.886636 -268.782745
61.969715 34.727692 -250.785858
60.238361 35.668369 -248.977173
43.010231 104.414230 -61.019989
72.911209 -56.118149 -31.628963
71.471649 104.261681 -193.602081
76.945999 -46.888706 -268.745605
74.705078 -135.768967 -178.542755
66.002708 -99.967796 -206.143707
40.539593 -29.224602 -46.157898
41.038883 -77.150665 -91.681519
42.616909 -41.641491 -57.443069
76.641258 18.524113 -268.495300
77.437538 -76.422729 -58.164986
58.693466 -60.013733 -92.120819
70.996262 -101.387299 -272.272095
72.448555 96.357018 -197.803925
74.225990 -114.802002 -266.727448
74.036774 -136.267899 -254.608276
77.225319 -118.126450 -268.979340
76.528839 -75.475731 -192.324402
64.588860 -132.257614 -237.573822
56.977726 96.078972 -73.900475
32.037491 -64.948074 -85.160629
75.931793 -66.295883 -40.605717
76.681969 94.813423 -201.726654
66.030029 -47.719807 -68.108101
41.844822 -28.299425 -36.165852
75.270020 25.444012 -269.125061
76.683975 -71.677345 -46.893463
76.449074 -79.082848 -61.536697
67.151596 39.054470 -238.626495
50.678967 21.008669 -274.228851
32.978550 -59.101891 -82.778427
44.967690 109.252853 -81.958878
45.032463 86.177452 -62.337868
46.984459 74.449287 -47.809639
70.396446 55.992168 -90.537201
71.309097 71.916191 -72.767433
76.073494 96.381210 -195.458923
59.571728 34.888432 -237.217865
59.588627 -26.446062 -27.049274
57.249935 5.421286 -264.833984
53.396839 6.376411 -261.757141
51.226635 7.127775 -255.706238
35.957611 -84.792465 -84.385094
38.815899 -35.954323 -37.114758
71.285400 -64.902832 -31.999901
59.497242 26.201832 -265.384552
54.350895 30.293056 -255.659576
55.601891 27.402960 -261.276978
52.409519 99.671761 -56.508598
51.854042 26.680784 -257.770691
51.106323 13.713348 -244.102936
51.169739 30.012632 -260.386780
50.699490 9.674775 -240.551971
76.368004 85.087837 -70.777435
45.702000 99.095108 -83.060349
77.357590 28.192837 -252.482605
76.759651 -80.752136 -70.812271
23.912277 -63.527290 -37.894165
46.613693 87.799103 -69.484940
72.231789 48.455509 -92.530350
70.613747 60.548054 -70.695618
73.121178 65.187561 -73.654816
43.437729 96.924202 -50.347183
72.792862 34.498627 -130.097855
71.771706 -130.610260 -235.594162
74.477608 -141.506805 -253.236908
77.065071 -140.462021 -247.367981
76.492775 87.437881 -72.586365
70.357300 -146.078873 -252.556061
66.894936 -133.267639 -235.406326
69.760094 -99.896378 -267.100739
67.764435 37.323143 -134.321793
68.112297 -101.028450 -270.803741
62.695004 -41.059399 -61.233055
62.795509 -138.967453 -234.657852
38.293900 -46.674477 -48.442856
71.266922 86.025352 -214.866089
72.758087 -63.316517 -33.370689
69.809502 -67.451401 -79.533920
70.834518 -74.992966 -87.947296
54.255173 -31.753481 -59.862564
58.905136 90.055046 -38.221634
76.041420 121.297211 -112.607025
28.444736 -54.643940 -36.589828
76.407837 123.517677 -115.686584
74.562874 19.982571 -177.053284
76.228722 -41.104160 -119.007675
58.256641 -2.045760 -256.382416
73.965355 -67.854263 -189.439423
76.174782 122.717392 -111.423798
57.507446 -54.488197 -69.438049
52.598984 24.915045 -232.527466
50.532993 31.158092 -229.667786
76.384979 122.010246 -118.310196
59.036407 -50.302166 -112.874481
75.807442 -40.652935 -123.086197
73.606873 126.914268 -125.721100
76.716476 123.654915 -124.574799
75.883514 -44.952290 -121.730057
74.959137 -52.599087 -230.237335
76.048492 -32.127064 -127.272217
55.009277 35.454052 -229.440826
53.512764 38.994289 -235.198898
75.798843 120.821892 -124.230682
75.300949 119.735268 -133.367981
62.686359 79.566154 -44.751587
61.376076 36.419338 -241.456665
51.496113 18.162596 -270.182617
76.095833 119.024277 -142.265640
45.641033 90.862816 -54.136673
46.692081 82.044083 -44.371460
76.126633 11.463914 -147.422028
58.312733 28.397757 -262.276581
59.244976 31.506119 -257.040131
54.898865 27.362936 -266.793304
51.463596 30.660833 -265.958160
69.207649 -33.043591 -59.712128
71.959648 -88.952248 -203.620041
58.628063 -89.924881 -71.912109
51.126934 -3.337404 -231.562851
26.075500 -53.485126 -70.445351
76.023331 123.727379 -146.651917
67.595306 57.678127 -74.188934
66.310959 62.452076 -78.521538
62.828762 -74.091858 -92.648575
61.804440 -41.498684 -59.487053
49.972446 2.032796 -238.687988
76.194542 114.564644 -160.010086
57.889751 -20.115175 -46.437866
77.152382 114.901985 -162.742386
76.768181 113.532379 -165.302475
53.188782 50.679619 0.460260
76.701729 117.714714 -166.916245
77.054794 112.674515 -168.158752
58.044018 -69.700104 -96.755020
58.018291 56.401817 2.286432
72.736893 -143.580841 -216.871796
76.023315 25.448303 -170.562988
63.563286 -136.601166 -217.459137
76.026154 -132.376907 -183.865143
75.468513 -51.011135 -266.378052
64.379311 -23.079472 -58.161354
76.023773 114.928978 -175.107086
71.632965 -146.674072 -183.624237
71.977699 -19.242643 -57.968781
75.383537 -141.972763 -183.558746
67.350220 -22.535332 -58.178429
69.862228 -69.794487 -109.177780
61.400520 -69.610031 -106.679451
76.570877 -49.802689 -269.280884
76.744919 -134.760193 -185.580475
73.047119 121.916924 -116.867249
71.117294 126.079979 -113.042114
76.126175 -65.090866 -189.432831
75.272369 107.907410 -188.565063
63.749184 27.935612 -129.040009
73.282661 -41.699146 -68.492165
75.637810 -64.806824 -192.906158
74.384285 -118.516441 -211.615860
75.507507 -58.896194 -270.483887
75.553688 -135.951416 -195.202652
66.014961 -143.753952 -175.994598
62.942837 -130.981140 -177.427368
59.613186 -135.370132 -174.601761
59.695633 1.159929 -40.257339
75.991966 26.169182 -198.365036
75.130531 -63.601807 -37.391830
76.871384 99.624245 -196.539551
76.203018 -8.317616 -198.585709
76.399139 -3.516609 -208.423096
69.401100 59.427048 -11.535578
77.209808 26.563953 -209.819901
75.985291 -127.435081 -209.056427
70.869591 1.844672 -210.885284
72.058708 -141.015366 -196.821579
68.517586 4.958403 -212.113922
68.298546 -144.625641 -197.345428
75.256409 -79.548134 -268.078644
76.498756 -134.915817 -214.679138
49.094681 -23.331823 -31.604633
75.166809 -84.949440 -268.719452
75.513382 -136.224060 -218.074493
76.108566 -50.435047 -224.452515
50.738186 15.798483 -261.581879
50.169117 32.337036 -243.080292
77.023506 -32.466171 -225.931000
71.425888 -39.750309 -65.764206
74.348404 -69.853531 -194.969681
76.407455 -37.083290 -226.772766
51.349430 22.764141 -244.015656
66.752403 4.638048 -242.814636
76.197830 -1.749861 -233.597275
76.967651 -2.617855 -237.122803
69.281502 123.340881 -98.707314
66.578873 36.719494 -11.226902
59.079765 -3.629539 -252.628784
42.081078 -46.113987 -30.506565
72.912033 -135.507645 -246.111511
69.010468 -130.810089 -242.571411
66.738930 -72.456474 -31.640614
74.823021 -1.444593 -253.114502
64.612846 35.698151 -7.895109
75.569168 -126.363914 -268.266235
75.858971 -136.328339 -262.794373
24.224005 -50.472771 -56.102707
47.992245 -49.714432 -33.076553
67.688187 39.916042 7.095776
66.268959 33.768208 2.949812
78.207573 14.842449 -264.177338
71.720314 -101.902870 -207.809753
72.183365 -69.603264 -234.480362
76.160263 -131.130234 -181.989731
76.139755 -44.278164 -266.462616
74.574707 -115.309593 -208.718170
71.540527 -143.958450 -176.543350
75.780670 -59.228146 -267.284119
63.384819 0.029437 -40.289345
46.348732 -42.391930 -61.854347
72.483803 -112.455544 -235.247208
71.910088 -133.994659 -281.376648
75.227615 -136.605240 -276.907684
76.831810 -140.137619 -267.185883
65.802017 -117.068916 -235.625214
65.977875 -145.478043 -265.440002
29.497652 -80.043358 -39.316010
43.751892 102.556175 -75.361794
67.995140 105.564003 -47.838852
36.159130 -47.678204 -57.515999
74.807678 9.275624 -272.520691
69.466568 83.200569 -82.708305
50.092125 87.821320 -37.389191
48.939903 100.203110 -49.193642
67.715599 88.313530 -86.301491
76.266335 -135.358536 -290.413330
64.213982 77.409760 -49.368050
46.736282 77.262840 -74.939331
45.883259 93.252655 -92.656136
74.308472 5.122542 -149.052933
75.452271 -143.474777 -292.239868
71.310783 -145.557800 -291.444550
75.588058 98.378708 -191.750458
76.048973 -59.573170 -37.537552
53.678955 -5.829479 -220.914978
71.078079 8.888439 -217.815155
74.384270 -25.866573 -36.453171
74.605270 -79.112167 -53.677658
45.975735 86.470337 -54.101669
72.970825 81.522865 -73.580872
48.997478 -46.633362 -64.633713
74.096924 -122.897331 -235.499817
75.390854 -27.012684 -59.661850
50.755447 -80.610550 -30.661736
72.448410 35.621220 2.167656
72.310852 38.756283 4.209135
75.723663 83.889404 -64.921127
65.211502 75.941765 -52.934952
65.284271 8.291803 -257.454041
63.988846 100.060799 -41.466599
77.256630 -66.358459 -81.185654
66.789429 28.031075 -123.088867
74.993401 -83.018013 -86.533768
75.638016 -72.025948 -85.957214
51.022358 38.611759 -18.548939
72.815186 116.088913 -151.770569
75.069427 -82.781441 -92.015900
73.060524 -83.850967 -96.240303
71.416946 22.601339 -167.697464
74.905807 119.275520 -92.645493
75.492767 120.809090 -99.269287
70.152817 -5.187763 -232.135742
59.808964 -88.856033 -52.389481
75.186073 124.342445 -108.397705
72.520874 20.831524 -181.882538
71.982803 -44.209377 -114.068069
74.640579 -38.350071 -117.705307
75.883736 121.018539 -120.947357
75.681877 -44.861015 -125.870361
63.967369 10.046455 -262.891876
52.697010 9.688613 -269.058167
71.946541 -6.892496 -268.152435
71.594620 32.416115 -231.985626
61.662430 -88.226959 -88.734909
73.025497 -4.687201 -267.171722
74.769577 126.133408 -135.089737
71.199364 28.110964 -147.813629
72.201210 104.350800 -181.629471
74.245857 -109.908600 -236.631287
75.486496 -38.224010 -164.705353
73.106285 115.124138 -168.435303
70.240974 -33.816032 -134.472900
72.128296 -6.825683 -176.559387
69.367455 -32.994556 -128.563812
60.234093 14.532726 -224.248428
74.963165 110.576607 -176.077545
59.937122 -71.163948 -102.484535
58.799706 -79.115181 -101.137901
58.120487 51.037781 -95.248245
73.422089 -57.247272 -271.049927
72.215347 -135.216507 -194.097916
75.089592 -138.409943 -178.073761
66.258430 -146.178986 -176.555389
60.433334 -138.488541 -194.221558
75.955887 -126.310532 -181.234634
74.812256 113.370537 -179.264816
74.786247 -2.571767 -201.097610
71.818581 -34.174362 -141.861084
71.967674 -39.655437 -133.751556
71.939430 -7.982292 -169.301285
69.861305 -73.842339 -98.328285
67.192329 -39.905827 -128.929535
71.082321 -66.214844 -109.506287
74.460106 -78.024551 -234.471436
71.831062 27.000383 -201.227081
73.469086 0.227445 -202.008469
69.242470 -64.608406 -127.704330
66.715538 5.952268 -203.156952
70.124695 -42.577679 -109.677826
71.109879 -49.257206 -109.411285
70.353043 27.006422 -185.001495
72.847649 -149.617981 -206.738144
75.455177 -143.575027 -205.468140
74.085838 -151.561493 -228.567535
75.572670 -74.593842 -269.213196
76.722641 -136.547653 -209.250443
64.824722 -113.617973 -176.144440
50.398083 21.129446 -216.365723
72.920273 -0.291201 -214.387939
69.511604 5.362226 -215.422333
72.554024 14.682074 -210.299011
64.175575 -24.376017 -27.299000
58.798233 -21.733934 -27.844891
68.600098 -50.464966 -104.212204
54.758308 8.856402 -219.104767
72.185219 -7.019280 -217.300598
28.532740 -48.170261 -50.902664
76.079414 -28.473522 -220.047592
49.571899 15.499525 -235.315155
75.084747 -9.034152 -222.417831
74.830765 -3.207034 -247.749664
58.155476 35.467514 -6.166435
74.111557 -68.376701 -266.574585
70.728394 -108.385544 -182.050262
72.703468 -144.996033 -215.202744
66.377655 -140.698151 -216.117310
64.046638 -134.569595 -214.805939
49.582600 19.476023 -226.327530
75.392715 -62.101791 -266.992767
73.586052 6.784755 -211.392090
72.110420 -144.488739 -197.432526
66.899704 -140.924820 -197.982513
63.425758 -136.018753 -196.548035
74.684753 -78.986427 -267.372894
61.116409 -51.161144 -110.682968
74.149323 -136.757828 -207.787872
75.622803 -71.366394 -268.754608
67.296021 -99.070824 -178.847870
36.343735 -49.116615 -67.713707
72.266777 103.318748 -183.341721
72.540070 -50.360981 -30.707001
62.066166 32.803143 -232.020294
74.025833 32.703819 -239.165161
71.019859 -31.475437 -30.321320
75.003410 -33.955143 -35.008244
55.135254 -5.609140 -239.424927
73.867592 94.790703 -52.358109
68.795837 65.982552 -81.450638
64.753281 -67.433563 -82.296089
74.273705 83.278671 -58.238686
73.087936 108.319794 -67.006126
60.414246 -70.643417 -26.122871
43.237804 -90.554657 -65.515373
58.300175 -35.739330 -60.206795
73.143806 108.543274 -69.011917
71.293938 81.063972 -77.923767
36.989197 -36.966290 -46.326920
74.624001 85.606453 -76.832458
68.258469 76.132523 -61.962387
66.497215 18.894667 -271.833496
66.337349 75.522057 -57.965088
61.790737 20.087307 -271.375000
58.548199 17.744141 -266.251099
48.397587 78.058876 -44.203156
50.760708 33.974285 -239.801331
51.547901 106.317879 -41.343994
50.272404 18.846182 -255.628693
46.384823 85.131516 -57.199654
46.098164 78.008934 -50.865067
70.880898 79.384613 -74.716858
71.843147 37.330498 -149.531738
74.493210 -154.659058 -252.508636
73.171814 18.721367 -133.899200
74.603165 -57.561474 -79.435486
67.265686 34.577892 -147.789368
39.851635 -80.489433 -92.677017
48.490177 -29.926605 -31.348919
74.495842 -151.057098 -256.784912
74.938934 80.001381 -216.047531
23.051525 -65.250298 -78.418442
72.404099 80.183937 -60.558365
74.035461 99.321625 -80.928650
71.368828 50.877216 -20.045914
73.806458 116.956642 -82.249054
75.051422 120.650116 -95.417336
53.588879 -62.454273 -88.361656
55.588497 -67.314629 -92.829521
69.391205 37.425114 -1.714458
55.080658 -26.773947 -52.086601
70.309944 -47.061096 -121.579453
50.069820 25.677660 -216.472549
72.764542 123.944984 -121.879242
71.312881 -3.783744 -222.196503
67.252060 -89.170898 -143.841110
73.723007 -37.652409 -120.876007
72.864731 -87.113289 -266.801422
68.369179 -87.281563 -269.444275
61.667904 -138.024048 -223.256683
55.814198 -75.591934 -98.787773
71.467514 -32.299385 -126.696747
71.863846 119.709198 -128.716782
72.388649 -45.519176 -124.149231
67.151871 117.295601 -79.725243
67.063484 55.034843 -17.746376
73.171249 119.451881 -125.966873
73.916855 42.827766 -137.479828
71.436050 13.923005 -221.958801
73.125511 -21.865768 -189.497208
71.950310 -38.766556 -138.935165
74.997765 118.084679 -143.255859
71.917503 -29.140182 -137.420486
50.264423 57.460434 -7.788387
73.592468 -48.847195 -156.485474
72.389091 -56.152042 -144.660461
75.390198 122.974342 -153.266205
71.563522 -19.182957 -149.900116
71.098473 -24.625362 -147.101044
72.973633 -15.602047 -154.780319
69.406776 -15.952034 -158.882599
68.446030 -26.192595 -152.241440
53.473415 107.686378 -75.228569
74.281555 114.082924 -159.377121
61.892689 -74.810448 -95.323654
65.053947 59.635262 -230.861115
71.845482 -27.502392 -269.693268
73.868958 -135.566650 -162.996536
67.120659 -131.236847 -165.430069
65.068214 -142.202805 -164.382538
24.203693 -76.180412 -41.509666
64.169250 38.559204 -237.075867
71.657089 33.750305 -238.578064
73.961693 -42.253265 -163.318558
74.004402 -136.238770 -229.370850
49.062958 -17.629671 -32.327774
70.717133 -105.522385 -177.919037
71.202644 35.566093 -165.165649
70.839050 -20.378460 -168.736130
71.844833 -2.438812 -204.386673
72.050056 31.748085 -172.944138
35.900513 -75.290382 -32.489799
45.002125 -46.288994 -61.816292
59.360832 70.526924 -62.762207
60.458733 73.619209 -66.457672
69.798630 -36.418766 -28.372295
71.521698 34.034904 -244.469879
74.079346 108.743828 -172.597260
72.127525 -44.901253 -266.244080
73.557793 -130.324463 -179.044250
64.199707 -138.926437 -180.538361
60.364380 -142.422729 -179.872543
71.740234 -85.153984 -195.825241
73.958183 -26.721897 -183.019547
72.342575 -53.432705 -30.574875
72.850838 103.876450 -189.030060
72.615021 -19.177185 -192.951752
72.942062 -50.059090 -147.581787
73.119720 -10.086943 -184.862732
73.582970 22.053204 -220.092422
72.370926 75.417870 -222.632263
72.393837 108.078766 -188.575485
73.413437 19.001455 -190.120148
18.307648 -71.241341 -51.869865
73.067947 -48.495655 -152.924683
73.987236 -23.444485 -192.101883
69.665337 -11.295036 -186.029633
52.378803 6.264253 -219.017883
68.130585 21.064770 -219.855530
72.681747 64.804779 -224.304321
62.519726 -30.871393 -59.387169
73.708382 27.165218 -260.228973
71.287025 30.016052 -258.425568
72.152824 98.694893 -190.268936
43.663227 99.002159 -60.469955
72.008591 67.142151 -227.427200
72.596558 100.728500 -192.679779
68.827988 31.169310 -164.496994
73.418716 -5.627619 -197.101013
73.126755 -18.332527 -197.403427
73.092529 -141.178070 -203.143585
67.970543 -141.970734 -203.673340
73.336159 91.584671 -203.093750
59.558018 107.884460 -86.314857
56.984581 90.844238 -70.053207
55.966042 -33.616081 -26.977364
70.986221 82.867538 -211.682510
68.772491 -62.959145 -129.590729
73.419701 -137.102081 -209.871750
69.766884 -0.587472 -198.447266
65.745186 -145.207352 -209.420609
67.806343 5.589810 -198.941254
64.387360 -131.362686 -208.774536
72.440018 -3.342623 -209.406891
68.367065 60.182034 -8.292625
70.752129 -101.327995 -176.132416
66.280312 -130.766266 -211.875458
61.821083 -143.773209 -211.162888
74.483429 0.453936 -213.290100
71.309700 -2.721380 -184.764526
66.576668 -6.629301 -185.228790
73.950920 29.237839 -217.194595
63.475903 -41.277996 -113.451935
74.982323 -22.125853 -219.438644
31.786192 -70.763969 -86.866135
40.008781 -82.175308 -92.246742
74.423378 75.920250 -219.395126
66.667992 12.985147 -272.842194
61.266006 13.432976 -270.053741
51.463078 27.134789 -243.398895
50.487816 15.775647 -257.619324
41.854168 -43.821846 -53.905296
64.741158 -95.489014 -160.052826
73.468155 -47.853031 -224.432632
41.537811 -69.239105 -27.715424
69.048302 -45.619930 -27.122349
22.946726 -56.295837 -68.095558
73.804871 -70.148293 -229.233475
70.646317 -94.290016 -207.136032
73.802010 -2.074412 -232.568756
73.560997 -84.853622 -237.041107
74.450226 -4.231473 -238.309631
43.426929 102.673798 -64.591187
73.081085 -114.459541 -242.468750
67.394318 -117.327751 -244.459076
71.222328 -122.762032 -244.532990
72.910919 33.207840 -245.227600
73.109558 -4.054565 -249.062988
69.189392 -1.559320 -252.901794
60.195488 36.225189 -10.379143
74.814499 -155.516968 -261.957520
55.786556 75.888329 -47.311180
53.853455 86.596260 -58.618942
50.261822 -89.599327 -83.628204
71.134583 76.261459 -222.584991
70.524879 -157.677612 -262.034332
70.576088 -143.738068 -260.145020
74.576782 -149.589218 -261.631744
67.928993 -137.139679 -261.179932
55.000294 95.262093 -39.066761
53.515251 74.528481 -60.552399
73.216736 9.999757 -141.875885
71.935631 -147.784851 -192.573029
70.803276 -129.612289 -176.440598
73.809036 -41.223633 -265.818237
68.565361 42.834213 -115.495804
69.512962 -42.859425 -269.512695
66.699867 -101.518562 -210.679962
63.575741 -137.812057 -177.832733
59.925961 -142.216965 -176.368088
53.864796 1.862404 -222.349869
49.386414 1.318956 -231.912048
72.680374 -75.899406 -91.256195
72.042351 -14.337868 -267.934021
73.557663 -11.600243 -266.772583
74.075012 -90.929695 -267.520355
51.345341 -11.635198 -31.526337
68.511833 -104.474777 -176.348511
71.926849 94.120575 -202.246292
57.048962 95.443581 -71.362091
52.861916 -31.039682 -59.380043
50.237648 104.120117 -53.803528
50.447609 10.001462 -231.213257
74.090065 26.364279 -270.248596
68.208549 27.122822 -263.814178
73.139122 -134.228348 -185.059052
71.751236 -48.283199 -270.716644
68.824127 -131.147247 -184.360184
65.240257 -142.325974 -184.180145
60.908936 -139.778992 -185.450592
71.828743 -134.999741 -221.842957
74.019966 -88.523849 -271.093201
69.221870 -87.914848 -267.407959
69.395409 -34.288723 -124.669739
72.997368 117.956734 -158.664597
50.319096 -79.306412 -29.516739
46.225353 94.471321 -79.604279
47.441715 77.379036 -61.792908
46.811790 75.729675 -57.567848
74.283295 -9.951660 -271.802429
74.131012 14.478159 -272.738800
67.066185 77.522888 -216.917358
50.601181 -50.765930 -39.858959
61.079304 38.822437 6.607927
59.968040 34.081825 3.516361
72.117683 -19.708511 -35.784130
73.314682 -122.423492 -206.015732
72.851974 -7.676367 -45.070557
44.119034 106.868469 -89.613899
45.060181 91.308899 -75.062500
72.867325 90.450676 -49.445343
70.074745 87.031822 -46.196831
50.348984 -58.186638 -74.920609
50.806435 4.358492 -248.936127
52.282383 2.073045 -253.913788
50.112228 28.422209 -249.561096
72.550133 81.911835 -214.826782
72.875839 -80.589203 -51.571953
26.064835 -73.755272 -38.019142
70.076599 74.317360 -69.296486
73.925964 90.062798 -52.108276
47.003208 100.392647 -90.902901
45.827839 82.790970 -74.844345
73.816650 85.876297 -54.193497
70.715767 81.996147 -51.358147
73.862785 49.867226 -85.253601
71.643013 108.467041 -57.205414
62.115746 36.811577 -112.162766
62.267910 39.328056 -117.708710
73.741982 -123.240952 -235.286896
72.297806 -30.199099 -58.304604
67.791397 -52.947086 -71.003654
70.139626 -54.618618 -73.147881
72.022408 64.897041 -80.479187
70.812492 97.771591 -46.742172
70.738129 107.296028 -52.923309
73.015686 35.851246 -124.851898
69.753517 79.629807 -211.390320
66.107475 19.898249 -271.268372
62.869762 74.204140 -58.510750
61.679092 18.427750 -271.843048
73.756683 102.150642 -79.093452
73.559677 -84.098312 -83.493355
58.490791 69.588257 -71.365211
59.338020 67.142532 -66.678314
59.646835 18.747074 -243.832855
71.481430 68.061958 -79.365814
59.852913 -51.811691 -65.063080
25.299417 -83.573532 -67.337509
71.891586 97.907860 -83.558311
71.957832 53.079948 -16.865383
72.719986 119.268394 -83.889236
69.271164 59.975578 -3.316236
73.309303 -6.016510 -210.404907
71.527611 34.589420 -169.554962
71.433334 -85.370575 -87.005020
72.056946 49.863426 -16.829300
72.717644 120.816277 -88.014214
68.693741 -49.116997 -117.396240
73.034286 115.189194 -91.216316
72.502800 40.336437 -19.578766
72.257950 116.063919 -96.077637
40.340275 -35.184475 -35.435738
67.821747 -46.270271 -68.648727
49.784946 14.357743 -248.248108
72.886650 117.305603 -101.721466
70.727936 117.621490 -104.058029
72.851501 118.396278 -108.830048
70.760201 125.567482 -109.126251
72.272247 -11.782577 -54.539604
70.549820 48.129391 -113.132065
67.181732 -16.637720 -53.433525
59.519241 -67.973389 -94.217819
70.849464 47.538754 -115.761444
50.996353 -75.329147 -96.828873
72.205467 -155.056335 -198.079071
73.330872 19.930246 -176.612244
73.212204 -41.426723 -116.928345
53.792236 50.831299 -14.222847
71.012642 20.309816 -202.164917
71.098038 -68.413086 -117.066849
58.802860 47.922035 -98.912231
70.237312 -35.896915 -126.695267
70.521835 19.349298 -211.719055
71.079102 -16.385944 -176.782471
70.575974 43.859150 -237.201660
66.938660 -11.453144 -176.729080
57.718143 55.967899 -98.334824
70.666107 -66.012749 -126.197357
69.894691 11.183240 -203.190704
71.530113 39.794132 -136.565247
71.029999 32.834377 -129.432373
69.015068 39.048714 -140.878998
73.287209 0.829081 -189.627167
73.250755 -55.024075 -133.148026
72.237160 -25.183882 -138.805756
73.009491 121.391228 -138.292435
18.831194 -70.166206 -48.964134
71.166397 -37.914345 -135.305573
67.615387 -36.775166 -129.265045
68.199455 -72.559021 -94.220856
71.782600 29.411734 -229.085098
72.957870 112.639488 -172.644348
69.631767 -8.114900 -191.565842
73.083298 119.921860 -164.597229
71.403496 -58.527424 -139.571930
70.067436 -4.542459 -193.395630
72.213745 42.977016 -133.692139
71.980164 30.418627 -147.541382
70.991386 23.389978 -137.628311
73.521004 -50.803791 -143.723572
71.926865 -58.015682 -141.290771
71.777412 -5.872807 -192.430283
66.966019 29.395252 -227.366501
50.276302 55.838913 -1.734470
71.169098 -27.241573 -142.744263
66.696678 31.496752 -156.047180
72.153580 13.125159 -143.921173
42.325031 -47.603703 -62.545906
73.372673 -15.383725 -159.199982
71.261703 -20.904686 -147.179810
70.745834 -23.354446 -150.366165
68.470169 -24.656425 -147.903748
70.489220 27.055943 -128.987778
72.995049 9.675808 -145.809906
67.404968 26.524532 -132.702087
72.791870 123.642723 -151.829956
51.165680 38.796856 -16.324924
70.141212 121.746658 -150.709747
69.742760 121.758644 -147.553726
67.926971 56.912388 -231.954376
68.623993 24.496910 -196.441772
71.101837 -15.442168 -162.315125
73.156723 -28.294956 -152.992157
69.645210 -13.490591 -162.066833
68.231438 -27.517553 -147.122772
70.378838 30.036156 -151.790497
68.235649 30.663727 -146.741669
73.694313 120.080345 -154.644714
72.762535 -24.524506 -163.474304
72.851753 -27.878361 -157.686569
69.445953 -27.781734 -153.705994
67.787781 -61.222942 -121.155869
68.746620 -20.635183 -163.239136
72.022247 -23.790972 -267.953796
73.677635 -19.144140 -265.652405
73.110497 -134.604370 -158.819336
66.907333 -131.217880 -159.380051
66.015862 -136.294403 -155.397751
63.842506 -141.862442 -161.110199
64.164803 -72.402130 -86.229065
64.719849 -140.307495 -155.589111
62.770885 13.070245 -239.496429
72.237556 -10.134041 -164.607178
70.606041 -28.301416 -146.039383
68.829102 -14.473870 -162.770157
71.755661 55.208698 -232.214783
70.944534 23.901333 -198.270966
71.386536 -63.136055 -114.254364
71.334305 -64.260315 -120.973465
72.334679 -20.336254 -165.740479
70.692604 -27.149424 -157.064362
72.784805 -140.345261 -162.460907
68.376183 -142.890915 -164.690720
64.640305 -132.156830 -162.948792
61.638374 -9.710305 -45.608711
59.279346 -14.985393 -44.946136
20.138832 -75.484528 -48.524467
68.959702 62.881290 -230.927322
72.835098 -22.223312 -167.319656
69.627769 -19.309248 -168.446838
72.283287 110.993248 -168.178314
71.565689 -42.335083 -114.161362
72.728821 22.613033 -174.912552
73.414795 34.399170 -170.562286
70.265198 112.272583 -176.449661
73.476051 -120.724525 -178.942734
73.686401 -114.306801 -179.866745
66.044434 -143.685760 -205.427689
64.731644 -98.594521 -171.518692
72.379768 -10.446382 -188.407654
72.453918 -53.722504 -147.809189
49.684849 0.301193 -223.766327
71.694412 22.153891 -223.225677
72.427528 111.472305 -182.871582
70.771492 -54.796291 -270.430481
73.001717 -135.442215 -190.097122
60.293766 -137.345947 -188.960098
73.705170 27.301390 -189.174484
72.828102 100.920540 -198.973160
72.465866 26.145664 -193.965530
59.996513 115.141968 -65.246613
71.973091 -60.747276 -137.333069
72.348671 -2.949828 -197.284622
54.388420 104.249100 -74.877548
71.343414 -88.498787 -197.231506
70.006912 -127.381584 -235.531677
58.067348 -90.011963 -75.366028
71.594971 -67.314415 -121.180359
73.807602 12.554706 -203.421265
72.250885 -13.921658 -201.938126
72.930222 -107.338318 -272.319977
67.296814 -142.956711 -244.380005
71.534866 94.856583 -205.853577
70.942421 -7.910314 -202.184052
71.782600 25.121494 -166.511841
64.910736 -110.532990 -177.847412
72.396767 4.049257 -207.158722
67.475258 2.580840 -204.326782
72.552628 90.718582 -207.107544
72.921265 -125.555275 -211.339447
52.535721 112.846626 -73.305374
73.004814 17.369215 -218.283554
71.034523 26.059439 -210.590668
71.259781 -63.575600 -266.623352
66.816841 -134.965805 -196.851563
62.356358 -140.090225 -197.307404
72.729202 -147.530090 -214.348999
66.969421 57.845051 1.090488
72.341812 -135.196289 -218.234573
70.730957 -3.333195 -217.045807
72.787903 -155.177475 -212.828125
73.513344 18.677530 -192.563141
72.259087 -84.312340 -271.948395
73.425949 -140.691605 -219.228134
69.194305 -145.268646 -220.176163
51.638905 -25.731852 -47.655472
64.509445 57.361702 1.460455
60.950542 31.934780 -119.565613
73.244064 69.256668 -224.326401
68.065247 21.226692 -183.945160
67.636330 -50.122566 -113.993866
73.300522 -14.422662 -219.372345
64.365517 34.529591 3.667213
63.575066 37.657291 6.035551
71.407433 -83.424637 -56.984955
73.046295 79.188782 -219.745804
73.197487 -146.454742 -224.230560
59.319279 42.764301 2.357925
45.063229 -24.292648 -43.084343
71.565231 3.717839 -218.332916
66.177742 -0.311431 -219.761108
73.715210 -12.028862 -222.340210
54.339390 -14.522215 -41.861435
70.448616 -122.158180 -184.141693
71.867882 -156.627029 -218.512817
73.456367 -152.261414 -223.707504
73.165451 19.013155 -222.544815
70.069801 -157.363342 -223.126572
71.922958 -32.751335 -267.230988
68.510490 -133.167999 -169.391464
62.208641 -139.005890 -166.992264
54.144283 -7.031834 -222.448685
73.520515 9.920609 -222.835876
57.854836 -6.844646 -30.681099
71.972885 27.584541 -223.479767
73.446808 5.913270 -223.647263
68.668777 -87.116096 -132.434372
68.424454 0.000614 -222.331512
64.956802 -127.124115 -177.211090
55.495220 0.047619 -41.048603
73.104584 -143.439957 -224.967117
65.384178 -140.653793 -224.111206
63.918720 -136.702667 -220.941025
43.172443 -78.606491 -94.502991
49.195076 -14.439199 -41.257362
73.282730 -147.248871 -225.370377
74.344177 -66.172874 -228.171143
72.107147 -48.617470 -226.426712
72.457703 -84.598495 -195.412109
73.497490 -88.605476 -235.953827
73.162430 -4.672432 -238.511475
70.630669 -50.506741 -267.344879
69.991798 -131.505768 -183.949081
69.202126 -133.082520 -186.061783
64.292397 -139.740570 -186.494247
71.035820 -82.923515 -232.177765
73.486595 -70.649948 -266.491333
62.693794 -138.819183 -207.411758
62.216438 -115.072556 -181.257294
72.352478 -83.606186 -266.635437
69.317299 -82.494194 -270.630615
68.596207 -134.951035 -220.066544
64.302101 -105.107208 -182.937378
64.189583 -140.559738 -218.281281
71.134659 56.276268 2.416243
57.959351 1.201974 -258.034912
57.382114 89.509422 -73.104332
71.083328 22.443375 -266.947113
68.937927 -95.484909 -151.876572
67.295006 24.489325 -267.647308
73.337311 -71.415939 -271.291168
69.053032 -98.104919 -173.681702
67.786980 -131.229660 -205.930740
61.920284 -142.679199 -204.956192
62.097229 -116.128304 -180.741440
60.637981 -138.608368 -203.973907
72.472763 -135.169525 -202.428925
71.216911 -67.658913 -271.052612
60.681892 -138.822800 -203.313538
72.741516 -127.817810 -272.613525
67.346001 -141.503098 -261.598511
72.635315 11.039611 -272.116638
63.536591 9.734921 -266.575806
61.825214 104.972824 -87.833008
71.986183 78.967018 -70.424355
67.978600 1.240147 -255.884796
51.345226 74.038170 -75.818619
72.956718 24.446585 -273.466431
62.699509 -94.741570 -147.908295
58.062481 22.734892 -268.418701
72.464127 37.752819 1.739405
59.695431 -50.298244 -90.443794
72.346092 36.214550 -2.117777
66.515602 0.384435 -232.819962
72.639793 32.953346 -4.084522
69.900787 -60.665123 -29.054810
39.627354 -32.068558 -41.614380
71.290146 120.236794 -94.992310
71.858429 41.320560 -15.981380
57.947025 -6.691187 -251.456390
72.037964 124.276939 -100.410324
72.582031 34.014801 -10.116766
58.977596 -4.657985 -248.528503
71.500252 121.380287 -100.174927
72.588394 36.347298 -14.761345
73.149551 123.011757 -96.273392
71.248199 -22.343998 -33.520424
64.773781 9.101486 -240.040588
63.359390 13.509572 -243.755127
63.177448 82.685661 -42.774036
55.737923 -5.600753 -232.648132
53.227951 29.067480 -269.553711
51.052242 27.612904 -269.719116
72.639183 104.217239 -52.921730
72.178215 -32.460491 -60.828117
70.380287 111.397629 -69.698883
58.399693 -66.105942 -23.888275
71.432396 -52.045910 -72.146454
71.238251 -1.749854 -256.604187
72.381020 112.263557 -77.686493
72.883965 19.690090 -272.487152
73.071533 93.345726 -80.009476
59.303669 16.675684 -269.221100
71.982086 112.738289 -83.565186
70.862602 43.966034 -17.196648
71.943970 118.832596 -90.810104
72.450157 40.662548 -104.862083
73.186356 42.764591 -105.224289
72.193871 39.067631 -109.894684
71.070969 23.009058 -202.753784
71.314598 -68.346390 -112.990860
70.136864 22.739941 -193.005341
67.874748 -92.642426 -151.028564
71.091942 -49.474876 -120.428131
72.124931 8.905117 -199.483231
72.038780 -62.988281 -124.812866
57.525665 44.750729 -110.202698
70.556847 47.839134 -237.575623
71.270096 -58.423763 -124.695923
73.442566 -33.945568 -122.858154
72.664238 37.381828 -120.498993
63.986679 51.999641 -232.780640
72.082497 4.502251 -192.042343
71.943054 -59.717529 -128.500031
68.189644 1.764532 -191.847229
30.179716 -66.641884 -85.410622
71.424622 20.445282 -131.437897
69.908630 35.950130 -147.557800
68.958473 18.461508 -133.623779
67.227058 34.467819 -151.058228
68.710838 77.352898 -73.587067
56.544998 -87.904488 -93.012909
72.919151 117.851677 -143.044769
72.842102 120.762436 -148.195892
69.758118 119.193321 -152.317017
72.399864 -32.691849 -144.932571
70.891785 -12.156859 -168.253357
67.621445 -14.703691 -168.872238
72.692894 -30.815178 -152.628143
69.193222 -11.100266 -167.539932
68.673157 -31.205189 -145.851318
71.866768 37.933498 -155.925491
71.921646 120.672676 -161.240723
71.285583 35.958099 -154.390686
68.769821 35.159958 -160.211258
71.987152 36.695221 -161.435181
67.622391 34.664089 -156.016602
72.993103 25.912083 -163.683548
58.688385 9.983597 -222.282028
70.258087 -141.690262 -167.497910
65.508598 -140.473602 -169.386520
63.376663 -134.257767 -167.589279
71.657784 -150.622437 -180.062454
71.352081 -141.697937 -174.250336
66.822960 -18.266300 -54.519913
65.818764 -140.708344 -170.949738
64.676514 -135.265381 -172.889633
68.925522 -104.559570 -206.383087
70.300865 53.170414 -11.390625
71.395332 30.167658 -176.900116
72.506981 -125.338852 -179.818069
71.704208 -140.505035 -187.992615
68.045052 -142.737854 -188.310303
70.668671 -127.240295 -213.054260
72.173874 -153.431747 -188.848160
71.984558 -154.108368 -188.193787
71.367188 -156.559006 -209.701248
71.897789 -15.204453 -198.547455
71.547699 27.738920 -195.840591
71.538422 -62.098755 -116.823135
72.593147 18.525961 -197.803009
59.525364 45.764664 -101.544464
68.337151 -15.093092 -33.512100
72.172806 -155.319046 -201.306076
63.500786 -88.993713 -141.988770
71.464195 -2.367036 -201.749893
72.370163 -143.937775 -203.846283
66.581589 -140.773102 -201.669891
63.178940 -136.103607 -200.142441
72.549995 -5.062968 -205.750763
67.830086 31.328711 -171.838104
59.405121 -70.286659 -100.547539
72.518715 -108.484055 -209.588882
72.732254 -122.245903 -213.481781
70.593163 -146.437759 -174.244339
71.569008 27.154573 -217.537476
50.303505 24.055655 -222.170837
50.569378 -51.111748 -24.420155
73.228920 3.364512 -222.027328
67.203445 -88.187569 -129.288986
71.525238 -53.998127 -228.523071
49.503269 22.253656 -228.190948
19.442675 -57.687370 -49.123589
72.315201 -0.218391 -228.395844
68.976334 94.528458 -201.575806
71.515434 25.583483 -263.938721
70.454224 -125.461876 -264.851196
66.629166 -125.143845 -269.488953
62.854809 -139.314560 -260.766174
56.063419 27.057531 -221.637711
51.434338 29.720810 -223.508881
72.293144 -66.626373 -266.334320
69.345680 -67.957947 -269.018494
67.812790 -134.412262 -202.405457
62.583599 -140.268845 -201.163773
71.445389 -52.985687 -266.430267
67.730423 -134.071533 -187.553848
61.621948 -139.683563 -189.601105
71.687126 -19.190811 -269.057129
72.150345 -24.552904 -267.490631
69.257668 -131.355927 -156.386215
67.364655 -136.848648 -159.596527
62.471935 -140.353378 -160.581665
70.798485 46.298870 7.993392
71.847145 45.578388 6.778503
59.405472 -48.897915 -98.137276
61.682457 114.281013 -72.763794
71.789757 49.935734 5.130849
58.742477 -45.537624 -101.983047
61.662720 114.624176 -69.943657
71.621567 52.559616 4.954704
71.430794 46.876255 3.306503
60.349049 -47.111168 -96.506317
71.396805 52.437786 0.580196
71.705498 56.924595 -1.270679
70.812454 53.014973 -0.913895
68.297768 112.490723 -64.758522
62.006176 -56.513317 -104.619522
71.828308 56.344021 -10.325581
71.765572 57.236134 -6.822285
71.564209 56.736885 -14.976021
71.298271 -5.006357 -45.119873
71.037819 77.982292 -64.530678
72.602570 -45.969402 -70.464668
50.052315 12.869330 -251.504028
67.571510 36.218231 -18.740692
71.332474 117.646805 -77.823349
67.813553 -46.861820 -124.520203
69.498291 20.049868 -180.927017
71.933105 117.108955 -87.127594
72.217293 38.968235 -141.930450
73.701958 31.347185 -132.778671
67.213135 30.169628 -128.813583
52.754784 91.730797 -55.365623
71.240204 16.989485 -141.150208
55.439774 57.595467 -88.869881
71.308044 117.708939 -147.551788
71.072014 124.200539 -146.628082
71.625206 27.292793 -151.020554
71.866173 112.552177 -164.802429
17.404699 -68.431595 -56.866646
72.230522 -141.082428 -166.718735
67.859276 -142.949890 -166.930817
56.745560 -6.828909 -41.791420
63.016590 -86.142311 -125.836792
49.728573 0.364417 -33.889435
70.572418 -121.992676 -175.450104
71.519203 -109.807999 -176.200989
70.402901 -125.498032 -182.909943
71.816238 -147.983963 -188.918213
71.767052 -144.277786 -190.156494
65.744370 -140.303864 -187.484863
62.582314 -135.953110 -189.275543
66.659668 26.287912 -177.067047
70.524765 -65.080299 -128.087158
72.073601 6.631768 -200.222305
68.399635 -0.030235 -202.333984
68.484901 -41.870800 -125.646408
71.267708 -11.807817 -202.217102
70.942978 -125.602768 -205.910172
63.232029 43.080727 -239.642212
63.561192 -17.176838 -29.203808
58.957119 -10.796460 -29.892548
71.558617 21.401073 -208.420792
60.130600 55.747208 -95.793243
60.249607 53.707687 -5.223534
70.436668 -2.830646 -225.966965
53.202549 104.499039 -39.880035
70.638855 -135.644913 -261.934937
67.983047 -126.690071 -266.928345
56.938496 -86.305176 -40.040596
49.495144 28.793322 -230.799561
57.698063 95.895302 -88.195938
55.670216 32.220566 -229.900803
71.358093 9.936695 -271.234253
66.726906 104.839439 -86.151001
71.303703 -88.319427 -272.022095
69.191460 -143.020157 -222.467560
70.284325 -30.943960 -29.834515
70.857758 -20.989077 -33.627441
70.818718 48.715057 -95.191910
70.820679 -12.737479 -37.880722
70.890335 -81.968948 -49.311462
52.703316 2.882920 -219.285233
70.356316 110.485306 -59.323380
63.411026 31.774170 -257.883057
64.981483 28.673744 -262.998901
54.996197 26.233185 -268.170624
50.738361 29.447060 -269.577728
69.946884 -31.129639 -58.081062
69.154724 -86.727600 -201.866669
62.969654 -88.900734 -71.664749
66.522804 113.286690 -79.788315
69.456238 118.989876 -80.693405
67.668091 58.165932 -14.077908
45.178722 -90.635529 -69.126068
69.770081 81.407509 -80.136414
48.645191 90.624260 -37.799026
49.034084 108.449135 -53.350876
70.351311 -85.996643 -81.932487
67.700287 120.588791 -91.082726
69.109550 42.737724 -16.299229
62.379845 -134.630402 -162.879242
61.536861 -14.197887 -46.579361
59.410625 -9.654614 -43.818680
73.298676 -77.088737 -93.901596
70.240318 59.077145 -232.653442
70.917877 47.434807 -98.171425
70.591621 -72.880630 -98.225525
69.810829 -36.169151 -129.605469
70.737656 -69.468605 -97.124390
68.630585 -38.045353 -135.621735
42.842258 110.740883 -66.882309
70.754837 -73.610916 -104.830482
62.353531 -44.559689 -23.150013
70.777260 41.678017 -124.141937
70.126877 24.773165 -134.631866
66.990524 28.683960 -131.457016
70.118980 34.466156 -136.934418
70.449387 -31.537342 -139.147675
54.103447 89.374969 -37.619148
70.030380 33.541492 -140.510681
59.154537 -34.033833 -60.278732
70.116547 117.241409 -164.943283
69.773155 -98.835762 -174.035889
69.743851 -155.543304 -181.081268
70.356964 21.243172 -189.269073
24.354368 -58.466652 -75.391235
70.324760 -90.904694 -198.805725
70.605232 -61.012157 -228.669769
69.457367 121.596245 -143.462189
56.889648 -90.140190 -75.821327
43.606796 -61.318348 -26.039852
64.590576 108.920135 -47.530571
70.224014 1.093752 -207.955261
69.027290 6.056591 -206.120972
61.938625 13.322276 -263.544678
61.066639 13.775504 -267.743286
70.161011 83.314789 -208.035355
62.934086 -97.413124 -155.899139
68.796616 22.658804 -202.304504
67.225456 -66.246857 -111.991714
69.571281 -2.011615 -213.532349
49.276112 6.009726 -223.000000
67.994843 21.350056 -224.013702
65.546921 -50.321522 -24.475250
71.002792 50.005230 -233.039948
63.710445 30.615921 -224.631744
70.946388 -88.397224 -239.182587
70.112686 -4.661041 -244.420746
68.748352 -94.942642 -155.084045
70.905579 12.386565 -271.438904
61.941891 4.825821 -220.017319
63.162785 -83.290352 -128.181503
66.149323 42.268646 2.370653
63.418552 -49.229965 -96.162415
67.393669 52.847927 -12.101704
68.695244 -67.478447 -30.425194
62.221279 27.453680 -264.744202
59.253735 92.181541 -87.579102
69.708214 -75.613831 -37.978550
66.629463 -2.022032 -41.278206
54.497066 -54.706108 -103.060440
53.553547 -4.085456 -223.269684
58.784389 -1.139919 -33.751225
60.904129 89.563309 -38.978096
60.216251 17.469952 -241.117310
49.115627 5.673052 -234.864105
68.813576 102.648323 -46.319794
68.316177 -4.024972 -48.301880
48.588036 -88.938194 -44.000931
65.595802 -87.731041 -62.020088
68.440865 74.600151 -223.321198
55.083035 93.869095 -61.743088
55.906391 76.449364 -77.021400
60.104725 36.424179 -243.818695
70.433495 73.194473 -66.906197
37.671574 -71.498161 -86.728920
66.677284 11.227088 -272.688446
62.722042 10.411694 -269.425110
59.462471 103.648201 -88.934334
49.826977 26.951420 -239.371399
52.292015 11.120530 -259.031372
51.697865 78.129219 -53.694962
51.232243 96.739098 -38.524223
69.563202 77.102196 -69.834602
67.137939 94.882828 -85.463051
56.281719 -88.920227 -86.959846
66.855705 -87.532631 -73.141022
69.204254 61.291950 -224.039780
54.537556 95.423698 -74.025612
66.338745 -55.131699 -75.431641
66.753838 117.361595 -82.133591
66.471268 53.550743 -18.904510
66.065247 56.172977 -83.132675
67.024567 86.127052 -43.446487
68.288300 53.833061 -80.778755
48.453426 72.718529 -50.558456
51.394497 3.201397 -250.429260
50.811806 7.299864 -253.450897
32.419086 -87.995651 -54.540222
54.916771 8.119217 -272.798340
49.571629 -86.197464 -37.616055
67.243973 -87.269142 -86.603325
58.095558 32.069843 -232.125885
56.246387 95.245583 -86.852150
54.629456 77.904411 -70.388748
50.596920 73.675438 -52.850212
68.873138 56.625763 -86.237930
66.803482 73.341110 -70.303505
67.933342 113.759567 -85.453247
69.299446 49.210861 -89.855415
67.879326 60.044712 -70.739471
66.475662 67.050240 -76.168259
70.067894 -67.440384 -91.847580
58.398239 60.493366 -87.294945
54.807194 -5.190835 -235.375824
67.042976 -79.620277 -96.397720
69.127594 50.416271 -100.517410
43.675228 106.684837 -81.135574
47.853828 -57.802868 -75.382141
69.149117 57.431938 -91.706711
66.190933 72.368378 -74.216003
63.330452 34.779854 -236.057526
64.912231 7.386411 -264.910950
55.886898 0.020029 -260.237640
52.180359 91.190010 -76.205910
70.204231 40.113998 -239.371826
67.914848 -67.355850 -108.092346
64.353233 -117.322456 -213.065002
68.915710 -75.280746 -99.968697
68.166435 -30.869097 -142.217010
45.874050 115.838150 -71.071434
65.242531 -108.374931 -210.982849
69.067017 -68.988228 -99.975021
68.652618 44.913921 -105.884552
69.083847 -87.439362 -238.619751
69.336357 49.175884 -105.226677
68.969261 123.926880 -104.647110
67.821381 30.421465 -10.589191
66.022980 -53.465488 -110.019531
68.473206 25.868044 -191.030426
50.672440 -3.317583 -39.611275
67.227646 -45.876934 -107.329582
69.752403 28.225742 -178.859650
68.431343 123.244209 -109.338715
45.836617 -32.234287 -57.929146
68.477287 122.188530 -113.456833
67.350342 -155.557007 -193.143555
66.019226 -10.031800 -49.511467
69.100517 -80.879333 -116.384903
66.946243 18.059832 -214.354279
47.918091 78.534737 -83.105255
60.005882 -30.084726 -59.831398
68.505707 40.558041 -118.237076
69.505646 -66.173965 -116.600891
61.229797 49.230183 -101.083893
66.423820 10.560031 -211.256989
65.660988 -9.952547 -33.610909
67.037834 -62.390450 -117.797363
69.101906 18.949327 -197.682373
69.370003 56.758778 -234.276184
68.808800 121.854530 -118.118942
69.055496 123.662277 -124.644623
69.164505 124.189903 -123.252060
67.692383 -44.833092 -122.209808
70.347847 -47.623966 -124.354675
55.688469 32.003410 -225.564682
49.629356 25.992916 -227.400070
