# This PCD file was generated using the MATLAB® pcwrite function
# from Computer Vision Toolbox®.
# .PCD v.7 - Point Cloud Data file format
VERSION .7
FIELDS x y z
SIZE 4 4 4
TYPE F F F
COUNT 1 1 1
WIDTH 1424
HEIGHT 1
VIEWPOINT 0 0 0 1 0 0 0
POINTS 1424
DATA ascii
-1.513523 -75.432465 -164.568146
13.342658 -80.462463 -221.610443
-26.916258 -78.138771 -177.049225
-59.095036 -68.129845 -137.721390
-73.313965 -62.132183 -104.921036
10.842558 -54.542091 -239.150681
37.907242 -75.914215 -107.565163
-47.582516 -42.644867 -51.772644
-91.371132 -65.992325 -133.432556
-149.251785 -67.209869 -175.457733
20.400282 -75.724869 -199.983612
35.660355 -78.266106 -138.425659
-30.882425 -83.749825 -186.748962
8.506319 -71.041489 -224.200836
34.545048 -81.492577 -125.144341
7.447703 -52.296345 -295.743652
-99.374458 -60.420322 -79.123199
-55.746387 -70.788498 -47.703568
-20.881931 -77.443214 -185.740326
-35.139488 -60.858219 -78.529259
24.961990 -53.531467 -26.568918
-0.339257 -70.413872 -291.707611
-42.268135 -73.535164 -147.748322
-63.021458 -65.334091 -127.798355
75.533142 -59.983883 -59.447067
-10.930424 -73.571632 -205.596375
42.175732 -71.080116 -115.663025
76.137146 -54.087948 -79.411629
54.390594 -72.726677 -100.623863
12.391477 -52.038078 -241.096329
-35.844978 -75.264816 -202.403809
-151.464722 -79.241737 -282.534393
16.789347 -77.295853 -184.120895
102.236145 -62.483063 -73.169121
-82.475311 -24.855766 -102.492256
-125.157120 -68.152435 -264.322845
-146.190811 -80.911728 -294.298004
-8.464310 -56.686146 -280.928345
-56.417603 -71.501610 -144.865524
-45.224201 -83.148285 -77.772278
19.053993 -69.256386 -145.508850
109.960785 -71.219337 -166.927002
32.729233 -68.285606 -258.448364
-45.651733 -69.501808 -151.196945
-53.783150 -68.397926 -130.162888
8.810323 -74.166428 -244.165390
38.387413 -70.669128 -34.589622
-11.777857 -75.986420 -289.872192
-25.343090 -76.750626 -242.898392
48.559830 -77.560257 -108.565453
-35.982567 -79.411964 -82.672058
36.194626 -76.984688 -115.144623
-154.233612 -76.375198 -311.719421
81.505363 -51.602844 -95.241310
-104.445656 -71.862259 -258.836426
-79.195641 -80.082222 -72.028053
-54.813107 -74.484459 -145.667007
-48.892986 -36.522221 -64.737938
41.379887 -71.535599 -38.582355
-76.864601 -75.841858 -210.368240
-85.018242 -68.491570 -130.335785
-88.294502 -65.020638 -139.822296
-100.339355 -60.659832 -93.320236
26.407282 -52.397472 -272.914093
-59.443981 -44.675056 -88.261497
63.278412 -56.849190 -86.897308
-65.114418 -33.893532 -101.314247
6.819239 -51.042484 -260.193054
-61.530720 -75.675217 -289.011292
43.614658 -51.447838 -24.187046
-126.683128 -69.840973 -204.348434
-155.940491 -69.498337 -307.544006
-147.911148 -63.091255 -181.892838
-26.738447 -77.116295 -176.051926
27.739523 -53.025715 -277.360199
26.539263 -55.498604 -265.148346
-11.983515 -66.140114 -250.263382
-59.864407 -81.894943 -72.159225
-162.793839 -74.444572 -249.627609
69.147316 -73.957870 -238.595718
-46.355064 -76.837753 -242.399292
-79.465431 -65.523987 -124.078751
-148.339111 -86.470734 -279.367523
-34.523617 -42.207088 -62.268600
-69.997658 -80.899483 -71.317688
27.196590 -71.315926 -30.409790
-40.018566 -80.557190 -159.108566
-144.344055 -73.051476 -265.473602
83.272461 -62.342793 -107.073433
-61.954994 -52.804585 -116.905830
-19.293455 -68.543526 -191.503265
40.249546 -74.473099 -109.680290
-67.466888 -59.256542 -117.866768
10.466234 -84.298370 -259.783173
32.896198 -69.186661 -141.114777
-78.443291 -60.217010 -119.012154
-140.489655 -87.698120 -290.090363
-10.290058 -80.787407 -171.567871
-126.945053 -75.791931 -261.440033
-34.386234 -71.777443 -161.710297
104.516762 -57.559715 -75.468369
26.386499 -65.833641 -142.776337
-133.316406 -63.120857 -230.464737
-8.303883 -75.629074 -169.408432
-79.805458 -85.039505 -94.158150
84.425392 -45.300533 -63.863995
54.770351 -74.301208 -93.698242
-147.379944 -74.721405 -186.925171
28.182068 -70.420174 -168.486801
-52.264736 -72.834961 -151.917816
98.993187 -44.505508 -107.553207
27.880753 -50.905094 -19.040237
-79.432930 -73.407776 -287.566956
49.012215 -73.764572 -97.114029
48.287773 -53.380390 -31.377613
-13.035347 -75.779785 -202.634338
-3.559251 -73.483086 -241.339722
-145.908432 -84.464424 -287.235016
-73.486069 -72.399231 -248.481415
9.575414 -70.489990 -236.771072
-44.057137 -76.922546 -192.151230
49.068485 -67.825974 -103.187401
-132.479553 -73.563065 -232.889359
72.261635 -57.799110 -103.997147
87.274719 -54.874607 -97.793304
-92.542206 -59.318455 -123.058716
-117.530716 -70.295151 -232.926865
-156.114334 -72.595070 -307.599152
19.531036 -75.205482 -252.413895
-4.312773 -52.281261 -242.825928
99.606377 -44.071468 -64.225990
77.455971 -49.080883 -56.675201
7.997451 -52.066612 -241.494537
83.717804 -77.316681 -81.720909
-75.594643 -63.450977 -44.372948
-150.456467 -82.081772 -225.491776
-114.668259 -68.201012 -197.023331
-151.553436 -63.341835 -254.966812
-62.554310 -49.872929 -66.196922
-10.297439 -51.370926 -54.216125
76.296722 -45.597843 -81.111626
68.289070 -71.209770 -79.670998
15.468766 -65.255959 -148.297058
99.269455 -43.351643 -69.858849
-44.265217 -40.093597 -54.822487
-161.938690 -68.347496 -217.139694
73.277756 -45.844769 -62.745369
10.304824 -71.278313 -219.759476
-154.982834 -68.701180 -306.029938
-148.752151 -82.448082 -301.053589
13.805712 -71.936264 -289.836639
-59.433613 -74.522499 -250.497040
-148.466324 -85.069733 -268.248688
-98.651627 -51.655579 -105.204155
16.423750 -65.686668 -285.024658
47.267326 -70.341042 -111.705788
-76.582481 -19.055767 -88.492149
-62.758919 -46.407234 -55.388451
26.996546 -74.665070 -137.069824
41.152874 -73.752213 -105.847015
0.816033 -49.908524 -249.215500
-70.813271 -52.742569 -108.048576
107.160675 -72.970581 -180.676437
-90.383820 -38.890404 -110.923950
78.353485 -56.191105 -100.749535
-15.605783 -73.113121 -214.210342
-99.222687 -46.279171 -102.968918
-82.886536 -55.459137 -116.860268
-142.429626 -70.171227 -226.391205
-150.407242 -81.009361 -188.920670
-72.786247 -53.637253 -107.921913
-65.513000 -72.524307 -249.500015
-35.151787 -86.763824 -190.453156
-18.643581 -75.426529 -292.226776
-17.695190 -58.227596 -266.957764
-58.633606 -77.273735 -177.043518
-63.701351 -52.467361 -68.728539
16.717339 -75.603844 -231.764236
-4.400945 -55.533581 -285.971344
8.410692 -72.325226 -227.825684
-87.575066 -35.678017 -54.004372
3.142054 -57.083576 -247.967911
-100.875023 -56.970623 -90.682899
-100.983925 -43.654297 -68.258179
-14.706835 -74.286995 -288.656799
-145.147430 -69.188873 -240.611664
24.519190 -77.762657 -163.152679
-64.025780 -79.029236 -170.626831
-60.858067 -85.167656 -82.630058
90.217499 -45.814018 -65.021271
16.332664 -67.703415 -213.375046
-64.293549 -58.077415 -125.843109
-53.523594 -69.118393 -288.823792
-10.730929 -66.393211 -246.938599
102.177750 -43.467915 -85.116150
-95.267372 -63.176994 -149.574875
63.796162 -69.887573 -88.494179
-116.802750 -66.059769 -261.306122
-69.937950 -69.527985 -145.295364
30.625309 -77.239975 -157.552719
-6.690834 -53.796188 -280.614197
-37.494373 -72.618530 -53.459412
-100.123825 -49.612862 -102.294907
25.488449 -65.047356 -259.227814
-89.134850 -32.385555 -56.740078
-68.501465 -77.572578 -286.102692
83.745384 -48.549847 -108.729332
-66.320000 -54.198982 -68.442268
-73.630440 -81.383575 -211.682648
25.746170 -51.460365 -38.484959
-141.174866 -73.881645 -285.355591
-134.409149 -68.017868 -265.296417
62.247520 -49.606136 -91.232399
-144.912598 -69.270477 -263.940338
-148.377014 -83.551033 -224.551971
-30.579227 -85.188004 -190.562897
41.153877 -69.315788 -113.251076
7.633081 -75.939018 -157.626175
66.218765 -59.959145 -66.412384
18.889435 -69.920998 -203.120346
-70.301758 -75.478584 -100.726097
-25.874054 -69.844444 -187.161179
2.316135 -78.611618 -283.292969
88.747200 -67.406990 -64.289299
-6.989457 -69.549225 -286.374573
-66.401756 -66.246407 -96.833069
-0.501587 -78.169319 -163.080521
24.888569 -80.870125 -166.932724
26.925117 -53.870140 -258.195709
-142.936356 -72.339561 -304.228638
-116.781525 -78.081688 -289.108490
-22.800104 -75.165138 -181.528961
-20.889576 -73.855858 -242.651016
-35.942638 -82.619583 -190.854385
-149.719940 -61.832832 -210.599075
63.368721 -72.643761 -242.473175
98.643776 -51.010841 -83.348587
11.029978 -74.458542 -245.392929
-74.320908 -66.060432 -134.265411
39.785374 -62.826851 -18.837278
24.730032 -64.774323 -256.130341
-20.074825 -56.856018 -262.894440
22.697538 -68.308311 -187.375656
-14.009159 -52.821751 -243.720673
13.766749 -53.511520 -292.797943
8.852362 -61.064747 -241.884552
-2.370137 -78.642807 -231.914642
28.835495 -73.027611 -171.689056
-29.814617 -46.844151 -61.932991
-155.589920 -70.487122 -217.574203
52.393093 -68.736252 -251.202866
115.059975 -72.185921 -143.781616
6.753638 -55.333332 -248.106400
-27.988403 -83.312462 -189.621582
-70.143181 -57.439255 -96.697075
-114.107391 -65.673203 -199.663635
81.507355 -45.135494 -97.284622
-19.825832 -76.276360 -186.677200
-37.898861 -75.566727 -79.597916
71.480186 -71.153214 -72.968689
-40.321621 -78.956581 -155.465927
49.403515 -64.474068 -21.405434
-84.204910 -70.685822 -286.990753
-51.645794 -84.890022 -82.505852
-8.976247 -59.832443 -57.666317
96.385918 -72.874557 -199.538452
34.213337 -78.759270 -134.243607
8.336267 -52.807648 -238.377869
14.360990 -68.593163 -148.575439
-63.613045 -85.600357 -95.882118
-97.144836 -60.599358 -65.844971
-71.847832 -21.416691 -61.031811
2.564193 -72.632996 -224.520599
103.006882 -44.074272 -84.962914
-47.419868 -53.659912 -80.462227
-5.468043 -53.279034 -240.091919
96.222107 -53.751026 -95.369362
73.306213 -47.203529 -107.514915
-144.831436 -62.750343 -256.620331
21.330246 -52.263779 -284.404205
-158.529129 -69.356285 -249.073669
-25.922693 -74.697906 -192.942245
87.869820 -56.523804 -99.333794
-62.199905 -84.656258 -95.454033
114.539375 -74.690742 -172.759949
-4.933479 -70.120468 -216.138123
-166.417908 -71.341766 -261.713806
-39.043148 -81.447792 -73.034912
18.789824 -69.137352 -168.846802
-16.890146 -73.751984 -71.235840
101.366852 -74.040985 -194.084671
-50.071068 -69.365990 -133.919708
20.077209 -73.317909 -248.239410
20.336052 -79.348198 -243.646652
39.558628 -51.390789 -16.771784
32.338192 -66.031754 -35.990131
-148.186508 -61.740555 -223.874390
23.714853 -78.928490 -170.701385
-88.130707 -63.988182 -137.861725
-149.137802 -72.196831 -197.805649
-17.001484 -56.587841 -261.566589
-79.854424 -28.763115 -54.788830
99.338982 -44.876656 -69.151375
-149.306320 -79.940529 -287.403351
-148.901505 -79.877289 -288.717834
60.825848 -53.594727 -104.367180
-49.748749 -66.310829 -134.260208
-96.722527 -68.127747 -150.387466
-150.123260 -80.861908 -246.812439
-59.640442 -70.464218 -285.171600
-144.681717 -64.652046 -254.698471
-146.477036 -84.440369 -265.578186
-15.965324 -71.134628 -230.248718
78.819778 -54.368202 -80.178238
1.029398 -63.719028 -258.068481
-48.538628 -58.312351 -77.854538
44.679737 -74.584381 -122.324242
35.345154 -75.101776 -136.767075
-39.427540 -79.158821 -242.130585
-59.795418 -43.013668 -50.369720
-148.466965 -83.064774 -217.372345
-94.529648 -26.422430 -88.439354
88.244789 -73.346214 -213.274292
-83.276878 -82.862488 -88.604744
99.484573 -45.834232 -61.916431
-11.959151 -39.523258 -59.599083
68.885460 -47.096790 -100.067650
-76.239876 -62.294849 -116.174522
-75.449646 -24.961075 -56.816833
94.461487 -74.665909 -82.315392
-96.552605 -52.132130 -117.945396
-54.335377 -62.277290 -133.980469
-58.524456 -73.138832 -176.365356
90.655891 -73.758446 -221.376846
108.792679 -73.406998 -176.850998
-95.987152 -70.692924 -103.219139
22.992422 -66.675728 -171.851059
45.697273 -69.764420 -113.845512
-140.915207 -75.147072 -259.367493
112.148941 -68.325851 -111.181900
8.044022 -72.531006 -208.873917
33.666264 -74.480095 -121.994591
16.106586 -52.653862 -270.250977
-40.042419 -59.256542 -46.371784
-66.946259 -78.946945 -211.179245
-166.383118 -69.431923 -267.789276
-70.267494 -68.508713 -142.223495
-69.018120 -74.553429 -151.372742
-148.644272 -86.344627 -220.440033
73.552223 -48.160828 -108.520836
102.649979 -66.702766 -90.160118
-151.414429 -65.917686 -234.638474
-37.183395 -49.179428 -67.459999
-64.887695 -74.032578 -246.525497
44.063728 -68.891891 -108.249252
-152.202499 -84.748940 -299.154602
35.341164 -73.442024 -145.414536
-152.034988 -74.490746 -267.157745
-23.371300 -75.096336 -218.962509
84.745659 -73.409897 -75.714714
-97.734627 -64.336952 -159.845825
-150.092560 -83.184052 -225.479248
6.560284 -68.762421 -293.772949
-164.814911 -67.631149 -215.385147
-11.475023 -50.617104 -248.531754
109.197166 -72.841026 -175.438950
-143.311127 -69.518684 -206.094467
-62.666130 -57.428230 -87.034035
-82.957520 -41.867558 -47.999275
-14.378192 -61.614880 -65.224632
15.727477 -77.017723 -204.809509
64.616844 -65.331131 -91.887177
12.802274 -51.802883 -238.453018
22.747688 -74.533813 -152.826797
17.364033 -78.128754 -207.001450
70.072205 -65.077599 -67.791344
98.464630 -48.860691 -76.325813
43.111210 -60.958851 -29.296368
87.373947 -45.319168 -57.541737
-82.737389 -77.359673 -77.049133
-98.678452 -70.042458 -217.924789
-96.324768 -64.012489 -120.498276
-76.978386 -54.530743 -112.488220
-49.319389 -73.799637 -184.419632
-99.409050 -63.549885 -148.477753
-145.092545 -65.516541 -206.365067
-116.898399 -70.566849 -286.423431
-147.599579 -75.161194 -288.144318
31.251169 -77.549385 -145.858673
-154.539505 -70.097717 -301.002686
-141.448044 -76.958305 -230.314896
-161.549500 -71.354095 -198.611542
48.349583 -76.974350 -104.110527
25.884953 -52.947472 -273.252747
-50.275761 -78.477264 -63.696033
-147.497086 -76.735474 -311.307404
73.183434 -71.962952 -234.438858
100.569031 -42.155167 -74.830467
-139.861526 -83.486366 -229.249649
-80.381813 -59.508965 -119.162575
6.019105 -71.335777 -160.113342
-4.193489 -78.640144 -222.590225
-95.381638 -34.526936 -101.217346
-53.511902 -59.741978 -78.400909
18.220560 -52.332371 -281.306488
-148.506912 -83.659088 -237.788300
-146.145218 -77.760971 -222.330795
89.969917 -72.776085 -210.745026
-133.793869 -72.688858 -292.884705
44.641602 -68.441841 -111.770958
26.671581 -76.259293 -172.954529
20.293186 -52.806660 -285.725983
-51.047821 -39.969646 -54.059544
35.239998 -70.891304 -133.455765
108.696404 -73.252197 -171.533981
28.406782 -53.038960 -251.971680
18.541262 -53.265343 -263.252899
29.766518 -57.859825 -13.391389
-79.401199 -67.923317 -132.884979
-0.694564 -76.197174 -218.734497
-144.146027 -81.558281 -203.421738
25.609638 -51.886833 -250.474289
11.496790 -72.774406 -152.806442
-150.474792 -62.386402 -231.543594
-52.176071 -69.433403 -149.176559
-39.491962 -79.675873 -157.622910
-151.209045 -85.052025 -290.245728
-5.386244 -80.756882 -270.219727
57.015991 -64.046440 -245.405701
-154.207367 -71.312401 -283.627167
4.640601 -65.107895 -238.927094
-90.654709 -73.252937 -290.986420
68.450432 -47.124870 -69.365181
2.075135 -68.936111 -232.892517
-73.232567 -66.824265 -100.532600
-153.726791 -76.819633 -304.926392
67.395950 -47.381557 -95.892479
-100.295189 -46.272324 -96.900108
38.246357 -78.941368 -114.216476
47.194912 -72.710289 -113.407883
21.013895 -55.166779 -29.670858
28.143242 -66.276497 -20.249693
-151.416901 -78.824104 -253.607742
74.886932 -76.442627 -88.399361
-165.081329 -71.015968 -201.289459
-67.966805 -42.436527 -98.404900
110.101379 -72.901192 -181.619995
29.994680 -78.909904 -133.880127
50.255901 -68.201225 -95.363220
11.807725 -72.819130 -244.146988
-16.333054 -54.938129 -250.582596
57.864323 -67.958771 -94.933540
-32.259537 -76.694908 -212.754944
40.242085 -73.939842 -108.883377
-57.048038 -37.144501 -76.660774
-60.579521 -65.288521 -122.261963
-80.299522 -64.565460 -113.322784
-84.604042 -56.162514 -117.583931
-34.150436 -79.916183 -207.405182
-53.546547 -58.035240 -78.837357
-146.658508 -64.521591 -293.741699
-43.939564 -68.446144 -159.972046
-145.287552 -80.461380 -187.929413
-148.691223 -79.991547 -301.087463
38.686207 -68.292946 -122.290115
-67.241135 -78.679565 -208.587616
-60.877453 -41.217999 -91.016579
-12.884913 -67.711388 -68.024971
35.851360 -71.009613 -132.385315
-62.601303 -61.027901 -130.981293
-129.492264 -75.849037 -260.073151
-102.098900 -73.759445 -224.046341
-90.406662 -71.733940 -252.286636
92.206985 -70.150978 -67.330452
6.435627 -50.617409 -254.457520
-133.002197 -74.979111 -231.228958
-87.013618 -58.967136 -48.749771
-147.897675 -60.169228 -204.709656
-150.740829 -76.606773 -246.671265
-88.254791 -74.119392 -70.704605
-54.262825 -73.073273 -149.663986
43.792023 -65.452316 -26.409414
-86.931145 -74.765778 -69.852875
35.832592 -71.714470 -137.586182
-69.779518 -68.828529 -151.712524
-5.390914 -80.543297 -251.980896
17.752590 -77.217209 -208.440918
-133.175919 -69.011993 -196.138779
-80.959152 -67.046066 -102.586334
8.181619 -67.173096 -235.517441
-63.200687 -79.524246 -210.372757
87.426048 -45.522659 -59.672371
6.444396 -76.153160 -243.568130
-6.116570 -66.933693 -265.962158
-130.516052 -69.139008 -284.657501
109.004784 -73.094917 -129.430908
15.971127 -74.893639 -237.499771
-22.359684 -64.552002 -66.387405
25.444077 -60.290264 -137.348526
-65.087456 -71.094582 -159.181931
-58.795200 -68.276474 -125.304832
18.514383 -51.269413 -242.874084
38.806725 -80.021927 -134.574509
80.621628 -71.569046 -103.475967
-101.521362 -74.132103 -287.418427
45.723289 -73.002724 -97.819107
13.220296 -70.134995 -199.731415
-67.784248 -72.387405 -155.691544
-149.282318 -84.325294 -288.759186
-153.120346 -64.926003 -294.857788
111.327797 -70.477013 -128.441788
-147.016235 -75.559837 -266.238464
88.286728 -75.847595 -76.802498
-161.524872 -74.054710 -235.487671
16.003080 -51.542645 -242.266510
39.521114 -56.810047 -123.535606
-115.749542 -74.493385 -290.616425
-47.618759 -75.476097 -140.438507
-11.782234 -49.706841 -241.402481
-27.181131 -44.159618 -56.169472
7.310494 -73.208138 -241.584885
-52.553970 -78.716423 -90.680450
4.290634 -72.470856 -291.740662
-67.707329 -60.577671 -110.723267
-12.993431 -54.006676 -249.060577
-62.078526 -72.960594 -175.532150
-150.037247 -63.233242 -261.510803
19.151201 -73.746239 -174.947678
113.450989 -76.631409 -151.915359
21.750916 -52.043003 -280.540009
-143.762924 -61.810825 -193.996796
-43.984577 -73.511230 -243.370102
-118.583015 -64.461197 -290.407715
115.336670 -71.123123 -145.660614
-49.979565 -72.644913 -245.107422
22.051699 -60.670864 -33.906193
20.250885 -60.358109 -242.921753
42.909286 -56.183758 -32.719215
-97.032890 -37.637184 -65.836769
-30.790884 -74.806389 -187.050476
-165.514374 -70.821739 -224.468338
36.070118 -82.207390 -125.818260
101.178978 -72.353134 -205.335709
-141.232376 -74.514900 -227.828491
-94.459084 -73.585892 -256.655212
68.074150 -68.006310 -243.318390
-11.759133 -74.212616 -228.623901
6.067723 -55.549629 -247.200119
34.082905 -79.513306 -133.075516
-12.862548 -75.688911 -217.913132
-14.034427 -69.330299 -211.336517
-156.724915 -69.445450 -292.480133
103.147621 -50.067902 -75.672966
13.458960 -68.725807 -200.124893
32.106342 -51.745544 -17.536816
-30.023464 -77.012138 -181.310272
17.529264 -72.623512 -171.739944
-60.305080 -67.799042 -135.076477
-79.910378 -82.768715 -105.423790
95.190689 -42.513523 -65.864662
-8.716342 -67.996399 -237.203751
-57.290710 -59.111282 -118.212898
89.598114 -43.221218 -86.865143
46.394939 -69.065353 -98.109482
4.290099 -52.055542 -236.580124
-95.693504 -70.714203 -109.901985
103.805191 -76.761864 -182.089050
32.799911 -53.638538 -36.370087
-10.363687 -74.306236 -286.588989
40.997864 -69.641800 -255.960480
41.392910 -75.535866 -128.455688
-45.288464 -49.190197 -80.552338
114.710281 -74.780243 -161.218491
5.604325 -74.133545 -219.858688
-86.891563 -69.286293 -133.336380
18.238884 -78.214317 -226.865829
-6.924974 -72.782944 -290.992798
-18.081369 -76.263680 -191.280228
-0.486963 -50.707352 -242.787384
11.148355 -71.139580 -213.764359
-144.351852 -61.217049 -197.633438
-48.410709 -77.693535 -154.511719
102.363503 -44.071053 -79.150932
-151.481415 -73.287422 -259.415649
-75.257668 -68.749420 -109.531357
8.747326 -76.632095 -210.437653
12.047430 -71.746407 -194.059280
-133.200882 -72.332802 -202.513412
-11.902726 -46.544968 -57.409256
82.591957 -65.975143 -105.047386
24.064619 -71.792908 -24.482420
26.606571 -53.414322 -265.596161
-152.491669 -68.789619 -204.877502
-147.153427 -76.220192 -257.545563
67.867775 -46.857697 -72.339966
-5.394963 -52.792919 -279.912201
-77.048401 -72.616592 -98.740768
16.295757 -69.019844 -208.917725
107.626526 -73.203293 -186.019684
-98.192627 -58.822060 -67.884361
-15.786280 -74.331589 -291.414093
-138.278656 -82.992050 -229.542740
11.193613 -49.635986 -278.100403
-51.578491 -77.451096 -146.040955
96.240479 -71.729523 -100.347191
110.772812 -77.788498 -154.654037
-144.476700 -71.130714 -248.843170
-133.683441 -76.231674 -290.362579
-152.171402 -74.968491 -203.939545
-145.804092 -82.389946 -211.094818
-10.676515 -50.998943 -260.159607
-148.818283 -80.945030 -301.918121
36.284489 -70.807999 -15.657122
-152.794144 -80.587570 -284.180908
102.602287 -53.129677 -97.106529
-48.210636 -70.114204 -151.678329
-144.341064 -68.073418 -220.846603
96.892181 -60.678570 -107.951134
-74.437523 -76.111389 -251.252945
18.742607 -53.507111 -286.373962
87.359062 -49.198257 -58.519894
52.581688 -54.753723 -109.839836
-152.073181 -74.856445 -299.651611
-55.360329 -75.644501 -289.975159
15.369081 -54.280834 -238.580780
-131.372681 -67.675659 -292.987152
-32.576908 -75.718758 -207.895386
-71.873650 -40.444084 -102.140717
-166.571762 -74.242897 -276.798431
-96.947548 -74.020500 -220.356049
93.029587 -74.264893 -75.410423
-68.326050 -81.820778 -211.661652
-18.999279 -57.349365 -270.107361
14.891744 -73.484787 -222.394638
-13.740056 -74.135101 -261.550018
113.259644 -75.228004 -166.890396
22.006512 -67.730118 -186.052505
13.427984 -67.872520 -192.090683
6.294050 -50.174366 -244.577271
-70.333908 -60.191887 -98.854256
57.210796 -73.335297 -93.866104
-11.791450 -78.935310 -260.243622
28.309019 -57.537163 -34.070023
-98.957870 -62.797676 -157.186264
-123.690842 -69.484306 -233.751373
-126.238403 -73.802391 -226.861649
-77.044487 -59.160053 -43.102772
105.451553 -74.113419 -192.534332
-93.376976 -73.748810 -255.926224
-35.102261 -69.542992 -166.612839
103.880547 -57.881729 -97.518494
-9.218356 -72.544624 -249.031921
-105.687004 -70.901627 -287.052277
-41.175674 -74.642975 -286.517639
-43.436741 -77.200645 -59.154350
-17.290823 -55.172443 -255.282776
-49.012047 -84.433060 -87.877312
32.464912 -76.897331 -151.651382
-35.378841 -72.690163 -180.634140
-67.541428 -61.125660 -43.756950
-70.428131 -21.451166 -90.431091
36.623386 -56.400280 -121.850395
-61.214764 -62.124485 -86.154915
20.424244 -63.110767 -152.783249
-91.951538 -37.048016 -108.690254
-59.942234 -85.938095 -88.532631
5.422006 -59.939106 -285.823151
56.761742 -69.143524 -244.568085
-152.922379 -69.713470 -179.691391
28.890902 -72.373695 -174.382629
-44.548096 -80.854973 -193.131607
-73.386444 -72.770821 -290.625305
-72.098579 -71.229980 -140.811890
99.963257 -70.787766 -200.203827
19.972429 -72.046486 -23.415638
-13.360623 -72.462646 -288.078888
-110.196785 -70.747932 -224.766037
6.246620 -57.276367 -239.066467
-139.484909 -68.312263 -261.539856
-11.299503 -77.462280 -210.940720
-44.371113 -69.829651 -154.376953
-125.485580 -69.039467 -293.100128
43.560043 -80.103630 -109.641525
102.355568 -69.450218 -100.522987
-48.137093 -56.183975 -77.282272
47.215572 -70.189659 -113.966408
94.248100 -69.917725 -212.271820
-50.445633 -79.500916 -187.972275
-13.788910 -71.163200 -213.714935
-100.415031 -68.069221 -220.711334
-153.371277 -64.277695 -294.761414
-11.347144 -65.637352 -62.503422
7.452611 -61.051414 -273.241364
90.029480 -43.895409 -76.079079
55.648079 -55.818279 -103.631805
-152.362854 -78.025185 -233.278336
38.206440 -74.628204 -104.327232
-81.720474 -61.589756 -117.846756
-152.435715 -71.328857 -196.424393
85.245911 -77.460869 -216.472626
-98.245308 -53.225994 -61.723862
-28.724394 -76.900589 -171.854416
-148.600357 -75.861816 -212.102158
28.741312 -62.163498 -262.460114
-18.075077 -56.425198 -258.133820
-135.389679 -72.020454 -231.627045
65.924248 -58.493824 -89.471405
-30.385935 -57.063553 -66.657654
16.803249 -70.156998 -204.527481
-10.480846 -71.178749 -219.408997
-83.273941 -75.601212 -211.418930
-95.131813 -70.415459 -116.830696
-140.874130 -74.852020 -257.757019
-126.977371 -65.801559 -287.448120
-9.035451 -59.225128 -53.408741
64.616867 -49.811073 -88.913162
-145.334045 -80.765022 -270.063141
-0.993044 -71.625496 -220.912857
108.350136 -72.982651 -182.041260
-41.796257 -49.361828 -49.320320
-155.786621 -71.200432 -266.010742
-57.839211 -46.277313 -53.104507
111.605385 -72.343178 -133.341049
54.153118 -62.544777 -89.291855
5.495511 -61.793556 -241.023560
-98.059067 -67.978249 -256.484650
-46.453053 -78.775192 -189.216080
13.638518 -50.771450 -249.181595
-59.666374 -26.707417 -63.295532
-10.012734 -49.906754 -245.619202
64.894943 -51.207989 -79.330193
-16.021919 -74.261185 -211.828644
-29.925575 -76.289772 -212.659439
108.804016 -67.517181 -117.342529
-102.083923 -65.845482 -171.082474
109.236298 -78.185745 -168.774155
49.782135 -67.434601 -23.267073
45.285774 -66.007080 -15.772545
8.467402 -85.110275 -261.879150
-147.042282 -80.258545 -299.064514
20.261957 -74.194778 -195.610016
-74.166183 -79.272804 -68.711433
94.404770 -42.988377 -62.561878
-22.754278 -78.674484 -186.561935
-0.689189 -69.067551 -238.781296
-41.590702 -76.978020 -167.903717
-19.889078 -68.732819 -202.379532
73.806381 -46.457180 -76.202187
-47.192673 -68.021263 -46.683353
-62.548195 -32.762909 -96.301056
97.138397 -51.008961 -61.808422
-15.778420 -44.986732 -53.963238
-116.222412 -66.193039 -228.452286
-60.921406 -67.298958 -134.412338
-77.134186 -67.056137 -127.814110
47.516174 -70.150070 -18.187551
61.930904 -46.591652 -71.071999
39.070377 -70.058945 -122.738350
101.507988 -74.782036 -194.183746
-149.883820 -62.771721 -256.842682
-84.557411 -50.233757 -114.856529
29.586351 -71.510284 -34.592518
101.654640 -62.963757 -71.574524
76.838577 -49.464554 -107.540352
-24.442636 -77.025772 -194.009705
-151.254776 -80.105064 -196.761002
-73.819893 -75.773529 -249.923523
-8.283890 -66.157173 -240.533920
71.513504 -62.284023 -104.408615
-77.588867 -63.258926 -108.649132
-7.165030 -53.237236 -239.285461
-150.274628 -63.631775 -193.366348
-35.469765 -76.359825 -239.193909
-11.793712 -50.939526 -249.835159
45.688728 -72.445488 -100.580193
25.672743 -68.995605 -171.319595
35.417538 -52.130562 -16.624779
101.463303 -69.279190 -81.610695
-150.824585 -62.420341 -252.886536
15.589510 -70.727478 -180.495224
-0.915010 -70.655190 -224.884979
40.507992 -69.087357 -111.542221
-146.085205 -76.628502 -210.621887
-34.017105 -40.539402 -61.064568
-95.135025 -68.853897 -151.925232
-35.709805 -72.843719 -76.755745
18.168688 -51.677086 -277.771393
-69.566483 -77.485199 -208.675171
5.360377 -76.066719 -240.306396
-51.893486 -77.402290 -181.139481
88.100449 -70.412338 -105.310257
-148.307281 -62.105923 -252.828018
-96.532776 -63.385284 -147.189590
-116.731369 -70.140480 -286.533142
-147.248749 -66.939278 -175.396805
-158.648102 -68.105370 -228.127640
110.472641 -72.468971 -106.746574
-70.367981 -49.809357 -98.387108
-58.037682 -63.675163 -83.856346
-48.188976 -51.670383 -47.764122
-61.028694 -79.125511 -93.123589
71.771477 -47.220020 -62.157120
-125.023415 -67.397842 -256.480377
10.424541 -76.644882 -213.299973
-147.403519 -83.164162 -209.251221
-73.071053 -56.040497 -103.621643
104.079659 -45.857857 -94.466011
22.539360 -71.336937 -152.375580
49.003208 -75.244110 -96.777557
-11.784471 -50.827534 -253.962906
103.557739 -44.084442 -81.510765
12.175008 -69.811134 -157.088577
4.877124 -82.942604 -274.310577
108.769417 -67.930428 -120.486420
-54.962524 -85.149078 -87.864555
-91.340752 -21.967457 -75.926636
26.385021 -54.473701 -255.226151
-65.201828 -79.362923 -99.487137
-24.898285 -76.941444 -242.882385
9.050483 -71.451447 -232.293976
-70.081268 -22.169544 -60.027653
-165.085739 -74.003311 -289.457489
17.549362 -51.280647 -262.360046
105.699562 -43.462505 -73.418312
17.899416 -70.099602 -175.180542
78.958435 -67.673798 -64.411217
53.856773 -66.692169 -86.800301
28.238718 -52.137924 -264.648163
-74.881371 -72.948677 -140.439423
4.550138 -76.974655 -288.151031
31.089006 -58.580063 -132.983521
47.683941 -57.517750 -110.581856
-140.944122 -72.964882 -229.415298
-147.688385 -84.216103 -257.388214
-43.506176 -84.336357 -81.825844
-11.006942 -76.362885 -202.765732
18.492830 -76.379547 -199.946259
-145.918289 -66.123306 -223.125504
-165.504074 -69.478966 -221.427460
-42.577633 -73.971863 -146.647415
62.559116 -64.831718 -92.325027
-68.295326 -72.981033 -291.204865
102.192268 -44.886753 -103.383820
-66.619141 -74.697456 -164.187241
94.393066 -58.102104 -108.709747
-145.941681 -83.060516 -206.280212
-148.204514 -75.978973 -311.973969
-39.946865 -70.809311 -50.013607
107.355042 -71.667374 -102.653931
15.652155 -51.082546 -258.303680
-12.728261 -72.752281 -229.358292
104.637215 -73.580460 -189.874008
88.708687 -52.030621 -75.294075
-166.019577 -68.215981 -230.262558
-155.125992 -81.440430 -291.712433
-107.644859 -65.951805 -187.444290
-150.428101 -70.456970 -217.654877
-31.293224 -55.090260 -64.260101
22.525734 -66.779091 -154.834778
80.176582 -47.174709 -87.771957
-145.841949 -70.181282 -266.049683
-22.930456 -71.913971 -221.306702
-7.154260 -72.878922 -283.841858
-118.725655 -77.252914 -288.823029
-77.039658 -75.065041 -210.398071
-161.682648 -69.778694 -247.171967
-0.990566 -78.026268 -222.719162
65.734985 -66.511795 -76.982918
-45.851398 -77.244995 -160.155670
-78.632423 -22.212959 -94.760635
-7.506383 -73.787308 -229.380554
-15.741999 -69.559486 -197.597580
-2.023548 -74.850342 -291.753937
3.565166 -70.838005 -224.085907
16.300543 -73.973175 -225.194946
-43.345806 -78.557976 -195.819321
101.943634 -44.035046 -92.485359
-57.907520 -71.207130 -141.219055
-71.059723 -76.328720 -248.822266
25.069256 -57.328285 -32.425659
22.909521 -70.295502 -188.655197
-124.845070 -73.472656 -227.295197
23.591314 -54.311668 -270.066406
84.362587 -45.253201 -79.482765
5.363503 -76.687111 -159.845062
-125.438438 -66.793098 -225.108963
-168.650146 -72.089897 -253.398178
-60.594227 -45.763374 -48.801376
-36.078178 -71.985504 -176.770981
-145.545746 -78.395424 -253.737854
18.402277 -52.381504 -271.746521
19.173944 -77.871246 -223.402435
97.571022 -73.582153 -80.466301
-84.204918 -61.759399 -113.073051
111.073311 -69.341682 -129.741821
-18.319153 -74.929802 -293.501526
-63.790478 -73.110023 -165.773590
15.235149 -53.671345 -291.040070
-39.271332 -77.992851 -205.627136
112.793236 -70.423790 -121.925362
-140.216324 -72.964294 -226.837860
-145.893036 -74.577690 -187.847672
22.837513 -55.627254 -17.189665
55.504166 -62.668159 -93.950127
62.344429 -51.655827 -97.410797
50.572319 -73.557266 -109.367027
57.072834 -68.488091 -241.617554
33.256207 -66.044579 -12.835781
91.029701 -49.648396 -69.318130
-91.088150 -40.717152 -53.701790
83.750710 -71.996971 -221.172287
86.635414 -73.659630 -71.452820
-72.970055 -66.158035 -139.118057
-128.144257 -73.683334 -232.461594
76.625916 -69.934357 -227.598419
-163.640625 -66.405823 -206.949341
-12.631172 -58.362034 -273.074829
-93.307236 -76.272072 -218.872208
-149.978729 -79.923164 -275.282288
98.653946 -74.953865 -200.057388
-49.849571 -78.305939 -187.087936
-85.055527 -67.868584 -107.592964
-101.259590 -45.939354 -87.181145
-146.257034 -80.022461 -196.518036
-65.691429 -60.310631 -124.558327
-6.753250 -70.822197 -233.488739
-17.589315 -77.644135 -196.968597
-84.047020 -18.429962 -81.299530
-26.327557 -77.078545 -175.814667
40.011387 -65.591141 -249.608719
-12.264075 -51.669910 -253.897858
-153.527817 -78.170715 -231.611084
-151.727417 -72.670273 -266.697510
-166.460754 -69.235703 -261.623413
23.898989 -52.291183 -27.238272
-151.182449 -62.280106 -252.239243
75.135155 -49.522987 -68.964020
-55.074120 -39.290634 -68.405754
-12.894041 -68.641182 -258.364990
-2.236853 -58.875130 -239.136536
-143.111832 -63.731777 -256.768494
-85.061272 -68.264572 -53.012920
96.463463 -73.737968 -211.316254
-151.329819 -71.418541 -205.765121
-124.823891 -67.679390 -193.853119
-74.502701 -72.602386 -52.398079
-45.822269 -76.981674 -86.034309
-16.387421 -73.933418 -227.821579
-51.452023 -62.857227 -81.965477
-92.118645 -69.237213 -139.382721
0.442311 -51.442356 -274.275208
36.827412 -71.013458 -139.977676
-54.871403 -72.599319 -134.831604
-99.555573 -41.566601 -67.910202
68.154343 -48.601894 -103.999969
-88.095802 -33.002968 -106.691261
111.053146 -69.204338 -159.457031
35.037487 -71.306030 -12.875206
100.076195 -51.845959 -64.892815
68.439758 -47.744656 -100.915527
97.138092 -55.194717 -105.161919
-46.898415 -78.398773 -62.217655
-98.600090 -34.493668 -79.805199
-16.886400 -57.596081 -271.524292
-98.720535 -73.380516 -256.866058
-114.211288 -69.594238 -233.136398
-65.836891 -61.275646 -114.495117
-63.716526 -70.235046 -93.833252
-166.063080 -73.173531 -246.568176
-152.284210 -68.211899 -203.960129
-73.969093 -54.736019 -109.253365
45.536072 -69.992874 -112.493271
-151.836121 -63.430485 -263.440735
-30.660480 -78.432137 -243.270859
52.094505 -68.700447 -251.754166
15.643559 -72.487411 -178.289124
-152.882660 -67.393951 -186.458191
-147.457108 -68.526100 -260.079346
40.151012 -71.357918 -19.528355
87.955551 -45.219395 -56.941555
-3.104305 -50.091072 -251.235535
-81.966530 -60.274292 -46.877560
-144.371460 -62.160702 -232.449768
-70.029129 -26.921917 -56.472267
-151.286346 -68.960991 -281.379761
-150.428162 -68.318481 -296.037811
-94.210228 -74.704582 -218.155090
5.435262 -61.378071 -259.653839
-89.467659 -78.169113 -113.006218
37.094807 -77.996674 -132.579651
23.732550 -69.652466 -254.016861
-24.563885 -75.435760 -205.191360
-146.594925 -80.617195 -277.418213
93.548416 -76.035133 -92.267914
-13.613957 -74.327576 -256.019470
-23.180191 -71.324020 -204.089142
-148.376175 -85.408226 -299.793640
-138.610931 -82.038338 -199.128922
-70.144119 -67.900215 -100.386665
-166.663498 -73.799103 -270.028931
34.230247 -62.127480 -131.333603
41.868149 -76.892456 -108.200462
50.970627 -66.815346 -99.451454
-54.050709 -80.053474 -244.729645
102.443321 -69.998337 -85.472343
32.598026 -63.375015 -132.327591
-112.720711 -71.605247 -201.093338
-149.855270 -66.906296 -254.212311
26.928663 -53.652592 -262.828430
109.249306 -75.397446 -136.031525
-111.258965 -72.373077 -258.122498
23.790707 -67.381317 -143.380753
17.289173 -57.426605 -283.975128
11.664567 -70.387924 -289.432739
-40.022938 -79.166847 -243.743927
-149.833939 -67.612343 -260.418579
17.690228 -50.370453 -282.051727
18.538666 -53.444176 -279.452423
-131.632202 -72.936432 -202.653687
-52.251289 -66.470627 -141.537979
-60.961231 -64.614731 -87.545555
-100.703156 -66.298965 -156.203995
105.805405 -76.632484 -189.080383
-133.313492 -73.743965 -284.377625
-29.850517 -70.392754 -213.645966
-23.202127 -76.712730 -291.902039
33.764271 -51.818199 -16.130146
-150.679382 -65.752251 -265.807587
-154.340332 -69.784821 -294.425110
-105.560341 -72.373184 -224.112442
-23.306463 -69.845718 -194.670502
67.738274 -47.807198 -100.821472
-17.504696 -55.684040 -255.763107
22.499105 -67.617867 -142.948334
102.753029 -43.714725 -87.601257
62.492039 -65.511894 -91.688728
-14.080524 -69.389717 -254.908859
33.311787 -52.006531 -41.168213
-141.952942 -78.457794 -202.238205
-113.908257 -72.945335 -260.546265
-141.627747 -76.770744 -259.844604
29.566959 -78.628578 -171.337830
89.085762 -72.653534 -102.314262
25.901388 -54.517677 -256.959259
101.568420 -47.493015 -102.399521
-90.012375 -65.208679 -142.990173
-103.223816 -62.780132 -170.391953
65.364182 -68.448448 -86.786530
86.761971 -60.277035 -108.882057
92.665817 -74.918060 -81.318825
-42.525776 -80.684486 -193.896652
0.684518 -61.670879 -238.339157
-135.579102 -71.091904 -286.101746
-59.012138 -76.689034 -170.283951
102.547951 -44.883759 -100.463898
-20.148422 -70.740913 -187.305344
-60.104797 -56.859200 -117.765556
-74.572479 -77.855339 -100.750038
26.351189 -77.130348 -147.718002
-43.069584 -77.754463 -157.476913
-121.295593 -71.736588 -201.531570
-12.404154 -51.412060 -252.242386
-60.020325 -48.948196 -89.534485
111.426208 -75.775093 -158.028137
-99.072876 -39.214485 -76.029259
64.791199 -48.662491 -90.374336
-153.957855 -71.842102 -274.373413
85.411102 -53.890282 -79.215233
5.778460 -54.175407 -293.295563
-164.328979 -72.263268 -238.825272
-124.381699 -63.553650 -198.263184
36.200653 -69.080040 -254.618622
-43.681946 -71.165718 -81.989548
-98.700577 -40.712666 -75.105293
-63.949852 -72.702087 -286.779022
-141.037170 -73.174149 -202.186844
-22.746479 -71.685677 -200.554245
-85.765358 -73.081001 -251.221436
-147.778748 -68.924919 -276.721039
-41.501354 -69.252258 -77.649788
-55.005692 -72.234520 -131.962051
36.965263 -71.191048 -38.803162
-28.036974 -71.404900 -191.046448
-131.671082 -69.913994 -203.973724
-35.464947 -75.458359 -240.248627
21.016165 -71.641785 -158.405502
-64.825233 -75.444809 -55.181229
9.342874 -51.848572 -251.410568
63.720539 -57.726444 -100.157310
112.460594 -68.769974 -153.451904
-7.797789 -82.183228 -259.604187
28.228554 -51.683464 -262.928467
-124.040009 -73.043320 -200.983688
-33.325176 -74.806084 -203.644730
-124.715691 -64.426399 -231.229904
-14.233101 -54.876999 -241.425873
67.161621 -69.735268 -234.283051
-38.861725 -44.949028 -68.923531
29.626610 -64.840874 -12.818329
28.999596 -70.839966 -145.668564
111.495461 -74.726067 -139.348358
31.842846 -79.209679 -128.050568
105.540741 -45.130375 -78.047150
28.943058 -61.625881 -130.455322
-74.141045 -81.446518 -212.571793
-123.288467 -71.517128 -198.791168
-130.034897 -73.602409 -263.244354
9.381533 -69.357544 -152.711655
-146.506027 -64.197571 -287.255615
45.359585 -75.293571 -101.568863
-12.206422 -68.409119 -237.171509
16.287270 -51.327103 -242.916245
-75.571335 -39.834114 -47.703121
-68.637909 -20.351830 -88.582787
-160.047760 -68.233444 -221.161652
-147.451981 -72.938263 -259.127808
-146.794220 -82.323273 -195.400833
-13.521360 -52.947330 -257.074799
-51.320671 -61.578842 -80.402786
-151.042160 -66.082664 -245.313477
-13.161320 -73.450600 -226.169830
36.607521 -70.121094 -131.628998
-29.570404 -69.898094 -77.872772
-50.099930 -75.059372 -190.151794
11.900428 -80.558472 -217.566711
-144.885117 -84.833374 -257.198395
110.706703 -69.893509 -136.782928
-51.036514 -81.125420 -186.796478
-15.597855 -56.198784 -61.899399
-25.773960 -70.968788 -217.189713
-97.553093 -37.236168 -93.534782
-6.531539 -69.581642 -218.320190
-28.380251 -78.075981 -188.086868
-79.348618 -82.233971 -83.017448
45.690571 -51.143417 -27.626377
73.698524 -61.733032 -62.098118
70.688393 -59.897400 -63.246185
69.349388 -72.409508 -80.929291
-25.180731 -72.233925 -288.337524
-37.892689 -77.950264 -171.408279
-59.160313 -72.730431 -246.718643
-126.808136 -70.510735 -282.818451
-54.719620 -60.503922 -125.921875
1.334167 -83.586372 -254.609879
-116.699463 -70.537018 -225.107269
-60.652802 -34.069511 -91.857368
-98.678093 -52.736229 -67.287491
53.220978 -64.366402 -246.125977
16.786711 -69.305534 -182.114014
-14.348749 -70.708557 -251.862289
-14.719516 -69.700470 -217.784515
0.983649 -78.603790 -163.274124
27.599184 -73.942497 -171.457245
90.779884 -60.867538 -60.241329
-92.389046 -72.442001 -256.426086
-67.303864 -20.430056 -61.849567
-84.258774 -46.535572 -110.715950
39.514687 -50.927212 -17.636471
-10.843600 -55.394272 -282.469696
-4.286523 -74.946877 -231.555908
-95.518227 -61.377666 -122.729950
21.420149 -60.910988 -277.440796
-41.001442 -69.719078 -159.544708
81.553307 -46.104839 -56.694977
-147.242523 -61.853058 -175.443436
15.762264 -52.895203 -286.441345
-11.649334 -55.563454 -280.140442
64.591087 -60.468773 -87.963921
20.327797 -61.686043 -21.884291
-155.385498 -74.552139 -291.528839
-145.673340 -73.350639 -298.473236
26.422913 -55.400040 -261.308716
-136.526657 -80.563408 -198.077698
-134.834412 -63.831802 -202.224197
21.438471 -70.384735 -28.032087
23.023655 -54.668415 -247.071365
-41.063931 -77.999809 -290.377930
-50.184082 -74.310753 -138.871231
29.072447 -79.297386 -146.199905
-149.031937 -69.379723 -256.615143
-60.451756 -56.553055 -119.177704
-153.574600 -71.318161 -197.569534
-101.775345 -43.799786 -91.284348
-69.025970 -22.459042 -82.735786
-150.093674 -81.579170 -229.108261
-131.108856 -66.831856 -195.395203
90.056534 -76.008972 -96.151810
-32.112568 -76.987610 -184.799789
14.108370 -73.770882 -184.877808
-1.253266 -51.746731 -279.174561
44.606869 -58.951324 -37.815319
0.316801 -68.848465 -234.401581
47.191952 -67.511177 -103.582283
-49.302402 -85.414505 -87.337105
-71.638641 -19.750982 -63.273849
93.693459 -43.323753 -81.087967
50.697659 -64.306946 -94.663010
3.608361 -74.394043 -227.757660
-85.312149 -73.319527 -213.558746
-112.449120 -72.312935 -261.172729
28.694553 -54.251236 -39.462971
45.088142 -51.368263 -36.928078
-135.545380 -79.753380 -287.452057
-115.480484 -71.335747 -287.336884
-89.778786 -77.288116 -216.625916
-54.113388 -65.383385 -140.403793
26.245117 -79.468987 -165.426544
-62.781460 -47.732933 -61.407879
-143.138168 -81.920883 -199.103302
95.559677 -55.613831 -106.303017
107.250931 -44.787868 -89.418922
-9.863899 -71.841637 -245.405960
92.897057 -52.338406 -82.674026
-3.455872 -81.836502 -166.283539
109.225616 -70.811058 -183.960098
38.620541 -78.744438 -113.068748
-133.386383 -71.674950 -284.491974
1.275313 -50.222107 -243.021606
68.176468 -55.943943 -96.092133
43.318192 -71.277206 -120.836235
-25.859068 -72.917831 -176.174728
-6.556380 -64.674881 -252.034256
90.920593 -58.230335 -58.722561
-75.519577 -71.517517 -148.314880
-101.517212 -67.988655 -254.892303
-66.376862 -75.467133 -54.831871
86.728233 -49.621037 -110.364288
13.976762 -56.993046 -243.104080
23.120913 -50.287472 -267.087097
-147.218140 -65.659012 -280.333221
102.409264 -68.110977 -87.213799
-126.691429 -66.696068 -234.981262
-41.563412 -54.371132 -47.608047
-144.766739 -63.413361 -184.797058
76.435074 -52.896484 -57.751743
67.518906 -67.346817 -236.906799
47.313908 -69.728577 -253.333847
6.821420 -73.764587 -211.890656
-127.909943 -64.021164 -232.163193
-142.088028 -67.814735 -234.118393
-149.304703 -77.573608 -217.127579
-60.655357 -70.848450 -137.944382
-66.060410 -54.383728 -108.242233
-146.759766 -61.680603 -223.997345
-60.584435 -68.660423 -46.840046
45.909538 -70.167473 -113.947975
-94.734367 -74.760048 -287.954254
-32.835632 -72.429771 -181.812515
-146.642960 -68.888939 -310.524658
27.760023 -51.763954 -15.344918
25.667442 -54.656944 -259.491425
-149.222275 -81.900841 -193.589142
-13.466741 -76.296173 -174.617538
-132.682434 -73.661545 -284.997650
9.101617 -50.467369 -245.837158
20.248627 -76.788857 -257.346161
-146.368607 -82.084679 -263.521729
-99.552391 -45.395157 -100.673317
20.091627 -51.426418 -32.736614
103.223297 -75.795708 -98.583954
73.694328 -45.042995 -84.466858
106.610466 -72.259583 -101.318245
14.451578 -52.470272 -283.332520
-20.081215 -74.303688 -65.004135
-101.027481 -68.320236 -225.978088
107.423119 -74.698891 -165.603638
-79.357857 -69.219971 -126.394897
-24.495392 -76.337303 -68.722252
-149.896606 -85.467491 -293.217804
-65.603882 -55.415924 -121.272583
-100.725494 -50.591942 -100.764442
64.235741 -65.591469 -89.951385
66.222527 -47.776745 -90.139778
-95.130989 -38.844139 -105.931427
-48.031502 -71.875847 -138.664063
7.081857 -72.415955 -153.692963
-61.305622 -54.386429 -66.349632
-29.414827 -77.958595 -187.887283
10.757349 -53.416332 -241.244415
71.504333 -46.657787 -111.625893
72.866142 -46.465649 -67.076309
-51.129906 -66.860558 -142.057541
13.711238 -82.068436 -236.819565
-147.191467 -61.982231 -234.234528
-32.586884 -44.934193 -54.355289
7.218455 -76.584167 -243.929764
-153.358536 -80.219910 -256.766815
-147.882584 -82.824371 -241.160843
-58.625206 -56.698643 -124.165741
94.871330 -50.772560 -96.932037
-12.038171 -75.848473 -228.319672
-43.601406 -73.779327 -242.092346
18.873531 -74.596817 -234.967896
-126.854286 -67.086334 -286.060242
-30.519459 -72.605728 -169.557571
-89.714890 -63.097210 -53.928692
-74.469109 -62.297310 -103.848251
67.521484 -56.258915 -94.323120
-5.444051 -72.184982 -214.050827
-40.527035 -76.569008 -201.687805
-26.615614 -83.720520 -184.525146
-92.409019 -67.196075 -123.114738
41.857620 -71.002556 -40.298409
101.889038 -42.982521 -84.200996
17.272411 -50.762115 -254.276413
81.708939 -48.023968 -59.713764
-61.730156 -59.046764 -41.370571
-149.682510 -71.274063 -288.312561
3.347814 -49.574551 -257.981781
-142.724609 -67.002243 -289.794525
-167.356033 -68.092110 -263.416779
5.304116 -49.389977 -270.980164
-146.184265 -74.913017 -294.371185
99.636612 -43.432938 -60.167553
108.258667 -71.928749 -123.367805
64.591423 -64.933327 -83.754745
-56.080521 -72.360550 -49.734493
-56.551449 -67.925728 -142.295654
-141.400040 -68.455315 -194.669754
-11.336275 -75.706215 -219.577362
36.440960 -70.261078 -36.791607
-59.575367 -57.349102 -123.040596
-150.765350 -77.467224 -295.117188
-37.747051 -40.804974 -61.854118
44.636978 -67.269989 -31.686541
-143.972839 -81.513237 -291.245422
-1.472091 -69.980797 -221.645782
21.658272 -59.711151 -244.667847
-149.984436 -76.423965 -251.123520
1.984945 -54.759048 -292.574432
-99.582397 -59.812675 -98.456001
-12.684060 -53.332066 -240.355988
-105.193665 -66.397858 -224.671967
-147.621109 -64.997368 -265.169678
-149.866089 -66.416008 -309.019562
-59.572666 -68.428215 -46.399002
-59.901005 -83.744484 -203.517853
-63.369740 -27.141020 -91.950829
-130.459320 -70.163940 -234.321732
-143.975708 -80.090721 -231.059875
-21.568008 -73.581787 -182.967850
-135.207520 -68.244286 -291.450562
29.020985 -49.692013 -263.266724
61.474270 -54.276001 -99.126472
-68.347336 -56.979519 -118.316879
26.947317 -51.734455 -259.574646
13.373235 -72.562561 -185.851303
-54.609886 -39.354191 -65.225456
76.537453 -70.442688 -228.731705
-36.479122 -71.062393 -153.571671
66.456039 -63.978394 -95.061882
-16.627443 -76.362503 -226.073456
44.193325 -82.169098 -117.989929
-6.183076 -78.083061 -215.774094
94.862595 -42.898212 -66.767662
-4.012699 -67.770920 -290.064117
83.796982 -56.627743 -89.760651
-46.871880 -71.359375 -156.752899
102.489983 -67.685287 -98.687469
47.372982 -69.840134 -95.542618
104.997208 -55.004360 -86.785500
-12.189762 -43.335457 -57.274872
-60.522068 -79.079865 -167.503937
-70.168144 -76.259109 -209.747955
37.309616 -59.403992 -121.835732
83.749474 -45.902138 -108.079803
-152.208633 -67.195168 -206.914383
-55.514313 -40.539680 -71.324043
19.881430 -77.525002 -240.608673
14.841398 -70.771469 -232.374405
84.629456 -66.430641 -63.600155
113.708778 -76.344933 -147.624207
102.646339 -45.175873 -97.494476
-27.936707 -79.940025 -71.697388
-99.986847 -73.805771 -222.187531
-23.830423 -76.777489 -194.927628
-17.076626 -77.759087 -212.467331
-144.844742 -65.726669 -285.592865
19.450817 -52.994690 -27.011946
0.833197 -78.654251 -231.835617
-80.054832 -85.033485 -103.024300
-0.025093 -51.447483 -279.408661
16.180723 -50.858341 -262.665649
13.122355 -50.882500 -294.175110
-87.010452 -39.075253 -50.790115
66.537491 -69.503334 -87.048775
70.142899 -54.668621 -102.853897
-104.045723 -67.107399 -174.884995
80.373116 -73.574745 -224.555908
-157.517853 -72.179382 -288.071808
6.608193 -59.874084 -240.922394
93.567329 -43.591431 -99.644417
17.270378 -50.137897 -237.685776
100.101265 -69.152878 -77.128860
104.132385 -70.333786 -109.149620
14.703114 -75.316902 -291.756317
25.806883 -71.403694 -180.204559
-55.041519 -82.345619 -200.840714
-60.153782 -29.696117 -58.294373
29.167082 -71.682709 -14.187392
14.278663 -51.023972 -248.660202
-64.863655 -51.318287 -55.157963
6.109958 -50.086887 -273.043060
-156.268661 -71.342880 -260.958160
-49.734081 -60.401299 -42.805454
-167.859589 -68.917587 -210.578720
-143.350281 -70.915283 -188.176071
-151.039276 -85.475197 -291.240662
-60.241032 -55.314907 -126.200020
2.924447 -85.688957 -260.631409
87.577797 -53.448151 -95.550461
108.554787 -71.796890 -116.303642
26.939699 -53.250340 -252.651169
-48.997662 -77.107468 -190.650040
-25.753281 -78.381645 -214.272537
-146.126358 -81.836670 -197.923080
-123.696556 -66.298370 -194.051025
-154.376663 -74.711311 -262.840424
-67.730125 -54.511383 -93.135475
-86.910645 -77.502724 -85.629066
91.830521 -54.462357 -85.516594
27.699553 -52.578705 -261.978729
21.988602 -63.176563 -251.042053
56.726334 -68.468864 -245.102554
