# This PCD file was generated using the MATLAB® pcwrite function
# from Computer Vision Toolbox®.
# .PCD v.7 - Point Cloud Data file format
VERSION .7
FIELDS x y z
SIZE 4 4 4
TYPE F F F
COUNT 1 1 1
WIDTH 1376
HEIGHT 1
VIEWPOINT 0 0 0 1 0 0 0
POINTS 1376
DATA ascii
24.9325819	-51.7360418	-246.024969
22.6035598	-51.7282494	-248.650459
19.4923452	-50.4162988	-247.508985
18.6714374	-50.2378718	-251.104846
24.2488052	-51.2664344	-251.6535
11.8476835	-59.1357471	-244.775604
18.3340483	-60.0839673	-241.610678
13.7585532	-59.1400595	-243.29595
14.8210641	-59.243469	-242.181606
12.6721838	-60.302544	-242.417791
13.9767619	-56.9930441	-243.104087
14.6243473	-55.2197966	-240.924559
18.1495375	-55.0176933	-240.95729
14.8655615	-53.0261093	-243.535873
17.9576595	-54.0271483	-241.047688
16.1639443	-54.5111591	-239.373029
12.3914763	-52.0380791	-241.096332
14.8348218	-51.9784553	-238.110349
12.8022735	-51.8028827	-238.453023
17.1797641	-51.4782826	-243.499155
17.6341596	-51.8775653	-242.730226
14.0065114	-50.7546399	-240.982467
13.250004	-51.1500732	-239.125031
16.00308	-51.5426444	-242.266516
14.4309844	-51.0112602	-241.600671
16.2872692	-51.3271025	-242.91625
16.6377084	-51.2437983	-244.348121
16.9498195	-51.2400227	-243.60362
16.0714242	-51.0270479	-242.875318
15.3690805	-54.2808334	-238.580777
14.4512266	-51.7308139	-237.304605
12.8154308	-50.3922898	-236.626209
12.1751937	-51.0690552	-237.223633
13.0919222	-50.3665598	-236.874096
15.8402981	-48.3994959	-235.345033
17.2703787	-50.1378956	-237.685775
17.9006284	-49.4518658	-237.378217
21.6582722	-59.7111527	-244.667841
20.2508841	-60.3581099	-242.921757
18.9698623	-57.9858536	-241.74618
19.9376892	-56.3040017	-242.329864
21.9253879	-57.1803463	-244.677313
19.5199987	-54.8694645	-241.549081
19.6185425	-53.9050526	-241.315876
22.3115748	-53.6853319	-243.767486
21.0709104	-51.174932	-242.011908
22.4657658	-52.9508931	-243.741428
20.2014629	-52.192796	-244.115088
20.7422475	-52.754495	-240.727876
20.4203582	-53.5054512	-241.513631
21.7640818	-51.7353867	-242.323897
22.0046187	-53.1665215	-244.864819
24.7061722	-52.0889267	-244.68463
24.4696718	-50.654159	-242.106428
20.1486273	-51.3203632	-243.879232
18.5143838	-51.2694129	-242.874089
21.9119363	-48.7892507	-239.105177
21.6792287	-49.6717871	-240.222852
23.6842303	-49.6417681	-240.842643
18.5569402	-51.0260386	-244.427782
22.9633708	-50.3888563	-241.721164
32.379649	-69.6071756	-256.835958
30.4148835	-70.2679089	-257.203516
27.4938573	-67.9062039	-258.097907
26.3354495	-67.8180418	-256.621171
26.674399	-67.3011944	-257.559202
26.3270439	-65.7774675	-258.355375
29.8075726	-65.8374544	-258.690775
31.1478795	-67.5977193	-258.377161
26.3892213	-63.7247881	-258.682561
31.9498264	-64.7917979	-256.272866
38.1284008	-70.1321624	-256.426361
37.7065987	-70.239976	-257.484652
36.2006524	-69.0800436	-254.618626
35.7600928	-69.2824296	-252.779372
37.24174	-70.0459995	-257.552025
32.6538645	-67.3325413	-255.931434
32.9317123	-66.2298504	-254.788197
32.6846318	-66.2666164	-255.35142
36.1041437	-67.0681424	-253.252539
32.7292314	-68.2856026	-258.448357
35.7215428	-68.3637598	-258.868203
36.6279249	-65.248252	-254.089661
35.2337855	-67.7702428	-256.588525
36.9373705	-63.6624782	-253.031176
36.0577867	-62.3114	-253.111838
37.1738877	-64.2046048	-257.633392
34.728998	-63.767796	-255.927368
38.4355773	-64.6762103	-253.992374
39.1569737	-67.6439117	-257.953322
45.2655532	-70.6623346	-252.829148
42.9392188	-70.2085312	-253.6602
40.9978623	-69.6418031	-255.960479
44.3736209	-69.575274	-252.857207
45.2008033	-71.237531	-250.637918
42.516989	-70.0637506	-251.673033
40.117536	-69.0377875	-256.22049
40.2960205	-68.5902029	-254.321465
40.8179211	-67.8730878	-253.30512
40.945475	-68.049318	-255.154313
43.3727852	-64.9957342	-254.647457
40.8821111	-65.4096025	-256.500173
46.0922626	-66.3899186	-255.413937
40.4056295	-66.6442887	-253.226879
41.944153	-65.4320502	-255.818651
41.8565981	-65.2441389	-253.468537
43.5476448	-65.1843801	-253.422006
41.2839948	-65.1798153	-252.22204
46.4505173	-68.5832126	-254.258943
42.2350069	-68.8611599	-250.526092
42.8881924	-68.9183689	-246.872405
45.5130736	-68.6546997	-249.729165
41.4656286	-68.5812919	-251.919958
41.553607	-67.8807975	-251.896639
40.0113876	-65.5911409	-249.608723
46.2550787	-64.7874359	-248.935573
47.3139078	-69.7285797	-253.333849
47.0055506	-69.2574132	-252.501906
46.9308379	-71.3047921	-249.154344
50.5890708	-73.0246834	-247.778222
52.5730768	-72.0101227	-247.44201
49.2764597	-73.0111304	-249.385883
53.2914933	-69.2455636	-249.417724
53.5084551	-70.9583552	-246.315686
52.5848516	-70.9848085	-247.314363
49.831297	-70.4400438	-248.612841
49.8140359	-69.1354364	-247.833302
52.4770237	-69.3020126	-247.091221
51.149171	-70.6432757	-245.184941
52.0976167	-69.6297768	-244.973137
52.393092	-68.7362536	-251.202859
47.1639362	-68.1980462	-251.801012
48.6161316	-67.6968958	-249.024194
48.331487	-67.4864798	-248.8199
50.6629472	-65.5163241	-247.939082
51.3484943	-66.5782483	-246.27443
48.3310021	-68.5589889	-247.5638
47.3684084	-66.8993306	-250.059011
52.0945036	-68.7004445	-251.754159
53.2209791	-64.3664033	-246.125976
47.6111342	-67.4557732	-248.573025
50.2059633	-65.1550962	-250.236219
50.4383182	-64.7200254	-248.667425
51.2505155	-67.4850604	-245.364777
53.1432465	-65.7869276	-245.37143
26.0848097	-55.4812272	-254.023768
25.5953112	-55.0176463	-254.603984
26.6986232	-54.4605812	-253.366459
27.3085745	-53.6260558	-257.895812
25.9013887	-54.5176756	-256.959262
26.3850208	-54.4737009	-255.226153
29.86931	-51.7305911	-255.458583
28.2799476	-53.035347	-255.563391
27.1962543	-53.4796248	-258.353145
26.9251171	-53.8701382	-258.195716
26.9396993	-53.2503391	-252.651176
30.2686786	-50.5262332	-256.674609
28.5356268	-52.6004661	-255.16567
28.7605538	-51.1668903	-258.191858
29.188808	-50.8365402	-257.047908
28.4135461	-53.5460116	-250.586142
26.4390309	-54.0946693	-251.675472
28.5728723	-53.0203899	-251.339577
26.9103873	-53.5709197	-251.113682
29.3524588	-52.1410825	-249.049604
27.4796929	-52.3602057	-247.248366
28.4067812	-53.0389592	-251.971683
27.7172823	-51.7369358	-246.395611
30.0359981	-51.8237969	-248.280308
25.6096391	-51.8868341	-250.474286
31.2789091	-51.4348497	-250.717714
31.1600322	-51.2037309	-246.670891
26.9855268	-51.471871	-246.846416
29.3170473	-51.5872517	-249.053499
27.7579726	-52.4024054	-250.867269
31.3531365	-51.3669218	-251.91567
27.0920325	-51.7571455	-244.889571
48.5371743	-61.7096308	-251.451396
10.9778314	-76.9809638	-197.497166
9.38580854	-74.7596954	-199.105633
10.7044177	-75.3431169	-202.768421
10.2554517	-74.9004502	-197.216702
9.37557652	-73.8621352	-200.824967
10.9733504	-71.2268415	-201.03843
10.5803509	-72.1104763	-199.498229
10.7208868	-69.6528014	-202.689823
10.953408	-75.1068708	-195.599588
10.7699505	-72.3973075	-195.509611
16.4644318	-77.5745528	-198.976103
14.1209269	-80.4245558	-198.67799
14.4465881	-76.9282934	-196.378917
15.2097071	-76.3403055	-199.79795
11.9171388	-77.0603804	-202.275942
13.2127389	-76.3375295	-200.256391
18.0612369	-76.6331042	-190.435994
13.7865328	-76.5399657	-190.934102
16.2407449	-76.1732795	-189.581173
19.7113757	-76.6371195	-201.695678
18.4928312	-76.3795492	-199.946259
19.9354796	-77.7866469	-190.004006
19.2670277	-79.059031	-194.623775
22.5915243	-76.0762514	-194.363312
20.8330948	-76.195087	-192.767881
20.0000669	-76.1495567	-189.774139
16.7893472	-77.2958547	-184.120902
15.4389973	-76.4232581	-185.329999
17.1533892	-77.0334388	-182.948051
16.587915	-76.0652517	-176.217717
19.048536	-78.9132673	-188.738311
21.4684863	-77.6711279	-183.235405
20.8434195	-77.8489748	-186.118109
18.8294938	-78.5257848	-183.620939
22.1241726	-77.3538289	-186.380982
24.719314	-76.7865601	-182.6629
22.3862968	-77.1092935	-184.243212
20.2680312	-77.9180146	-176.981123
23.616045	-77.145112	-178.923074
21.3085422	-76.7581739	-175.849348
24.6615404	-76.3180551	-177.397682
19.7497341	-77.2644895	-181.1955
23.7004433	-76.627559	-180.581333
20.5150036	-76.1890517	-175.258893
17.7653486	-75.3230271	-196.526279
12.7913237	-73.7625294	-197.462827
11.5019163	-72.1383054	-198.427824
13.7556743	-69.1559739	-200.017103
12.2546987	-70.011072	-199.071645
13.2202957	-70.1349935	-199.731415
14.6326061	-75.6931482	-189.047602
15.904486	-75.7561003	-195.175111
16.1682493	-76.0079959	-190.183729
12.3322331	-74.4808157	-191.857073
13.6888958	-74.4187101	-190.325603
13.4572217	-73.3252618	-190.264306
12.6260826	-71.8329835	-194.339544
13.8406977	-70.048968	-195.656223
16.2524629	-70.0280032	-189.110747
18.1956309	-69.1574784	-190.611386
17.2049579	-70.4514554	-190.321559
12.0474303	-71.7464051	-194.059287
18.0427394	-68.687998	-196.83863
15.7904552	-67.9642002	-196.646393
16.865169	-68.5398298	-199.539602
13.4589599	-68.7258108	-200.124897
17.5689812	-68.8595539	-201.711223
15.8601663	-67.5259042	-197.654453
18.4655887	-67.9000558	-196.308919
15.2483562	-67.6837446	-195.79465
14.7320887	-67.522886	-191.085143
13.4279843	-67.8725174	-192.090687
20.4002825	-75.7248677	-199.983609
20.8655006	-73.3534918	-202.174372
24.5771475	-76.0330251	-196.199869
20.641689	-74.7251269	-199.735093
20.9394886	-70.1842384	-198.057515
21.9115926	-70.9674844	-198.915718
19.4386909	-73.3837718	-195.844887
20.0714375	-69.1972818	-199.649365
24.5531892	-73.7724758	-189.023043
20.2619565	-74.1947751	-195.610018
22.4208013	-71.4044522	-191.262774
23.6962953	-73.3736083	-191.558074
22.5093915	-70.2962679	-189.452722
22.1895867	-70.3115476	-193.482004
20.689874	-69.3233806	-195.09635
19.6317505	-68.7033556	-196.248348
20.505772	-68.9849947	-194.720037
19.054672	-68.4294412	-189.828047
15.1778787	-75.5443534	-183.296117
14.1083697	-73.7708796	-184.877815
14.8374031	-72.9328916	-183.717967
14.6520546	-75.5464868	-187.003255
13.3732345	-72.5625641	-185.851307
16.6357455	-69.8424843	-186.743671
13.8921892	-72.2803615	-185.751119
16.5119854	-70.264989	-186.720271
16.7867104	-69.3055331	-182.11402
15.6032332	-75.2030112	-181.143491
15.8149931	-74.78495	-180.469299
15.6435587	-72.487412	-178.289117
15.1821842	-71.7175939	-181.723687
18.1395149	-70.1513847	-174.939622
15.0350748	-72.1762288	-178.917176
15.5895095	-70.7274752	-180.49523
16.6342496	-71.2826261	-175.613011
17.8994164	-70.0996027	-175.180549
14.7561535	-66.3813479	-185.999494
24.9096037	-75.7529576	-183.917891
25.0830088	-73.7686602	-187.197999
25.1116647	-73.523552	-182.061621
22.9095205	-70.2954983	-188.655193
25.2846551	-75.5171881	-186.118717
25.415947	-72.5377926	-186.763709
24.8745751	-69.0780254	-182.941185
19.312415	-75.6568018	-174.909267
19.1512006	-73.7462386	-174.947677
23.559257	-68.9522245	-186.708476
21.0903394	-68.093324	-184.969101
18.7708912	-68.6565667	-183.765496
22.6975391	-68.3083109	-187.375655
22.0065111	-67.7301152	-186.052499
18.7281575	-67.4673702	-178.506523
23.3902805	-68.1639054	-181.343218
20.3739458	-68.5686042	-176.928512
23.9891535	-68.780985	-180.223371
20.2732356	-66.8599371	-179.068933
19.7210918	-67.6126597	-179.478225
-1.41787974	-77.4706646	-169.234019
-2.32974641	-78.1363448	-163.937733
-0.401622997	-77.1886432	-167.696837
-0.501587404	-78.1693178	-163.080525
0.983649099	-78.60379	-163.27413
3.86304295	-78.1267948	-162.084242
0.339093868	-76.9150516	-163.265902
1.46695409	-77.0067355	-163.932631
5.36350251	-76.6871072	-159.845055
-2.27117048	-72.8460558	-167.556093
-1.513523	-75.4324667	-164.568151
-0.41870052	-74.5416254	-166.339077
-0.256633869	-73.6137512	-163.73329
0.503848112	-73.5737983	-163.133248
3.12297806	-70.7456115	-164.553146
2.79543085	-72.1267468	-161.684115
4.40328365	-74.4225413	-163.108473
5.49807737	-74.256495	-162.547929
8.9539183	-72.568235	-161.92204
6.71156446	-73.1608932	-162.364962
9.70103588	-72.1985762	-161.32682
1.18692813	-74.5372345	-158.208118
3.27174934	-71.8496627	-160.600774
7.63308134	-75.939019	-157.626174
4.84968097	-74.6560214	-159.328872
7.46472505	-75.0138869	-157.606182
8.96586105	-75.4496659	-156.974216
9.45736488	-73.2438532	-153.92121
4.92086156	-73.8188306	-159.278739
5.63406899	-72.0869158	-157.212237
7.08185655	-72.4159515	-153.692963
6.87372786	-70.5765574	-156.825346
5.41593835	-71.8956207	-158.115195
6.01910558	-71.3357789	-160.113337
7.7970533	-71.6130876	-160.45294
9.37425712	-69.3710121	-157.496722
7.70084638	-69.2538099	-156.857008
10.7287168	-71.6121756	-151.47523
5.27673116	-72.6453153	-153.151926
10.6679292	-69.9646651	-149.91532
9.38153245	-69.3575429	-152.711651
10.7143428	-67.345643	-154.286877
10.344502	-65.2655393	-153.234274
18.2960623	-77.5285479	-171.900618
19.516488	-81.2112682	-172.293228
23.7148535	-78.9284923	-170.701388
24.1577332	-78.6739392	-173.757567
24.5576431	-78.2162062	-170.48601
21.2472396	-77.6921274	-168.58137
22.9564667	-77.2522636	-168.531233
24.1612007	-78.3851277	-170.575229
19.2549763	-77.8162237	-172.237624
22.1998645	-77.434438	-169.295163
25.3840726	-78.0188333	-171.005698
24.8885697	-80.8701278	-166.932729
24.1301883	-81.2841496	-163.86227
22.9406363	-78.1983734	-162.591604
24.5191895	-77.7626583	-163.152674
23.982094	-77.6854702	-162.961981
21.5532335	-77.4911138	-160.682568
23.0827763	-78.0393232	-159.26006
21.7801825	-77.6805646	-159.55978
24.5761216	-76.9595005	-154.540758
22.7450281	-76.7005457	-156.783413
24.899323	-78.8176253	-151.853234
21.983558	-76.3803412	-148.062574
22.3518563	-76.7534713	-149.204226
18.1881623	-75.8793782	-174.615061
17.5292648	-72.6235132	-171.739944
17.7840404	-69.8342685	-171.867937
18.2047056	-71.6035855	-173.736635
18.2672159	-70.2066975	-167.069333
18.5038863	-73.3027147	-168.647005
18.7898231	-69.1373489	-168.846809
20.521468	-75.7924525	-166.579914
20.6224791	-70.965943	-167.653983
19.6864988	-73.7547052	-163.688213
20.4080308	-73.8861711	-166.833388
22.2805687	-75.3047424	-163.241263
21.3827122	-72.5835192	-165.734934
20.8482158	-72.8671976	-161.330902
21.564974	-70.7891043	-165.262901
22.614531	-69.8983743	-166.355004
22.456823	-68.302109	-170.378823
23.0925899	-66.7058178	-172.426979
22.9924217	-66.6757247	-171.851058
20.5325079	-67.8120228	-171.165324
23.642528	-67.3799401	-174.23905
22.2854442	-68.9550917	-164.694559
24.8956635	-67.5017623	-161.432452
21.2837437	-67.2376871	-166.901382
12.454435	-73.5211971	-154.580157
13.2815991	-71.4705842	-158.508138
14.9884436	-72.3263135	-159.660848
13.1442125	-72.2705591	-155.131408
15.5031338	-72.8778863	-156.170861
12.303152	-71.3919994	-156.975014
14.9094918	-73.1534326	-157.159594
12.0194015	-70.7793205	-159.305515
11.5369	-70.7626194	-157.128225
15.9104214	-71.4296118	-157.44516
14.2154111	-69.3860113	-155.509731
12.1750076	-69.8111377	-157.088581
11.49679	-72.7744029	-152.806447
13.1512374	-71.0024967	-149.593896
14.5070352	-71.6853953	-151.199993
15.1149812	-71.6440262	-151.481184
16.4232375	-70.1712145	-148.217309
16.9022924	-70.4337186	-149.875111
14.8693435	-69.4488812	-153.297131
13.6340364	-67.5012968	-158.853383
13.546113	-68.8766474	-155.577768
14.3609892	-68.5931618	-148.575443
17.8781335	-67.2749622	-150.498249
16.2552773	-66.976391	-153.022951
12.2279297	-67.0697706	-153.395937
16.1943106	-64.6210894	-151.492982
15.4687663	-65.2559564	-148.297054
13.409852	-67.2227816	-150.260456
17.1822692	-64.9480787	-148.8035
16.88574	-64.7709326	-151.469861
18.2114341	-64.0198564	-152.093831
18.1504775	-65.2738698	-152.442376
18.3519559	-65.0485004	-149.974373
18.3891053	-63.2784727	-146.821752
15.1283325	-67.2191182	-146.708303
22.5925035	-74.3970239	-155.811196
23.534886	-75.6419712	-153.868129
21.7443819	-74.9601526	-158.237992
21.7424843	-72.2986011	-157.36118
21.6760139	-72.2465644	-159.003661
22.8482864	-70.7848491	-155.704206
23.6937687	-70.6033051	-157.876709
21.016164	-71.6417832	-158.405502
22.7476874	-74.5338129	-152.826793
22.4938277	-74.4761579	-151.592073
22.2609805	-71.1142209	-147.840871
23.4039337	-72.8324019	-153.31361
22.5393601	-71.3369381	-152.375575
24.1657211	-70.6012839	-148.679909
22.8899465	-70.3026807	-150.443492
25.3957444	-74.9776479	-147.507734
24.7592034	-71.2410405	-146.733829
22.5257337	-66.7790894	-154.834772
23.5755574	-68.848277	-160.09272
22.2767508	-68.9793682	-160.232526
18.5275947	-63.671118	-151.634341
20.1143474	-65.4298885	-147.593271
19.535825	-64.3024817	-146.785602
19.3404815	-64.2684375	-147.587462
20.4242439	-63.1107682	-152.783248
26.6773652	-78.5689838	-179.651734
26.0843518	-72.1634955	-182.616301
25.8172187	-71.6289654	-182.58214
25.7640499	-70.4854548	-182.16926
25.8068828	-71.4036941	-180.204556
26.4042647	-73.8077073	-178.983576
26.5326662	-75.6848635	-176.655025
27.198438	-71.2554914	-178.32202
26.1485769	-71.6480233	-181.614438
29.5669593	-78.6285763	-171.337826
26.671582	-76.2592902	-172.954534
26.0542911	-77.5173862	-171.890871
26.2451176	-79.4689879	-165.42655
29.3307957	-78.7774505	-164.851125
25.8896049	-77.7872846	-163.301216
30.8499232	-76.6979976	-162.437335
30.7621173	-76.7855869	-164.434672
28.5487635	-77.056116	-162.58525
28.3649483	-80.6267902	-154.922397
26.5016204	-79.78175	-153.67787
28.024035	-80.0405061	-155.480085
28.3461147	-77.0512802	-160.135023
28.1690844	-78.9015943	-155.784888
30.6253084	-77.2399729	-157.552717
25.7268355	-78.2920463	-156.175527
28.939055	-77.9662667	-155.455329
29.4501202	-76.7863527	-157.643761
28.4514551	-80.1236251	-148.719376
30.5463563	-78.3723611	-150.00409
28.9674343	-79.3104522	-148.805951
26.0534318	-79.0195653	-151.221694
26.5145002	-78.4141488	-152.364364
27.5356463	-78.9373693	-148.241601
26.3511878	-77.1303475	-147.718008
32.1376506	-76.3841918	-152.80422
32.4649143	-76.8973343	-151.651384
33.2055323	-76.916692	-154.181364
32.9185739	-76.845298	-154.169849
27.3705236	-75.4908953	-172.120022
28.8354945	-73.0276079	-171.68906
27.5991849	-73.9424944	-171.457252
28.8909008	-72.3736962	-174.382631
27.7781062	-71.8113194	-171.930819
27.9757882	-70.5232893	-168.225811
28.7293286	-70.9274428	-167.862617
27.7514424	-71.6801656	-172.627459
28.1820674	-70.4201718	-168.486806
27.4463439	-70.1319279	-171.024085
31.2462528	-75.4191049	-164.720374
31.4631662	-75.0949899	-161.136847
29.4463556	-74.1034991	-163.948448
30.5108379	-70.8503943	-162.617716
27.8022837	-71.8308535	-161.133406
30.4038716	-73.9236692	-166.297263
27.2537182	-70.1930156	-166.457102
25.6727425	-68.9956029	-171.319596
27.0163555	-68.8254188	-168.642291
27.0203386	-68.6169556	-161.17212
25.533413	-68.3763288	-166.612955
31.3892014	-75.7296084	-155.886642
31.6184392	-73.9461202	-155.727844
30.8060823	-73.289149	-157.606493
31.0483387	-71.1441423	-153.825085
29.4089908	-69.9291008	-158.161179
26.2482139	-70.1007062	-153.963306
26.5818349	-69.1797663	-160.25003
31.1870236	-71.1104542	-159.648393
29.4661176	-69.0667577	-157.246045
32.1279037	-73.5981821	-156.097359
31.114391	-74.4807016	-152.131876
30.7213707	-72.7270953	-152.814092
27.7857413	-70.4133396	-149.531596
32.1754248	-71.1231049	-147.697628
30.4497168	-71.6890801	-147.976592
27.9177086	-71.7379304	-147.657241
27.9235052	-69.116389	-153.376942
29.9317069	-69.2944346	-150.324202
29.1306187	-68.7066706	-150.495825
26.0911392	-68.2409486	-152.088803
28.4390945	-68.8699899	-153.51064
34.4503335	-74.6179237	-149.060319
33.9032012	-75.0381763	-147.018856
33.745744	-74.6335969	-150.889934
34.3445808	-74.5046704	-148.58227
32.5219602	-71.874069	-148.17281
58.5136275	-71.7809035	-245.436052
57.4821089	-71.0295895	-248.056845
58.1343729	-70.3850047	-247.66831
53.8484318	-69.1859407	-249.336553
56.1347411	-69.1939076	-248.73655
56.7263341	-68.4688677	-245.102556
57.8597917	-68.4894681	-245.866964
60.0961754	-67.0737973	-246.661148
54.5536747	-67.9788685	-245.478742
56.3272713	-64.5869103	-245.385842
57.0159926	-64.0464409	-245.405703
61.2005363	-66.7596173	-246.311959
57.1172751	-73.4587988	-243.37408
58.3568274	-72.0565355	-244.662379
60.2616886	-70.146553	-241.1373
57.5359885	-71.2448952	-242.97121
57.4651815	-71.1766386	-244.721869
58.9232663	-69.3073574	-242.53401
56.7617401	-69.1435223	-244.568092
55.4026825	-69.9232418	-244.874918
59.3908538	-69.0911846	-241.713194
56.1623131	-68.1488734	-240.783389
57.0728326	-68.4880902	-241.617556
58.0680613	-68.3390368	-240.999097
61.1347174	-72.0857338	-241.612372
64.1156421	-73.6756799	-239.315436
62.5815559	-72.8580849	-242.941462
66.5081038	-72.2305059	-241.029539
66.1040503	-72.0580102	-239.33154
64.8473463	-71.2801026	-239.556054
63.3687216	-72.6437611	-242.473176
67.1392519	-71.0443594	-240.611534
60.6922029	-72.1349214	-243.581926
61.2848	-70.9381472	-243.767481
61.3221666	-69.6178981	-243.344077
64.4928139	-69.4292799	-240.505168
66.3252542	-69.4230224	-240.939176
66.6420747	-73.7333047	-237.557532
66.3854726	-73.0159455	-237.037763
64.6516293	-71.9963983	-236.566751
66.033939	-71.6544662	-237.599552
67.1616186	-69.7352691	-234.283057
66.0883973	-70.7627608	-237.17305
63.2434461	-71.2401397	-237.723199
61.2997148	-69.641957	-237.35281
63.2860967	-69.5119798	-236.382946
60.6342864	-68.7002698	-244.284513
65.0415199	-64.520145	-238.331521
65.5992413	-67.4065763	-239.915176
62.1267483	-67.9389028	-241.487784
67.5339715	-67.8565434	-235.512987
63.1152933	-68.3985824	-237.142011
67.5189022	-67.3468152	-236.906796
67.3220734	-67.6551966	-237.496051
67.6505169	-72.9864999	-240.310762
69.1473147	-73.9578718	-238.595717
70.4701098	-71.1982494	-239.43802
71.9236143	-70.2451965	-239.367259
72.5465664	-71.894931	-237.580021
71.548811	-73.9394288	-234.702209
73.0745729	-75.8900245	-235.712758
72.0159025	-74.0399711	-231.348144
74.3632953	-73.3692576	-231.923119
71.0609059	-72.7977859	-233.502635
69.7161609	-72.4112652	-234.150949
73.1834303	-71.9629484	-234.438865
73.137896	-69.2490614	-231.81681
70.0298771	-70.5949762	-232.929071
71.5480684	-71.124591	-236.293611
69.1075728	-70.8982819	-234.132118
68.0741511	-68.0063105	-243.318388
70.775908	-68.6435403	-232.506548
70.5265037	-68.0884832	-232.742446
72.8675249	-68.3788688	-232.462969
76.0248783	-72.0733831	-233.835091
79.5016358	-70.3258415	-231.78187
76.6513848	-71.3444463	-233.59768
75.7067164	-69.1287155	-233.409193
73.027859	-76.1247529	-230.523245
75.5914047	-76.4516448	-228.70777
73.0891135	-74.9369177	-229.735309
72.0389712	-72.4167459	-230.896489
73.0096816	-72.0749977	-230.44219
73.2735311	-71.3533835	-229.4006
76.9893405	-74.3376162	-230.655998
78.1249967	-73.6688278	-230.853759
78.1628093	-75.939814	-225.842795
80.3731151	-73.5747482	-224.555915
75.0287443	-73.804303	-229.953516
80.2279514	-73.715688	-226.227403
75.7230345	-72.343356	-230.434332
81.246818	-71.1954413	-227.137394
77.7636971	-71.741576	-226.987626
78.630875	-71.6518086	-228.235037
76.6373279	-71.412201	-227.152074
76.6259174	-69.9343587	-227.598423
81.2089603	-70.601358	-230.330824
75.6840716	-71.5626823	-230.019579
78.2497927	-70.5095993	-226.487844
75.7023811	-70.1157943	-228.133037
76.5374512	-70.4426849	-228.731711
80.5478822	-73.2212816	-223.933957
78.6650805	-69.0702604	-230.19884
81.6033656	-71.8640972	-229.537149
80.2899592	-72.2261908	-222.714253
81.1602482	-72.4760801	-221.880299
81.3860734	-71.3516247	-220.765897
79.5929174	-72.4515506	-223.603311
80.5056671	-69.5394078	-219.567656
79.188059	-67.2875771	-226.616229
82.0184466	-76.440508	-221.260012
85.1441121	-77.2529582	-221.310914
85.2459108	-77.4608652	-216.472629
88.7714273	-77.343778	-212.063113
94.6673742	-77.2232687	-205.437352
95.595452	-77.8217168	-208.08905
95.1116131	-76.7690117	-208.358611
95.6755284	-78.0710632	-208.455774
82.7047542	-73.5999686	-226.219767
82.0936025	-73.3737099	-226.00141
81.8956384	-71.0787805	-226.860807
84.6805991	-75.8928645	-223.078213
86.4949482	-73.4818902	-218.022316
83.7619266	-74.5141902	-223.068641
86.3679398	-72.8295012	-217.351902
87.0115021	-72.6129605	-219.739142
84.8639867	-71.8183623	-219.186623
87.3841138	-72.5046021	-221.978476
84.2987813	-72.772159	-221.160858
83.2535733	-72.1595365	-221.260159
83.7507076	-71.9969725	-221.172294
84.0081827	-70.6064222	-218.362968
88.1748417	-71.0455132	-222.332167
86.7673102	-69.8588767	-217.458497
82.2098629	-68.0650376	-224.978039
86.1620053	-68.9767289	-221.371068
85.0273903	-68.6039237	-220.747417
90.6558912	-73.7584464	-221.376841
91.726993	-73.7641705	-218.814362
90.9493453	-74.0563543	-218.722039
91.299926	-72.7571613	-219.038488
90.3423858	-70.7646834	-218.635377
86.81346	-75.2945617	-216.69705
88.2447879	-73.3462173	-213.27429
88.1116608	-72.7535101	-215.712556
89.58862	-75.3567985	-216.773898
90.3815462	-75.7766166	-215.255144
89.3813805	-71.7690077	-210.994709
89.0029553	-70.8107617	-212.819385
94.0444292	-74.5862398	-212.19225
89.8149519	-75.984495	-210.774783
92.8904761	-75.1777787	-213.226631
90.4238953	-73.0911904	-214.281023
92.5388033	-74.2195149	-210.460627
92.9221757	-72.9825831	-210.149684
89.5762005	-74.2717887	-216.748772
89.9699142	-72.7760847	-210.745028
88.8159032	-72.0336409	-213.664255
90.3302898	-70.8799741	-210.948975
94.2481008	-69.9177232	-212.271825
90.7311996	-69.3820079	-212.140844
94.8492225	-75.0861002	-209.192081
92.5516025	-74.554271	-206.031614
94.9244156	-74.7929775	-207.595142
93.8925891	-72.6902122	-209.597203
93.3643834	-74.0218011	-208.963202
94.8818257	-72.21987	-203.352838
93.7293805	-69.2198179	-206.793713
93.6688133	-75.5178881	-203.332425
91.9066082	-68.6950741	-212.079635
89.2758947	-68.3641939	-215.753931
97.2025208	-77.1911714	-204.401903
97.3198398	-74.1267545	-211.722142
96.352821	-73.1385389	-211.863618
96.4634641	-73.7379655	-211.316253
98.7057248	-75.299454	-205.628206
100.775443	-74.2065801	-205.528738
97.5977168	-72.2309716	-203.324817
101.17898	-72.3531323	-205.335703
98.8019268	-70.9738005	-204.01167
99.3137387	-68.7964614	-204.266319
95.4048485	-73.6431092	-201.317632
98.2534591	-76.9457084	-199.996629
100.644583	-77.9377358	-198.656211
102.338819	-77.3381684	-194.846941
102.277148	-77.3093373	-195.427975
102.440426	-76.0738092	-192.375648
105.805404	-76.6324874	-189.08038
103.281927	-77.1149736	-194.810969
105.969527	-77.053862	-189.137249
103.916403	-76.120186	-189.563869
105.656651	-76.9254968	-182.483699
109.050058	-77.1963809	-182.136666
108.098186	-77.0215594	-185.279912
103.805191	-76.761862	-182.089055
106.473234	-77.8297208	-181.326364
109.265023	-77.432749	-178.203678
109.348812	-76.815787	-178.048446
95.985521	-75.5087255	-201.339354
96.3859186	-72.8745547	-199.538455
97.8103613	-75.8058915	-197.796121
100.212245	-75.759602	-197.436448
98.7560878	-75.0522634	-200.350763
98.6539473	-74.9538631	-200.057385
98.0067608	-72.217976	-198.742531
97.3607447	-72.7008344	-202.43694
99.0224789	-75.6876528	-202.654655
102.056012	-69.9097018	-200.683754
96.5952665	-71.7469972	-202.614685
98.2036325	-71.4535224	-197.681365
99.9632567	-70.7877645	-200.203823
99.3205344	-73.6687895	-190.120752
101.507986	-74.7820335	-194.183747
101.36685	-74.0409844	-194.084674
100.224141	-73.202158	-191.159886
98.2463994	-72.8665237	-191.613077
101.14521	-73.1387032	-192.994873
97.9485903	-72.7619224	-195.142675
101.126429	-71.7959334	-191.418192
104.264329	-73.9464589	-196.281045
104.880086	-72.4699168	-197.440231
105.201421	-72.3746867	-197.502098
106.512175	-75.4221738	-189.570393
104.518181	-74.9279686	-190.554655
106.255456	-74.7820513	-193.034927
105.406566	-74.8199403	-191.921906
102.915907	-74.4000196	-195.098532
104.637214	-73.5804598	-189.874014
105.451556	-74.1134187	-192.534327
106.842589	-73.1382652	-190.259874
105.136912	-71.3688943	-189.781985
102.550575	-73.9127822	-183.646285
103.13853	-70.8394398	-187.767747
105.279907	-75.4386996	-183.299111
104.64694	-75.0653781	-183.267989
107.351666	-74.1476576	-182.954565
106.667965	-74.6721481	-182.831832
108.736536	-72.7468041	-182.696781
104.131891	-72.7879052	-185.787528
108.350134	-72.9826533	-182.041258
107.626524	-73.2032899	-186.019688
106.772163	-72.4631697	-182.040337
103.71243	-72.3200462	-185.191419
108.129602	-72.3428737	-186.631941
107.036672	-70.8830218	-186.409897
109.225613	-70.8110545	-183.960102
108.228504	-71.9932757	-183.627012
104.312728	-69.785895	-187.698553
107.506685	-75.5082929	-174.778463
109.197163	-72.8410235	-175.438957
105.072506	-73.3788696	-175.836985
107.160678	-72.9705815	-180.676441
108.792681	-73.4070007	-176.850991
106.169974	-72.3744926	-178.104981
107.080561	-72.3421297	-178.241927
104.124327	-71.2563065	-179.180358
108.750915	-70.4632681	-175.281613
109.236297	-78.185744	-168.774162
109.595469	-76.0839567	-173.468115
109.277241	-76.2314913	-165.500518
106.282382	-75.6906905	-171.832491
106.902813	-75.5516514	-170.714957
108.696403	-73.2522008	-171.533977
106.165514	-73.5963833	-168.832414
107.434644	-72.66842	-169.221502
105.179421	-72.9835006	-174.715746
108.32755	-70.6042299	-172.321558
108.551474	-71.3786016	-170.577895
107.42312	-74.6988916	-165.603642
108.422535	-73.5763873	-162.677091
108.938522	-72.9913135	-159.585865
109.722361	-72.6456967	-158.101029
111.16518	-75.1990968	-182.538766
112.922143	-74.5700893	-175.930994
112.536709	-75.3337613	-175.072453
110.923347	-73.5171548	-181.409861
114.635852	-71.8488735	-176.051928
111.87987	-69.559649	-179.82922
110.101381	-72.9011897	-181.619997
111.578133	-76.3171338	-163.720694
111.773625	-76.5588171	-167.004698
110.772815	-77.7884945	-154.654038
112.883122	-76.8707676	-159.351748
113.999058	-76.9605883	-160.335282
113.70878	-76.3449326	-147.624199
113.450987	-76.6314065	-151.915364
111.016028	-77.4113287	-150.514458
111.707584	-75.7134266	-174.488853
114.539377	-74.690743	-172.759943
110.388785	-74.7451834	-172.964628
113.476843	-73.1433151	-169.112395
111.516257	-74.1471712	-170.647195
111.510848	-73.276541	-168.263049
110.916494	-73.2809911	-168.64252
114.46579	-72.0569011	-169.067127
113.519919	-74.4234999	-173.635417
111.819039	-70.5486888	-173.252715
111.026424	-69.2177985	-167.989794
111.167286	-70.5066773	-173.971513
110.193401	-70.0716896	-170.520887
109.960784	-71.2193339	-166.927007
115.242444	-76.0280714	-164.430407
113.259647	-75.2280009	-166.890395
109.951382	-74.3189034	-166.882429
114.710285	-74.7802447	-161.218492
111.923336	-74.2565173	-164.813249
110.205679	-73.3527759	-167.572421
110.258372	-73.722822	-162.06545
113.038947	-73.4397478	-164.752137
115.804528	-70.4529749	-161.245153
116.357543	-69.8509877	-167.536239
113.904043	-69.4074805	-165.560879
111.763755	-69.0597007	-166.985212
110.0791	-72.20561	-156.392876
114.120753	-75.7394463	-155.689571
111.426211	-75.7750951	-158.028136
111.632023	-74.4657615	-160.648716
110.693979	-74.5896804	-158.11197
116.432233	-73.6902284	-156.567975
110.700387	-74.9383633	-157.85403
112.653173	-72.6323463	-157.450695
111.038956	-74.5382518	-160.392337
112.217747	-73.2352231	-154.120515
113.063556	-72.2981509	-157.126807
113.836275	-73.4024297	-156.389413
115.718335	-70.965114	-158.492034
115.518889	-69.7555721	-159.17781
111.742302	-69.3759096	-159.594471
111.053143	-69.2043395	-159.457032
116.66627	-73.2781067	-156.899525
111.514967	-75.0236733	-150.436857
112.408505	-74.3047977	-153.549059
114.298896	-74.7223324	-150.191113
111.432991	-75.0359333	-151.555625
112.903226	-72.258604	-149.874623
111.339011	-73.1032894	-148.261033
113.121074	-72.5594227	-153.199379
112.765135	-71.5296133	-152.259655
115.041952	-71.6723451	-151.846318
112.917421	-69.0655176	-148.725768
113.227964	-69.1551715	-147.149529
112.460591	-68.7699701	-153.451903
116.916989	-73.7974523	-149.919161
118.644852	-73.5803091	-153.47844
117.439704	-72.4550773	-151.021278
118.606919	-70.6662714	-146.996476
16.5830571	-67.809787	-145.433036
17.4669702	-66.9930414	-144.571219
17.8203411	-64.9099219	-144.230726
18.4623765	-63.9948656	-146.588473
24.5354359	-73.3012181	-141.582646
24.172187	-71.8867299	-144.341406
19.0539936	-69.2563867	-145.50885
25.4815086	-72.9553694	-145.724036
21.400764	-66.2504884	-146.486281
19.8138631	-68.9598223	-144.855085
22.4991063	-67.6178686	-142.94834
23.7907058	-67.3813183	-143.380746
22.7734775	-66.2831348	-141.319978
21.0838439	-62.4404927	-141.200353
24.4874452	-62.7968923	-143.41139
19.7564909	-63.5435365	-140.194529
24.3515675	-66.2565871	-139.463687
24.6536445	-64.7994967	-136.537984
23.1201222	-63.9686609	-137.562962
22.1880686	-63.1018764	-138.42726
23.6274311	-59.8655346	-142.355072
24.1786776	-61.2839722	-142.868944
25.0190705	-61.1764542	-135.881015
22.8786073	-60.8988726	-139.519924
25.4440765	-60.2902636	-137.348526
29.0303998	-80.1318177	-142.450361
26.8622426	-78.2020694	-145.51575
29.3244404	-80.3799502	-140.664606
30.8542617	-79.3663862	-139.71691
32.0299278	-78.0348548	-141.163564
29.0724475	-79.2973842	-146.199905
26.9448595	-76.8312604	-140.328899
31.2511699	-77.5493864	-145.858674
28.1140132	-78.6495394	-141.977675
32.0921794	-79.1494993	-144.897533
31.8599539	-79.6855699	-134.77897
31.816091	-80.3558076	-138.273369
27.5726525	-77.4694179	-137.424934
31.8807001	-78.6938216	-138.903972
29.9946797	-78.909906	-133.880131
27.6230141	-77.7659617	-136.414277
29.545623	-76.2255801	-134.874071
36.9889595	-76.3690747	-140.758484
34.2597906	-77.9371861	-143.213643
33.167331	-77.5288944	-145.235096
34.0829049	-79.5133063	-133.075509
38.8067256	-80.0219231	-134.574514
35.3866625	-79.0942672	-139.211839
34.2133371	-78.7592688	-134.243607
35.6603554	-78.2661034	-138.425663
36.6791998	-77.071378	-135.410116
37.1942175	-76.6985618	-136.612965
31.9751983	-79.7264223	-130.770613
31.8428459	-79.209679	-128.05056
32.0639458	-78.4242163	-124.795451
37.0948069	-77.9966706	-132.579648
36.0701195	-82.2073899	-125.818257
38.6279266	-78.6346997	-130.907259
36.0275872	-79.1491601	-131.265403
33.6001804	-79.4352695	-130.677492
33.1129396	-77.4665764	-121.05056
37.7655135	-81.248828	-125.419393
34.5450462	-81.4925766	-125.144338
38.8312547	-78.4011734	-124.422033
33.3149184	-80.4204653	-123.250726
36.5603497	-79.4992141	-123.082755
35.3677471	-76.8639545	-119.211561
35.8598299	-77.6869792	-123.413446
38.6574383	-81.0106071	-118.602773
25.6863952	-75.6117555	-143.644884
25.5384835	-75.057757	-140.718039
25.5268158	-73.905119	-143.670831
32.0647267	-70.9934783	-139.673578
28.9995954	-70.8399666	-145.668569
31.1160212	-69.7608241	-143.076411
27.1014342	-69.4110952	-141.487314
28.5080663	-71.1601889	-139.575055
27.2884851	-74.9950864	-139.209814
26.9965465	-74.6650721	-137.069828
28.4517001	-71.4948105	-135.232597
27.8789249	-73.8051727	-137.433515
30.2100409	-70.7389692	-134.655407
28.0664217	-71.3320722	-139.307818
27.8669593	-71.6044461	-138.53296
29.24238	-70.2699594	-132.673268
29.2881851	-70.0105288	-135.700459
31.9632406	-68.9492645	-143.042147
30.6568538	-67.3771409	-141.765346
27.6016055	-68.6488315	-142.055508
25.5652319	-63.7444284	-141.711964
26.3864989	-65.8336405	-142.776344
30.1343389	-68.1883718	-136.941494
26.5248439	-66.0559179	-137.904365
27.691376	-64.5671741	-134.265773
29.6518228	-64.1955514	-134.445021
28.2813142	-64.870117	-134.96849
26.6606839	-63.9591671	-133.797829
29.1866262	-64.1312182	-138.268724
35.2917356	-75.0064379	-142.770037
34.8574101	-73.1926425	-141.741093
35.3411649	-73.4420239	-145.414535
36.827411	-71.0134549	-139.977678
34.5683706	-71.7701546	-142.881963
35.5736186	-71.0005281	-145.151009
33.4190183	-71.1568165	-146.057398
32.8961991	-69.1866636	-141.114773
37.3592079	-73.6826083	-139.304819
35.3451553	-75.1017782	-136.76708
37.2904823	-73.0988924	-135.050848
35.2399963	-70.8913039	-133.455762
35.8325928	-71.7144699	-137.586177
36.2398456	-71.0047486	-137.711075
33.5758889	-69.7288412	-135.401488
29.8552959	-75.3994131	-130.333043
29.4831901	-74.5523691	-130.91045
29.2011745	-73.2766001	-129.278157
28.8250067	-71.7679876	-132.587724
28.8868765	-71.6391009	-131.897182
31.0453131	-74.8713264	-125.899161
32.2372005	-74.8150481	-125.020397
31.6906494	-63.2746137	-132.053699
38.8276037	-74.5076598	-131.272156
32.6299758	-74.3996116	-126.896777
38.6493774	-73.1572271	-132.102277
37.6242757	-71.6395333	-130.832199
33.2813016	-70.0147572	-130.575131
38.8319827	-71.9771838	-129.700886
35.8513589	-71.0096156	-132.385317
36.6075206	-70.121097	-131.628995
39.3126259	-75.3116114	-131.640664
32.7460785	-72.3941668	-119.701829
32.8349813	-71.870766	-123.219249
33.7317021	-75.1264719	-120.200356
32.9059709	-75.7707363	-124.558172
33.6662653	-74.4800935	-121.994594
33.5113687	-71.7564408	-122.735402
39.494715	-70.6665257	-120.841717
33.2681966	-70.6512001	-121.003651
37.224682	-71.2660896	-124.160206
36.0122409	-70.8313395	-121.957553
39.0703785	-70.0589412	-122.738347
33.988146	-69.2245446	-124.0417
37.5770904	-69.3242313	-119.928851
32.5980265	-63.3750152	-132.327592
34.3787007	-67.4011228	-126.97188
35.3986232	-68.7016726	-130.242832
34.230248	-62.1274788	-131.333606
37.6677773	-62.3074929	-128.576222
38.6862058	-68.292946	-122.290113
35.330592	-62.9212889	-123.385806
39.3648701	-62.1292593	-120.569131
39.9980964	-77.7126594	-125.250678
43.1659752	-76.299825	-125.556845
40.8488852	-81.3707667	-124.953343
40.9266845	-79.0366922	-118.620947
42.3451599	-80.2300204	-123.798141
43.344635	-77.3317416	-119.479705
44.3145621	-77.9176155	-120.826748
39.6254112	-78.1537842	-124.970448
41.3929094	-75.5358674	-128.455694
39.91919	-73.0206003	-126.526087
45.8157466	-75.7486547	-119.098301
41.7540534	-75.2686431	-125.303303
44.6797384	-74.5843786	-122.324242
42.043414	-73.1012253	-124.605474
42.4710816	-73.7112307	-124.769981
39.9957136	-71.1538527	-123.625072
43.1327713	-72.1161123	-122.485311
43.318192	-71.2772041	-120.836235
42.3894411	-70.7048487	-120.635503
38.2463566	-78.9413679	-114.216478
38.6205413	-78.7444351	-113.068752
36.6886455	-78.2632823	-116.725229
38.0293694	-78.5322392	-115.833978
37.0137381	-76.1872638	-112.732872
36.194624	-76.9846866	-115.144625
34.7911338	-76.3618317	-117.050571
37.7518617	-76.1831276	-110.68643
33.1572871	-72.1362466	-117.361032
35.7678017	-73.254034	-114.227612
35.1858514	-72.4610895	-115.128584
37.6338205	-70.0829981	-115.052615
35.8456996	-71.8368041	-114.2392
36.7595013	-70.4865814	-117.582809
36.8127271	-69.7837154	-115.875138
38.1798945	-69.1036964	-115.158172
38.0335005	-69.0397193	-118.057803
37.9072423	-75.9142179	-107.565161
37.1263158	-75.9364299	-110.838015
36.1007538	-72.6928271	-110.697199
39.2241364	-69.500463	-111.301242
38.2064389	-74.6282027	-104.327236
44.1933257	-82.1690944	-117.989926
40.9186216	-78.9936116	-117.831502
43.027194	-80.4583903	-112.964689
43.3130789	-78.4490352	-113.798924
45.141454	-79.1414793	-115.842085
41.453859	-78.8016441	-117.274512
41.758139	-77.2843989	-112.571751
46.2977753	-77.1478908	-112.509572
45.6216071	-76.4856718	-114.428316
44.1842885	-77.4386275	-118.063645
46.3316003	-76.2385991	-116.257042
46.305147	-77.9135861	-115.838534
44.0654966	-79.3889807	-109.471507
43.5600435	-80.1036315	-109.641529
43.6392919	-76.0934861	-105.104357
44.6913627	-77.787574	-107.938824
43.3828428	-78.5599072	-105.883956
41.8681476	-76.8924578	-108.200465
48.8960024	-76.5595466	-111.336398
48.9158383	-79.3742085	-106.727463
48.4310382	-78.7149189	-105.338301
51.2856387	-77.2865188	-105.365143
50.122971	-79.0691772	-107.605604
48.5598314	-77.5602597	-108.565449
46.5292463	-78.672865	-104.136966
46.4246921	-77.1164438	-100.87352
51.8451229	-76.6102211	-98.5348086
47.8896891	-76.4893746	-100.506134
48.3495818	-76.9743498	-104.110529
49.7580116	-76.0653735	-102.250599
45.879261	-73.9022753	-117.842655
45.9095382	-70.1674703	-113.947975
43.4797649	-73.0106354	-116.976508
41.1538765	-69.3157897	-113.251073
42.1757299	-71.0801137	-115.663024
45.5360725	-69.9928742	-112.493271
44.9981142	-72.2054267	-117.971922
45.6972748	-69.7644193	-113.845512
43.120585	-69.3435972	-115.598919
40.507991	-69.0873595	-111.542221
46.2550802	-74.8938725	-117.198778
40.2495444	-74.4730979	-109.680289
41.1528729	-73.7522158	-105.847012
40.2420833	-73.9398429	-108.883376
40.4622488	-71.9436521	-104.824729
40.4937701	-69.7541375	-109.255941
40.8343058	-70.7156778	-107.26124
41.3881612	-69.9938102	-109.809142
41.0097696	-70.0638292	-104.922588
44.6416014	-68.4418402	-111.770957
44.0637302	-68.8918891	-108.249252
43.2815568	-68.5478812	-110.748127
43.5547679	-66.5171351	-105.643762
43.6790712	-67.6571471	-109.995532
46.2993266	-68.896222	-108.930644
47.5959905	-75.3680567	-113.267412
48.6797552	-72.2743039	-112.151254
47.1949138	-72.7102876	-113.407885
47.2673253	-70.3410429	-111.705788
47.2155729	-70.1896569	-113.966406
51.7048899	-73.5493923	-107.71687
50.5723203	-73.5572659	-109.367029
48.6279161	-71.836862	-109.873376
51.9953229	-73.1525032	-107.272051
52.5585421	-72.8726951	-107.336491
52.9129658	-72.0796015	-104.98492
49.5063448	-70.6629428	-108.132303
52.7691545	-70.6539685	-106.125199
51.1173872	-69.3894724	-106.768965
48.1244968	-68.8047442	-106.253117
48.4129604	-67.4398609	-104.725377
45.3595856	-75.2935734	-101.568862
44.0087811	-75.0105944	-102.972898
45.7704015	-74.4827214	-100.855885
43.526525	-73.3429769	-103.342301
45.6887295	-72.4454847	-100.580196
42.2742119	-70.401336	-104.141451
45.7232907	-73.0027275	-97.819105
46.3949411	-69.0653555	-98.10948
45.716036	-70.5733603	-97.0105548
44.4123087	-68.4781141	-104.218859
45.1681916	-67.9448357	-101.816651
52.8793789	-75.9205561	-101.286766
52.7510382	-75.7709883	-103.460474
49.3511691	-76.0585293	-102.94393
47.3636228	-75.3812329	-99.1580935
52.8622786	-74.5512746	-98.3095593
49.9609045	-75.1295949	-98.0191125
53.2301812	-69.3449303	-100.371208
49.003208	-75.2441079	-96.7775546
52.6193503	-72.4504278	-93.1362746
49.0122163	-73.7645714	-97.1140282
51.9902168	-70.0615617	-90.9783132
49.0281644	-72.9402583	-94.7896539
52.7838806	-71.2824505	-90.8854717
52.4426014	-70.7558026	-94.0493364
48.3001462	-71.4445242	-96.5717312
48.1407124	-71.8308251	-95.4087479
47.3729834	-69.8401334	-95.5426157
50.137723	-69.2039907	-92.8215515
52.7992268	-70.3342092	-90.6940029
50.2869244	-68.622539	-97.6075971
47.8346885	-67.8786708	-100.838317
49.0684859	-67.8259728	-103.187402
52.741967	-68.2232092	-99.708107
48.3405568	-66.7889495	-99.1331018
50.9706251	-66.815348	-99.4514519
53.5214642	-63.8561368	-101.47524
47.1919532	-67.5111739	-103.582281
47.4676038	-66.5459733	-101.90054
51.8249991	-65.5234473	-101.647258
47.3011242	-64.9570556	-98.0484448
50.5827706	-64.1025972	-97.8160703
53.0589877	-65.9742101	-102.963375
49.6437154	-67.1087333	-92.7299176
47.602055	-65.2456207	-97.1193319
52.5438741	-66.7718245	-90.8794768
50.2559023	-68.201229	-95.363217
49.6475356	-66.449118	-93.563761
52.6196341	-64.1843315	-93.2577808
50.6976575	-64.3069476	-94.6630065
52.160348	-63.704132	-92.4856798
51.8745479	-64.0919063	-91.2512586
51.1626723	-65.7965968	-90.5713868
28.0825112	-61.5518879	-136.530211
26.828643	-59.7242405	-133.208646
31.3522778	-60.5505697	-134.895076
31.4376996	-60.4971212	-133.382499
25.9964124	-60.0687051	-137.479632
28.8896673	-60.4319637	-137.387878
31.089006	-58.5800621	-132.983518
26.7416811	-60.5131164	-135.210513
29.8142725	-59.0262665	-133.343636
32.1126925	-61.9711202	-127.730741
28.384871	-58.4049458	-132.565661
28.9430579	-61.6258819	-130.455316
30.4057008	-59.9743772	-127.31418
27.6978811	-60.8922716	-132.560619
31.2630292	-57.5350311	-130.844675
34.5522231	-61.7260906	-130.336372
35.011313	-59.3243977	-130.140384
33.2875795	-60.6711835	-126.243071
33.4510977	-58.5526103	-130.074419
33.5529773	-58.0664906	-126.507276
36.5534704	-56.5903935	-126.01498
34.0075069	-57.7721467	-127.684318
35.6970423	-56.4396854	-128.913185
38.1796233	-61.5984618	-123.002703
37.7547076	-58.923818	-119.504392
36.4393243	-60.5300563	-122.628977
33.7478839	-59.7204899	-124.866724
35.5969982	-59.6585034	-123.395211
37.3096172	-59.4039935	-121.835731
37.7118581	-56.6740667	-124.856501
37.6640423	-56.7938226	-121.066882
36.6233847	-56.4002815	-121.850397
36.9830978	-56.8605791	-124.977432
39.5211142	-56.8100468	-123.535603
41.3148412	-57.8236598	-125.762702
41.6120194	-59.8066581	-119.424613
42.6523788	-59.0949493	-120.778454
43.769918	-57.58341	-119.373455
42.3074913	-56.1452241	-120.341423
40.7888161	-55.4187361	-119.655283
41.4513458	-53.9483638	-123.151733
41.7456709	-53.8183474	-119.219461
42.4826714	-54.9899455	-119.101623
46.5175699	-55.8209679	-118.312047
44.9041691	-60.7029634	-113.520107
44.0589454	-59.2869295	-115.468267
46.1697526	-58.907752	-115.768166
44.5451428	-61.1403493	-113.345274
40.6618088	-58.9559815	-116.819155
40.0647335	-58.5179579	-116.622794
41.6507734	-56.9241003	-115.611667
43.906396	-54.6594413	-114.138694
42.5001073	-54.5017823	-116.631623
44.0678698	-54.115482	-116.088571
46.5436805	-54.522639	-111.545145
46.4629564	-53.8931776	-110.576364
47.9510741	-58.5130916	-113.73667
46.9682345	-58.1511305	-116.864886
49.4200137	-57.6169689	-112.987748
50.1416552	-55.6527058	-113.524234
52.6003979	-59.0935624	-107.680416
52.7293027	-59.481502	-107.580675
50.1356352	-57.9919477	-111.074766
47.6839424	-57.5177493	-110.581859
47.9706898	-57.1092209	-108.641955
47.1869913	-56.2525962	-110.708226
52.1859711	-55.7773889	-105.397658
48.6690741	-55.079032	-107.826432
53.5815917	-57.1011112	-110.202611
47.0846238	-54.6886738	-114.364958
53.1502099	-54.2137038	-108.464723
52.5816875	-54.753722	-109.839833
51.2767494	-54.0450298	-107.910535
52.7981541	-60.1553329	-103.991692
24.6703237	-70.4744184	-37.4681181
23.5339808	-70.7921694	-35.4908778
24.5062522	-71.0073824	-36.0021055
24.3489108	-70.9661228	-36.2594899
24.0026606	-71.0068636	-36.0252943
24.1172685	-64.8652321	-36.6632578
22.8950125	-61.2416056	-35.7131734
22.4685404	-60.766112	-34.9952805
21.9922753	-56.5199251	-36.9732676
23.1780041	-60.8234065	-36.4206394
24.3401175	-52.1070999	-37.2368381
25.431205	-50.9223781	-36.1067381
52.8222182	-66.9322317	-88.3630764
52.5576756	-65.0188349	-88.9569086
29.0795139	-71.7166946	-39.2434195
28.5326216	-72.3554625	-35.1008661
31.7818546	-71.8526598	-37.1062195
31.340437	-71.8651633	-40.1473705
29.5863515	-71.5102821	-34.5925169
28.8335947	-71.8543227	-38.4761331
31.5180937	-69.8668322	-40.2060593
26.8907846	-70.5900491	-38.2515683
32.259211	-70.0210571	-40.1734723
30.8889557	-63.917759	-40.761282
30.1176926	-67.257469	-36.550936
30.8833879	-62.8710463	-40.116268
25.6791045	-65.1287541	-37.7190956
26.6824586	-66.716988	-38.5768474
32.3381924	-66.031755	-35.9901325
35.3303216	-70.2433054	-41.6035243
35.9870282	-69.9240474	-41.2554692
38.3874135	-70.6691249	-34.5896218
36.9652652	-71.1910467	-38.8031606
35.625486	-71.2944457	-39.6368391
35.1044059	-71.1771088	-40.6877331
35.3838366	-70.7033867	-37.9064203
34.9995747	-71.0279129	-40.079675
37.2807599	-69.3563605	-35.7001679
36.4409607	-70.2610814	-36.7916058
34.8547739	-70.9208637	-40.4523443
33.2079655	-69.2115331	-38.8450299
34.73721	-70.8356301	-40.0133442
33.9194532	-67.9953373	-40.1093282
35.1369954	-64.375691	-39.9009555
38.7600809	-68.1282793	-36.8397776
35.6940741	-64.0730569	-37.4904897
33.8749722	-63.4855829	-40.2837573
41.4335334	-69.9757029	-40.5931514
41.6625151	-71.5953285	-35.3119595
44.2254185	-71.4849769	-35.9979061
41.3798859	-71.5356	-38.5823545
44.6857368	-70.6189966	-37.6408413
42.0468104	-70.949531	-40.33295
41.8576218	-71.0025555	-40.2984081
45.9843676	-70.242216	-37.9865934
41.1591628	-67.7942954	-38.8197221
46.0129555	-68.2408873	-34.7542657
48.7307652	-70.3535864	-34.8409717
46.8198715	-70.6782704	-35.081384
47.0859509	-70.0264744	-38.1461858
49.6926307	-62.7997295	-36.56363
30.2933696	-61.0259691	-35.4204071
27.0030121	-60.7945553	-39.6485367
27.5216576	-59.9375218	-39.958553
32.505301	-58.0219587	-37.6392071
29.72166	-56.626748	-34.3819224
30.1985208	-54.6892965	-40.3267389
29.2717656	-53.7209536	-35.905373
25.9670905	-51.4624455	-38.5520573
27.491811	-51.8177611	-39.2607176
29.4510615	-50.6801217	-37.1562219
25.7461708	-51.4603637	-38.4849604
26.2342468	-51.5151552	-39.7245027
28.6945534	-54.2512352	-39.4629696
28.9361287	-50.6673048	-37.6820232
30.0627036	-51.2665702	-38.7138634
32.6149464	-58.1144191	-38.4944091
33.9057154	-57.1455418	-40.8023144
37.6911705	-61.8471144	-35.5136489
33.7984477	-59.5069119	-40.7283746
34.8525979	-60.8024672	-38.7713194
34.1807839	-59.5987762	-38.3016533
36.3774485	-61.5865646	-36.6161098
34.0565932	-59.8334922	-39.1491317
39.4313178	-56.8980615	-40.4654586
36.0181185	-59.7081792	-37.1449379
34.7993163	-61.8385351	-38.4135896
36.3366515	-53.4336668	-42.3461181
36.6555117	-52.2648978	-42.6672282
36.0502849	-52.0836673	-41.8407082
33.3117867	-52.0065299	-41.1682135
39.4727862	-51.2953572	-40.9489506
38.4358508	-54.8939971	-36.675002
32.7999116	-53.6385378	-36.3700853
35.9526288	-51.6611017	-37.8555445
33.2790935	-51.8883261	-40.8558277
38.7975565	-51.2601817	-38.3401721
