# This PCD file was generated using the MATLAB® pcwrite function
# from Computer Vision Toolbox®.
# .PCD v.7 - Point Cloud Data file format
VERSION .7
FIELDS x y z
SIZE 4 4 4
TYPE F F F
COUNT 1 1 1
WIDTH 1500
HEIGHT 1
VIEWPOINT 0 0 0 1 0 0 0
POINTS 1500
DATA ascii
47.241005 -18.254959 51.736900
16.942474 -28.035608 58.550312
49.280304 -27.771240 56.870529
47.368050 -33.248726 61.912964
33.121883 -37.227818 58.679100
46.816227 -34.632431 59.206112
24.899258 -37.527554 63.414116
23.442825 -33.101738 66.013039
43.489464 -34.855389 62.837040
31.522627 -43.643948 65.831680
36.510925 -41.295040 67.190857
36.054531 -38.007332 50.559925
-61.269234 -39.102528 55.978775
-46.709942 -39.828392 59.075943
-28.145544 -45.939289 59.256241
-90.490204 -52.307182 59.079025
-11.049568 -50.357090 63.376213
84.721550 -56.706081 56.181293
89.879471 -54.772213 64.851418
76.096092 -57.347324 56.509056
98.863640 -60.242153 60.892769
-97.483307 -55.673069 60.059517
-20.160822 -62.198139 53.226158
97.825783 -64.290779 55.567924
68.727562 -64.446266 60.647728
-99.402344 -62.116825 61.504257
-65.619720 -72.432274 57.772064
103.055931 -65.272720 57.679073
-100.621834 -74.690002 60.894798
104.040283 -72.486526 60.639515
60.559010 -74.153038 61.358856
-47.688992 -78.443298 61.661377
106.846931 -81.371864 61.809929
-49.152065 -72.120216 61.540436
60.651169 -80.656754 55.448868
-53.081093 -77.709251 60.532909
106.025620 -79.953621 62.539627
59.855907 -81.527306 60.076267
86.076614 -87.475006 61.212650
85.048553 -83.701431 53.032639
80.766060 -83.290245 52.570709
77.805099 -93.905563 58.793106
90.878395 -88.972374 52.980774
-72.270126 -95.139366 62.256313
84.994781 -93.543846 60.125965
68.346611 -96.355659 58.969017
64.251060 -95.922134 60.144474
62.879295 -97.856583 59.252735
82.267235 -99.509628 54.448002
80.008881 -98.137100 60.467808
86.391800 -96.876236 57.111462
95.719032 -98.929207 57.913460
68.892799 -97.671280 58.603130
99.261681 -99.403770 57.492393
58.747463 -99.427597 52.989540
101.753365 -98.975311 59.157452
91.302658 -102.022705 56.999016
-62.546509 -103.212379 62.408726
-63.243122 -105.785950 61.494106
85.634636 -103.340767 60.010242
-66.095329 -101.837715 58.805042
-64.083862 -101.937904 53.999294
-72.837952 -105.221802 59.614922
50.327934 -109.203423 59.688248
56.204525 -109.811043 54.668888
95.633888 -104.014839 56.582268
88.544586 -107.597412 60.342945
-62.245110 -106.237541 58.191978
-61.643250 -106.385376 58.437962
-75.018898 -109.649315 62.168774
-72.372314 -111.546234 59.287090
47.010330 -106.313179 54.059990
-55.745716 -109.446564 56.078831
-61.251728 -111.057144 57.182159
-78.678101 -112.586571 61.598434
38.686817 -114.681595 58.603619
45.950451 -117.632706 61.078899
-70.278755 -117.878586 56.110199
-53.737797 -122.888535 58.727791
43.174145 -119.632301 56.206924
-61.608799 -122.161469 60.450691
37.151356 -115.536392 58.482231
39.874004 -123.530128 58.568871
-92.242180 -118.911591 59.156582
42.753963 -121.423668 58.668911
-63.517082 -125.339943 58.018982
36.597816 -123.556862 60.974514
34.018559 -126.530174 55.488655
-64.181831 -128.679031 59.382923
35.652203 -126.932556 57.625160
32.920834 -129.703339 56.993153
-61.095543 -129.702072 59.119980
-61.059650 -132.068878 62.964405
-0.432097 -241.151932 64.223557
1.776540 -234.218994 57.921219
23.580500 -238.347214 59.161926
5.373437 -242.138077 55.384136
9.825721 -243.409790 53.165874
12.742568 -247.509735 58.203339
6.995055 -245.427841 57.122082
22.317226 -250.987518 63.961617
-22.422161 -255.654160 54.585445
-15.620970 -253.672180 57.916077
-19.987394 -258.289001 56.644497
22.556793 -255.479691 56.600784
-16.482327 -254.922180 60.756443
15.022128 -251.311996 56.597507
23.548178 -255.348083 59.209545
-14.384056 -257.960175 54.287365
-15.534251 -258.804413 59.746040
-18.371449 -259.985626 53.603275
-20.888447 -261.572174 60.940014
-19.857466 -261.102722 59.124023
-17.244978 -269.015198 64.417549
-13.849287 -266.531647 58.915695
-16.108252 -269.075745 64.590561
-12.227551 -271.962402 57.598934
-14.222020 -271.977478 57.845417
-11.378982 -275.191528 61.043369
-16.100737 -272.417084 57.953678
-10.812977 -272.639069 57.443047
-14.181833 -275.884460 62.613083
18.677500 -277.696136 62.199474
-16.195698 -275.617249 56.743774
8.589599 -271.367493 59.730515
-12.763385 -277.825806 59.601658
-11.097786 -278.014496 53.832100
-6.467712 -280.801147 53.194923
-9.478821 -278.775024 57.535580
-6.385532 -280.461456 58.725182
-11.322133 -280.653290 55.293407
-7.875503 -278.363770 57.461369
-2.276975 -281.475708 57.231342
6.828696 -280.925720 60.677002
12.474838 -285.936890 52.205109
10.393808 -291.835022 64.124115
-3.859767 -287.677643 59.384289
-8.741337 -283.728424 60.175121
-0.580437 -292.364838 55.780369
2.987944 -291.536163 60.728073
29.114967 -11.902981 63.890911
25.163837 -10.333280 53.552090
34.109264 -15.170564 65.430099
37.295307 -18.239223 53.812630
44.243195 -17.536160 58.890934
47.916714 -20.496428 56.658669
24.979025 -27.809530 54.656345
24.721025 -23.243252 53.607246
44.079018 -30.520315 54.861027
16.780088 -31.257029 60.160465
23.669977 -30.732264 62.930946
26.434418 -31.389231 58.831997
49.285339 -36.621872 59.722290
42.192097 -42.622498 58.457722
-70.903046 -46.247181 59.351490
-46.286839 -46.016880 59.635178
-85.245598 -46.579365 57.374699
-39.406597 -44.809055 61.415649
-92.537109 -55.162804 55.085526
79.504555 -58.685440 56.712055
79.937645 -56.344444 59.709518
90.697136 -52.853733 54.856140
-17.404448 -58.685741 57.674274
-8.417416 -58.717823 56.525860
-24.271284 -61.750469 59.356941
62.281918 -62.062305 53.552067
-31.971624 -64.998535 58.843868
103.430847 -61.361969 59.443676
-33.059116 -68.943802 56.260109
-66.563965 -68.092400 59.132160
-61.830711 -69.394547 54.764790
-68.015312 -70.634529 57.375656
61.225502 -74.128677 52.747375
-98.138512 -73.182030 53.915817
103.013802 -70.032288 58.221222
-55.527443 -73.893074 55.706974
-41.913376 -77.992592 54.106739
-49.954880 -78.526299 57.408184
80.644012 -81.793236 55.029850
82.903076 -84.638626 58.542702
-100.465927 -85.016083 59.585167
73.933891 -80.892067 59.263355
84.574852 -78.282913 52.372959
75.917839 -82.057022 59.779087
-59.975376 -83.815125 58.719994
71.381905 -85.648979 60.618690
86.281586 -84.441925 57.672634
-67.446777 -92.311653 57.736828
89.875015 -87.327080 57.189102
-59.631470 -89.961784 60.524597
65.146515 -87.795746 59.030201
68.974762 -89.955727 58.637627
64.771309 -94.427048 55.182663
63.492714 -93.257416 54.980316
100.684998 -91.634392 60.734142
65.988388 -89.578949 56.633972
-103.524193 -86.477814 57.825283
63.971897 -94.823296 53.017345
95.665825 -93.013313 56.159634
94.386635 -93.528877 56.373787
71.253235 -91.045494 60.962959
102.461884 -97.732849 59.312740
-99.927444 -97.062950 54.779480
62.310806 -102.767403 56.948914
104.056656 -102.222748 53.505169
77.902344 -100.106758 57.126011
88.964264 -96.118027 53.711048
55.692249 -98.046265 56.133854
102.453018 -99.865273 56.504398
91.829765 -99.086136 55.083843
98.504211 -102.994049 55.807426
67.589569 -102.070251 55.828373
58.654736 -99.643791 53.548603
90.685219 -109.934013 57.390724
84.310402 -108.442566 60.700111
97.582390 -107.312729 58.961246
92.339890 -107.979683 58.325275
90.634911 -100.834503 57.990887
52.342037 -110.065941 58.330307
-71.978790 -112.537910 54.058228
49.320141 -110.590363 59.065723
-73.238121 -117.069878 61.799660
-95.817085 -116.665405 58.354382
-76.365097 -108.957336 56.819118
-68.230331 -108.731239 53.231762
53.298084 -115.183548 58.307114
46.971092 -114.082748 58.995850
-77.064774 -116.445114 55.180832
43.009132 -114.260872 52.536251
-70.269485 -117.428734 57.861382
-62.138515 -117.786018 56.327881
42.327927 -119.414322 56.048649
-65.172340 -114.540932 57.512367
-67.697945 -117.705658 56.460808
-55.681065 -113.974236 55.085838
-70.076691 -119.880836 56.258774
-61.251823 -122.717308 54.846199
38.147228 -119.725128 58.470715
38.863762 -120.952103 55.825691
41.967392 -120.792252 57.054008
-59.361683 -121.191582 50.066845
-65.269661 -122.764435 55.473225
-62.184330 -126.830864 58.437706
-56.637207 -129.969101 55.784649
-1.278281 -241.259033 59.309193
1.006922 -236.706787 56.559738
6.073858 -238.092850 60.404621
9.503631 -241.539581 54.560631
-0.012285 -238.632507 57.822559
-12.087803 -239.582031 53.231293
7.499203 -238.012833 57.243023
1.775672 -241.322250 56.888603
-0.742467 -244.597321 56.993717
26.616978 -242.720337 56.601192
-16.737833 -241.483948 51.506054
10.438415 -243.517715 58.262234
21.651415 -245.885544 58.567978
-16.082052 -244.060959 58.349930
7.755047 -249.386017 54.675266
-19.285583 -247.810791 57.510391
23.383955 -252.500183 55.161762
-17.087067 -247.778259 58.335556
-12.435868 -252.207336 55.659763
26.580248 -249.029602 58.540031
6.456740 -248.090744 58.196117
21.602390 -249.684372 56.761593
-12.776576 -257.892487 59.219456
-17.339588 -255.341476 60.766079
-19.241508 -253.564560 59.704388
-17.935362 -256.435181 57.611961
-13.704565 -258.745728 55.020176
24.662554 -264.148590 57.479870
-11.222981 -261.992798 58.071545
27.097052 -266.229980 53.493710
26.845928 -265.288544 57.167358
-19.179773 -262.765869 62.211418
-15.031614 -266.002197 59.295513
20.925781 -274.266449 55.790596
22.058315 -277.359589 59.853504
-11.465847 -269.039185 58.564938
-10.317808 -271.848114 54.706966
-10.936590 -282.771515 58.792873
19.767506 -281.471741 52.901058
20.463184 -277.171600 55.812008
-10.337266 -275.438171 56.593155
24.104725 -276.737488 56.095737
13.478457 -283.604980 57.406120
16.614656 -278.196960 56.417259
-8.234747 -285.778961 56.034981
-10.340054 -283.782562 56.909355
-4.705143 -285.367035 57.224075
-5.717914 -286.772552 60.220680
12.407840 -289.287567 55.995289
14.522700 -288.584167 55.409260
-0.844445 -290.906219 57.851532
14.912427 -290.062653 58.214855
4.200733 -287.917938 59.575863
6.422298 -295.839966 56.934448
15.873477 -297.118439 57.019451
31.695618 -12.642854 57.679386
38.160900 -15.509527 54.000252
28.235018 -24.454325 54.640141
48.964569 -19.874935 61.169071
43.648609 -16.236538 62.385338
19.814314 -30.820793 52.776104
25.413895 -29.718769 56.389732
28.789349 -31.863857 59.166218
43.645138 -30.095867 55.487854
38.565464 -30.906340 62.112686
19.707190 -31.580391 58.995613
40.558163 -31.860739 56.917721
39.625961 -34.263443 60.636452
33.449890 -35.952629 60.400661
31.910006 -39.653240 55.994095
-63.438862 -45.735752 59.328300
-74.483971 -43.131912 61.348175
-64.163086 -41.854519 53.206871
-78.963135 -44.190212 57.175571
-52.242313 -45.863831 58.094349
-51.580505 -39.333397 53.769379
-89.752892 -48.053539 57.569027
-42.312504 -43.907238 61.899994
-87.802994 -47.260422 51.276169
-27.694084 -47.710640 59.093315
-89.747513 -51.642326 57.298786
74.103310 -57.234108 54.635658
71.952629 -58.469090 54.681046
-95.947334 -60.027714 58.414055
70.398903 -61.977299 56.519207
98.211937 -60.012951 57.557949
-68.240173 -65.470535 54.438385
102.016037 -68.519867 58.518166
-64.396370 -66.819641 55.604675
-63.440807 -72.446594 64.128929
-36.513630 -73.777832 56.940380
63.358994 -77.014481 59.184608
83.248466 -74.307449 60.194439
-34.779709 -79.335754 61.335026
82.672020 -79.500778 54.835255
77.951889 -82.288246 50.444565
86.154060 -81.321732 56.487057
72.504501 -87.101799 58.317757
108.680359 -77.518051 53.470074
63.844925 -82.747391 55.586754
69.026627 -84.437469 54.372116
106.474304 -83.218048 54.729305
60.553139 -84.752953 56.709602
93.257347 -85.379944 56.794594
64.346931 -84.839493 57.038113
67.214638 -87.059654 54.900494
67.211853 -86.974991 56.750004
68.443031 -90.012779 56.035534
90.839203 -85.846695 51.152824
92.471451 -91.291275 52.837502
85.323959 -93.696419 60.614185
91.955765 -91.185402 56.930321
93.669868 -100.060829 55.392830
70.935814 -99.509018 59.275234
96.846603 -98.445953 57.913517
-97.272186 -93.006905 53.352631
67.375175 -96.428368 60.524147
97.598305 -106.497070 53.329540
65.083206 -102.829109 56.526527
53.500202 -104.749733 57.893562
-62.197819 -104.096718 56.771118
-72.422531 -104.184196 56.027004
-71.995483 -106.439186 53.270725
-72.521034 -106.335472 57.363407
-59.348824 -102.948524 54.006268
-72.616554 -108.845604 57.800854
-75.775505 -111.178116 56.316376
45.579262 -114.028259 56.050419
-59.017765 -108.274277 52.605923
46.153988 -116.778732 51.105942
47.803310 -113.231422 55.265869
-60.381790 -115.790581 57.768890
43.310894 -112.749977 53.385399
-63.986412 -114.770317 48.969517
45.257713 -116.663971 53.012157
-65.704346 -118.755341 57.855881
46.411594 -115.834724 55.463112
-81.992256 -111.785210 58.883831
-17.202612 -232.984146 54.427006
9.836131 -237.243942 52.382278
-2.540614 -237.352737 56.250729
21.080154 -239.728516 54.603119
-7.132254 -239.023483 52.214687
4.518987 -241.032913 56.527401
-15.695171 -235.438766 55.100597
-16.483179 -239.587234 52.657082
1.387881 -245.706726 59.056705
11.533072 -244.682205 52.510376
15.100724 -238.268951 57.482666
24.109734 -238.659973 60.026836
-17.430128 -241.267075 58.908237
18.400963 -245.398590 58.958862
21.751734 -245.770920 52.771595
-18.917633 -246.770874 58.357346
28.151083 -249.107239 54.700329
-11.194235 -251.696289 56.868980
-16.912067 -251.365494 57.385353
23.033039 -251.710876 55.215870
26.195024 -252.755219 54.733482
-12.260478 -255.745621 59.575356
24.245399 -252.189163 55.617619
25.586626 -257.338043 59.669933
25.669531 -258.952759 55.114006
24.167625 -253.849380 55.813377
13.931456 -256.295410 57.947403
27.614613 -251.016296 59.219742
-14.497696 -259.831482 57.552509
-15.209191 -259.747192 55.935722
17.015493 -270.449585 56.782902
-12.556566 -263.455200 56.271030
28.616693 -261.817932 58.136551
22.375744 -268.558594 56.679638
-11.373776 -270.058929 52.933056
-14.050022 -268.789948 58.013569
13.437226 -271.043427 58.817978
-15.478848 -268.809753 58.364265
25.831453 -268.676270 55.619987
21.192131 -276.920685 58.573269
24.668377 -272.083862 55.837887
22.995680 -280.747589 59.154095
-8.571246 -277.802887 57.804150
-10.587871 -275.674377 55.477497
12.976303 -284.203918 54.142914
15.399747 -278.707397 54.083183
-7.131077 -277.447479 52.663307
12.221024 -283.181000 56.996254
23.689682 -283.610382 54.510075
-10.760864 -279.206116 51.365242
16.422050 -289.568298 57.076450
-2.091599 -281.180115 53.933609
19.839069 -287.088409 55.809841
-2.373158 -288.543488 60.216595
-12.599673 -287.972717 57.476887
-3.765584 -284.228149 56.701115
-0.685576 -290.043152 56.103691
-4.955764 -291.390991 60.646175
2.505848 -291.403473 63.597984
13.575954 -284.617554 59.834724
-1.656971 -289.871368 59.083572
9.477198 -292.795868 56.680912
22.903284 -11.502471 53.716164
23.430668 -17.627163 53.969994
20.554094 -19.884624 56.393089
40.546776 -23.982327 56.982647
27.925568 -34.161724 60.227032
27.790323 -30.004219 56.256466
28.799091 -30.387531 60.619854
37.057320 -41.439285 58.292202
29.354372 -37.482765 55.846325
-58.195213 -44.466549 54.281906
-43.956192 -41.864563 54.837528
-19.064322 -49.269165 58.461773
-10.232683 -54.226807 56.727737
-95.034645 -54.140129 58.819691
91.578270 -56.335602 58.363773
85.947769 -54.357761 53.500214
-95.117645 -59.945583 55.780159
-11.168096 -62.702133 60.149227
-21.829494 -58.554905 53.584522
-62.563190 -66.555649 58.805832
100.892143 -64.516998 58.493572
-98.602951 -69.577156 58.130054
-67.524338 -68.318283 58.026749
-67.222282 -68.002235 55.921219
68.940582 -67.912720 50.294857
-63.943714 -69.528542 56.496811
-104.287025 -71.725739 48.741928
63.031570 -70.185524 54.351391
62.457474 -75.167847 51.943569
-41.022949 -76.641403 54.704639
65.201988 -76.662849 57.516144
85.000427 -78.497650 58.641506
85.098969 -77.194550 52.240978
-38.062164 -78.870598 54.163948
69.733162 -77.705437 54.701340
75.322784 -79.014778 55.454552
94.264778 -81.432350 50.291683
90.890099 -79.766495 59.808548
104.426811 -81.117096 55.756618
60.212414 -77.359444 58.849014
68.484825 -82.243896 55.416386
92.166611 -85.654732 52.595829
-57.755947 -81.255753 55.870033
64.806984 -83.445702 56.428852
-53.049335 -83.757828 59.938831
104.241493 -85.491913 59.028786
108.241249 -95.190575 57.735451
85.410011 -89.363129 57.218288
71.845551 -95.703957 56.736103
90.711555 -94.162041 51.570961
99.833847 -94.225952 55.486450
-70.805344 -101.338097 57.510880
96.959862 -93.696091 56.145050
69.382713 -94.076775 53.713448
98.484016 -95.838074 56.998295
82.283272 -96.693497 52.271534
86.718475 -94.488998 56.181950
101.836227 -99.047272 54.375538
59.665741 -99.128510 53.419811
-98.818726 -99.684013 56.123936
56.304852 -101.704666 57.393620
53.129688 -107.641861 57.039215
63.652412 -100.213936 56.451275
58.369381 -102.530350 55.661568
-66.690193 -105.419540 52.266888
58.290886 -106.160370 54.831120
-65.381195 -106.077438 56.807034
54.228214 -105.097954 55.681374
-68.030724 -112.737701 56.324780
-57.751759 -108.139343 59.242668
54.356556 -109.892044 55.214531
51.789391 -109.496536 58.470062
47.912811 -112.935730 52.876194
-76.380241 -111.814880 60.393673
-66.286148 -107.899406 54.061413
-71.683342 -113.025520 55.621178
-75.150879 -112.879242 54.409111
-84.254120 -117.233124 56.204464
-99.909668 -119.541473 58.448677
-69.440147 -115.357140 52.992226
-60.388885 -117.341599 58.610470
-90.643524 -118.947983 61.660118
-58.937458 -120.491295 58.430855
-64.014427 -120.547264 56.126869
-6.664521 -232.991852 53.379978
-14.420774 -238.391098 57.107101
-1.828269 -236.315353 55.489708
12.147885 -239.241409 57.424465
-6.577038 -238.422440 54.055908
-7.347445 -235.079330 55.930908
4.960093 -238.139023 54.803711
17.054314 -233.336639 58.485153
-6.099053 -237.901764 55.143173
7.985038 -233.994339 54.611279
10.526605 -235.969757 57.361103
18.565594 -238.686859 58.021423
-14.762596 -238.120926 52.597122
-9.999759 -239.086411 54.284752
12.940741 -238.670258 55.513912
-12.188603 -238.075363 50.941071
-5.771505 -242.705963 58.531288
-15.629354 -241.981827 52.886425
-9.362677 -245.405869 53.300659
20.242184 -241.421051 51.996296
21.928539 -244.161606 59.016212
-16.070211 -238.959564 54.933903
-9.068027 -245.392700 58.356041
7.346112 -246.594681 59.615379
9.128974 -249.044052 54.179153
-15.709513 -247.663788 61.145164
21.749598 -255.202896 56.409061
28.563354 -253.355515 53.942860
28.526373 -246.131348 55.735096
-13.847359 -248.824997 59.079647
-16.934534 -251.420715 58.795288
28.099115 -253.575836 53.745510
17.069363 -261.094604 52.083920
25.012623 -258.674805 56.250248
29.742374 -263.491241 51.491386
-19.826496 -267.081116 58.255123
30.844301 -261.176453 56.950485
-15.304664 -264.897583 57.262222
-17.416389 -268.844513 54.914284
28.354687 -257.777130 54.209816
28.666922 -268.585571 54.152214
27.517654 -269.924591 58.158653
-8.112466 -268.491302 55.882126
21.708750 -271.629913 57.604073
22.645855 -267.512115 54.953117
23.748671 -270.470428 61.420338
19.857485 -279.874481 57.024452
-8.450554 -276.034180 55.208389
-6.357374 -275.966858 58.614948
-6.539168 -277.843109 55.947693
15.180181 -280.517944 57.631809
26.007349 -276.610779 58.279079
-1.618431 -283.035522 53.993729
-6.087706 -276.429962 56.720772
-0.970028 -282.525940 56.757225
22.255056 -278.397003 56.759254
-8.764321 -283.231415 57.762383
18.988981 -284.495148 55.495716
-1.614844 -283.782593 57.828163
-1.035209 -283.589417 57.253181
-3.022485 -288.679504 54.052906
22.684710 -286.445007 57.550003
-3.632519 -288.798187 58.862709
2.267831 -284.589264 53.581493
7.114929 -291.236786 54.681908
11.164966 -291.432129 60.186005
-1.439306 -287.025330 54.250210
3.878060 -291.792297 54.620331
7.188869 -289.152893 54.265282
7.388784 -295.387787 59.231922
10.661299 -291.473724 55.391491
33.164009 -10.595736 49.733765
33.659126 -10.655598 54.946049
26.476437 -11.497752 51.486675
32.642170 -18.933483 53.164814
40.990368 -19.556147 55.765835
21.866682 -13.748589 54.949951
21.022633 -21.958836 52.266426
19.888641 -22.689369 51.603664
17.214590 -22.578419 58.582428
44.831150 -27.618605 56.336887
25.281212 -26.420483 53.358681
16.230677 -26.211386 56.689163
27.997980 -32.021381 50.666992
30.588413 -32.006042 56.657185
47.218708 -33.279530 52.925831
30.933083 -34.130680 59.249718
26.074039 -33.604866 50.571854
27.425734 -39.332859 52.772537
32.614574 -36.498241 55.236698
25.580759 -39.297165 54.523373
36.817936 -26.812313 56.978371
36.237534 -41.108414 53.637573
32.265141 -40.759113 56.770321
-75.234352 -44.978909 53.809639
-68.553459 -45.011566 48.359364
-34.484138 -46.977356 51.708191
-9.416110 -53.773537 55.480614
-94.308990 -53.569798 50.178440
-9.611766 -55.851910 55.218422
77.671806 -58.594250 57.847057
81.555550 -58.266003 56.825203
-61.296974 -59.394501 51.055927
70.495354 -57.504025 57.016727
-62.735867 -61.600578 55.974056
-97.392174 -62.172039 59.214134
-32.121876 -63.549049 55.669540
-61.175102 -67.700249 56.393925
-39.863937 -64.627281 56.123791
101.894043 -70.240654 57.909012
80.568993 -72.134033 53.388836
-43.229782 -73.119705 54.067101
75.241867 -70.332191 51.984177
79.173195 -74.629463 55.823830
77.727333 -73.675972 55.688339
74.613052 -75.315140 52.135265
103.942314 -72.299683 47.725395
66.317146 -74.232216 51.706844
68.441605 -80.059303 52.786469
93.149300 -75.117882 54.197437
-48.204712 -78.473335 55.765713
65.620651 -76.279663 52.822845
68.012413 -79.227577 52.249748
106.874466 -82.877151 55.800117
-47.891033 -77.510925 55.851929
98.953400 -81.728439 54.431709
-56.321018 -83.110619 53.539314
-67.465958 -93.257286 53.262226
-71.546021 -95.447495 56.365505
-64.300972 -92.372536 56.228920
68.166573 -94.467964 53.329910
87.784134 -89.166000 53.019451
86.421143 -94.741280 54.713310
73.204948 -94.009560 52.888668
80.382111 -90.810684 52.771893
102.124535 -99.100204 49.778988
-68.565277 -92.018860 54.104996
69.485489 -94.838646 51.167377
81.708733 -94.323273 56.650028
90.507553 -97.462509 52.835983
74.965691 -96.885323 53.151260
83.314812 -101.509506 56.027439
74.284355 -95.952103 59.127003
81.275444 -103.991844 52.645107
65.698334 -100.846237 52.265907
70.597191 -98.658737 53.778648
61.556641 -100.576286 49.865021
-76.568909 -102.030861 54.866875
59.757534 -102.402939 53.764973
-74.076241 -107.600052 54.877464
-68.079102 -105.616905 54.399452
-61.950706 -104.549171 51.799770
-72.690987 -111.477287 56.765415
-101.340813 -114.732849 56.440609
-64.122612 -106.452362 56.038105
-71.288452 -109.199486 54.249569
-58.043133 -112.928032 54.616535
-77.720642 -114.027626 59.429607
-68.194458 -117.595451 55.669849
-62.785561 -112.409035 50.818459
-68.512009 -116.699944 55.435986
-59.341507 -116.953728 51.678352
-91.036507 -118.484398 59.543812
-90.113602 -123.418831 55.451988
-5.327940 -241.185623 52.918110
-3.520654 -237.270340 52.657799
3.180085 -237.362228 58.573082
10.575222 -236.334991 53.958221
-9.246513 -233.943024 53.908661
-6.932783 -236.178391 47.918022
-5.894881 -240.831406 54.652187
4.271007 -238.230621 58.278931
10.896328 -235.385895 57.100830
-1.258435 -240.263809 55.454716
12.342029 -237.105972 54.897758
-8.089936 -238.422928 56.410080
-5.251473 -241.096085 53.584167
19.707314 -239.819199 55.532646
-1.136158 -239.994904 56.063221
1.366477 -239.831009 52.623653
-17.022045 -240.139481 56.957481
11.251217 -235.899734 55.302612
-10.682041 -240.942307 55.252129
-3.097104 -237.117783 59.469128
14.029488 -237.065231 55.244633
18.360661 -240.712189 57.493019
12.338370 -247.521896 52.921051
23.909462 -248.392517 56.853756
28.494993 -250.656860 51.891953
27.043861 -249.870712 52.909710
16.218452 -249.355621 55.446224
29.042290 -249.765488 52.594471
-12.454885 -249.787811 54.043804
-15.541437 -249.566986 57.585144
-12.317509 -254.147736 51.795437
-12.618976 -250.453766 52.274200
27.393072 -252.969849 57.375309
27.006746 -255.166214 54.392475
26.044668 -254.195557 54.858452
-17.528118 -260.873383 53.602879
-16.080078 -253.241913 51.155945
-12.478795 -255.326660 54.194057
-12.082303 -257.700745 51.768116
-13.511919 -261.853760 53.518902
24.273054 -257.720764 54.468014
26.869925 -255.738602 56.170795
-14.685349 -258.196381 53.399208
29.533901 -265.158142 56.615730
26.769655 -260.057251 56.673561
-10.132257 -254.490799 51.386841
-16.826015 -261.429626 54.438400
24.527725 -264.088867 54.005276
28.758680 -259.843353 52.612358
25.569527 -268.864166 51.883274
23.068960 -263.658295 56.208939
-7.268748 -265.587677 55.072052
20.281712 -271.423950 56.818027
24.526350 -268.195068 56.878990
18.866209 -270.140686 57.274281
24.762165 -268.481934 57.875427
25.176365 -272.717712 55.988525
-5.984679 -274.392670 50.976753
-8.340328 -272.790253 60.823864
14.927613 -276.574890 55.447346
20.416451 -277.432343 58.171169
22.173950 -275.839264 56.121677
16.830362 -278.077515 53.894211
22.593349 -275.884491 52.541340
23.737635 -278.429138 52.073696
19.171629 -274.847565 52.083733
21.666227 -274.533997 50.231316
19.210464 -278.939026 56.044281
20.391058 -279.222321 53.325233
22.244263 -279.260437 53.569092
28.498781 -272.808777 58.891357
-9.470749 -280.154083 53.397446
-7.395234 -276.145599 56.425331
-6.913535 -278.456390 58.739029
25.549986 -282.850800 54.316681
0.801572 -282.684967 55.219025
19.004761 -285.758789 54.757381
24.624878 -281.220947 55.103230
13.394006 -286.594147 51.199123
17.343685 -282.176086 54.464691
10.553176 -284.068146 54.688046
-5.269867 -284.297119 54.053490
1.893261 -283.423553 52.648758
18.709709 -289.147034 54.924137
10.664571 -287.235474 53.765797
9.906032 -285.024506 56.504131
13.960691 -286.602997 55.477669
4.363242 -291.241394 58.633980
4.889070 -289.544189 54.494835
-1.406536 -293.743011 51.067589
-1.003062 -292.278046 56.628685
5.016749 -292.591858 54.672497
-2.529400 -293.230377 52.904808
14.756099 -293.329041 54.873493
17.730137 -291.591827 55.466583
1.666142 -293.108673 55.994667
38.644222 -12.520456 53.645439
28.690096 -11.772066 51.342426
37.658852 -13.673284 55.103642
31.052778 -15.948177 53.464588
43.861454 -15.893456 51.047894
23.121609 -19.560789 53.036617
47.806499 -12.861952 52.773548
22.913973 -18.785383 49.870430
31.913494 -20.195837 55.468262
48.316723 -17.544022 58.473511
25.840961 -22.655083 50.690529
41.259438 -19.476366 54.574448
49.307281 -22.385466 57.480431
44.112041 -24.705059 57.338959
23.581505 -24.380203 52.650021
41.426498 -20.030621 50.857201
49.933407 -24.029285 53.637890
41.903572 -27.036844 53.458786
21.000921 -25.174370 50.207710
21.729662 -29.835064 52.660709
24.552095 -27.571949 53.657497
24.688978 -27.011648 53.365215
46.665810 -28.738026 52.615891
49.425552 -27.659903 53.052738
21.282091 -29.695303 57.335674
51.075344 -34.755955 57.036793
24.026306 -25.519625 54.774799
22.580803 -36.008602 55.858181
27.158037 -29.548296 52.367886
42.478851 -32.538864 55.255478
17.524809 -32.098537 50.391830
31.595312 -32.636047 52.132656
30.593363 -38.731125 53.272564
40.830704 -34.447147 49.500713
38.299564 -32.240051 51.308353
41.233337 -31.616659 54.389282
23.695499 -34.194973 55.437004
29.452377 -37.619030 54.442493
32.446247 -41.402622 52.171474
27.225189 -39.553314 52.995743
28.894041 -40.402138 56.177315
36.194099 -40.646461 51.836929
36.076477 -42.362316 52.244019
-66.158531 -39.190876 52.058853
-90.202484 -46.789593 54.827923
-43.893822 -49.574345 52.813114
-31.270754 -48.038036 57.624901
-21.098684 -49.891132 51.279736
-17.675383 -55.448101 49.880898
-17.705971 -50.356888 53.389126
-94.678375 -55.558979 49.928932
82.884018 -58.970383 55.342747
78.243927 -53.618004 53.796902
-59.753124 -58.862999 56.217304
-11.003364 -54.747822 55.086124
80.677910 -55.594002 51.593536
84.610840 -56.616291 56.856308
89.178566 -57.299446 50.186886
-10.242470 -59.841839 57.684734
-65.742004 -56.248154 53.445999
93.909920 -60.004719 55.354710
70.613556 -62.250420 51.653927
101.717529 -60.749020 54.912518
-97.675125 -58.094070 52.420834
-60.136177 -58.311646 54.817310
103.353539 -61.610138 53.723770
-61.893688 -67.952744 56.933422
64.282402 -68.075813 53.761806
101.671043 -65.747406 52.721714
67.226532 -70.023445 54.436535
-36.649948 -67.339478 54.339481
74.742966 -69.759094 50.334003
80.151772 -74.282562 50.044975
80.230698 -72.995239 50.446293
67.367493 -70.343636 54.089836
67.244766 -73.113678 49.823254
87.542839 -70.324837 55.419090
96.219421 -75.763107 54.234356
104.413834 -78.763115 52.920002
97.393341 -81.765167 52.479145
98.167786 -77.705994 52.439415
-100.516655 -78.922714 56.531750
59.681240 -74.845192 55.712555
-51.938892 -84.947670 53.887875
98.628494 -82.074463 53.730698
107.648468 -85.157883 50.778606
99.449112 -89.205956 52.809166
57.164162 -88.985893 53.367050
106.891747 -86.431313 50.725769
101.831215 -95.161392 53.903164
103.120201 -92.361000 49.968681
101.387672 -92.855988 55.855381
100.321320 -98.235413 55.423641
-61.697105 -105.402008 52.629707
-60.596638 -103.283501 54.429531
-97.148727 -103.670258 58.319851
-71.691315 -110.436485 52.793053
-100.241074 -112.621948 53.497681
-62.506054 -116.301231 56.550205
-96.098145 -115.568321 55.454491
-93.471527 -119.261101 49.579617
-93.835686 -119.891235 55.461655
-89.481659 -117.209946 54.647648
2.644317 -232.211533 56.715603
-1.601338 -233.183487 51.576923
-6.587286 -234.234482 53.367542
0.832905 -239.073349 50.632343
5.973220 -233.181824 55.086864
9.048895 -237.508087 55.140675
8.798227 -240.411255 52.483841
1.622510 -236.764359 53.647099
15.895716 -236.839767 55.178246
19.784451 -240.248596 55.759830
-1.370705 -234.408051 52.468300
8.198636 -242.405701 54.617111
13.082710 -239.309875 53.853924
18.855932 -238.113342 52.736546
-2.532593 -240.761856 51.337025
10.226988 -241.737946 53.585514
20.509367 -240.252853 59.049477
5.129402 -240.600098 53.090984
-12.765399 -245.368774 57.054935
-10.748718 -243.995331 53.643768
8.563604 -241.224808 53.515244
15.351216 -244.235474 56.786602
17.975712 -244.062302 55.105671
21.631336 -245.688980 58.639862
23.956272 -241.189468 55.621365
14.740858 -245.937119 52.635597
-14.451210 -246.080383 54.338764
22.667616 -245.856155 58.206913
-11.610832 -249.545181 55.757748
-13.992225 -246.740250 54.732990
23.632015 -242.648514 55.311108
13.836885 -244.476547 53.456421
17.486588 -246.870453 54.433628
-13.895919 -249.877930 52.378082
30.467127 -248.572678 53.765923
-13.523680 -248.067902 57.740131
-11.762074 -250.569305 51.163826
-11.789330 -252.325119 54.528191
-10.832034 -246.523346 51.448238
-14.418269 -249.194702 54.062908
28.348362 -253.323578 54.908936
-11.607251 -256.733887 53.727810
32.879467 -248.683197 56.960716
-13.717917 -253.534668 50.717430
-15.268734 -247.755203 49.007397
-13.865581 -255.189957 54.906647
-11.730126 -254.760910 54.152199
-11.441808 -252.754761 49.396252
-10.598363 -254.260666 50.169411
26.976446 -251.561172 53.340218
28.572105 -256.488037 48.936165
12.503436 -253.456741 54.700684
-14.666106 -254.594711 52.747852
18.734737 -251.293564 50.792725
16.419512 -256.865845 51.240864
-10.660110 -255.524780 59.119801
17.770439 -261.410431 53.527927
17.375969 -256.294189 51.618462
20.689898 -255.165482 53.169495
7.853071 -263.874786 53.346733
-13.678823 -264.107361 58.185383
25.852367 -262.841583 54.782894
31.311468 -258.033478 54.351742
19.421965 -260.255585 50.713860
29.874905 -264.577789 52.443165
-12.299251 -265.528717 49.135986
-13.087561 -261.640564 55.116123
15.939035 -262.990204 51.417995
-8.945132 -260.610016 55.315044
3.388675 -262.561981 53.100983
31.001219 -268.317047 53.439247
-2.095552 -270.633301 52.657475
27.664999 -268.589417 47.598408
-11.438990 -268.811554 53.777412
-11.437383 -264.261047 53.708534
0.223873 -261.352112 51.919796
27.634470 -267.110809 57.764938
8.448149 -268.963135 52.953991
1.141488 -273.685791 53.067249
7.219280 -267.159668 50.753521
11.422934 -269.246155 51.759914
25.644442 -276.986328 54.441460
22.284929 -272.144226 54.157688
27.141727 -271.703552 52.402893
18.632458 -276.905731 52.056835
18.574913 -266.109070 55.115925
16.215334 -273.845337 50.921001
21.691153 -268.862823 56.520592
10.294374 -280.989594 59.393581
-6.562932 -270.492340 53.259762
-6.890846 -270.930389 52.448040
1.943245 -279.549347 53.800674
25.661711 -280.713806 51.928112
13.228601 -284.176788 55.974598
17.482349 -280.498779 50.031677
13.604658 -276.019226 51.786938
20.458294 -278.913879 55.836739
16.711855 -284.530060 54.964233
25.115223 -283.132538 49.559139
20.184614 -281.517029 50.179409
-3.055721 -286.524506 52.888138
7.444640 -282.672943 51.307854
22.278551 -288.933777 56.309334
14.657659 -283.832367 52.834267
1.343066 -289.707703 51.678082
21.202379 -291.419586 54.892349
16.806923 -283.071564 54.067467
13.744048 -287.395935 54.157234
3.090596 -294.961060 52.017117
8.005122 -293.908997 50.815456
13.926710 -291.056641 53.405262
11.247797 -295.273895 53.193306
4.090733 -296.313965 53.438583
4.662825 -295.072845 56.605484
38.876251 -17.730740 52.799076
39.837425 -12.332282 48.121468
31.073315 -13.868034 48.602573
39.894699 -17.695040 49.225456
33.544979 -10.887031 50.936470
41.357250 -16.074774 47.800419
30.971426 -16.897915 49.706497
25.860168 -13.632840 54.158314
23.491117 -17.287621 49.124084
27.702772 -15.262995 54.310230
39.336926 -18.881865 49.086250
45.653721 -15.682453 52.406731
23.161627 -20.717104 48.831169
48.282684 -21.400167 50.329582
48.590439 -22.538736 53.071266
52.665924 -24.710297 50.495689
52.699333 -30.260408 52.761055
41.220421 -27.934559 49.438339
43.226959 -24.944862 53.119247
43.299782 -34.228825 52.056995
47.576572 -30.083935 51.531723
44.257523 -29.951296 50.298897
42.641674 -35.432835 51.541580
27.259653 -35.106716 53.610966
38.006508 -36.418697 50.517139
38.399757 -39.647217 55.123299
29.995348 -35.572975 50.463966
37.385025 -37.250359 48.197010
44.688339 -33.773834 49.891891
45.822155 -37.799744 58.349506
31.964088 -37.204922 56.051491
44.910267 -38.728378 46.654213
37.454735 -36.090107 51.471050
-80.534981 -45.056664 52.425568
-91.982147 -48.920315 50.153152
-32.755741 -45.235340 51.498993
-5.646574 -55.003403 59.684010
-95.187103 -53.161152 50.768131
-5.222120 -49.729790 47.866009
-68.005104 -62.236908 55.601215
-98.501778 -57.711548 53.534157
93.491776 -58.246086 51.080566
-29.139027 -61.780849 55.710434
-55.824574 -60.030342 55.956402
62.448360 -62.416553 57.799049
98.350800 -59.588947 49.882687
95.281662 -63.610893 59.709064
-62.366226 -60.576118 52.507492
-100.292473 -67.455711 57.927612
65.118385 -66.908646 52.242115
87.284203 -67.046974 51.729774
63.487770 -64.666878 49.445007
72.681496 -69.560211 51.394527
103.438751 -66.466843 54.224686
78.305222 -69.679497 50.240131
90.876244 -67.550842 49.983971
63.971096 -75.353325 51.659859
62.551765 -70.710800 51.382889
103.871246 -68.895432 51.700035
99.853958 -74.560234 54.143635
106.318542 -73.601646 52.996391
86.950478 -70.659370 51.465504
-38.127029 -85.008316 51.451172
101.572304 -76.571754 55.826477
66.239380 -69.708794 46.967636
100.842911 -86.023567 54.377464
59.187355 -84.163170 54.947289
100.981979 -85.001678 53.933392
97.169861 -87.419830 50.629520
101.537621 -80.131866 52.361259
95.566902 -89.575409 47.787395
61.992401 -85.606308 50.555820
65.726471 -88.026909 54.511185
103.572151 -91.475670 53.589893
62.416225 -94.389954 48.765350
-71.727753 -99.716476 58.932037
66.769325 -97.360329 54.136883
64.759895 -103.082298 49.009068
65.018311 -100.266685 54.343925
-100.674515 -103.322014 57.707935
-75.761742 -108.112137 47.917027
70.456726 -109.901337 51.458679
67.635406 -102.819206 57.401669
75.981735 -107.332970 53.927330
-68.691139 -106.802132 52.212490
-70.292175 -107.364464 52.490616
-75.434029 -114.071236 53.125202
-98.117119 -121.661942 56.022545
10.388721 -236.677094 49.842266
4.975243 -236.220779 53.072590
11.386918 -234.943588 53.945595
9.412148 -230.998688 52.167133
3.723345 -233.595306 49.516975
9.325163 -237.476074 53.133083
12.604418 -240.562805 50.357738
16.165396 -241.703079 45.589222
-6.926720 -241.894791 54.665070
7.934030 -239.961639 50.878799
19.092073 -241.274979 51.431335
28.613937 -241.049683 50.758369
-1.046146 -237.785492 54.159603
1.695949 -239.420593 51.589142
15.078373 -240.974503 55.706459
16.110195 -241.446335 55.367825
8.941081 -240.149963 55.141418
-9.472601 -242.917145 48.715260
-6.165466 -245.172577 51.974613
-1.116076 -245.383118 50.888195
1.473844 -240.809830 50.902744
5.546916 -239.904953 53.160294
23.573856 -241.200531 53.239410
18.956692 -240.870361 52.089058
17.606987 -245.406006 50.005539
15.617290 -246.010391 50.381992
18.284039 -243.363602 51.513256
8.605819 -244.275162 52.113956
11.116014 -244.242523 54.583496
1.731641 -244.197632 50.854958
22.902937 -241.409271 53.596985
-15.241909 -244.418137 50.698784
1.689226 -243.542953 52.080376
17.704889 -243.140533 52.336323
28.189802 -245.422180 51.161610
-8.107139 -245.347275 53.918179
-6.893881 -247.387451 51.701744
23.201607 -243.431610 48.496735
-8.870451 -247.643799 51.366192
-10.126042 -242.032074 50.407143
-11.109071 -245.653534 55.063438
26.968576 -241.445251 52.811165
20.115797 -248.697556 54.490238
27.303482 -245.243469 52.783783
-13.531253 -250.215073 53.295048
-9.655802 -248.364395 51.016716
-3.204812 -250.792419 50.184067
-11.692369 -249.433258 52.030487
-0.804506 -246.572159 50.185665
5.939531 -245.624725 52.130333
-16.396334 -251.865646 49.178444
-9.777817 -247.331635 55.239254
16.363907 -248.802826 50.098675
-12.045338 -250.503067 52.361336
5.943323 -252.416840 51.668602
3.544549 -251.913406 48.967102
16.458536 -255.396622 58.005886
30.810183 -248.097672 56.502575
-13.552137 -253.730438 58.671577
-9.530831 -256.606476 53.692665
32.824375 -249.851379 54.976414
-8.245270 -252.934784 53.771240
8.254830 -254.063110 53.012676
27.493006 -258.075867 50.636997
-2.987462 -255.989548 52.990658
26.659582 -253.042130 54.650520
30.606104 -258.166656 58.148281
-14.557536 -254.118484 50.151562
26.581507 -259.280060 48.787453
-5.740300 -258.680786 49.737255
-4.936279 -253.037781 56.457886
-0.579868 -255.287796 55.796143
3.154074 -259.862000 51.900761
32.926701 -257.621643 52.183372
-0.611511 -256.422302 51.692600
22.810354 -264.417725 53.591995
27.831566 -263.771729 56.423111
-4.436047 -262.175873 48.757286
17.737385 -260.809265 48.468815
-4.242161 -276.400604 52.891766
7.652047 -273.950775 53.190166
15.786926 -269.819580 49.748306
19.605850 -276.028351 49.907433
5.083554 -276.594147 50.689583
0.207617 -276.999084 49.876251
10.301219 -273.620453 52.596390
23.143608 -275.984131 51.783691
-2.888181 -271.809814 53.371414
18.975786 -273.155273 53.220905
20.136438 -272.779419 53.096027
25.312187 -282.047333 52.758904
4.865881 -276.655090 47.259754
13.284071 -275.835022 47.708759
21.054653 -282.071625 51.266773
18.675018 -282.822754 52.178288
22.650934 -289.557190 54.203026
13.409185 -281.588287 56.000408
5.092159 -286.353760 50.681767
24.878170 -290.359741 51.155640
17.898130 -292.296722 55.713169
17.967636 -291.953644 55.962364
18.391041 -291.066132 49.106277
15.967596 -288.873016 55.731178
15.921045 -296.337585 49.841686
10.361227 -299.044342 53.580055
2.707479 -292.865082 50.897102
5.291292 -296.919861 52.717995
9.787761 -293.619141 51.751148
-75.703339 -42.960278 50.179272
-82.437103 -42.678299 52.247581
-50.137489 -47.832222 51.964325
-92.597214 -48.205730 48.093304
-33.952751 -49.940830 48.158104
-27.588274 -50.640759 50.134136
77.788109 -52.838287 55.179096
78.751396 -58.006149 48.399864
-61.143574 -56.105228 52.406330
-10.787878 -58.935787 47.849010
83.290550 -53.782307 56.674049
-20.243898 -62.624096 52.600555
89.559456 -56.828800 52.102524
-22.051533 -58.462364 46.993862
-58.031708 -61.358231 53.282417
-28.333483 -57.160286 53.790695
-65.877625 -65.048187 53.853573
-62.254154 -66.599365 53.595959
67.212418 -65.529236 51.855217
86.389740 -70.858093 54.718731
101.455917 -64.732819 54.667576
73.953308 -68.861397 47.049316
-37.520248 -70.038078 50.353317
77.508133 -64.194275 51.968040
89.792831 -66.923149 51.468796
67.407570 -67.249313 48.797825
101.631058 -73.093788 51.978054
96.043610 -73.454773 52.049862
100.570549 -75.969757 50.392933
-43.831661 -78.157028 47.652607
-47.684952 -76.171242 49.015892
64.709740 -75.339844 50.845573
61.171192 -86.238770 48.067272
63.258167 -83.359825 51.908199
-100.180183 -86.488731 55.562492
64.221359 -88.583954 50.291176
62.323261 -90.565224 47.888596
59.918011 -97.845016 48.071934
71.294464 -94.984329 50.665539
-75.201340 -97.746689 50.008266
-103.299271 -113.169289 59.017178
81.838425 -106.702965 49.564556
70.059006 -105.164063 53.205009
-95.157684 -105.692299 53.191879
77.846657 -108.378807 49.766190
-97.289581 -114.554771 56.482101
-81.698578 -115.762970 52.708134
-95.004730 -117.098785 50.890869
14.843639 -234.653549 51.377571
13.178077 -233.387100 53.448891
19.013845 -234.680161 51.644337
18.066425 -241.200409 52.889961
18.755894 -234.684601 49.983730
22.772446 -236.984802 51.358097
5.091573 -244.465576 57.456322
6.457798 -238.900101 54.679340
23.865402 -240.596939 52.250866
-6.394185 -243.619064 53.309616
15.490272 -237.253647 50.353992
14.978936 -243.421906 50.068684
24.619061 -241.476929 50.705917
7.871467 -240.150589 47.115608
-7.374866 -243.743149 52.269520
-9.327998 -239.147629 50.639889
1.504593 -238.312729 53.000328
-13.551504 -250.676178 50.928558
1.283063 -242.671158 53.052944
-9.407154 -241.778778 50.651855
11.192218 -239.737259 49.475708
16.193857 -247.268753 52.617989
-10.432340 -244.063675 53.534943
-10.803870 -248.336563 49.847759
-8.083672 -243.815765 46.952175
-3.008139 -254.574768 52.594555
17.871462 -248.171997 51.888836
9.066210 -249.925507 50.273773
20.762419 -246.828506 51.649136
-14.549507 -244.136093 49.107750
-13.405625 -248.769089 47.075050
21.705605 -247.869049 49.630211
3.867451 -248.696198 51.004860
18.026937 -251.789505 48.080837
-10.251581 -249.448212 53.465164
2.547923 -257.650940 48.246929
-6.509167 -256.984314 48.436115
14.986041 -259.363190 52.136436
14.115753 -259.600922 54.083199
26.621038 -255.333054 50.207962
8.883058 -254.005066 51.903320
22.971901 -252.253967 54.579960
3.209786 -256.867035 49.185570
-5.055148 -257.421600 50.259960
18.668362 -260.146606 50.977459
0.555658 -260.015778 49.201839
11.187518 -260.054382 47.458862
20.060791 -259.958466 52.857841
-0.993058 -259.530975 50.424259
0.394059 -264.951904 49.364479
9.370221 -265.097717 49.169910
5.644486 -272.656647 54.646172
12.400835 -267.489014 53.595741
-0.433781 -272.274048 50.513313
17.404348 -274.428131 51.962189
13.792242 -267.864563 53.553600
-1.082446 -266.772369 49.577999
11.163435 -276.089478 49.270550
-61.280743 -42.589451 46.192791
-52.907310 -45.246933 52.423607
-47.384754 -45.943142 56.712368
-22.721029 -46.065418 52.212883
-18.233355 -51.074657 52.728001
72.774605 -53.621113 49.248035
83.149811 -55.910313 48.942074
-64.828178 -58.760399 52.554585
79.142807 -53.254742 50.633427
-9.473506 -58.801567 55.296635
-14.547100 -61.332672 50.875904
83.759109 -52.860683 52.836514
94.414261 -56.928188 58.708160
-64.338676 -58.891445 50.597023
74.352150 -59.911678 47.761742
68.431892 -66.705734 52.184990
73.387482 -62.423512 48.969864
87.879265 -65.306870 49.129219
102.801048 -72.152855 53.281826
66.841591 -63.592663 52.638420
68.147186 -70.010773 50.674355
87.429543 -68.105896 53.082783
99.191223 -72.272606 47.869198
92.347374 -72.419823 41.747532
62.943729 -71.067291 50.349125
-103.951035 -79.421555 45.979950
57.194202 -75.014122 50.485802
-42.738049 -79.338943 46.357758
65.092812 -84.517609 49.679008
61.977024 -77.342880 48.315170
-54.691139 -82.104156 54.150398
-55.904652 -83.733513 53.091423
64.370720 -85.465324 50.646297
61.285175 -75.437080 49.895168
61.025455 -89.137215 52.464222
67.136818 -91.825768 50.205357
62.644333 -84.566788 48.553932
66.398827 -88.218987 52.719543
59.067860 -90.489548 51.032310
-100.218658 -91.775291 50.633102
65.245300 -95.685806 51.432613
68.501183 -96.544670 53.520710
-100.520424 -96.699562 52.445862
63.503357 -96.082321 54.065792
61.785194 -98.081703 49.891209
-66.540184 -95.369522 56.247204
69.371017 -103.457710 52.865295
65.614357 -101.231361 49.006969
-71.131378 -99.769325 52.367889
61.997753 -105.472420 50.520451
69.807007 -107.819061 52.137535
74.079498 -106.740395 50.828327
67.167076 -106.817284 51.356903
87.529144 -105.154633 52.568710
83.095512 -109.625587 51.747280
80.249176 -104.864838 48.042114
-83.929123 -115.966820 54.670380
-86.778252 -118.687042 51.654442
-88.696808 -117.937988 46.433285
-7.612765 -236.607361 46.390404
-5.379245 -246.622940 46.518604
-7.704697 -242.821213 51.124767
2.208293 -243.776764 49.416294
-5.507952 -249.413193 51.221855
-2.141392 -249.153625 50.555027
-3.851755 -256.572906 45.981632
-78.019157 -43.577347 48.650700
-55.567829 -44.495750 47.227020
-56.596592 -46.506252 49.222092
-85.297646 -48.367825 51.629822
-49.651539 -48.603416 51.818867
-61.472378 -51.415028 50.330025
-40.532597 -47.442791 48.828293
-64.055557 -50.374603 52.463352
-59.562263 -49.442051 51.952736
-65.118462 -60.047325 47.634407
72.036499 -57.110321 50.563675
-62.104660 -54.561459 53.097256
83.076172 -53.571674 50.927170
94.398056 -57.348511 51.208561
83.648514 -59.966469 45.928505
72.061348 -57.095295 52.964825
-59.351097 -63.964149 50.262718
97.086723 -60.871178 53.576591
72.435356 -61.543316 42.376118
61.268288 -64.129974 48.916744
84.735458 -67.178200 46.368370
66.092171 -63.167652 50.194855
68.791405 -64.392693 50.826847
66.923737 -70.387802 50.750538
89.411453 -65.083237 47.700790
65.299187 -69.069641 48.630917
96.564575 -66.717049 48.915005
89.313080 -68.914932 50.074295
70.986961 -69.135735 46.403503
96.386024 -71.089684 51.393044
65.583305 -72.966766 50.412434
-37.353504 -71.294930 52.348362
64.039139 -75.312088 52.090851
61.323772 -73.638062 50.834522
67.366379 -79.342407 47.374176
-45.666668 -83.483376 51.425930
64.106598 -73.789177 47.889175
57.196480 -79.048409 46.230042
-51.831764 -85.915436 54.193031
59.695900 -85.286385 47.270844
59.041824 -79.042000 50.040768
69.226479 -80.321419 47.469620
66.113968 -84.370003 51.238766
59.784275 -83.951668 52.304089
63.817581 -86.750137 49.131859
65.366966 -86.231705 48.372856
63.315666 -88.611595 49.734035
67.551384 -91.400490 49.781879
59.395039 -85.560890 48.125519
64.747841 -83.745392 50.859509
62.698696 -89.356834 46.413311
65.218277 -89.160622 50.855228
66.923645 -88.852882 47.828327
66.215523 -88.856346 51.344597
70.967369 -88.945183 44.687584
60.064674 -89.785706 50.425350
-64.198601 -88.490173 51.425266
61.864723 -91.442055 52.508610
68.631500 -92.978951 49.958897
-68.562172 -99.027351 48.491325
60.599445 -93.151649 46.878902
66.675041 -92.581963 48.007187
62.726826 -92.736855 50.824333
66.987480 -96.051926 47.926460
-72.957146 -97.016045 52.233780
65.222580 -97.428856 53.382561
71.212616 -99.403374 52.061878
73.207146 -99.342300 50.768463
70.662872 -99.610802 48.983173
68.530991 -96.436035 48.483395
64.088196 -96.166603 44.851345
65.625587 -98.017296 50.131260
-99.289413 -102.003952 51.369816
61.214321 -97.496704 45.678921
72.445206 -99.863808 48.816334
64.672989 -103.594177 49.537594
94.668533 -105.761368 47.366543
-81.780800 -102.227753 47.582703
73.597153 -104.826096 46.835022
70.289848 -102.922516 48.284870
73.819321 -102.941414 51.338455
-78.933571 -109.929024 51.082253
72.495125 -102.385002 42.722565
64.304199 -108.082443 53.993347
76.196075 -110.397774 47.744328
75.378082 -109.166145 42.691910
78.816460 -105.836632 50.173138
92.031059 -109.798897 51.286060
-76.724442 -112.036049 54.675968
84.892937 -109.857872 52.834614
69.946838 -108.862801 48.688946
-81.749466 -109.508430 51.066025
71.477707 -105.748619 50.762432
82.790009 -108.684937 52.335659
100.677948 -109.339935 46.948853
74.798019 -107.281120 52.722160
80.201012 -111.722534 48.540302
83.213600 -110.549339 48.442776
88.439972 -115.330460 51.048908
86.822365 -109.764305 51.142612
-94.128372 -113.063309 52.756706
-83.933350 -45.615097 48.714516
-43.468067 -47.015591 48.353657
-58.893837 -51.860901 48.220211
-61.407539 -49.239155 51.711540
-40.304607 -47.384899 48.205227
-29.738508 -47.739552 53.469624
-23.705008 -55.260918 47.909920
-19.920477 -50.095791 46.659355
-9.924428 -48.098400 53.264675
-62.959808 -52.932423 50.736095
-85.655380 -50.309662 49.957432
72.148842 -54.127193 48.409721
-92.729820 -59.581894 49.898647
-63.331921 -59.703350 44.975044
74.659294 -55.532593 47.374680
82.055664 -56.084702 45.743378
83.856583 -55.927231 46.966137
72.510422 -54.682758 49.434032
74.208443 -62.190090 47.842758
92.706947 -55.191921 45.117233
76.399063 -53.770977 51.416965
-95.977547 -59.986481 48.267559
-93.501434 -66.610527 50.590370
67.736244 -59.057186 51.253178
75.746437 -64.073433 48.705177
-31.186432 -63.285820 49.411793
