# This PCD file was generated using the MATLAB® pcwrite function
# from Computer Vision Toolbox®.
# .PCD v.7 - Point Cloud Data file format
VERSION .7
FIELDS x y z
SIZE 4 4 4
TYPE F F F
COUNT 1 1 1
WIDTH 1482
HEIGHT 1
VIEWPOINT 0 0 0 1 0 0 0
POINTS 1482
DATA ascii
21.887016 -150.842102 64.957748
-96.525826 -146.197739 65.111679
18.035072 -151.085709 64.347496
-94.894783 -151.948853 62.666500
-100.010559 -152.568634 64.257103
-98.594261 -154.848770 64.286835
-98.481995 -157.559219 63.715366
-102.392685 -159.669952 64.914215
-100.027672 -161.581131 63.590401
-101.463493 -159.561478 64.460121
-104.863358 -167.439056 65.424332
-103.507675 -168.434982 64.216148
-108.943573 -171.893875 65.880028
-104.846786 -168.872177 63.618450
-106.884125 -175.464432 65.459526
-106.071022 -171.944595 63.140347
-142.268921 -174.063217 67.324654
-106.599854 -182.958115 65.510696
-151.477081 -177.720016 63.810154
-143.450882 -180.907425 63.712276
-146.508545 -181.498611 63.253109
-142.837845 -182.789261 63.953712
-141.979034 -187.055618 64.967125
-149.543900 -185.126083 64.490349
-147.144897 -186.921234 65.638603
-150.029678 -192.326965 63.689514
-126.952347 -195.168243 65.336121
-129.919540 -195.555267 64.293991
-124.187134 -196.478195 65.684494
-133.878067 -197.234390 65.055405
-122.379120 -197.408890 65.341202
-140.203476 -201.025253 66.743004
-142.294266 -202.765610 67.868462
-124.012558 -203.660507 65.682510
-151.371902 -205.308090 66.248528
-145.260162 -204.169464 68.231461
-150.120682 -209.912079 65.205521
-148.435822 -209.788696 66.253372
-147.848526 -226.958878 65.028091
-155.344772 -227.999802 64.571442
-140.705124 -230.733215 67.780060
-145.867111 -229.140625 64.001709
-125.069069 -230.474228 63.604000
-156.159668 -231.570313 65.339851
-154.368607 -232.226135 64.535660
-0.007465 -236.251114 61.863064
-3.760046 -236.114777 68.506233
-145.690796 -234.569946 65.204239
-145.746964 -239.895706 63.823242
8.115979 -237.835541 64.582672
14.750461 -239.480103 63.345654
-7.490879 -240.862411 67.146385
18.571493 -240.320023 65.895294
-147.071396 -243.499512 65.129341
-150.485275 -239.339859 64.105667
-7.767988 -246.163177 65.149147
20.118805 -246.259949 62.765396
-148.028946 -251.911591 66.228462
-6.082695 -247.090134 63.860851
-150.465256 -251.408646 65.131325
-153.858032 -252.044296 65.311356
-151.232178 -253.208374 63.203503
-147.933395 -252.404465 65.627525
34.312401 -254.943039 65.132553
-153.459824 -255.684143 64.131035
-147.853958 -254.524780 61.748409
-148.425644 -254.962784 62.552048
-149.913132 -256.097351 66.115387
40.563156 -253.235107 65.390678
-152.867523 -256.757538 63.927773
-152.491776 -255.723145 63.642273
2.270770 -258.316681 65.321129
-156.071274 -257.879822 64.631516
25.436743 -257.612671 63.514404
30.967321 -257.831177 64.597336
-146.421890 -257.837006 62.493797
-145.712555 -257.217224 64.865639
-143.954041 -260.795166 64.614502
-152.136292 -259.091370 64.065300
-143.310806 -260.253662 64.372437
-153.876251 -259.675629 64.042229
-147.522461 -260.324036 64.658775
-151.894531 -259.629089 63.717915
-154.458298 -260.374237 64.385353
-149.431961 -260.532776 64.774910
-145.129700 -260.684143 64.789833
26.399214 -261.512543 63.436241
29.287373 -261.911499 65.298737
-147.612610 -262.451630 65.043335
-144.178223 -262.823578 64.307762
-152.088272 -261.908600 65.356972
-149.887558 -262.674713 64.821129
-146.347549 -260.773224 63.966000
-147.130112 -264.842438 65.950630
-150.242233 -263.261017 64.558830
4.212004 -262.858246 64.823753
5.071813 -268.512726 64.787773
-149.096756 -264.184387 64.828171
-150.393539 -282.511444 65.213936
5.788549 -272.591858 64.364449
-150.682785 -282.097260 66.263176
-148.850693 -279.372864 65.280266
17.182276 -282.090485 67.156685
-146.921783 -282.012177 65.179581
-152.752106 -283.309875 63.784904
-147.560379 -283.932068 64.608437
-0.902640 -284.124023 65.458298
13.005320 -288.608368 66.539536
7.342480 -290.368011 63.581753
-152.411743 -293.895264 66.802872
26.268085 -12.657148 65.943710
40.383900 -16.531128 63.097630
48.867413 -18.240656 64.959724
49.142841 -24.170929 56.793579
49.674259 -24.719107 61.910275
44.393257 -27.626034 62.416096
41.635559 -31.224682 65.234909
21.110779 -32.707844 58.207310
22.864187 -34.009117 62.260860
25.535831 -38.424755 65.356804
33.496311 -38.226807 60.412838
-47.607101 -44.028633 65.395638
-41.507156 -45.727890 66.043808
-87.929840 -51.535896 67.184090
-89.618927 -51.917931 61.302929
-90.348633 -54.819763 65.994499
-7.776040 -60.260857 62.185482
80.712402 -58.281307 64.674789
74.625092 -59.667072 64.953758
91.580345 -60.649487 64.968620
74.412285 -59.607113 61.466740
74.859337 -62.303738 64.795204
70.693748 -63.146160 67.097717
-12.184841 -64.429420 65.614540
-96.186188 -65.923462 64.396790
66.822060 -67.414070 65.204018
66.230484 -68.928101 65.299751
-29.114777 -73.845642 66.672386
-30.389069 -75.912796 67.530754
-53.226433 -77.488907 63.550907
-55.500019 -78.859169 63.950085
-59.365108 -80.826195 63.791023
-52.503826 -79.831017 63.313091
104.469147 -79.546478 66.180634
64.302849 -80.998268 65.628853
65.789612 -80.365166 64.208984
105.049934 -85.100327 66.779907
-63.166348 -83.533165 63.544205
104.139244 -88.283562 65.028122
63.086891 -89.328835 64.915794
64.657906 -91.375618 62.921642
57.649651 -94.792587 63.621544
60.624435 -89.183647 62.425526
67.285370 -89.380295 65.992180
102.873413 -92.588264 66.713768
52.353836 -91.468475 62.137058
-68.172234 -93.620544 64.980820
55.855072 -94.582199 63.658482
-67.288918 -99.830406 64.939217
-70.980118 -101.428284 62.525562
68.645744 -97.658455 65.166077
69.271774 -102.376129 63.629642
-72.049873 -107.232521 64.842613
-99.154457 -104.956001 64.720978
86.827911 -106.521423 65.728935
94.404984 -107.825211 60.933743
-65.917618 -110.424530 64.140320
-60.986279 -110.952995 64.649971
-69.227982 -109.577835 61.147762
-81.312927 -109.264313 65.564064
-65.557343 -111.932083 63.917213
-85.436508 -110.483040 61.127079
-81.117943 -111.001076 61.711826
-60.641174 -111.307777 63.556431
-66.232750 -111.502380 62.166969
-79.274696 -116.168533 63.691299
-76.264458 -114.855072 64.036049
-79.854889 -120.456749 65.568123
-65.410751 -120.177971 65.663811
-76.943687 -115.995934 62.905727
-56.336536 -120.237358 64.479927
-89.263550 -120.668945 62.070171
-68.951950 -118.746475 63.182049
-83.080711 -123.031685 65.916672
-75.591896 -121.741737 63.284672
-64.627937 -122.873138 63.564922
-55.251740 -124.550278 64.127510
33.603043 -126.283600 63.748558
-63.447617 -129.419495 66.673210
-53.385841 -125.174622 63.323864
29.567122 -127.058693 62.937141
31.099083 -130.492050 65.556793
34.152523 -131.593445 62.815308
31.776186 -131.509827 62.918480
-62.910240 -132.426376 64.417465
-54.294971 -132.120972 62.345665
-60.551060 -134.157745 63.415482
31.560917 -138.127609 61.468513
22.382931 -138.407562 62.755379
19.741020 -140.225281 64.492401
17.161419 -144.944946 63.945641
25.330679 -142.495331 61.993534
25.952673 -141.575211 63.693851
18.394169 -144.391342 64.799072
-146.398621 -175.276108 63.599659
-144.392242 -175.184418 63.700680
-150.086380 -175.742111 62.701092
-144.705048 -176.563736 62.670822
-149.843002 -176.356613 62.883186
-153.619324 -179.364594 64.375175
-149.361893 -180.748856 63.383137
-144.863586 -186.328323 63.075924
-145.720627 -193.812119 66.459999
-144.832947 -190.437103 67.199310
-146.862091 -195.585892 64.285667
-146.049057 -198.464249 63.893044
-124.583885 -197.067261 63.694000
-133.205536 -201.928696 62.963242
-124.932045 -200.360275 64.517746
-124.950729 -198.247803 64.488342
-140.129501 -199.185272 65.041756
-142.906616 -205.183762 63.498863
-151.041061 -203.798447 62.761234
-149.657471 -204.476746 62.100857
-144.790939 -208.863358 66.130966
-146.877090 -218.187729 63.435314
-149.952148 -222.540558 64.234787
-144.756119 -224.506485 64.116196
-147.886948 -224.114563 62.502438
-151.124908 -223.620712 63.534313
-150.668427 -227.450348 63.778992
-145.538635 -227.398422 64.597923
-153.659302 -227.753067 61.820469
-141.296387 -227.541931 63.524899
-151.469788 -227.635605 62.402866
-148.984756 -227.878967 66.074127
-144.806961 -231.805634 63.104836
-152.709885 -230.511765 63.259319
-148.105347 -230.492584 63.131527
-154.302979 -228.759232 64.842300
-141.967972 -231.399811 64.848984
-152.674850 -232.044647 63.411144
-148.032043 -232.507629 62.361168
-150.035751 -232.453796 63.452061
-146.170593 -231.785965 65.857170
-144.531464 -232.763107 64.240875
-152.625046 -231.253830 64.826378
6.220505 -238.946609 65.789642
-7.810216 -239.385254 66.621841
-147.196320 -233.457764 64.197380
-149.624466 -234.362411 65.760689
6.069516 -240.552917 62.076321
-149.790497 -235.924133 63.086979
9.543788 -243.761261 65.069443
-150.944611 -245.555573 65.416786
-149.373108 -248.492126 64.675797
-147.700348 -243.758987 63.569946
-146.985489 -252.026154 64.153923
-1.553731 -249.865753 64.061882
-150.099686 -252.989319 63.943050
-149.296692 -250.759674 62.677006
-152.247849 -253.501968 64.683205
-148.927063 -252.181351 63.520981
-147.411774 -254.177399 63.290073
25.268793 -256.238983 67.028877
-142.821060 -257.182861 65.147018
-147.836746 -255.979782 65.740120
-144.703705 -254.752502 64.045517
25.667952 -257.717712 65.935028
-149.621826 -264.576263 63.621483
22.608725 -272.153198 63.012341
5.596766 -278.375366 62.867649
22.293020 -276.748962 66.984596
19.640469 -278.843658 66.813629
17.385563 -284.686066 66.767738
14.211023 -286.478058 68.705414
2.092797 -289.149414 63.421406
6.705447 -290.468170 61.904789
40.159256 -12.191123 65.827789
31.246511 -17.392124 61.193230
42.082840 -19.920122 64.364655
26.171135 -22.812275 63.947117
26.331968 -24.309731 63.108532
48.880272 -30.213423 60.040394
47.392139 -35.443642 61.910755
45.791100 -37.021660 61.181332
33.075581 -37.630329 61.910152
-74.252495 -43.270729 63.199738
-43.468975 -46.075562 61.658710
-38.536613 -45.248123 64.003273
-89.016045 -50.450645 62.526627
-93.493607 -54.541744 61.094078
82.486290 -57.972042 63.323490
-8.944722 -62.569332 66.544037
-19.646507 -66.242111 63.522858
67.224670 -64.150665 60.738274
99.615837 -64.637367 61.970123
101.504807 -68.475662 62.672626
103.094101 -73.604729 63.445004
103.981857 -75.296928 63.644520
-44.884426 -80.429886 64.150146
-47.999329 -81.293449 62.613987
-57.925911 -80.089867 62.711437
62.443077 -80.733810 63.564598
63.078671 -82.286415 61.491249
-62.907341 -82.944023 62.275089
104.386795 -83.869225 62.735046
-63.494686 -85.217590 61.436604
57.781246 -85.532570 63.860912
58.983200 -86.624344 60.272827
51.587013 -90.846176 64.489571
54.845234 -89.457024 60.506149
59.085117 -92.355209 62.474159
61.914864 -90.392395 63.219734
-64.360504 -94.662712 64.298409
-98.626587 -94.573296 63.625050
-99.428970 -100.698441 62.560139
-78.286049 -104.989868 64.651939
82.585693 -106.342712 64.711845
77.229851 -108.406555 63.847649
-83.665207 -108.176025 63.035404
-71.102768 -112.211494 62.302883
-77.499191 -110.655769 60.398560
-77.856888 -110.366127 65.421570
-65.509247 -110.165382 62.375618
-97.806572 -109.104248 60.914738
-81.639420 -109.968079 62.624569
-62.673977 -113.781227 63.957699
-84.488403 -113.418480 62.662930
-67.820572 -113.132973 62.633862
-81.075966 -114.947014 61.322598
-68.806183 -114.109238 63.115414
-65.063782 -117.323311 63.834625
-88.770859 -116.546654 65.212593
-81.312065 -118.037148 61.705803
-79.844658 -113.756081 63.537994
-60.403896 -117.224236 64.031349
-66.822807 -119.599602 61.907391
-83.342827 -117.674408 63.185711
-78.217987 -117.711441 62.930866
-96.050529 -120.501747 64.986473
-94.061409 -121.778519 65.361061
-82.887550 -121.680183 63.245846
38.104179 -121.868294 61.868038
-76.913872 -124.197113 64.329620
35.581158 -124.351814 63.906761
-80.881363 -123.615753 63.135254
-82.337936 -124.485420 64.260902
34.434834 -129.968567 62.737823
-79.273468 -126.053307 62.474369
28.115664 -125.673073 61.889843
-52.021061 -130.424637 65.375946
26.599552 -131.242981 63.034576
-51.376080 -130.954422 63.100510
23.233912 -133.587692 64.083961
-53.170120 -134.984238 62.139660
21.622355 -137.129822 64.245270
-147.457428 -191.391632 61.774940
-144.898254 -192.749893 62.954273
-141.680588 -196.678009 62.090763
-153.105347 -193.595306 63.561951
-151.387741 -193.982285 62.725647
-147.335434 -196.334793 61.339066
-139.768997 -198.427444 65.275566
-149.963318 -198.480438 63.420383
-144.860092 -198.537445 64.752823
-154.134140 -198.734787 62.865379
-148.526123 -200.894516 63.432102
-152.293716 -201.440720 62.510704
-147.073669 -203.290619 63.676735
-152.730209 -201.708679 63.639305
-148.399399 -203.353409 63.029564
-141.815781 -201.254517 63.204792
-148.401093 -203.747650 61.783527
-145.536148 -204.510803 63.717934
-146.543381 -214.895020 62.073692
-150.848175 -210.255310 63.002621
-151.023209 -220.062103 62.376869
-148.997696 -223.173782 61.576637
-145.680161 -221.718552 62.413971
-146.996094 -222.754227 64.539192
-147.252762 -223.005112 63.031704
-144.424622 -223.650696 62.132801
-151.108932 -222.894211 64.007294
-147.769470 -223.729080 61.751534
-142.373962 -224.925644 64.933739
-143.599945 -224.953217 63.399109
-143.144547 -224.133896 61.744160
-145.927933 -227.295898 61.691799
-144.716385 -229.212799 62.936028
-142.629730 -231.005844 63.612381
-150.418381 -229.971924 63.672417
-144.125244 -232.110001 62.527309
-149.801559 -234.451309 62.938961
-146.290482 -233.827805 63.824177
-148.347595 -234.577896 63.198254
-5.548833 -238.803055 64.334648
2.399713 -237.822037 63.767998
15.347753 -239.177185 63.536564
16.996122 -238.864288 61.200207
17.806410 -239.217651 65.020309
10.808052 -240.842529 62.808216
-1.326790 -242.700668 63.291286
6.706320 -245.215347 64.017883
23.030771 -251.439880 63.001869
24.951277 -256.540619 62.019005
4.992035 -260.912048 64.264977
6.560798 -262.757355 63.551659
23.759350 -275.125031 63.799088
1.704478 -279.066345 63.834343
18.605122 -282.670624 65.038383
1.565768 -286.720306 64.685555
4.919246 -290.455963 62.620480
10.617025 -289.137329 63.095795
44.479301 -14.521995 62.458927
45.381386 -15.923294 65.044685
22.379467 -18.519958 64.747810
49.866997 -20.990261 67.826492
33.133205 -37.033035 61.556919
24.116089 -35.753429 67.092064
-44.615021 -44.649921 61.626171
-79.576530 -44.336639 62.309132
-28.407572 -47.987503 63.870747
-18.504036 -50.197750 62.379337
-13.270026 -52.019039 62.174122
-9.733807 -55.662098 63.056831
77.398178 -58.495094 60.835896
-94.256737 -58.995892 62.471237
84.228256 -61.179565 65.888855
87.940239 -57.496944 61.230026
92.143097 -60.073055 63.062668
92.746407 -58.826004 59.148518
96.815491 -61.187748 61.204144
-14.070439 -63.180016 60.897366
-23.136286 -62.828262 59.176163
100.673508 -66.060989 61.167439
-97.266289 -68.612587 64.282608
102.513237 -70.094849 62.754810
66.387871 -69.900475 61.311619
104.027565 -72.637169 61.177544
-41.094349 -78.115303 62.337151
-59.058159 -79.967712 61.248367
-48.628178 -79.612633 61.335773
-45.871475 -79.578270 61.313488
59.169815 -82.751724 61.349136
-98.008339 -86.236122 62.237698
64.604675 -88.038673 63.281334
63.970406 -89.577087 62.939091
-63.133511 -86.570770 63.185009
55.767788 -90.356178 63.200741
61.377560 -90.910576 59.205067
-66.689331 -96.693581 60.851662
105.489662 -98.249207 63.058800
-70.279274 -97.237297 61.194305
-67.084221 -98.503914 63.605927
-70.689667 -98.792564 61.182617
-70.049545 -101.285820 62.327335
72.103630 -102.693314 64.243607
71.319054 -104.704010 63.051079
-69.929382 -104.278160 60.641163
-68.018616 -106.996780 62.743095
80.859062 -106.302399 60.110798
74.505753 -105.715828 62.995708
-77.967178 -107.923714 61.018085
-64.359283 -108.010468 61.251392
74.655128 -107.109276 60.856266
81.150063 -107.594444 64.314392
-67.267311 -106.221291 60.088680
45.301590 -113.953636 59.774254
-81.615288 -111.834732 60.760448
42.678833 -114.605499 61.916466
-86.540688 -117.585838 60.929684
45.551250 -114.461319 62.653877
-81.391388 -120.591187 62.404495
38.631931 -117.253372 60.148750
39.375439 -119.407516 62.122242
34.763542 -121.604614 61.953079
42.323517 -118.509941 61.839180
-90.765869 -116.756409 64.177757
-53.361412 -123.770927 61.488216
-95.342606 -120.481888 60.978046
-66.455681 -122.732109 62.867619
-81.039558 -121.963211 61.643593
-78.975594 -122.391159 60.494225
-68.181137 -123.665680 61.628654
32.543701 -124.397606 62.025661
36.329422 -127.422562 62.779678
-63.564384 -126.314461 62.001907
-55.476414 -124.744690 61.577686
-54.914833 -129.605530 62.342045
-60.766182 -129.700485 62.736179
25.994015 -131.977493 60.569836
-59.750874 -130.833206 61.477802
-56.705177 -134.092926 61.180099
31.062725 -133.472107 62.617313
21.490028 -139.132675 62.053135
-151.941574 -193.606018 60.716930
-148.450821 -193.269760 62.233963
-144.059906 -195.247345 61.451069
-144.930328 -194.548904 62.237034
-144.396896 -192.257660 59.548473
-147.726776 -195.816269 61.706367
-153.470947 -196.196625 64.480118
-150.331985 -196.200974 62.469757
-150.872391 -196.366745 62.813808
-144.391861 -196.529068 61.241299
-141.284103 -194.864838 62.292896
-149.913193 -199.058624 63.459030
-139.681580 -198.422211 63.128941
-143.879486 -197.586411 62.568050
-142.659988 -201.106216 62.523327
-145.704605 -201.626999 62.675858
-154.160339 -197.326828 62.758373
-151.358261 -200.548889 62.083420
-146.957626 -201.050919 62.571556
-148.221497 -203.244324 64.040131
-154.055710 -201.283325 61.715721
-143.820526 -203.435608 62.552528
-146.791336 -205.274414 62.838852
-148.014526 -204.494354 62.856640
-149.231003 -211.112701 61.405678
-149.614105 -214.471191 60.929279
-3.517980 -237.010803 63.839108
0.539184 -236.053925 64.536346
3.764248 -239.496506 62.573761
12.342064 -242.727005 63.401310
3.227099 -244.299118 61.542347
6.549132 -244.358368 60.961517
21.071482 -245.995026 63.787899
-0.455681 -245.083954 59.286064
20.541061 -249.664551 64.080956
22.429630 -250.565430 64.094276
0.523099 -254.879929 63.684353
26.347902 -257.696594 62.843613
25.678158 -264.080261 63.633633
7.337738 -271.148132 63.277306
26.364557 -267.007782 63.157990
21.170843 -276.220428 63.261417
19.773197 -279.071106 63.003853
29.842297 -11.661746 65.162514
23.675890 -15.691259 58.468460
47.929623 -18.802280 64.339798
19.769308 -25.370968 62.537739
26.385427 -26.725521 63.170692
43.435207 -31.871326 56.548290
44.429707 -36.960094 60.445099
-62.014534 -41.967033 59.185928
-67.282227 -43.692368 62.234264
-36.861031 -46.777481 62.740269
-84.582253 -47.090855 62.370163
-9.141615 -52.859928 60.192738
-97.041809 -57.979897 60.885918
69.553673 -62.738266 62.451817
-96.441071 -64.187836 61.769695
-24.880901 -65.786430 63.950733
-27.731655 -68.255165 64.553391
-97.691650 -69.013229 60.343010
-32.311043 -70.841011 61.633316
-34.388878 -70.838509 59.539074
-35.422501 -75.940941 61.099869
-98.874084 -77.640480 61.873131
-54.335979 -78.861778 62.568378
63.161003 -77.554825 63.460171
-46.208420 -78.312599 59.200222
-42.086205 -78.871483 61.315010
62.023571 -80.842552 62.272427
62.097660 -83.677299 58.803741
104.234329 -84.235504 58.774342
55.538151 -87.422707 60.546856
64.549858 -87.022575 58.852753
66.755669 -88.296715 60.516003
61.960476 -88.406487 59.798340
104.858185 -87.481026 59.102486
-66.908661 -90.641365 63.074139
-68.891014 -94.012627 63.619251
-70.073738 -94.490891 59.245296
67.054268 -90.912857 65.931931
66.063896 -99.206268 60.266895
-71.942497 -98.210968 61.058571
101.271362 -100.503075 63.618801
58.600101 -102.803833 59.939426
98.550682 -104.888519 63.146561
-66.215645 -104.475876 61.382607
-73.794830 -103.628601 62.619209
-68.743889 -106.189499 59.063450
52.905254 -107.434036 61.720936
80.555542 -106.848648 61.156441
-73.124809 -108.836197 61.627216
96.571953 -106.067024 62.628777
-63.630981 -105.519745 59.571640
56.280792 -102.261330 60.143009
-71.009438 -107.179573 59.623432
52.919743 -106.878891 62.086525
-63.909466 -110.578835 61.305042
-62.289742 -106.851761 60.295006
48.594845 -111.335968 60.096729
-82.088783 -112.630165 61.268391
-67.605530 -109.150635 61.480286
-60.078770 -112.350311 62.194447
43.844563 -111.056213 60.362888
-79.897522 -110.834961 61.142838
-59.678513 -110.792351 59.818886
-57.862877 -116.001984 62.040386
-56.765675 -117.624847 60.427273
-78.666054 -113.023392 61.438862
41.108982 -116.721733 61.770725
-79.408867 -118.833473 61.459797
-80.633148 -119.563042 59.878502
-55.176834 -120.298874 62.243153
43.936440 -118.937950 60.515213
35.662167 -120.530243 60.907555
-94.250740 -121.716331 60.455132
-65.332016 -122.398659 62.161255
-51.890621 -128.253418 63.424488
-59.638176 -127.426903 59.186668
-58.861839 -131.087692 61.360889
35.848717 -128.380920 59.890926
-54.804665 -126.395294 57.991226
-59.602913 -130.990189 60.087147
30.757710 -134.526428 59.932068
24.591764 -134.527924 60.309990
25.110134 -135.587723 59.916859
28.537174 -134.819229 61.599693
-0.245053 -241.864182 62.597134
10.939500 -241.827286 61.769657
13.065355 -242.676392 61.830982
22.073870 -242.464981 61.537712
8.922533 -240.992935 62.471714
0.770868 -245.980850 61.353077
0.915440 -244.194641 59.136497
20.198448 -248.778854 60.763763
5.459883 -286.810974 60.942169
26.242620 -13.690920 64.547829
24.456324 -15.304309 66.087906
38.752853 -16.701984 62.907864
20.958656 -19.711565 61.938568
27.679491 -18.562925 60.496407
21.634672 -20.234064 64.214432
26.651455 -21.016912 61.732826
42.418571 -24.644653 62.123466
25.935093 -30.383808 63.441044
49.059486 -31.387955 61.063618
27.482964 -31.686148 63.368999
39.899433 -34.583599 60.896221
22.324017 -34.060963 61.601212
36.073353 -34.296936 61.958851
33.446030 -37.861355 61.794300
38.758644 -38.820473 57.513660
38.444084 -40.057384 58.060432
-49.168865 -43.291893 62.776165
-22.286697 -49.583141 58.252594
-22.664192 -48.862797 60.983414
-8.523497 -55.726521 62.257095
79.177002 -57.401798 60.458111
71.278282 -59.890427 59.218639
-9.379682 -60.659706 61.882809
66.342552 -67.689423 59.716156
-52.492203 -77.908173 63.178242
-57.633049 -80.137741 58.741592
-58.636864 -83.963318 59.008095
62.876789 -85.420006 57.589024
61.287518 -86.999428 60.916214
65.940369 -89.579330 59.380405
-99.535370 -91.562843 61.674347
104.186241 -96.003380 62.921692
103.041870 -97.125870 58.253910
-70.671288 -97.124855 60.905006
-98.358047 -96.622154 60.515160
63.216011 -98.906036 59.625946
56.837429 -99.948349 60.141220
85.798225 -99.496338 58.617432
67.869812 -100.338905 61.714230
71.379219 -103.340149 59.111134
81.833611 -101.919670 59.327599
-72.989326 -103.682198 58.629295
74.261017 -104.844116 59.534496
75.692116 -103.753593 60.811005
-63.735634 -102.988113 60.622787
59.485458 -104.956490 59.389935
-67.864700 -104.708168 59.476307
52.837303 -104.107079 58.721756
85.047989 -105.858101 57.918690
81.907654 -107.045341 61.578449
84.111427 -106.660805 60.384033
-72.005432 -108.336884 58.571281
-63.560551 -109.103073 59.140869
47.416992 -109.408752 62.029682
-71.950439 -110.226105 57.874531
49.511318 -112.511871 60.347092
-78.634850 -116.988693 60.789658
-58.373699 -116.819664 62.944389
-85.137367 -114.490959 59.882183
39.514648 -114.650505 58.944061
-82.134361 -116.870255 59.934772
-69.628052 -116.834846 60.582966
-59.332336 -118.760963 62.231495
-89.005608 -120.193970 60.466763
-94.482735 -122.716621 59.682407
-57.707260 -123.154510 61.536736
39.819031 -123.192673 61.913631
32.363853 -124.960503 60.705956
-58.828308 -125.532494 60.254433
-64.148087 -129.706223 61.337315
33.987900 -129.443008 58.942341
32.838543 -132.717010 58.985779
25.965054 -134.269897 60.220879
28.188684 -132.836548 58.316895
-2.058298 -240.237350 60.439888
-4.186177 -240.622620 63.412788
15.957561 -240.130783 59.659348
13.833623 -239.997635 61.996540
19.971607 -246.282974 61.223621
2.902364 -247.214325 57.908810
21.825798 -247.669464 58.258732
2.756771 -250.102051 60.290066
26.193865 -259.297241 59.940403
-16.329632 -263.673370 60.249870
-18.611376 -268.787384 58.707253
25.292261 -268.030945 62.908344
-14.763165 -267.661743 60.058895
-15.496224 -268.746887 61.090321
-9.842985 -276.882111 59.918636
21.048759 -278.614868 63.980034
13.393972 -286.657135 63.206303
14.027207 -288.225739 61.597176
7.873666 -288.108429 60.061543
10.329789 -289.559845 59.952423
47.440540 -18.171309 64.578369
43.088528 -20.131790 57.906754
48.718113 -21.247021 60.998615
31.120310 -35.222542 63.968666
22.028885 -34.779182 56.563629
23.855938 -35.716431 59.686600
45.083359 -34.728241 53.589684
34.830032 -37.067753 64.916527
28.271622 -38.451233 60.882851
33.937767 -40.108204 55.025330
-54.141247 -42.569664 61.247387
-72.470840 -42.239197 58.199100
-81.705124 -45.879566 61.591431
-83.319572 -45.896591 59.177567
-83.860245 -46.414829 62.559872
-32.265614 -46.375626 61.049896
-26.858046 -47.809853 60.721161
-14.756323 -50.227497 59.293030
86.101311 -57.949337 61.426426
-7.841254 -57.737480 60.441448
75.501419 -57.355091 60.658230
-13.706435 -62.773590 62.536060
-19.200079 -60.822895 60.869514
66.017944 -65.394913 57.629948
102.805557 -68.537346 60.642635
63.155445 -68.759468 56.293262
-65.048103 -70.661354 60.307957
-64.109467 -70.413445 58.949764
64.642929 -72.740715 61.090336
105.115997 -74.575066 60.601345
-98.888718 -84.349693 60.630230
-43.421150 -78.600952 57.533371
63.121937 -78.317642 59.877121
104.553986 -81.118805 62.051262
-53.137451 -79.305145 58.879440
-60.140419 -82.859413 58.595127
59.418667 -82.380302 58.634235
60.472092 -84.413895 56.309677
78.053314 -88.812271 58.017780
59.385727 -87.172951 58.004684
56.745804 -90.442818 58.204041
83.213837 -90.272247 58.415447
91.446220 -92.217873 57.191166
104.317589 -91.705139 61.378387
81.274994 -91.491631 58.628334
104.217331 -94.016006 62.283802
74.496201 -94.150452 59.540432
79.885818 -92.228104 58.812767
64.734985 -93.714195 59.358109
-99.261696 -93.716309 58.162998
75.966431 -97.672432 58.796135
78.891571 -98.193436 58.900055
85.787415 -97.190536 58.688873
104.529388 -98.834183 60.717083
77.851257 -98.545761 58.560753
67.659042 -99.748772 58.385040
66.178299 -100.453964 58.551220
73.173195 -98.696503 58.799385
-73.143829 -100.507957 63.074406
77.823616 -102.197212 58.506489
88.405380 -102.628769 57.402580
73.268837 -103.171280 57.816795
73.601051 -103.778069 57.923374
64.694435 -102.399803 60.066193
82.404724 -103.946335 58.701984
56.062790 -108.631012 57.876305
-98.649086 -104.731186 62.930149
86.200066 -108.261543 62.220341
-74.327667 -110.225914 59.509727
-71.049126 -114.514977 60.507545
-62.379997 -111.614342 61.255714
-81.262794 -115.723991 59.274750
-97.121117 -115.057678 61.834045
-81.149025 -115.304962 58.183376
-84.968575 -116.299110 59.538151
-58.375412 -115.271622 58.451786
-97.313065 -119.143616 60.929016
-67.791275 -119.178413 60.053223
-59.119526 -118.812721 57.161289
-56.810005 -124.203400 58.398277
-68.261322 -121.687859 60.558182
-61.209549 -123.894859 57.282181
35.398857 -120.111755 58.300621
-64.099388 -124.358749 59.250114
38.267960 -125.642670 58.243645
-66.388680 -125.400078 60.382549
-55.359470 -130.463654 59.880512
27.327513 -128.882980 60.178722
30.514616 -129.433914 59.142250
5.746525 -239.284027 59.139713
19.615931 -241.177017 62.912117
1.256094 -241.403000 60.465622
3.402378 -242.705658 61.090878
9.886246 -241.891022 58.306820
9.022871 -244.541306 59.593857
21.539181 -250.096191 58.763927
5.187391 -256.377411 63.007828
-15.745094 -258.310822 58.820965
-14.547814 -259.007843 58.214844
-17.684141 -260.933075 59.267403
-17.179300 -260.979492 58.323586
-18.490860 -260.581543 58.707989
-18.520786 -260.472076 59.631683
-18.348816 -259.121765 58.660072
-16.953535 -259.648254 56.370304
-18.407473 -261.607300 60.003265
12.726948 -261.974396 56.290745
10.896350 -266.136139 59.146111
-13.946612 -268.635681 59.134701
24.467592 -268.900238 58.952137
22.178194 -272.470337 59.055477
-16.490538 -270.736938 58.755913
-12.866014 -272.550812 61.550613
-8.364232 -280.401276 60.443352
-7.629344 -279.696655 60.423256
-5.874640 -282.288544 58.395279
19.241325 -280.923279 60.096802
17.090319 -282.677399 60.431259
35.655876 -11.777082 57.481518
38.193928 -13.102108 56.824635
41.447926 -13.035501 64.967949
45.765285 -15.009377 58.369015
22.488981 -15.831989 57.897381
46.886391 -18.865725 56.144432
19.238993 -25.752605 56.816837
49.852161 -29.440813 62.297020
46.668457 -32.856613 61.601364
36.875092 -37.230671 60.548954
46.161068 -36.372864 59.450188
25.720985 -37.848186 60.322998
26.353579 -37.656734 68.349846
43.729488 -37.660748 61.042961
32.823925 -40.337975 67.131577
33.207798 -38.565113 64.253258
37.908958 -40.616959 52.959641
-59.193386 -41.226295 57.821262
-47.754906 -44.122978 60.052006
-31.264650 -47.917953 58.285862
-86.758690 -47.793365 58.700108
-14.264900 -52.226646 61.460522
83.556923 -58.418346 57.346630
90.584465 -58.116219 59.284271
72.665398 -58.425282 57.800461
96.227577 -60.424088 60.597343
-95.708672 -62.138855 61.702141
-21.628904 -60.668098 57.125553
97.282700 -63.166172 62.106339
68.741333 -63.016094 59.279816
-97.700417 -66.027084 59.401520
-65.290291 -67.153152 57.970448
101.318398 -66.659973 58.503845
-98.667641 -72.478241 58.013752
105.494499 -73.516685 61.003448
64.442322 -75.679100 61.964962
-47.819206 -78.957581 59.725231
105.551315 -77.870018 61.418480
-48.716866 -75.429596 56.232830
62.056400 -78.314583 60.228767
-53.743572 -77.743729 58.226849
105.404762 -82.960632 62.204281
63.835930 -81.670265 58.375980
85.616409 -87.752327 57.530270
85.751480 -84.892059 57.947575
76.416756 -87.085571 58.383869
74.426971 -90.476654 56.952328
90.823456 -86.994766 56.253273
-67.895256 -91.494377 63.674561
86.015808 -93.502937 58.675781
67.440552 -96.153534 56.232399
66.138504 -97.225060 58.942722
63.223942 -96.509911 59.378502
81.089806 -97.131615 57.773544
76.710068 -98.413086 58.869736
87.221153 -98.143715 58.858566
94.495964 -99.630119 57.908501
71.175049 -100.662987 59.763710
100.474770 -99.002228 58.469540
57.292381 -100.672989 59.284832
101.535042 -102.260216 59.856705
91.479141 -101.792763 57.569912
-63.354256 -103.126122 58.762493
-66.816994 -104.291039 60.717434
86.242722 -103.761749 57.894238
-62.120998 -102.775864 57.976578
-63.157112 -104.305138 56.348808
-76.277023 -107.635406 60.104313
48.323757 -106.721611 58.655781
47.089790 -107.192993 57.363914
97.275055 -104.542809 57.950710
88.232666 -105.250534 58.525700
-59.627186 -106.509178 57.783348
-62.237808 -106.021400 58.787922
-74.084595 -110.401375 56.416737
-72.011658 -109.927277 55.161358
45.875919 -109.062302 58.068764
-58.194809 -110.348976 57.013081
-62.124104 -109.886963 57.563725
-78.784081 -113.187691 58.910465
40.786232 -112.264275 57.523781
46.645077 -116.743629 58.514034
-68.670815 -117.070465 57.385670
-56.258892 -117.420181 61.559540
42.230003 -119.925911 60.261318
-58.763603 -121.869949 59.079529
38.055717 -117.776085 56.186523
36.269176 -121.800621 57.221622
-90.643196 -121.518539 57.626659
40.207138 -122.654991 57.762691
-58.363518 -125.244652 60.619396
30.904730 -125.791954 60.097530
36.262630 -125.887146 57.425968
-62.912262 -128.787292 58.396481
34.630001 -126.930443 57.288422
35.860435 -128.588531 57.641788
-60.437962 -129.382477 59.594685
-59.685692 -128.163834 55.632351
-1.386559 -239.075317 60.828762
4.065617 -240.186905 56.672344
19.445839 -239.925888 59.505188
7.041307 -240.124695 59.383068
12.593300 -243.739182 60.138332
10.054115 -245.557053 54.763443
4.845032 -244.818649 57.180950
21.777164 -251.911316 59.674164
-19.465252 -249.028732 58.155430
-13.743605 -250.449783 57.473763
-19.158098 -256.055664 58.557846
24.498705 -254.403381 58.846966
-16.960310 -253.641708 57.765709
10.904166 -251.902939 55.609173
24.339022 -256.997284 60.766273
-16.626060 -256.482727 57.650932
-17.590860 -259.795624 57.972378
-18.445457 -259.434143 57.401615
-16.676966 -263.129669 59.103729
-20.492733 -261.366364 58.761902
-17.480652 -266.847900 59.083084
-13.436988 -264.720795 60.369190
-14.242291 -270.406952 57.561707
-11.691490 -269.076080 59.392437
-16.343451 -270.483215 58.416119
-12.422154 -272.524872 58.368355
-15.001866 -274.071259 57.246891
-9.411125 -273.207031 59.961102
-14.467923 -275.105011 57.276653
20.206272 -277.302521 58.352955
-14.398501 -276.408112 57.068893
9.905876 -276.902893 59.570724
-11.795744 -278.716309 57.129421
-10.662843 -280.926941 59.095642
-9.004140 -280.046936 58.564110
-8.753259 -279.465698 58.251316
-11.629861 -279.702454 58.134216
-11.599862 -278.456146 57.193073
-9.978060 -281.192230 55.322407
-4.246695 -281.769653 57.821991
7.672832 -283.616791 61.566204
11.478656 -285.725067 57.639229
10.896007 -288.274689 59.202644
-5.046813 -287.158386 60.036350
-4.482491 -283.470581 57.708694
-2.894436 -290.357574 58.093910
3.227634 -293.113159 59.104416
33.087730 -11.036118 61.806557
27.836067 -13.570214 57.466145
34.816490 -14.613717 65.156593
38.274506 -17.294998 54.168354
46.660809 -17.190975 57.077049
48.517139 -20.275066 55.619328
25.942038 -21.744757 53.973621
25.923611 -22.951199 51.924786
41.008667 -27.221554 56.337013
19.277077 -30.073395 61.452839
21.117744 -30.572044 62.243446
28.719072 -35.582401 56.807972
45.905945 -32.207005 60.139084
43.898163 -37.925838 58.922619
-75.717377 -42.250515 58.979919
-44.253468 -43.785095 57.081036
-81.476570 -45.254559 55.816063
-38.782776 -45.174644 58.988422
-93.701599 -54.706036 57.602879
78.883476 -57.416527 57.782974
81.406929 -58.113243 60.322399
91.014572 -56.958221 55.581093
-16.355976 -61.497787 57.093407
-10.954906 -59.576942 56.717091
-26.713743 -61.889759 57.767242
66.445892 -62.040325 55.744602
-32.070625 -64.217545 57.522320
99.628174 -63.168823 57.906738
-35.225445 -68.098152 57.961983
-65.608894 -65.751511 54.536037
-63.201340 -71.107910 57.478775
-66.550804 -70.378593 58.531414
63.272717 -72.126038 56.598804
-101.739456 -76.756004 55.192635
104.988106 -74.124748 55.867111
-50.052021 -76.085037 57.693157
-38.870193 -77.792641 57.459396
-47.344948 -78.237251 55.942173
81.590691 -78.746574 56.524147
81.669754 -84.237358 57.869373
-99.335747 -87.320114 58.522190
74.713074 -85.824860 56.885208
87.487595 -81.821953 56.934204
75.234215 -83.305931 57.687965
-62.090374 -84.471550 59.279934
72.370834 -87.018234 57.111004
86.335495 -84.197502 57.321789
-63.651955 -86.792747 55.946827
91.186981 -86.928757 57.283611
-65.075882 -88.674759 60.628227
63.755550 -88.501114 56.948513
70.990013 -92.215828 57.327229
67.622803 -91.864517 57.870232
64.793503 -93.186615 58.189022
103.403549 -92.083176 58.467445
67.088249 -90.274452 56.269306
-101.752632 -88.814796 55.042366
66.944611 -92.292999 58.355518
94.924583 -93.568573 58.205040
96.619713 -93.202797 55.930763
70.201721 -93.621086 58.340599
103.404694 -92.980080 57.908119
-100.837784 -96.645157 54.501842
62.970146 -95.753944 55.744839
101.453865 -99.630257 56.164543
77.181625 -99.974709 55.657997
85.137550 -97.200241 54.532784
56.011497 -100.841614 56.530754
101.677834 -102.340088 57.033272
96.025780 -100.392769 57.604759
96.834091 -101.546364 56.514595
64.962891 -103.566025 57.585567
60.687675 -106.000008 58.546421
92.427765 -103.434349 56.228886
88.045784 -106.957825 56.340878
95.952675 -106.887741 55.758736
93.096741 -107.280251 57.043922
91.393982 -107.016655 57.774349
54.151749 -108.903488 57.735294
-74.775627 -107.789650 57.044518
49.274189 -112.830963 56.442547
-72.159866 -114.806068 60.002304
-97.062607 -114.740219 61.479149
-78.081306 -113.017113 59.179501
-69.027428 -114.677666 58.180500
50.846680 -112.298218 57.581524
42.618065 -112.247894 56.939152
-82.554489 -116.595573 55.869453
41.801479 -115.539352 56.571514
-70.293503 -118.902542 56.807491
-59.416733 -116.361809 55.688999
42.577766 -120.270706 56.452000
-65.632233 -118.184319 59.121338
-64.954178 -120.775993 57.445690
-58.645306 -115.926163 55.640682
-66.875267 -120.362923 57.535526
-60.866207 -120.894058 56.361969
40.532188 -119.392357 56.197742
38.422756 -122.536407 57.067234
39.704609 -121.417297 55.611176
-61.183598 -122.036858 56.547661
-63.791061 -124.650627 55.877537
-62.835957 -126.241028 57.782070
-59.287041 -125.557228 56.057213
2.259158 -237.303085 58.381264
4.257901 -236.767471 58.357540
6.890316 -237.291367 58.915009
6.475844 -239.293488 57.799004
0.295521 -238.601868 56.343990
-12.181070 -238.953720 55.642937
5.618558 -241.947769 57.611977
-0.334744 -239.340378 57.302410
0.242584 -241.126938 58.257912
18.603748 -240.017639 58.093773
-15.762451 -240.842590 57.231995
13.396626 -243.357025 59.850407
22.431925 -244.799377 57.017597
-16.908056 -244.494965 58.861340
8.391317 -245.640762 57.984627
-18.694656 -249.613892 57.907616
22.220438 -248.083420 55.941010
-17.612286 -247.863190 57.625378
-16.329586 -252.769196 56.125469
30.109121 -250.138657 56.951324
8.804537 -253.949371 59.661167
25.872728 -251.617935 56.961464
-15.950014 -252.794800 57.018009
-19.747677 -254.996429 57.994839
-19.536356 -256.697021 57.350506
-15.851748 -257.535400 57.429470
-15.465766 -261.086700 56.787121
26.481634 -261.576477 58.149796
-14.132257 -258.879944 59.683208
25.790365 -262.767456 56.234520
26.024502 -265.717499 60.354000
-16.387808 -263.205933 59.196632
-12.769800 -267.673553 57.859791
21.666471 -273.849304 56.698917
23.841593 -273.825470 57.117802
-12.210361 -273.771820 58.953304
-11.257207 -272.327209 57.256779
-10.318253 -280.857483 55.712849
22.538893 -274.550079 57.312859
18.826254 -277.758148 56.748993
-8.361593 -277.461487 57.375996
22.879671 -277.785736 56.122929
10.943024 -284.157349 58.605297
15.803217 -282.605957 54.989708
-4.922915 -282.988007 57.494499
-10.187180 -283.612366 57.356819
-3.245389 -286.837524 58.159916
-7.384954 -284.690186 56.904747
14.269093 -289.491028 56.803860
17.800673 -288.830688 55.556564
-0.887165 -291.199371 58.589729
12.560340 -290.932526 56.852619
5.624964 -290.725983 55.811409
6.305144 -294.535736 57.580791
11.093970 -292.974701 56.959435
29.576900 -12.142062 56.791687
34.630993 -15.934029 52.308372
25.269562 -21.697378 60.797623
47.688744 -22.190529 58.137783
42.958881 -21.852322 62.763844
20.537251 -28.649408 58.132610
24.314445 -28.677883 57.278282
26.643648 -30.971313 58.521263
48.098335 -33.071377 60.674530
41.480877 -31.814959 56.935169
21.554281 -33.112000 61.657391
41.698509 -34.537479 56.854279
38.804775 -36.044838 58.118473
34.988937 -38.087322 63.314571
30.507837 -38.736217 56.670868
-65.782158 -40.925636 56.003040
-72.850525 -41.454086 58.455925
-68.556938 -41.768219 53.045654
-79.478363 -43.908176 58.100410
-53.474148 -44.128395 56.456745
-50.029205 -45.058186 54.804344
-87.779556 -46.133713 54.070545
-43.218285 -45.626766 59.029762
-88.231018 -47.155891 50.710556
-25.940477 -48.534576 58.026226
-89.346420 -49.771744 57.723797
75.434921 -57.611256 56.506237
71.679214 -57.410370 55.182091
-96.853378 -59.368198 57.631859
69.192009 -58.956070 56.047905
95.077599 -58.818848 56.679779
-64.470840 -63.541702 54.453033
102.558556 -69.091743 54.456192
-61.823032 -67.015038 56.466084
-63.761539 -71.468925 55.889946
-36.625862 -71.630615 57.010742
64.013138 -75.568459 56.911980
82.255875 -77.415901 55.349319
-39.400951 -77.992531 60.645962
83.455803 -79.368927 55.947235
78.115227 -79.393333 57.139538
88.548294 -81.043083 55.136826
72.348618 -81.668137 57.277805
105.566460 -80.296272 55.091587
64.163315 -82.306587 55.860477
72.072670 -84.776550 56.105186
102.614754 -85.805862 55.410439
62.357761 -84.184875 56.510971
91.933144 -84.492546 54.468258
64.816338 -88.464989 56.611362
68.716118 -84.459930 55.540081
66.556908 -89.315308 55.124809
70.282333 -89.114220 56.109833
92.952301 -89.204865 56.178448
97.667625 -90.604477 52.509716
84.270714 -92.755829 55.647408
89.415550 -93.509956 57.348251
96.145050 -98.310379 55.969631
72.813423 -99.452301 57.117134
97.398621 -97.628906 56.193489
-99.677612 -97.622269 56.265583
69.355942 -101.218758 55.596943
96.394417 -101.297096 54.344833
62.785515 -103.597336 56.527405
53.197594 -103.724876 57.831738
-61.580505 -103.950935 55.345318
-72.298767 -107.377556 54.691257
-71.293045 -108.432426 57.340405
-73.347427 -108.572502 54.810902
-64.618431 -103.908936 55.757179
-75.246445 -110.297829 57.072670
-70.274345 -110.120163 57.395416
47.341980 -109.229088 56.079296
-63.823177 -110.628311 56.618351
46.800705 -116.492409 57.946545
47.952732 -114.227577 55.634117
-59.646568 -113.107544 57.089722
44.598633 -112.578239 55.740856
-64.466576 -114.138313 55.417992
42.579964 -116.303474 55.634056
-65.101814 -117.672737 58.031143
41.692715 -117.452187 55.842129
-86.066322 -117.049042 58.420681
-13.993079 -237.078781 55.414917
8.488349 -239.298920 57.437504
-1.419971 -239.123032 55.774662
19.342922 -240.038712 56.153358
-7.589104 -240.814209 56.654461
4.540273 -240.319214 55.517963
-13.542060 -241.060867 56.553669
-11.011494 -242.174057 57.209877
2.948241 -242.299622 56.475002
15.553526 -243.233963 55.439507
17.336029 -240.758652 57.042530
19.440168 -240.372696 57.289402
-15.170867 -240.869537 55.437595
22.595901 -242.673248 58.291584
21.679575 -246.978561 57.657150
-17.843122 -245.676147 55.644272
25.982023 -250.419479 55.928925
-11.755577 -251.674652 57.709526
-17.156622 -251.275162 54.976368
25.390760 -251.428589 55.242523
27.621466 -253.902328 57.383190
-12.951217 -254.786285 56.648228
23.604860 -252.645828 56.470100
26.550833 -256.308594 56.747528
26.104891 -259.616577 56.694973
23.390429 -255.749939 56.841896
10.602853 -257.687347 58.308674
26.996927 -257.789429 56.908630
-15.795150 -260.590271 56.094376
-14.361615 -260.634918 56.934010
13.514888 -268.279480 56.681122
-15.001381 -265.623840 55.714001
24.224327 -265.457825 56.288807
24.144091 -269.372437 55.195469
-11.093668 -271.513275 55.723301
-12.381125 -269.666382 57.651348
12.594924 -272.791595 57.878384
-13.775391 -271.139099 56.337086
25.955137 -268.399811 56.123730
20.840252 -274.625275 58.855335
26.155216 -271.798309 56.557362
24.466803 -277.493622 56.375221
-7.736587 -278.059875 56.078777
-9.622046 -276.939728 56.601288
14.017632 -280.760040 56.095455
14.054256 -279.716705 55.971828
-9.111517 -277.489044 57.593674
15.296397 -281.598907 56.798824
22.046545 -282.642609 56.795670
-9.760687 -282.146210 57.006527
18.572180 -289.736633 54.131622
-3.679402 -285.055023 58.053055
19.822422 -282.676941 58.628407
0.015909 -290.384705 56.920841
-9.310040 -285.186401 56.941296
-6.286546 -288.515869 55.098637
-1.396153 -288.468689 57.432796
-4.987611 -290.062134 56.268467
1.849779 -289.379395 55.879211
12.002417 -288.945587 56.685524
1.602792 -292.222687 57.346989
6.725932 -293.831360 56.077602
23.867659 -15.281840 57.840778
19.272682 -20.384779 56.511734
27.107742 -18.630775 53.523388
43.644054 -23.282261 56.766071
28.672976 -32.504539 58.170483
22.318621 -33.461651 54.179348
33.330727 -34.807709 59.642658
34.632809 -38.954014 59.548176
33.940372 -38.887066 57.985172
-57.512600 -43.025158 55.260029
-42.490147 -47.218014 56.346954
-18.748968 -48.931274 55.404343
-8.313207 -51.422325 55.936405
-94.786972 -55.065247 56.890076
89.609039 -57.986958 56.344177
85.392822 -57.422672 54.762611
-97.110146 -59.644936 58.178875
-10.602831 -61.752506 57.943241
-20.209017 -59.840565 56.059158
-60.650509 -64.421593 54.909504
99.729492 -65.571350 54.613750
-98.611305 -67.368172 57.868668
-63.013550 -67.236305 54.362381
-66.746658 -71.113449 55.871655
64.189781 -69.965378 54.378841
-64.647301 -71.268448 54.803509
-101.393867 -71.458557 52.622303
63.689373 -69.694878 52.207386
65.294716 -72.910233 55.642471
-38.488914 -76.371979 56.906677
63.141441 -75.229240 56.716087
85.953659 -77.258591 55.443466
86.331589 -74.023804 54.009449
-43.455215 -77.965340 53.665874
73.034912 -77.047409 53.612072
74.350685 -78.832962 53.949482
88.965141 -76.301186 54.424313
90.812370 -79.473770 56.095676
106.161194 -78.044464 56.834560
64.034660 -78.419716 55.145355
64.968040 -84.221123 53.562973
93.989105 -81.950577 54.737514
-52.904018 -82.209412 57.235031
64.953758 -83.023994 54.969337
-55.236279 -84.037575 55.445477
105.428947 -87.736595 55.216068
103.769783 -92.289787 58.118824
83.327591 -93.296455 54.038784
75.736572 -93.708305 54.605804
93.968002 -94.157799 54.300926
98.839569 -91.513710 53.650826
-70.120201 -96.014580 60.097683
97.334671 -96.954781 56.583054
67.009155 -98.028854 54.175201
94.361610 -95.173485 55.714516
82.365875 -98.336449 54.402332
86.289345 -96.539734 56.330379
100.169991 -100.832741 56.702824
61.390488 -99.916046 55.717937
-98.057739 -102.236176 57.467834
56.131958 -101.504349 54.789619
54.376522 -104.812469 54.114243
60.514946 -102.921272 54.314339
57.824993 -107.534363 55.900566
-70.741997 -107.874130 55.447369
56.922512 -105.693298 54.834332
-65.799637 -106.279907 54.008175
52.761173 -108.591110 54.409397
-69.781471 -110.379837 54.888828
-60.767097 -107.192703 55.993641
54.788704 -109.316902 56.226788
52.118660 -107.138016 54.188179
46.611214 -113.127823 54.870068
-76.944389 -111.348877 57.750736
-67.268547 -108.442207 54.233765
-65.823425 -113.227394 55.159946
-72.687599 -114.698425 55.735043
-85.020729 -117.924850 56.317585
-95.157593 -118.954247 56.647594
-69.203453 -118.575996 54.455845
-59.665955 -122.197845 57.231148
-92.339676 -120.690002 56.144234
-59.779560 -120.730293 54.856983
-66.073067 -119.384377 54.295982
-6.959253 -236.311066 55.773849
-15.557974 -237.727371 55.766144
-0.324025 -237.255020 55.932800
10.701563 -237.937958 56.123291
-8.576465 -237.425385 54.319973
-5.123226 -237.451294 53.671818
3.230516 -237.254440 55.595135
17.711203 -236.540527 55.851158
-4.789545 -239.267944 56.149834
3.881806 -240.070419 56.598450
8.656629 -238.853851 55.279202
16.798056 -238.978500 56.292896
-13.425067 -237.614960 54.589752
-10.994445 -240.564713 54.520977
11.080915 -239.995819 54.018028
-16.353888 -239.938263 55.475021
-3.365322 -240.618103 55.219963
-14.070148 -242.184891 56.688580
-12.205247 -242.477280 54.009438
22.473030 -242.205734 53.956841
24.382195 -242.387985 55.461666
-16.279251 -242.071426 55.102959
-12.502036 -248.044937 54.977501
6.761743 -247.661545 58.513481
9.763818 -248.157684 55.246162
-16.208345 -247.702499 55.490673
24.290514 -250.502014 56.411320
29.965155 -250.797592 56.209694
26.375238 -250.546417 53.975342
-14.261916 -253.232651 54.846523
-14.788343 -256.819702 55.242138
23.767591 -257.080231 55.025925
15.594631 -258.622345 54.545609
22.813305 -257.739288 54.663143
28.472689 -261.171722 54.107906
-13.662502 -265.653290 56.058193
27.629160 -264.305756 56.725098
-12.799231 -262.699371 55.139606
-14.326455 -265.528351 55.853668
27.436678 -261.936584 53.705303
27.918997 -265.033691 57.819469
27.674551 -270.527771 55.033859
-6.946406 -272.174896 56.045258
24.425486 -269.683350 57.874142
26.599154 -269.409058 55.580269
20.188423 -271.857452 54.034054
22.135811 -276.260437 55.548435
-7.596819 -276.268372 55.405205
-6.199128 -278.615906 55.561092
-6.768342 -278.616699 53.713413
16.939089 -279.875061 54.285595
23.201870 -279.770233 55.462284
-4.522633 -283.561707 55.545624
-5.892451 -277.143646 55.091640
-4.275908 -282.530823 55.579372
21.002052 -279.340393 57.034477
-6.159804 -280.672424 55.647350
20.747515 -284.025635 53.586205
-1.008482 -287.496002 55.256016
2.281708 -284.287689 55.093018
-2.236704 -285.683868 56.505318
16.552725 -283.932373 55.749226
-4.334268 -287.240753 54.612076
3.434932 -287.128845 54.379707
5.644220 -290.687927 55.051567
11.498069 -290.729462 58.163738
-1.289251 -292.884277 56.922398
1.617781 -292.363403 54.529518
3.927884 -292.281403 56.131100
5.124002 -294.095032 56.427917
11.563950 -293.209808 56.261971
32.364296 -11.190124 54.044388
27.574999 -12.132113 53.579380
24.340734 -14.983754 52.478672
30.290045 -16.480703 52.138668
39.608772 -17.551668 55.286716
22.195904 -18.863003 54.611534
19.957788 -20.354918 53.643955
19.599569 -23.347328 52.403030
19.647482 -23.449829 54.661552
43.157883 -25.340796 58.735458
24.703983 -25.401346 55.702351
20.149483 -27.490166 53.596214
26.479910 -32.010647 52.413662
29.536360 -32.356598 54.097431
48.626770 -33.477314 53.486069
29.829426 -34.980789 55.482265
25.379799 -36.143154 55.053745
25.920431 -37.935417 53.571678
34.010834 -36.548397 54.284676
27.073606 -39.315060 52.902363
33.818092 -37.826572 52.630440
40.819683 -37.751183 52.818161
31.127787 -41.335274 53.247314
-76.366119 -43.778069 54.214973
-72.341377 -42.667439 51.952694
-37.149609 -47.389088 55.890770
-9.977846 -50.309967 55.710075
-94.308411 -51.391251 53.880836
-6.742574 -54.883430 57.705593
75.762924 -56.493328 56.549816
82.459358 -57.518635 54.952545
-60.955551 -60.459225 55.711636
69.913971 -60.191181 54.869637
