# This PCD file was generated using the MATLAB® pcwrite function
# from Computer Vision Toolbox®.
# .PCD v.7 - Point Cloud Data file format
VERSION .7
FIELDS x y z
SIZE 4 4 4
TYPE F F F
COUNT 1 1 1
WIDTH 1459
HEIGHT 1
VIEWPOINT 0 0 0 1 0 0 0
POINTS 1459
DATA ascii
16.189945 -183.366425 74.905380
-143.795242 -185.130539 73.834305
-34.150303 -183.093948 76.548859
13.731151 -185.936874 76.801842
14.315985 -186.547592 76.179283
23.552992 -184.048355 74.384407
108.283966 -181.552597 74.934700
-28.244204 -187.816895 75.907860
11.657492 -190.798950 75.587425
104.945389 -186.204041 74.464264
22.320486 -194.701645 76.504364
-146.260864 -191.296356 77.524773
103.216537 -192.290070 76.152695
-17.077059 -192.148483 76.410217
101.689514 -194.076065 75.306511
13.646740 -194.719604 75.871017
-132.719696 -194.973145 75.029999
97.679909 -201.191742 74.706779
-145.104309 -198.214371 75.323799
-130.604172 -200.038086 76.243484
-146.565338 -199.635071 83.684586
-139.415970 -197.870667 77.444351
-153.619217 -202.099258 74.682663
-24.511856 -201.043686 77.067551
-13.724579 -201.382294 73.622772
17.916376 -203.074905 78.184029
-40.470566 -196.764343 76.553093
21.284288 -201.484909 74.974693
96.513557 -200.894287 74.186752
101.650055 -204.611008 75.450127
-11.132010 -200.434982 74.773041
-13.410937 -202.843048 77.488113
10.126507 -202.669128 75.348106
-34.235783 -205.574936 74.246429
-150.551010 -205.262466 75.733170
-145.148087 -204.814926 77.173126
99.838844 -202.290497 75.030334
-75.354477 -207.076447 76.525505
-35.025177 -203.918900 74.670845
18.679592 -205.336746 75.408524
-29.151844 -207.371353 76.557648
-78.898170 -209.452148 74.650787
-77.393478 -209.566696 76.066917
-146.054947 -208.712662 77.883331
-77.678818 -209.228622 75.139656
-17.767422 -213.794708 76.341400
8.178610 -209.561554 76.104141
-27.636559 -209.012344 75.478111
-5.887315 -212.236420 77.442162
92.453545 -209.869247 74.838608
-89.158424 -213.400269 76.255318
-82.756691 -211.148972 75.329826
-25.270626 -212.404007 75.536995
96.118179 -210.595963 76.591103
-7.586887 -211.956573 75.898453
-91.210014 -212.199493 76.176697
-146.787735 -216.810394 77.716362
92.659645 -209.287903 77.422592
91.220383 -216.258865 75.374977
-79.695351 -214.725571 76.245857
-16.173368 -212.296112 77.341202
-20.371935 -215.963135 74.569641
19.420439 -209.995300 74.909706
-4.187157 -217.041260 76.896149
-87.116127 -217.052338 75.025108
-27.990404 -215.819824 76.664482
85.885246 -217.117325 76.118599
90.769684 -217.342560 76.779732
-16.009251 -216.073807 75.902046
-96.012192 -215.991791 76.139175
-147.967331 -221.849731 77.069984
-21.404520 -218.095917 76.248863
16.470982 -215.800308 74.794441
19.960585 -218.185760 77.672325
-99.786766 -218.527115 74.252953
-18.407188 -221.277969 74.103127
5.270121 -220.903519 74.885994
7.055660 -219.398834 74.883614
-94.501427 -220.138870 76.376785
-18.699106 -218.415039 76.141525
83.739899 -222.113235 76.219475
-145.136276 -222.133835 75.287125
1.780672 -223.663239 75.486916
-22.655382 -218.785767 75.003265
-10.744323 -216.906769 74.722588
17.693983 -221.187164 75.314835
82.907585 -221.758133 74.744011
-12.725170 -225.023529 75.782272
-132.617645 -225.398987 74.086517
-127.652039 -223.675781 73.999954
-12.169863 -223.805328 77.435417
15.889329 -224.997711 75.958382
-134.099762 -225.906647 75.276695
-142.140457 -223.567322 79.727341
-126.068817 -225.822662 76.136276
-16.082415 -223.804321 74.946388
-150.018326 -227.158783 73.567345
-18.198927 -226.881042 73.523720
72.558540 -228.991867 75.385010
-140.756866 -227.261627 75.821678
8.204673 -225.948990 73.443649
-134.629944 -229.304810 74.784775
-11.989208 -228.801147 75.289551
71.423508 -228.142151 74.780365
77.702477 -225.470276 73.970779
-142.133835 -228.655441 75.701111
72.934731 -230.695343 76.518181
-15.587541 -227.207169 76.662292
-140.502441 -233.187408 78.743073
4.066016 -230.098419 77.023964
-133.119156 -231.672226 75.085289
78.500381 -228.513687 74.428841
-127.367020 -231.823792 75.722191
7.646817 -231.578964 75.832291
78.348320 -229.982681 75.967010
-142.405975 -233.768250 76.896996
-150.805481 -234.588882 74.910828
-10.959837 -230.971161 76.387444
-163.959320 -233.862549 73.339729
-159.584686 -234.880936 74.754097
16.843094 -232.833054 75.124329
-165.114563 -233.023270 73.752167
-3.372848 -234.278641 75.768372
19.687078 -233.727890 74.826744
-13.443054 -236.271973 77.890488
-26.593374 -236.973648 76.634071
-3.257982 -238.005341 74.516121
-146.130081 -235.230423 74.633301
0.309307 -236.248718 74.799179
-162.098633 -236.830154 74.659286
10.509019 -240.790710 75.351944
-164.659668 -235.892868 73.833176
-11.861277 -236.831467 77.626656
66.356506 -236.451889 74.874649
-23.048286 -239.694107 74.655388
-11.816510 -239.498764 76.872795
-162.209885 -235.950897 73.739548
-26.378057 -240.114166 75.088264
59.041580 -239.967316 74.497421
-28.053358 -239.670471 75.517235
62.282024 -239.657074 74.511108
-23.648254 -240.461304 75.486664
20.759815 -241.612610 76.364182
-14.894476 -242.059631 73.362808
-2.890064 -240.319550 74.767952
8.949703 -241.512573 75.936310
2.194616 -239.730026 76.226608
6.792539 -243.969788 75.262177
-144.433777 -242.146484 73.644783
9.717695 -244.117432 74.809341
64.170990 -242.266403 75.190086
-151.288116 -241.896194 74.978951
-54.175690 -242.786514 75.754295
-49.369331 -242.096466 76.222359
-1.436656 -242.361832 74.491966
12.206354 -243.558975 74.914131
17.206625 -239.015991 74.876892
-160.014191 -237.789413 73.831253
-158.717422 -246.060776 75.487656
-48.856415 -243.587280 75.599968
-1.177797 -245.822372 77.121254
-152.183273 -243.407089 73.659348
-48.525238 -245.688812 77.520477
16.748674 -245.426331 76.032127
-53.088345 -245.829147 74.124390
-4.983305 -244.754639 75.053917
21.577480 -244.193054 76.934952
-70.274513 -246.053986 77.198334
-154.543152 -247.079208 74.055939
-163.492477 -246.954086 75.456696
-75.689835 -247.224213 76.643425
-7.673743 -243.926392 74.314468
13.388080 -245.030151 79.375717
-50.232437 -246.772079 75.533302
-78.746193 -247.901978 77.887497
-59.602024 -246.860977 76.976959
-158.779846 -248.160660 74.077667
-151.821823 -250.537308 75.228714
-65.038063 -250.089020 76.810028
-166.119965 -249.199036 74.128197
-146.639984 -250.473450 76.696777
-86.597160 -249.915909 75.395554
-68.169189 -251.494339 75.079849
-152.597153 -252.635712 74.449081
-160.880112 -250.329620 75.907768
-151.471649 -250.543518 74.133965
-75.468391 -250.823593 76.742096
-92.537155 -252.790344 76.254524
19.295067 -249.755432 75.244629
-162.905884 -253.447006 75.394798
-98.201477 -253.973007 74.983414
-95.138153 -251.725220 74.818985
-84.455132 -253.714432 76.620377
-167.016785 -254.460739 74.877678
-153.667160 -254.570572 74.508392
-133.031769 -253.219711 75.987724
-83.562325 -254.819626 77.173813
-164.796692 -252.815735 73.523003
-143.690674 -254.425812 74.334656
-122.931465 -254.683823 74.032402
-84.757088 -254.677536 73.942795
-95.977974 -251.591812 74.128441
-136.300766 -254.026794 73.295517
-116.652199 -254.643219 77.420845
-93.558388 -255.779922 74.864319
-87.227531 -255.285339 75.355232
-90.924767 -255.236710 74.332001
-148.617599 -256.015778 74.924782
-100.521408 -256.663727 76.425430
-92.172722 -255.897491 75.170807
-150.102051 -256.036926 76.355713
-105.365700 -256.701935 74.092270
-103.039330 -254.630157 74.702644
-165.474518 -259.250580 75.650017
-161.395477 -257.179138 75.999992
-146.532333 -257.679749 75.760132
-116.388680 -257.960968 75.971169
-124.586800 -256.768646 75.518745
-107.610138 -257.788727 74.530251
-148.744278 -257.022095 74.539078
-142.782623 -259.215057 75.390190
-114.630020 -259.050446 75.653130
-14.819434 -259.920654 76.689903
-158.272324 -262.849579 73.838020
-141.944412 -260.655792 74.666695
-122.025246 -258.503723 75.071167
-133.739609 -261.632843 77.451958
-156.248611 -259.587677 75.577957
-157.448395 -262.826111 74.813499
23.989511 -265.173706 74.348083
-152.227158 -264.849182 74.999619
-12.729789 -266.803864 76.436821
20.892271 -271.534363 77.513840
-146.890549 -272.987732 75.903671
-166.321777 -269.961884 74.083488
-12.845792 -273.686615 75.511330
-7.652931 -275.782288 77.600426
17.298418 -278.272552 77.912010
-144.909286 -281.764740 75.803879
-5.316749 -283.101227 74.600868
14.905558 -282.672455 75.805840
-142.818268 -283.303131 76.894974
-135.857605 -286.099396 77.122948
-59.900459 -283.848969 76.499863
-69.900673 -284.539398 75.807076
-38.423889 -284.317505 76.148804
-28.692837 -285.261536 76.074356
-79.878937 -286.183441 75.785797
-31.754805 -286.380981 74.443123
-26.770920 -285.555023 75.739174
-125.640289 -285.839722 75.346977
-122.034767 -286.929688 75.181343
-114.107391 -286.481415 74.386497
-91.500969 -285.915009 74.629906
-87.792061 -285.683899 74.590828
-104.283417 -287.507813 75.554367
-168.201721 -285.354675 75.799561
-116.058968 -287.528320 77.987938
-113.737732 -285.536346 75.264748
-165.900543 -288.075775 75.475540
-53.413967 -289.662445 76.546288
-96.650642 -288.367889 78.136902
-92.937080 -291.318604 76.789909
-78.455513 -288.488159 76.725243
-45.385078 -289.453400 75.897423
-115.439003 -289.199310 75.547386
-114.204620 -290.021729 77.233582
-108.856026 -290.347870 74.501747
-30.678745 -290.971893 73.769173
-118.673119 -291.303986 74.071167
-112.870049 -290.767670 74.029854
-102.221291 -291.582123 77.125603
-19.349075 -290.270691 75.854599
-126.234253 -290.111664 74.911804
-144.469086 -289.692902 76.933319
7.585553 -291.159515 77.688492
14.671105 -292.875763 76.792976
-157.858856 -292.682434 77.081589
-158.324417 -292.533325 73.840286
-126.609360 -292.523804 76.807701
-155.770065 -294.115662 75.895798
-152.609665 -294.815643 77.696625
-145.434296 -298.654633 76.405968
-155.085510 -300.821289 76.815331
-143.750137 -306.873962 75.665543
-156.450302 -308.060211 73.423294
-143.391525 -310.313568 76.146736
-148.843567 -310.377014 72.448021
-150.277374 -312.225433 76.564552
29.397270 -15.985835 74.771843
25.793489 -15.650557 73.360840
26.616882 -19.313656 73.282867
19.599577 -21.338116 73.963005
19.728924 -26.253485 70.790154
24.540363 -20.720461 75.402069
23.172186 -30.875196 74.504311
27.088882 -30.780220 72.381264
24.470812 -34.456543 73.042099
29.531191 -38.966335 72.431519
-61.623440 -48.063427 73.047455
-55.795357 -48.880238 73.789253
-50.833115 -51.607887 75.117981
-63.232689 -50.350498 75.243355
-44.280472 -49.709629 72.087265
-39.397743 -51.172443 73.708359
-73.953163 -51.748695 73.744659
-32.415874 -53.220898 73.698944
-78.795357 -56.449154 75.343231
-15.992078 -67.435310 75.311272
84.546852 -69.940964 75.752930
-17.213551 -70.271896 74.902977
89.148674 -67.680840 74.319466
93.233940 -72.512581 74.988159
74.749046 -71.613068 73.729637
-91.422745 -76.288544 74.636040
72.079994 -75.822418 73.035492
-23.664762 -75.457344 75.198158
-35.829601 -78.574570 76.501534
-35.290539 -75.277748 73.033501
-38.038574 -73.895081 75.015190
96.022530 -76.038734 75.022797
97.691025 -76.712555 73.388229
-92.080200 -78.441994 73.693359
96.199898 -76.524315 74.321556
71.285057 -79.741577 74.398193
-44.350868 -81.144867 74.844360
-92.985008 -82.928940 73.841896
99.083992 -83.645615 72.880997
-42.617592 -83.700890 79.802101
-53.768135 -86.213966 76.299309
96.844948 -84.634750 72.889503
55.727989 -89.141029 73.787514
98.490593 -88.178261 75.267418
-54.636921 -89.814049 78.065948
72.946075 -91.461296 75.691246
94.710136 -92.719299 75.366417
57.196716 -97.788872 74.636635
54.387886 -97.060387 74.427589
73.181114 -93.494247 75.858192
48.726963 -98.036469 73.898659
104.435951 -95.803467 75.308968
-78.824753 -98.246010 76.673531
103.370857 -96.082352 74.572609
107.852158 -100.532669 73.986069
83.177521 -100.743385 73.188133
87.923355 -98.021408 76.162422
88.697815 -100.489273 75.699371
105.424805 -101.189629 75.996147
111.201279 -108.566536 72.972443
40.296524 -105.992416 74.230995
47.555321 -108.319313 74.229759
37.604141 -109.026421 76.348579
49.948959 -111.194466 75.256287
-88.294525 -112.811050 76.806442
33.550537 -112.431725 75.449387
110.958221 -111.611053 73.918358
-93.451767 -117.568176 71.664917
106.265831 -113.543663 74.063828
-92.840416 -114.952042 74.928635
33.088749 -120.201508 75.064796
106.643135 -119.196022 73.394707
113.672974 -120.680016 74.177727
115.383644 -118.027779 75.479141
44.731075 -119.615395 73.719994
110.263641 -120.576187 75.017174
34.367104 -125.206009 75.781776
40.328362 -123.010147 73.509468
30.161472 -133.686218 74.598793
43.996105 -126.049698 74.069572
117.474731 -126.815155 71.358955
113.719093 -125.665192 75.519066
39.875263 -126.923988 74.466492
114.552597 -130.177063 75.562851
38.867405 -130.555817 72.675812
-57.155014 -130.284622 75.457756
110.638771 -125.289246 72.887817
26.405869 -135.666031 72.848251
108.231491 -130.104019 73.939438
-49.509285 -135.888870 75.571648
-54.123158 -137.889023 74.945793
-75.792374 -138.061554 75.430435
-50.077168 -135.091644 73.602837
-54.380249 -139.379547 76.631813
111.480507 -133.966202 75.095673
36.930233 -135.823898 73.819267
118.381531 -132.130112 73.235641
108.210335 -137.583832 76.078651
114.393356 -139.602707 73.821594
25.227636 -139.401077 73.590706
-71.881897 -139.186050 75.530914
-75.795364 -142.569504 76.682220
-57.732933 -139.516922 76.401421
34.180332 -140.400238 74.509682
111.399994 -142.208923 73.034668
-43.487988 -143.275543 73.734947
27.875334 -136.760406 74.032249
-71.770813 -146.164246 74.001854
-68.496025 -144.731003 74.424934
-42.747467 -147.357895 74.966995
-77.972282 -140.758530 73.359283
36.381847 -146.119522 74.758255
24.566702 -146.023529 76.139313
117.240540 -148.494370 76.154724
-72.455681 -147.712036 73.228584
-69.435478 -143.903763 73.627777
-55.122562 -148.551697 74.480225
-63.361488 -148.736053 75.930611
113.833763 -146.198807 74.562447
-68.416786 -149.809540 74.111450
113.289764 -148.533401 73.677711
-42.885281 -148.476242 74.695869
112.467781 -152.092743 74.894066
8.914195 -153.498199 74.319336
20.852055 -154.371124 72.697220
11.449339 -154.381760 75.390022
117.820114 -152.701614 76.336021
-38.210793 -150.197678 75.462456
-67.612129 -154.923798 72.717140
4.811080 -156.863174 76.012833
-72.517982 -155.078033 73.624855
32.804905 -151.007370 75.755730
108.601395 -148.332550 75.834785
0.731424 -157.891235 75.738632
108.123703 -158.401001 74.018745
112.276596 -151.740524 73.799782
-34.766376 -155.581314 75.196762
113.697960 -156.211380 75.184090
-64.182076 -155.339706 74.047363
-36.475346 -159.129211 76.852905
113.921410 -156.477890 75.248299
-44.150204 -161.108963 73.804070
21.424469 -157.608459 73.498795
6.365590 -160.987183 74.658630
4.266083 -162.465439 74.256691
-64.815903 -162.030716 71.493408
-45.997253 -161.739075 77.419502
-2.407945 -163.251068 74.384323
111.735611 -163.308151 73.768204
0.134434 -162.850174 75.793251
4.215630 -163.385941 71.801765
-64.844666 -167.222900 73.663223
-30.612743 -164.864151 75.201996
112.889221 -161.158646 74.000145
106.673065 -166.358032 74.105797
-32.932095 -162.977707 74.995178
-43.635098 -167.133224 74.190041
-59.970139 -165.904114 74.296692
-58.831940 -171.590897 73.880875
110.942886 -168.605667 73.721985
-41.103645 -170.392685 74.748756
-38.233753 -173.633560 75.652946
-35.497269 -175.143951 74.626511
108.662956 -176.843002 74.743179
109.161652 -166.477692 73.955536
-36.115166 -180.180527 74.169991
16.812258 -172.896713 74.585800
105.051094 -174.557724 75.516533
-149.123260 -173.986938 75.474205
28.196981 -177.791885 77.447144
108.551155 -177.109634 73.550293
-146.168228 -180.468369 75.092133
-26.263975 -175.454758 74.512054
-20.406872 -180.445923 76.370178
25.235655 -174.781662 74.535873
25.083965 -179.563812 74.224724
17.333017 -178.847855 75.889549
27.631372 -180.260956 75.154083
107.053123 -181.190506 73.744415
110.748352 -183.085983 74.470856
-151.418167 -185.432831 72.914436
-21.794764 -183.646408 75.891182
108.048126 -185.708160 73.585976
102.246780 -182.552383 74.071274
104.328865 -191.126251 75.024536
106.994682 -180.875351 74.530838
-147.995117 -187.906830 73.507095
-18.372051 -185.008591 75.690025
98.803314 -191.393738 76.646706
-29.768587 -191.723511 73.374245
-27.572298 -192.812698 74.683609
-146.363251 -191.480423 74.430206
15.444022 -187.682510 74.356010
-152.330902 -192.474533 79.046631
108.930878 -189.998703 74.380302
99.981499 -190.573151 75.198608
101.996254 -195.928711 74.857803
-27.774872 -194.479202 72.653336
101.830376 -191.504242 74.102058
-124.941811 -196.891922 74.917236
-27.302967 -193.512878 76.400795
-148.062759 -195.455887 74.814514
-139.254868 -197.045013 73.569000
97.465721 -197.855011 76.116295
10.448251 -196.592834 74.549515
23.322224 -195.117096 76.159668
-133.213043 -194.842773 73.134590
-23.596853 -197.560455 75.400375
-133.251999 -198.309525 74.981850
-124.534317 -199.624878 74.157089
-146.579575 -199.093628 75.363831
-140.434509 -200.685043 74.556625
99.154366 -200.675552 74.189018
101.944824 -197.227219 73.161934
8.592443 -199.170639 75.165474
-9.851500 -201.398865 74.431686
-130.726715 -201.994583 74.710823
-123.771515 -200.218155 75.613831
18.503963 -200.764877 77.039650
20.091858 -200.752640 72.879341
-144.214706 -202.710037 76.402809
-8.388878 -203.510803 76.455299
7.418170 -202.995575 74.765869
-20.073336 -201.920456 75.507416
19.697571 -204.644699 75.170540
-10.480727 -206.712601 76.042702
8.651026 -206.595169 73.898544
89.424736 -206.807007 74.638016
-145.480988 -208.980743 76.066391
-17.475937 -208.928314 75.778847
-21.119282 -205.877670 72.819374
92.575523 -206.939163 72.923325
94.485245 -207.446365 74.114464
-149.173798 -214.693237 74.819931
95.452179 -209.858795 74.040062
-164.971573 -207.797256 73.473145
-79.035362 -210.730972 76.135376
8.381568 -211.025986 75.203995
88.083496 -210.113037 76.728241
-13.826077 -211.610947 74.126984
4.934349 -213.244598 75.518867
-32.368786 -208.444992 74.645317
-86.348892 -210.453873 75.369301
-83.046227 -211.528275 75.253204
-146.509628 -215.585754 74.977074
-33.100208 -210.248840 74.725861
-27.885851 -212.022522 75.126205
-154.996536 -215.968628 73.475861
-22.384136 -216.335907 75.336739
-30.183523 -212.795120 73.812202
82.567734 -216.863953 75.603012
89.915619 -213.456635 72.171997
87.506256 -217.300552 74.834702
-82.946472 -213.506699 75.886772
-4.331290 -214.200470 71.842873
-97.534546 -214.647430 74.399559
-31.355637 -216.014938 76.170395
-150.468689 -210.949875 74.141838
-86.725685 -215.620331 72.961090
90.905487 -216.207535 74.904579
-1.190284 -218.665482 76.999557
85.509285 -216.171539 73.678986
-164.946533 -214.101227 73.695229
-15.936702 -221.015717 75.111778
-97.224838 -220.834869 75.241707
14.890535 -221.592529 73.195831
87.516296 -221.721909 74.252502
8.748630 -216.235428 73.543381
-149.555161 -222.500061 74.018616
82.151741 -220.905457 74.341370
-165.329926 -218.707703 75.242783
-160.381149 -222.412598 73.784897
-153.284805 -220.943863 74.090904
-99.201820 -223.302612 74.724915
-21.444141 -224.698334 73.882759
-151.949951 -221.856934 73.777847
-105.525291 -223.047195 75.354317
-1.456941 -220.105453 72.646423
-102.801834 -221.384354 75.878944
-7.346240 -224.706055 75.141960
8.655633 -219.696350 74.045418
-163.815567 -223.055374 75.679131
-12.291173 -224.822250 73.677139
-161.943039 -223.377136 74.191521
85.091820 -224.117645 76.681847
1.746613 -223.460205 76.230560
16.888845 -225.306625 75.237862
-154.372101 -224.923355 73.159897
-142.493011 -224.273727 73.979736
-124.368576 -223.446396 74.547501
-103.554230 -225.882523 73.060211
-17.414576 -226.582321 74.396042
-108.730598 -224.186172 73.963974
-161.293976 -227.583603 74.416519
-140.015274 -223.886581 75.252327
-110.062737 -226.802734 73.764397
-104.950813 -226.213715 73.404716
-13.518146 -225.350342 75.250732
2.196968 -224.650162 75.042053
79.665031 -225.279480 74.516792
-164.779114 -227.446991 75.549538
-158.918823 -225.266068 74.026665
-147.771683 -227.468735 74.514412
-124.662407 -226.229950 72.571609
82.810654 -223.838959 74.012886
-115.198219 -227.699799 75.045143
-148.959671 -229.028854 73.387917
-147.486755 -229.954865 75.348732
-148.302063 -228.733917 74.305244
-123.286842 -228.513931 74.283699
-8.191819 -228.807617 74.696846
-156.073471 -229.191620 73.999039
-124.786346 -231.106049 75.052498
-9.988685 -229.609253 74.098984
-163.933914 -229.663376 73.929321
-140.134171 -231.593872 74.239395
-135.444031 -229.547623 72.870842
-154.360992 -231.057159 75.190163
-132.661835 -233.624680 74.834564
-124.197197 -230.235092 73.611008
-155.423538 -229.540009 72.511040
-142.809708 -232.589401 73.124680
-150.941238 -231.938721 76.060318
74.254677 -229.580521 74.002571
71.585869 -233.825516 74.606361
-159.023331 -234.878265 74.349167
-151.188995 -234.121063 74.728584
70.117935 -231.137573 72.632179
-17.607664 -236.493744 77.304268
-6.536569 -234.638153 75.424393
10.394855 -235.652649 74.830101
6.824813 -237.047363 74.957359
-166.979538 -228.290741 74.608810
-152.961563 -242.859512 75.008987
11.837996 -240.336411 75.784157
63.413227 -235.609863 75.989067
15.644807 -237.020950 76.046379
15.433688 -238.967239 73.473106
8.472981 -239.445969 75.074165
66.698593 -239.284409 74.944229
-6.267663 -239.235458 75.391823
-19.721754 -239.796936 73.941849
-19.836090 -240.615997 74.477325
-19.794313 -240.706192 75.863892
-1.444467 -241.966415 72.792091
2.176794 -241.792084 74.249252
0.368726 -242.677841 75.173836
54.144554 -240.677765 76.072113
20.047997 -242.998352 73.539406
-56.843113 -241.669312 73.584755
18.090729 -245.165344 72.778519
57.504276 -242.894287 75.625481
-60.414013 -244.712891 75.123856
16.873985 -243.842682 75.817062
-75.156204 -246.749237 74.182831
-56.691376 -245.942352 73.230927
50.490562 -245.553253 74.513832
-7.994268 -247.895996 74.989700
-58.997684 -248.564011 73.732407
-56.540958 -247.269241 75.533966
-65.454826 -248.936752 74.466766
-9.908707 -249.107697 72.593079
-14.909703 -248.279755 74.203163
-87.350395 -252.328171 76.640556
-85.449379 -248.926117 73.650612
-73.276360 -251.690018 72.154312
-11.251497 -249.335999 73.678940
-145.402267 -252.900070 75.043610
-83.311699 -254.571518 74.168388
-124.476967 -253.202057 73.089432
-98.743500 -254.324432 74.262909
-14.929426 -254.618896 76.824181
20.840338 -255.306992 77.109314
-117.473068 -255.484802 74.634132
-94.825050 -258.656311 74.170181
-112.150986 -257.494812 74.902328
-102.325966 -256.420319 75.225937
-105.785629 -256.408997 74.955574
-101.560997 -259.646301 74.045380
-112.052605 -258.226654 75.263733
-125.283043 -261.167480 75.647278
-166.350891 -262.545319 73.748146
-143.267731 -262.935730 75.271751
-147.007126 -264.242493 73.348305
-15.781138 -271.188629 73.056770
-169.374176 -269.185822 73.704468
-146.824875 -276.309357 74.452126
16.983143 -281.558868 75.105141
-125.835686 -283.259064 74.840294
-141.528534 -284.166351 74.759918
-53.615494 -284.938049 76.059433
-87.114403 -285.162292 74.327805
-64.718597 -286.255219 75.689690
-41.395367 -285.592651 76.832344
-117.086357 -286.435181 73.412781
-29.096510 -285.428528 76.346420
-101.272156 -283.736847 75.194717
-30.065693 -286.269287 73.327019
-25.759144 -286.705780 75.581520
-4.629245 -285.365784 75.737793
-165.552536 -287.727997 75.146866
-12.086267 -285.545654 76.076157
8.922650 -287.752930 75.048958
-26.989708 -287.267944 73.373177
15.258769 -288.851837 76.914864
-56.521072 -289.565948 75.237350
-39.971912 -288.697723 73.304657
-27.685715 -289.374695 73.533012
12.784063 -289.890778 74.213791
-74.986816 -290.547394 74.485878
-64.741264 -289.299927 76.455574
-35.286415 -288.198334 75.507072
-16.765980 -289.619415 72.282715
-86.100220 -289.426636 74.834908
-14.229942 -290.679443 73.882683
-8.320614 -289.542114 75.290306
-90.124207 -290.388977 75.310448
14.735236 -288.067108 76.294609
-8.666946 -290.791534 75.847420
2.312058 -290.973267 74.423347
13.544768 -291.043396 73.430977
13.590116 -291.229218 74.700890
-132.975540 -293.126953 74.238327
-144.514374 -303.062805 76.475655
-156.006058 -309.906647 74.986618
-155.257675 -310.419250 73.281761
-145.680527 -312.520477 74.946564
28.857391 -12.969842 72.960205
36.122028 -11.356271 72.952690
39.923477 -12.003100 71.999100
31.451500 -11.864408 72.212387
36.324776 -14.971087 72.616844
30.621742 -16.153463 72.941307
36.511841 -15.663051 71.463348
39.390675 -16.634066 74.586929
45.132294 -17.111355 73.305992
22.300234 -19.568586 73.053673
42.744209 -19.038319 72.620667
46.545120 -23.724703 73.335419
24.466324 -24.790268 72.000252
49.230827 -23.179462 72.515518
21.555233 -20.880434 72.551109
24.353470 -26.776182 74.737045
21.151123 -30.459726 73.889511
45.472553 -28.846788 74.910164
44.313568 -31.783169 73.163963
26.407738 -33.286900 74.791344
38.713268 -35.751732 70.641617
40.313805 -34.150414 71.997978
48.005505 -34.278973 74.171562
31.649109 -35.049610 73.575569
36.833138 -36.585625 71.366196
32.315178 -38.427452 75.215088
40.578754 -37.749821 73.006638
36.061050 -37.589809 72.767471
-68.307724 -49.866264 74.084038
-46.554775 -48.372379 71.597107
-40.214096 -51.622181 72.104576
-33.595917 -49.719631 72.829971
-28.085623 -53.906872 69.513367
-84.323456 -55.236244 70.849564
-87.865372 -62.404411 76.050797
81.739799 -68.155472 73.672523
84.783836 -70.852036 73.668602
75.084763 -68.672455 71.864662
-18.747757 -71.837296 74.821609
-89.508507 -71.569855 74.366142
-25.419943 -74.537552 72.756065
68.215820 -81.959259 72.062370
-49.585052 -83.097107 73.078842
64.006653 -87.548363 72.500824
53.378391 -91.492157 73.085342
54.069073 -92.104897 74.539368
96.212624 -89.900177 75.236046
49.994389 -89.495262 71.776711
59.700996 -90.256668 72.256325
-63.698551 -91.754684 72.115883
-63.937954 -92.448639 72.460411
47.587299 -94.947044 75.226158
68.708496 -92.799400 72.438431
-64.064125 -91.715584 74.839043
107.395714 -93.889259 73.143372
-65.137550 -95.163864 72.847679
97.573959 -96.789879 74.555885
44.821957 -96.116852 74.542023
107.680840 -99.919525 72.322601
-76.070366 -99.116188 75.651886
78.963295 -100.930061 75.029991
55.443779 -102.000771 74.169144
99.540169 -96.158493 72.818062
106.319237 -101.380974 72.812988
100.244385 -100.116600 70.692062
43.840748 -102.568886 73.075119
-93.768272 -102.052902 70.884918
107.514511 -103.952911 72.659904
39.720333 -108.638847 73.165329
107.215080 -108.444458 73.017151
48.381363 -107.463440 74.308426
103.391380 -106.133980 72.282623
-85.888908 -111.590477 75.693726
46.801178 -113.789742 73.862251
36.632839 -107.653847 73.030136
45.491905 -111.386116 71.963890
104.896713 -109.463478 76.549263
109.788422 -110.760010 75.311852
109.519737 -111.890480 73.776649
106.787720 -116.506386 70.944382
110.148705 -116.182304 74.022362
110.509018 -117.509087 75.123322
36.127014 -113.427544 73.800156
30.970034 -119.196579 72.975166
43.959949 -115.902176 75.031189
109.406349 -118.664238 73.106247
41.813469 -121.605103 73.557823
44.042320 -122.098976 72.389252
106.484520 -126.704216 73.204933
111.507431 -124.282440 72.468002
34.002720 -122.131645 72.115425
111.577156 -125.206772 72.454628
-75.934509 -128.494476 72.822510
-77.764847 -132.849213 74.966187
112.442116 -126.659065 73.764290
112.072014 -131.963943 74.276894
115.428627 -131.333633 73.420189
38.117085 -130.260574 72.581459
112.719002 -130.653061 73.427841
-56.103081 -133.658173 75.104317
35.807217 -135.267975 73.454613
-72.292892 -136.976334 74.865601
-58.391121 -138.748581 72.832512
-49.374458 -137.161926 73.347069
31.151918 -134.435043 73.871605
37.452427 -139.545868 74.030029
-77.974350 -139.123367 74.365761
-44.943836 -140.628464 74.466057
113.084488 -135.028519 72.405029
-71.200142 -139.555161 70.202194
112.118011 -143.830399 74.522728
-73.495964 -142.644409 72.240692
113.808914 -140.464340 72.522400
116.552147 -142.094040 75.778625
22.348051 -142.790756 73.764946
-45.843739 -142.602707 72.127190
26.845604 -138.983047 72.036842
-70.935188 -147.860260 72.181152
25.056824 -146.983719 73.885666
-69.108131 -150.464386 70.764236
20.106718 -147.572327 72.770760
12.914511 -151.271545 73.247124
-51.740154 -150.633652 73.960030
9.650360 -148.819336 72.565430
-54.177368 -150.985703 74.701118
-49.937008 -154.005142 74.268707
117.447868 -150.362534 75.767685
8.387362 -152.315948 72.499107
32.211029 -152.971115 72.951729
107.319305 -156.203812 74.452087
-39.589077 -152.304520 74.505951
-72.118866 -154.030350 71.834381
-50.122677 -158.902145 76.341415
-47.095009 -157.360962 71.777763
13.826117 -155.610870 74.308846
23.408236 -150.957703 72.891548
-63.777779 -157.429855 74.481232
117.178940 -156.094009 76.117424
29.465849 -159.049118 73.510139
8.570876 -160.211563 73.837608
15.157043 -158.838333 74.015213
31.582630 -154.443741 72.508064
-33.456055 -159.785950 73.516617
2.521814 -159.616409 72.930550
-46.495670 -160.708054 74.978523
32.115181 -161.312851 73.498596
-68.286873 -159.765549 72.254196
-62.490627 -163.264816 73.090393
28.294573 -162.983261 75.502480
-68.196693 -163.184006 73.919777
115.626335 -161.280594 72.797371
-44.294956 -162.807358 74.430519
18.826548 -165.745270 74.859726
-64.283348 -163.893356 73.763977
108.613228 -166.371811 73.133240
-59.839363 -166.533859 74.868538
-38.834198 -156.916916 72.819412
115.706512 -166.531677 72.188141
-38.357376 -168.097305 73.310913
-34.329926 -166.333633 73.025528
-31.080133 -169.990784 73.416435
-28.644884 -169.936707 74.683357
106.002731 -171.637772 74.075783
113.042068 -172.110596 74.701439
-28.939568 -175.938965 73.980522
-36.932926 -172.096970 72.630630
17.739082 -169.529602 74.001137
113.159088 -175.873596 74.664330
-145.273697 -174.972916 73.905617
16.458263 -176.023941 74.681007
26.806709 -171.221527 73.784653
26.284580 -178.817429 73.127693
-144.058090 -173.253357 71.908562
110.669449 -176.455597 72.537338
-24.465136 -177.910583 74.353775
-152.806915 -176.455276 74.763565
-142.701508 -178.117416 73.907631
24.241192 -178.340652 72.068909
-141.102875 -180.801117 73.844604
-31.862543 -182.019882 73.962746
-21.186073 -180.644745 74.153931
-30.401333 -185.274612 72.483650
-24.144165 -181.842545 73.982849
13.355469 -181.650452 74.360466
25.511175 -182.297119 73.515701
-141.490067 -186.105225 72.985268
-145.429565 -186.425903 74.596260
-20.138403 -185.394638 71.573860
24.691843 -185.006454 73.176575
-30.007803 -187.768784 73.379303
12.225608 -186.664078 73.958870
-149.211945 -190.103668 74.324348
-29.239641 -185.827545 75.037697
-20.297186 -188.848312 76.010872
10.420196 -189.589905 75.402443
101.734711 -185.078217 72.873940
21.167906 -190.716476 72.534805
108.483459 -188.421341 75.608170
23.624365 -190.866562 72.224747
-16.089357 -193.183563 76.043243
-25.226057 -195.750977 74.432365
-152.851990 -193.791000 73.989471
-131.508347 -194.982697 73.974808
-124.067490 -195.468307 72.694099
-16.928514 -196.572998 74.722107
-157.598557 -194.370590 73.582253
-121.941429 -196.491241 71.692642
-23.971809 -196.881485 73.422157
10.369935 -194.853668 74.459145
96.625641 -194.273880 74.260170
-146.847137 -195.766907 73.895348
-13.684076 -198.331726 77.713814
-154.312943 -195.885742 72.338295
-144.862335 -198.420609 71.452065
-17.702358 -196.289917 74.031593
-149.943420 -198.072495 72.676430
-122.023766 -196.905182 72.720055
-112.714729 -199.667297 72.008499
-154.192276 -198.740707 72.297134
-26.698994 -196.789963 75.158607
-148.011246 -200.563400 74.713547
-146.719772 -199.923615 71.744812
-123.535011 -199.757889 73.915794
-113.177460 -199.344666 71.963722
-12.305717 -194.119476 75.313866
-147.994476 -199.900375 72.952103
-19.822731 -199.606873 75.683037
-14.294668 -200.665482 74.768761
-161.982635 -198.799652 74.056244
-132.821182 -199.902222 74.920967
-142.358368 -201.290482 73.072670
18.537605 -202.456955 73.195633
-124.072540 -199.926208 71.991417
-150.790497 -202.027634 73.984497
-164.757034 -201.024048 73.594727
-149.873566 -203.530029 73.335548
-145.910614 -205.256241 72.276505
10.033009 -202.339676 73.428841
-152.354080 -205.385712 72.309074
-21.131289 -203.367188 74.646141
93.350967 -202.556137 73.445038
100.531342 -204.399536 74.064369
-157.967133 -210.990555 71.028564
-9.838996 -208.702545 76.288750
-164.844467 -209.040222 73.998901
7.978860 -206.067413 73.719849
-80.288971 -209.748444 74.823723
16.996859 -207.235794 73.670937
-79.342285 -210.184555 73.636894
88.938957 -210.271973 74.242126
-78.557762 -210.912506 72.554382
10.946051 -209.192490 73.179237
-4.329222 -213.781387 72.928215
-151.745377 -215.987076 74.045639
-93.231773 -214.598969 74.617569
-87.227356 -212.938141 74.155418
-6.575946 -212.812622 74.603340
16.133423 -214.742844 72.876221
-143.419479 -217.813705 73.414658
-11.217297 -218.512756 72.557190
-91.445518 -216.486633 72.767906
-2.476942 -219.662491 75.046700
-25.335337 -216.475616 72.404114
-14.604913 -218.065445 75.000549
89.687553 -214.054886 74.116035
-21.175697 -216.335739 73.252052
-91.125687 -218.583099 74.338936
-24.991407 -216.988800 73.908508
-105.211266 -221.214432 73.153557
-16.137306 -222.821350 72.363190
91.425529 -218.157455 73.550125
80.591919 -217.056595 73.267578
4.987653 -217.206253 75.459602
-97.696274 -222.085129 73.250763
-10.628645 -223.941910 73.192886
83.519394 -220.125290 73.830032
77.255058 -222.279999 75.649284
-125.197220 -222.938278 74.633858
-23.225470 -221.081024 72.416702
15.020487 -222.605560 73.024673
85.207069 -220.255722 73.327202
-141.716095 -224.499908 74.102844
-99.947403 -223.259842 73.863586
-104.757393 -224.405319 73.724243
3.698940 -225.219223 73.278267
-165.399246 -223.838928 75.371178
-135.631821 -225.863510 74.177620
-5.534626 -227.093719 72.880775
79.754341 -224.939209 72.992767
-124.665054 -224.678391 73.126526
14.183916 -228.085190 74.991074
12.273648 -224.461670 72.671478
5.326987 -225.905106 74.117989
-114.711494 -226.995209 73.908516
7.515602 -227.270493 75.883888
-111.942398 -228.215042 74.829330
-14.089812 -226.294647 73.059624
77.580376 -225.913498 73.050819
-11.923010 -227.889755 71.485641
-14.395189 -227.409744 74.207611
-3.278669 -230.152969 72.694496
9.837914 -225.139206 73.136024
83.467545 -227.205627 74.326988
14.130622 -231.032822 74.874382
-122.849960 -228.090607 73.410530
-114.210609 -228.825745 73.939537
79.010468 -228.162003 73.161530
11.947633 -231.766937 73.836693
3.915252 -228.044418 73.764214
77.139496 -233.516388 71.627838
-139.771820 -232.423141 72.677200
-13.833883 -231.030045 73.055443
-6.085997 -229.382446 75.509850
17.263361 -229.852737 73.929276
-4.887402 -232.714722 72.526733
16.714512 -233.623749 73.769165
-12.337202 -231.817230 72.909409
72.742638 -236.399338 74.294441
-17.752108 -236.151855 73.796478
-13.434440 -235.701324 73.654106
-4.575497 -233.822815 73.946983
72.524628 -235.522202 74.044266
-8.948327 -235.055161 71.174355
-20.425564 -236.953659 74.373718
20.390656 -237.923752 75.225334
-7.710621 -239.015991 74.696320
-1.614995 -239.772934 74.318672
-166.986557 -240.491653 72.880287
-18.580215 -238.871399 72.694351
-5.019662 -236.944427 71.512543
66.355751 -236.573120 72.392326
65.681480 -238.741455 74.800629
-11.978284 -239.671494 74.088547
-7.621252 -239.185425 72.454514
2.970217 -242.016464 72.924446
13.103226 -241.656113 72.673851
64.641975 -242.663895 72.694351
-166.207748 -245.362762 74.556587
-65.208015 -245.106171 72.241562
-9.274877 -242.637375 75.001846
16.390444 -244.124649 73.284187
59.768684 -245.176666 73.705582
-62.223145 -246.719086 72.012894
-145.854126 -241.447311 72.495476
-68.430756 -245.912170 72.278687
-67.782822 -245.354797 73.452538
-63.035854 -246.324097 71.998253
52.802101 -245.361359 74.250938
-78.654724 -247.476608 73.587852
19.369728 -247.733871 72.879494
18.148733 -247.461075 77.214828
-62.263077 -248.136124 75.279327
46.488594 -249.658096 73.839485
-89.642860 -250.385590 74.564796
-64.189644 -250.287888 74.175026
44.864803 -251.074554 72.405418
-14.973357 -250.114822 74.757477
-145.161743 -249.164169 74.214111
49.934944 -248.622559 73.757660
-74.705406 -252.252060 74.191818
-103.361008 -253.097733 72.371529
-140.344513 -254.320740 72.152863
-101.455589 -254.571732 74.622833
-118.453339 -253.492462 73.652260
-116.411667 -255.482193 74.683228
-103.943954 -255.656815 74.968109
-108.988792 -255.157104 74.331352
-108.177353 -258.839386 76.485046
-142.568085 -260.995758 75.996384
-135.972168 -260.937134 73.966270
-117.689537 -260.595551 73.178055
-135.563126 -261.184845 74.002815
24.299461 -259.313293 74.399101
-136.283997 -262.306366 71.988846
-130.348587 -263.751373 73.557037
-15.513526 -268.288635 73.340126
-10.297202 -278.153442 73.953590
-168.157806 -275.849548 71.799286
-146.866486 -280.400787 74.687210
-131.564590 -280.947601 75.710503
-5.723195 -285.572845 72.291039
-167.936951 -284.468201 74.975769
-125.280357 -283.817261 74.543388
-97.673988 -284.005402 73.167679
-83.180504 -285.034332 74.590767
-64.951401 -285.083740 73.373825
-62.315132 -285.908722 72.522179
-108.301132 -284.874786 74.666290
-50.366310 -286.617035 73.106728
-42.767761 -286.493011 73.989479
-13.939060 -285.295349 74.682701
-155.865448 -286.854523 71.893867
-41.726250 -287.918976 74.360733
-37.665184 -287.360413 73.057419
-21.897333 -290.627136 72.909035
-28.420643 -286.823914 72.680550
-31.091059 -288.156311 74.505524
-14.116791 -286.074921 73.672043
-43.264839 -287.846832 72.684097
-42.528904 -291.002655 73.276154
-23.345129 -288.886322 73.200882
-11.195611 -287.189636 73.285370
-4.974171 -288.718079 72.503235
-56.171883 -289.928436 74.271515
-17.514057 -289.233032 73.176071
-69.535309 -289.114441 74.697731
-57.125320 -289.234497 73.472466
-49.816505 -289.940338 72.734032
-15.535663 -289.696869 73.363091
-12.955975 -288.863037 72.734940
-5.751511 -288.870087 74.437172
-1.872670 -289.257874 72.979660
3.303724 -287.837067 73.150375
-105.442345 -291.504700 74.546478
-95.360207 -289.826294 72.587814
-89.807159 -289.770172 74.389214
-163.768066 -289.229218 73.390228
-142.009872 -290.780212 74.085297
-115.171310 -292.213379 74.077660
-135.556305 -291.752563 74.843414
-144.813217 -295.557861 73.924957
-155.483902 -295.700684 72.849968
-154.756744 -298.312653 72.929260
-146.326248 -299.626740 73.625870
-157.032730 -303.309875 74.963379
-143.001038 -302.459045 73.994286
34.426529 -16.534132 72.496460
39.903244 -16.291605 70.412849
48.159866 -17.628012 72.957748
42.545399 -19.000696 71.847572
19.406477 -22.422709 71.975121
50.398273 -25.423677 72.788124
44.878563 -24.688433 71.444374
19.167286 -26.902979 72.396240
49.688351 -30.942024 73.502060
29.661840 -34.568291 71.811974
39.900379 -33.778591 72.001877
47.835091 -34.660511 73.615784
44.405743 -35.680729 72.783821
37.032719 -39.321568 72.914619
-65.354523 -47.228630 70.817085
-55.985371 -47.312477 72.104897
-51.131733 -48.140099 72.821487
-79.300842 -49.987503 71.926399
-30.161268 -50.882988 69.411209
-17.794521 -63.197987 73.840355
82.666527 -69.329369 74.787720
88.713356 -65.844330 73.903305
87.470901 -67.027534 73.333801
-18.485733 -71.509651 71.961578
95.904083 -73.114395 73.448891
101.246414 -79.087830 70.922997
-41.031002 -78.845039 72.440453
99.192253 -79.718781 73.895584
100.088753 -83.874519 72.918022
60.115704 -87.859428 72.008568
66.129478 -84.750526 70.118057
57.528015 -91.590652 72.940018
51.539906 -90.733139 72.538307
61.860188 -92.676506 74.043480
99.849121 -90.033661 74.223305
-64.074165 -89.043556 69.346336
70.058105 -89.496864 73.468384
50.715084 -91.515602 72.612190
55.297245 -98.738579 74.236961
-70.835136 -100.459656 72.943420
-77.013893 -98.907906 73.810341
73.442688 -98.029099 73.460747
101.257156 -97.642670 71.851624
75.860741 -98.987740 73.325661
106.105515 -100.803604 75.098869
95.571983 -98.292160 75.054573
-81.184509 -99.040932 74.826180
44.067371 -98.929306 72.237778
52.987534 -104.923203 75.957443
74.832664 -102.883286 71.491516
87.146172 -100.889168 73.676300
95.387444 -102.149940 73.944794
-81.895607 -103.832619 74.107956
92.532478 -102.689323 71.355629
52.027943 -106.524124 73.166748
39.822277 -102.551949 72.812614
38.155979 -105.678825 72.100761
106.934380 -103.192459 72.598824
-84.436813 -107.175224 71.743858
107.345406 -107.064545 72.268700
106.177536 -111.590523 73.446587
36.599869 -111.954483 73.722412
38.853260 -111.245148 71.621025
41.140705 -113.539398 70.643288
35.754162 -116.676903 72.344681
-95.492561 -115.721764 73.638390
41.034863 -114.727104 71.526199
39.509815 -119.930351 73.117485
108.510925 -115.064835 72.869713
112.208794 -116.577332 72.322617
110.895248 -113.787331 71.322319
114.877388 -118.530624 72.593185
-82.223083 -119.021881 72.036926
-86.155418 -123.786804 71.981819
111.856049 -120.270653 70.851807
32.769878 -119.089455 72.909531
111.250504 -123.858643 71.881470
36.840694 -123.624352 72.354546
43.444084 -120.485970 72.779419
35.480141 -123.437737 71.816910
32.377872 -126.965775 72.715248
115.716370 -124.524239 75.070000
-78.543053 -126.076088 70.806816
-56.461685 -127.481277 72.549606
30.353727 -122.862236 71.719330
-85.233635 -125.181282 71.584778
28.122784 -131.998749 73.459328
-80.335556 -127.942596 72.652000
-60.049530 -131.837158 72.221649
36.671192 -131.197357 71.921471
-50.023083 -134.230026 73.133873
-55.256168 -132.931107 71.524742
39.069939 -130.455933 73.984726
-78.180466 -136.117569 74.246300
-60.097164 -129.951920 69.777245
-47.514637 -135.175995 74.007141
34.195053 -131.024551 70.946228
-72.198730 -139.149368 70.539932
-58.405033 -135.811630 71.976128
-47.003014 -138.637360 73.459244
33.931118 -135.719406 72.043983
-73.402779 -139.281708 73.101524
-60.783077 -136.311127 71.511581
28.311619 -138.273315 72.804642
108.499863 -135.006912 73.621750
-57.630974 -140.066284 71.891502
115.869278 -139.071762 72.640640
-58.236565 -141.067291 71.987846
26.310801 -139.212555 73.685730
-72.319954 -139.473587 72.729233
31.795019 -138.730164 71.401817
-45.634705 -139.477768 72.192230
109.911079 -150.350861 71.950134
28.518097 -144.373276 72.190224
-73.863647 -144.278854 71.641708
-56.612076 -143.590942 73.105530
32.482357 -139.527008 73.351402
-76.891930 -144.652939 73.288437
33.651569 -146.872757 72.410042
-71.908829 -139.898865 70.789261
-74.139267 -148.432312 75.058235
-71.982040 -148.867661 73.592445
116.858498 -145.320801 71.353584
-65.756607 -149.537659 73.446663
-40.351353 -149.700760 74.091522
27.136028 -147.598846 71.059669
-75.915932 -148.491684 71.739586
14.490086 -148.630981 74.116707
33.679630 -146.887726 73.205444
32.918423 -152.937607 71.443642
29.225956 -147.887604 73.367065
14.213376 -152.504227 74.794823
26.483301 -146.915588 73.273758
-50.321892 -149.798477 72.471001
-48.886742 -150.003036 70.774292
-68.688713 -150.034348 71.136230
115.789429 -150.747803 71.425438
15.139369 -151.113815 71.296028
27.136959 -151.053864 69.345001
-44.351685 -151.174789 72.701889
4.995151 -154.401443 71.500137
14.467555 -154.790131 72.624527
21.829611 -151.829361 73.149025
13.632594 -154.779266 74.549332
-38.070278 -154.599991 72.376282
12.325211 -157.061234 72.044342
-67.253922 -158.801163 74.505714
-47.231316 -154.267166 70.477959
-70.835960 -154.117783 70.099899
15.986498 -157.849564 73.217712
108.803154 -155.379837 73.507446
-66.741096 -157.426865 71.993881
-49.022640 -152.454208 72.244133
12.596612 -159.120926 71.611137
28.834095 -154.128891 72.610756
-49.145523 -157.508881 71.830612
25.009859 -153.939224 73.294083
2.173088 -161.682114 73.691528
20.058416 -158.666733 73.597595
-42.046841 -159.195953 70.563629
29.007616 -159.911575 73.311211
-45.432205 -161.124695 72.099831
-31.240934 -163.418182 72.122635
20.962008 -164.088943 73.047432
-39.017422 -159.116272 72.828751
-38.134998 -166.170807 71.292297
19.939869 -163.438614 72.158752
28.309860 -160.348663 72.803169
-43.369278 -167.225708 72.880585
30.137817 -163.871857 74.173836
28.739071 -166.074692 71.536331
-37.074589 -167.462936 73.520882
21.458462 -167.493088 73.715813
28.732533 -167.385605 71.015923
113.642899 -164.901154 70.464790
-37.693409 -172.349518 73.473419
-33.598763 -171.287094 71.238846
29.048927 -171.920578 72.774055
112.593063 -171.788437 71.341293
-31.167459 -172.512268 72.525772
-26.119068 -174.407883 73.122192
105.765327 -172.356598 72.483559
-32.685326 -175.947372 72.202263
-35.316788 -180.422882 71.644264
19.321756 -174.870895 74.307175
-24.460340 -179.234055 73.215424
16.455397 -180.055588 72.585686
-22.627932 -183.142380 73.712456
104.301666 -180.616287 72.052834
-28.044312 -183.766464 71.548508
110.550598 -180.389267 73.071892
-29.563046 -179.963364 71.757690
-151.615311 -186.585403 70.255997
111.303017 -184.854858 74.319870
-25.934149 -182.117371 72.352959
106.732254 -186.776825 71.776527
102.274002 -183.825470 72.306953
23.059488 -187.883347 71.908432
-26.949444 -188.104004 72.240776
-23.319178 -184.695602 72.867256
-23.707544 -185.917557 72.606049
-149.524567 -188.721008 72.451157
-144.823608 -192.295761 73.857422
15.405053 -188.158569 73.318756
20.015118 -196.079941 75.065384
-110.643280 -192.053040 72.240730
106.671280 -190.853531 70.948006
99.736885 -190.980286 73.972275
-154.948944 -192.137848 70.905380
-27.396402 -192.414902 74.354591
10.236568 -196.761124 73.163223
12.974205 -193.973114 73.433418
-121.505203 -193.439545 73.627907
-116.080460 -195.026291 73.423416
-132.381561 -193.474686 71.856644
-110.029572 -199.236053 72.483818
-18.569227 -194.526642 72.735352
-114.105576 -195.999146 73.323814
-111.586258 -197.617874 71.536339
-12.757734 -196.672089 71.782799
11.436968 -196.924271 73.457413
97.183914 -203.437485 69.873528
20.320719 -194.770035 72.959564
-165.514069 -200.844116 72.202354
-15.546293 -199.151733 71.027863
100.516869 -199.471527 70.163139
-136.102982 -200.514755 73.636566
-122.500160 -202.584000 72.592262
-22.329872 -201.860474 71.665352
-133.245285 -202.364304 74.591782
-131.204178 -202.447998 73.588753
95.407730 -200.116455 71.776398
-11.569794 -203.877060 71.787598
10.748641 -207.495148 73.739624
-145.605392 -203.996170 72.916382
16.628624 -205.187469 72.148338
90.547951 -208.256287 72.522705
-164.162430 -201.185501 71.160088
-8.033647 -211.976959 73.409111
-3.629725 -213.069077 76.083061
10.681298 -212.454590 72.161545
12.080047 -213.034164 72.236908
-90.239182 -212.904480 74.100349
82.896919 -216.561157 70.841743
-89.747375 -214.949982 72.187607
-90.026810 -213.971146 73.702507
7.473440 -212.878769 72.583244
14.560600 -212.686905 73.556290
-17.741066 -214.161530 73.541214
-13.180433 -209.705978 72.931885
-91.012154 -215.940948 71.441017
-99.556732 -214.825745 73.195953
19.208054 -217.553665 73.897926
-99.999878 -218.968918 73.887405
-6.566616 -217.948456 70.701904
-14.687340 -216.047028 71.919678
-3.944830 -220.763474 68.584908
-166.244568 -214.935120 72.926521
9.057436 -216.496613 73.224831
87.541702 -220.884644 71.875198
13.235091 -220.117355 72.502289
-143.744980 -222.557816 71.099915
11.090014 -222.267151 73.095375
-128.615051 -220.247772 73.481232
-98.713158 -222.461456 72.622459
-9.368398 -221.208984 72.738289
-117.397179 -222.547623 74.214264
-21.458235 -221.100433 70.638580
-12.938522 -222.211807 72.336281
-132.679398 -224.629333 73.238914
-115.941414 -224.727081 74.574104
15.482930 -226.520309 72.545341
76.805855 -223.427399 71.856667
7.744257 -221.290009 72.858330
-167.207916 -225.565536 73.036087
3.121890 -226.094589 73.531616
-106.229195 -228.651825 72.025864
75.953491 -228.082581 71.740303
81.091850 -228.954285 72.762177
-112.903030 -231.940475 74.255432
-0.886148 -232.423325 72.589737
-122.838791 -229.921783 74.286430
-116.516388 -231.758881 74.118340
-4.286390 -232.199295 71.772652
75.445839 -231.337372 72.071655
-11.470875 -230.444077 72.146370
-134.663452 -230.639023 74.109215
9.545863 -233.588608 72.183945
72.405807 -227.568954 71.682098
64.714081 -235.468307 73.342819
72.712929 -233.744568 71.637970
-129.138260 -233.526917 72.588020
16.414339 -231.121811 71.755951
69.783524 -232.803986 72.215729
-6.467899 -233.438599 73.503380
-3.622530 -233.684799 73.702797
15.967244 -237.766876 70.708282
70.533958 -233.348663 73.350533
67.012619 -234.702591 73.958679
64.764534 -238.300476 72.220711
-167.112518 -235.413467 73.741013
-145.837448 -232.999084 73.499985
12.219223 -234.509796 72.574585
-0.304012 -238.508453 74.983940
17.854282 -238.807373 72.436935
55.468147 -240.217819 71.969727
-4.728506 -238.152252 71.631622
12.176139 -238.556992 71.699631
61.971680 -240.570847 72.608803
-19.283848 -238.836472 73.589546
11.366826 -240.098434 74.086929
-11.560840 -241.185410 70.331924
2.718426 -240.834183 72.255180
4.017298 -240.361618 69.398483
68.698257 -239.182678 72.388451
-8.402006 -240.337936 72.736130
7.673273 -241.443787 73.347198
