# This PCD file was generated using the MATLAB® pcwrite function
# from Computer Vision Toolbox®.
# .PCD v.7 - Point Cloud Data file format
VERSION .7
FIELDS x y z
SIZE 4 4 4
TYPE F F F
COUNT 1 1 1
WIDTH 1459
HEIGHT 1
VIEWPOINT 0 0 0 1 0 0 0
POINTS 1459
DATA ascii
23.428158 -182.958557 74.209267
-142.812607 -189.277512 75.906204
-147.025803 -188.070328 76.889755
-18.614660 -181.815308 73.212791
23.882929 -184.740845 71.371971
-32.227383 -182.560974 70.610428
13.763376 -183.623566 72.968880
-150.623276 -189.228928 72.894135
-30.147129 -183.408401 78.143227
-23.039764 -190.176376 74.655899
7.196311 -186.156830 74.022530
97.831917 -181.031998 73.238838
25.856722 -188.714478 74.137154
104.857460 -187.243256 77.110878
27.675674 -192.389023 73.268692
-15.162721 -188.635529 73.576752
-25.702154 -193.320999 70.013794
-157.922577 -197.460663 73.278511
-130.356628 -194.212784 70.653351
-126.120697 -194.828278 68.963226
-16.686119 -196.846848 75.514618
-154.980728 -192.524384 71.081276
-127.350052 -199.983765 70.938332
-20.774803 -199.067047 72.015556
11.364289 -195.309448 70.763626
101.650902 -198.149567 70.521286
-141.257980 -193.322647 72.074783
-14.685408 -199.569733 77.101303
-156.032181 -195.215591 73.122444
-140.137009 -195.032562 71.857124
-13.651337 -195.843521 74.112534
-149.683487 -197.390884 70.486404
-125.226341 -197.040756 72.216217
-110.979813 -198.871658 70.292595
-154.545547 -196.718384 75.082436
-26.086912 -199.512360 76.054375
-148.441605 -196.145920 75.451866
-149.292404 -199.037659 71.519707
-119.566589 -198.297562 71.539413
-116.244621 -200.679077 72.807663
-10.765500 -196.320999 73.420334
-145.334579 -199.754181 73.100273
-22.967840 -201.537003 71.511078
-15.037853 -199.195694 73.655258
-164.395264 -194.609406 73.244469
-131.374786 -198.368118 75.017288
-142.581665 -198.574310 76.262093
21.079702 -202.902466 69.694672
-122.749565 -198.829910 70.544701
-152.451004 -204.169128 69.908516
-162.942276 -202.296478 73.635147
-147.158493 -204.641037 74.664978
-147.068436 -199.516998 76.271736
11.796649 -206.140701 76.084602
-156.819702 -199.643509 71.100380
-17.932446 -203.232269 75.919960
94.007851 -207.545227 72.580132
99.646896 -201.341599 75.012230
-159.673523 -215.083145 74.364265
-10.037159 -210.435440 74.626198
-161.057861 -212.046677 73.780930
8.456139 -212.310638 71.214722
-80.312134 -207.258896 73.638000
13.700314 -208.785858 77.679695
-81.561813 -204.522995 74.837830
90.478134 -206.903564 71.407738
-79.704224 -208.469772 77.341240
12.690705 -207.516861 73.995796
-4.789092 -210.212891 69.788857
-151.016586 -219.994370 73.224823
-98.055969 -214.490448 74.224274
-92.547661 -213.139954 71.697601
-7.999664 -213.799622 73.856956
12.919659 -219.940018 76.334938
-148.927185 -217.704346 70.108910
-6.253307 -222.918213 72.543312
-93.077225 -214.177536 70.192482
-6.700495 -220.132431 79.021980
-23.934744 -216.345474 69.829468
-17.828726 -218.132721 72.192192
89.434570 -214.158707 73.827606
-18.233688 -218.397583 72.688980
-85.661575 -217.369827 78.494057
-27.228464 -215.853287 75.162750
-105.167419 -217.536591 73.787827
-13.751344 -219.042496 75.332954
89.376862 -212.168350 72.426811
74.527245 -216.962234 76.622620
4.642912 -217.900436 75.500961
-95.880196 -227.533752 78.629097
-11.248203 -226.955154 74.104286
82.418442 -222.358246 71.509468
76.794716 -223.262741 73.498825
-124.396912 -222.437805 71.544601
-21.701912 -224.434769 73.205513
14.497313 -222.059189 72.321075
84.782806 -223.269241 76.300644
-141.764206 -225.048050 73.843895
-98.460197 -227.381134 76.059250
-101.793350 -224.721283 75.861900
5.118800 -221.063614 70.318779
-162.678391 -222.980591 80.487129
-137.387909 -227.713348 74.800331
-12.400701 -223.786560 74.776108
77.454338 -222.275665 76.113266
-124.106293 -222.193787 70.465309
15.075855 -227.881775 74.008354
11.023125 -223.227081 73.053360
7.109314 -226.073212 75.722504
-113.826141 -229.334183 73.213150
9.593462 -225.012634 75.642113
-110.826851 -227.977234 72.366791
-15.414213 -223.531921 76.498070
77.604744 -228.955826 74.594627
-7.093884 -224.129959 75.144432
-15.569106 -225.410889 74.909126
-9.289680 -231.208755 76.719261
9.529138 -227.051041 77.198227
84.635719 -225.142960 77.106400
15.602931 -232.924728 73.660683
-122.553062 -229.820282 74.184258
-121.966881 -227.313980 76.416412
85.183853 -228.841232 73.109238
11.566885 -236.384628 74.405769
4.570390 -225.003296 73.457726
75.297081 -236.021835 77.251671
-141.680252 -233.513290 74.292328
-14.557031 -232.553436 70.720451
-1.890414 -231.513077 74.998634
18.451040 -226.865128 73.358467
-7.845320 -231.130875 77.352913
16.483475 -231.424133 69.581177
-16.818140 -231.451996 78.035591
69.632950 -234.625580 67.485023
-18.525013 -240.865189 77.322571
-12.166956 -232.634018 72.294304
-1.885924 -240.717819 73.336823
71.798538 -234.283997 75.314903
-11.849445 -236.035751 76.212624
-22.698753 -239.666229 71.459198
20.531710 -238.617355 71.478683
-7.479810 -238.247406 73.069977
8.422982 -239.069702 73.648438
-161.925827 -238.673935 74.958344
-17.378614 -234.501953 73.532669
-4.057199 -238.576767 76.779404
70.810860 -239.178314 74.682693
62.595055 -235.104660 78.095001
-13.961749 -240.730743 74.749359
-10.073678 -237.171127 75.525772
7.955066 -245.570786 75.110855
20.452341 -240.241257 73.447327
61.900486 -239.724365 75.868492
-165.952850 -246.294006 74.279709
-69.939232 -244.652954 69.749329
-10.841366 -244.850250 75.858841
14.467474 -243.395477 72.563690
58.480003 -242.871231 72.754433
-62.832935 -247.495926 77.621780
-145.355637 -243.429443 74.532631
-70.320114 -243.080185 77.910339
-67.978943 -249.403931 71.154465
-64.167419 -245.254639 76.870560
53.162354 -249.948105 76.171028
-77.849327 -248.613419 70.552132
14.581851 -242.044464 71.034309
15.973380 -245.701859 70.862228
-66.254227 -249.576233 72.922501
43.927479 -251.598526 73.416222
-96.896500 -253.837524 75.979744
-65.295326 -252.409576 71.303223
45.699100 -251.578705 72.677193
-16.345566 -256.740173 73.917580
-148.066910 -251.201874 76.203209
46.915150 -249.424454 75.759895
-75.602242 -255.572327 73.142723
-102.805870 -250.832428 71.699875
-145.384308 -255.370148 71.756508
-95.388649 -254.257736 77.357292
-113.596870 -251.725388 72.673958
-115.037788 -256.784760 71.130157
-105.773331 -253.613571 78.354675
-106.653023 -250.964981 76.296883
-107.409073 -257.101898 72.659218
-144.816345 -258.617188 74.450523
-139.255997 -262.190460 78.192749
-120.834488 -263.479370 70.620674
-135.521362 -265.161987 78.223648
24.953365 -260.539368 70.182518
-127.367966 -262.415039 78.336700
-135.652344 -260.941772 71.933098
-16.337482 -268.219147 74.658203
-14.276166 -276.960449 67.033524
-168.589386 -279.117584 70.699287
-143.689240 -281.147644 71.157158
-129.387329 -278.523987 76.303474
-7.718086 -290.209229 72.000542
-169.474442 -284.809296 76.594696
-121.045273 -285.226257 78.370033
-100.273300 -282.867920 78.445236
-83.041428 -288.041412 78.561089
-63.644001 -286.848114 73.671806
-58.832489 -281.788574 69.579956
-105.842018 -284.233002 71.758629
-50.853931 -288.480957 78.216080
-42.339851 -280.764160 71.485817
-16.330050 -281.163147 75.520889
-157.765823 -284.744812 67.843658
-38.308025 -286.874359 71.957016
-41.568581 -288.863922 73.810349
-28.502403 -294.441620 76.606804
-28.870447 -287.590607 73.688194
-27.247080 -288.348907 74.486343
-13.058583 -287.654266 72.559532
-43.730171 -286.788940 65.749519
-44.486809 -288.791779 76.505524
-27.956438 -286.427948 80.586868
-14.177784 -285.306702 74.791969
-3.435136 -286.946381 74.946770
-55.102398 -287.056549 75.405052
-16.962574 -286.700287 72.629601
-68.186531 -289.309387 70.868340
-56.667770 -289.712219 75.945602
-50.264088 -290.294067 72.433357
-14.143250 -292.091400 66.613022
-10.220708 -289.031128 76.069405
-5.666892 -287.706512 68.187912
-3.176367 -288.129608 73.940155
5.789122 -288.397308 74.975739
-113.243698 -284.549744 72.990074
-93.390190 -295.072845 71.348877
-90.545029 -291.182678 72.431427
-163.542892 -288.512299 73.370537
-143.248703 -287.113525 69.027527
-113.324478 -290.605347 75.621857
-138.705612 -293.791016 73.711639
-143.901581 -291.084137 69.425697
-153.860336 -301.670288 72.717293
-153.716187 -298.215393 75.386230
-146.363693 -299.471130 76.167976
-156.116562 -308.059387 74.495705
-146.910065 -304.398224 68.979431
32.155022 -17.357010 75.999863
40.597210 -22.531338 69.654945
45.872952 -24.212303 74.732086
46.899422 -15.351517 73.472504
22.381901 -24.900217 70.885811
49.258797 -24.969326 70.481949
50.706970 -25.361519 73.494644
22.068132 -29.595016 72.243462
44.589371 -32.959438 72.981529
31.443146 -37.438519 69.762260
39.386211 -34.964333 70.709755
48.028465 -36.131908 72.441360
43.931145 -37.331692 73.658447
35.223000 -40.496216 73.268288
-62.226608 -45.518093 71.497589
-52.514553 -48.494312 69.088188
-47.434681 -49.575375 72.758904
-73.954521 -51.360115 71.944496
-24.145599 -51.514839 65.429756
-16.875023 -57.706188 77.348282
83.206482 -64.817421 73.275978
90.213898 -65.422707 73.466019
91.215462 -66.594170 71.078377
-22.666111 -74.055176 72.113762
94.403175 -71.742340 74.324745
99.902908 -80.618797 67.835747
-44.930492 -77.729317 77.347733
103.353127 -80.295395 78.933701
95.958237 -85.245590 73.497238
57.253914 -88.905754 75.430161
65.950813 -89.867691 71.549484
55.197498 -97.509445 72.660553
54.824837 -92.218254 75.984856
64.112099 -90.277946 74.558647
105.972740 -90.289841 72.572624
-64.499825 -86.554626 72.149521
68.155441 -91.016090 78.234993
51.643761 -94.195808 74.687317
56.287792 -97.791458 76.810516
-67.520271 -102.636337 70.087822
-73.497604 -98.558929 70.761055
72.727119 -90.155632 72.101288
104.741982 -92.445557 74.457596
76.892776 -96.375847 74.895996
106.198181 -103.976883 75.041672
96.976959 -97.043022 68.164627
-80.683418 -99.399124 75.168053
44.558800 -96.699005 78.642082
52.623051 -103.195702 72.219063
75.812180 -102.827385 74.701408
87.623322 -98.692612 77.751747
92.010765 -100.678795 68.705467
-80.132126 -104.892380 70.961060
95.397003 -102.507851 73.670921
49.016045 -107.073837 77.435852
40.759052 -105.397385 73.839073
39.628822 -107.423843 76.876320
108.324417 -104.141731 72.077972
-84.924347 -112.192230 74.295570
108.155975 -105.758675 72.745476
112.367622 -109.626816 73.340942
38.690945 -114.866188 71.935074
40.976376 -108.805107 75.054230
41.393585 -114.968658 73.646400
32.331722 -117.214272 73.530075
-98.774277 -121.183792 78.503632
44.591991 -116.409485 74.561211
37.876846 -118.158737 75.191559
110.277496 -112.978584 73.554932
112.327477 -114.145958 72.293922
109.502930 -114.833549 74.644447
115.697838 -124.584091 71.395454
-79.130524 -119.211769 73.122910
-82.749573 -125.707573 74.078133
109.134338 -121.883286 65.970985
33.424500 -120.500359 74.615280
109.253448 -126.811729 72.338524
41.994648 -122.134972 75.231506
41.722004 -120.807640 71.199799
37.314968 -124.587898 69.913696
31.296843 -129.231995 72.261505
117.770241 -125.072685 69.056801
-80.447433 -125.420639 74.508957
-52.001781 -132.508011 69.476952
32.917809 -121.421837 71.629364
-89.378181 -124.385811 70.238884
31.883106 -128.401443 69.158424
-80.529785 -122.233994 67.009300
-58.888550 -127.148026 70.677689
39.279545 -133.503250 73.966919
-48.476986 -128.867889 76.321747
-54.666130 -129.264206 73.460373
37.283127 -134.234863 70.383545
-76.314720 -137.661865 67.426552
-61.636650 -130.198822 75.584709
-46.072166 -138.379776 76.839828
31.115942 -128.466217 67.949234
-71.622696 -144.112747 73.713745
-53.650562 -134.662399 70.113564
-48.950535 -137.069046 76.861839
32.928780 -136.418564 74.864235
-75.571823 -138.060654 76.194809
-59.778290 -136.128082 75.240471
26.534529 -135.985229 71.274101
107.898979 -133.745682 73.110611
-56.189781 -139.921387 68.760216
118.146072 -138.658630 73.583321
-58.172592 -145.369034 75.756065
29.108213 -136.723190 76.791237
-73.546799 -139.874786 75.273613
27.344421 -145.106964 68.715553
-47.663616 -142.291290 72.099350
107.990265 -153.101151 71.258156
29.877151 -142.486908 70.415092
-72.871445 -144.445419 74.115578
-63.743191 -142.137207 70.176804
31.628231 -136.800262 70.483421
-75.691971 -148.193527 76.467812
29.958145 -142.574753 72.298225
-71.564430 -144.480148 71.914116
-75.415619 -145.033615 76.655594
-68.878670 -146.452454 72.191063
115.232063 -143.899826 72.112358
-63.670628 -147.135956 73.180885
-46.415867 -146.301437 75.182777
27.359030 -150.168762 67.877640
-76.901115 -145.912491 72.139847
15.584496 -150.494019 75.988968
35.300682 -144.986786 71.442657
34.628654 -149.876251 69.585075
31.781126 -143.404312 74.493721
10.796149 -151.720200 72.360741
28.398357 -147.125595 74.454575
-52.825859 -150.300323 74.427475
-49.207203 -150.885513 75.851440
-69.237831 -152.157806 72.570518
114.581886 -156.637329 70.703850
17.697363 -147.097855 70.377441
30.161877 -152.689224 70.237785
-36.148640 -153.208832 70.248138
11.857307 -153.263702 71.537132
13.646979 -155.511276 75.375610
22.410629 -148.885162 74.628540
17.658390 -155.261612 72.523117
-34.697636 -152.452377 73.834648
11.551068 -153.778564 76.796944
-70.306961 -164.266479 72.348091
-42.870052 -150.614548 71.605888
-75.947304 -151.806808 74.191628
13.192699 -155.925674 72.513306
111.222916 -161.278824 71.253967
-69.455032 -157.118073 74.977097
-44.811279 -153.690948 73.987411
15.680424 -161.982437 73.144264
25.939785 -156.640381 74.413979
-47.447937 -153.257278 78.215988
26.098902 -153.819565 73.978645
1.095059 -161.063049 73.349678
18.254841 -161.413116 71.952721
-47.889957 -156.125107 65.388527
35.650482 -158.256104 71.191010
-51.196354 -161.073303 69.874481
-32.328350 -159.689865 76.265450
21.382420 -161.289886 72.674980
-37.386826 -158.397156 65.912102
-43.163948 -164.621750 74.494766
20.765717 -164.268906 75.717026
22.732100 -160.070984 71.681190
-38.895855 -166.268768 70.537575
28.253069 -163.205093 75.835304
24.510265 -167.334000 72.443077
-37.741219 -168.057175 73.451447
18.605185 -165.928131 76.057823
32.359478 -167.981552 72.822739
114.531883 -167.568909 69.452057
-43.034786 -176.414642 72.943497
-33.142605 -168.233261 72.656555
28.830803 -169.239670 76.321007
109.805923 -171.292526 74.427628
-29.611008 -167.533905 73.845604
-25.995916 -170.711853 69.984406
101.898666 -170.956741 73.840683
-39.259739 -174.978867 72.471352
-30.225651 -179.359436 70.348984
18.285889 -176.463226 76.232300
-24.571247 -181.152084 70.051353
19.385962 -180.187531 80.063385
-18.310694 -180.780869 71.052437
104.170532 -182.887024 72.552986
-29.885250 -185.753479 73.562820
110.167976 -182.884537 73.903374
-28.982647 -179.775558 74.425400
-152.374832 -180.985199 73.332993
109.117088 -187.350159 70.003876
-24.517117 -185.990891 72.355354
103.363251 -186.417770 74.758522
103.817032 -182.614304 72.822311
21.291126 -191.953888 74.716988
-30.450153 -184.337753 69.925117
-22.740496 -187.779480 75.749313
-19.146717 -183.915604 70.701225
-147.502319 -187.177399 70.180542
-145.425461 -198.812775 73.860954
10.817975 -186.202621 71.090225
27.221359 -202.097366 73.048187
-105.520805 -187.793304 70.388290
101.618767 -186.697479 68.591957
99.185249 -191.327393 74.853142
-152.989746 -191.452362 78.001663
-28.893246 -186.575394 72.333168
10.306911 -199.252945 66.941223
10.610308 -194.595367 79.560333
-123.452316 -196.559570 72.627823
-117.074036 -198.807907 71.017036
-131.994247 -195.997406 71.012924
-109.763710 -197.490387 68.494591
-20.080978 -195.268921 68.812538
-109.973061 -197.451462 72.229797
-110.874290 -193.167801 72.166382
-15.430247 -192.060715 69.947800
7.876280 -196.408524 71.803368
96.093681 -200.975723 72.907867
16.808575 -196.390427 70.843483
-168.320267 -202.027115 74.410065
-14.824636 -197.743729 73.110229
105.128174 -202.128952 71.121864
-135.040985 -203.142929 70.868965
-120.467339 -201.228256 70.953728
-30.134598 -204.007126 69.987526
-131.788910 -201.731567 72.549095
-132.151306 -204.858337 69.153908
99.065613 -202.563339 78.141373
-7.389134 -198.779678 72.470192
11.719798 -206.437500 75.011681
-143.296768 -207.927109 75.182236
22.073574 -210.559036 70.187469
92.774872 -207.845688 74.283821
-164.390533 -201.691849 75.448036
-12.685589 -209.299591 74.001068
-2.065942 -215.580765 77.934868
8.991611 -213.905945 72.647636
12.260353 -215.266159 72.419792
-90.983513 -213.940628 70.576515
86.830482 -217.859436 71.184982
-89.551956 -212.214859 68.277496
-90.173294 -212.631653 76.101021
8.824061 -211.646713 73.465645
10.759043 -214.007233 70.989021
-17.208025 -211.162231 70.461563
-12.038026 -209.451706 71.003014
-94.124023 -220.894089 71.257263
-97.070099 -216.811539 73.576935
17.361971 -217.923218 73.674965
-99.728157 -219.241669 76.486450
-0.985715 -217.863083 69.893387
-14.973130 -219.926514 72.713181
1.012670 -224.279175 65.517838
-167.586838 -211.764862 71.496986
11.484025 -217.524200 71.573845
87.513374 -219.005325 73.394966
13.263581 -220.813736 71.893845
-143.687408 -225.807526 73.012054
8.996666 -220.524567 69.408203
-126.441856 -215.569031 76.771263
-99.133186 -226.820526 74.832596
-8.235480 -221.152222 72.825714
-119.693497 -224.371597 74.726860
-21.197666 -221.723694 76.047089
-11.336555 -220.214127 72.735260
-128.765793 -230.548477 76.504974
-111.368553 -225.568130 71.914482
15.001016 -229.145157 73.878746
78.426682 -229.603806 74.871407
5.707720 -224.827835 70.597771
-162.452972 -230.755997 72.121704
3.221434 -222.130798 71.570854
-107.333374 -225.361664 71.143425
73.917076 -228.516510 70.227837
83.672440 -226.790649 73.902145
-111.756355 -229.872894 71.264839
-0.880264 -235.571793 71.331314
-121.338989 -226.258133 69.517387
-118.905594 -229.679733 72.198547
-2.776863 -229.642029 75.680908
73.352600 -229.259109 73.715271
-11.122988 -232.623703 72.011238
-136.110275 -231.052750 72.255211
4.885703 -233.415771 72.896622
74.370789 -229.038132 76.187195
62.420197 -238.642960 71.643730
69.852402 -232.389069 72.617447
-130.078949 -233.254440 75.181877
16.913446 -230.649841 73.227577
76.260674 -229.227432 71.743355
-7.673050 -234.269501 75.660652
-1.738451 -232.478760 69.918221
10.345869 -237.318634 71.548828
71.428345 -237.873901 68.109840
61.539661 -231.633743 70.343079
65.136131 -241.605606 72.263512
-163.940903 -233.365570 80.354897
-145.586670 -235.519348 70.864662
17.855209 -236.535263 73.053207
3.198523 -234.851028 74.569969
15.434726 -239.557968 72.841576
55.546543 -240.792892 77.878288
-4.656036 -244.500854 72.687820
12.893212 -240.818481 71.229424
62.477123 -237.367035 71.858688
-23.912079 -240.881760 70.049377
8.332064 -240.036514 72.874756
-10.771615 -242.431046 67.425720
6.270472 -241.175385 74.946884
3.798919 -240.472351 67.296761
67.412254 -239.725357 76.418961
-12.195562 -241.613129 70.957550
6.641045 -241.969360 78.984406
-149.526917 -232.286499 71.535439
-4.559729 -241.284241 69.240257
-166.250214 -236.852341 71.306183
52.590729 -235.787445 71.581444
63.296661 -236.964294 74.330063
17.669216 -241.812439 69.824684
-166.088196 -250.446732 74.208611
62.479279 -243.899734 74.581680
56.582958 -247.361664 75.860100
49.099625 -245.973099 70.278831
-68.773048 -244.129623 75.767067
-11.185373 -247.814285 68.312851
58.678432 -247.496552 75.572632
-70.479622 -247.152115 71.466408
-71.917305 -245.027969 71.713203
-71.889473 -249.928177 66.423271
-88.383606 -248.293594 70.049980
-68.398781 -248.007065 74.605446
52.034519 -248.379578 72.845100
-91.456367 -252.022461 69.886642
-80.075066 -252.346359 72.894859
-125.134300 -256.927826 72.233612
-164.648224 -249.970718 74.428886
-127.708244 -255.898895 71.045967
-77.332527 -251.701050 76.848946
37.870266 -249.970993 71.159637
-131.404861 -252.871384 75.472549
-113.628792 -257.889221 71.528648
-83.483376 -255.280487 72.112419
39.634586 -254.616058 69.257355
-114.684685 -257.445862 75.485504
-89.283440 -257.705170 70.557838
-96.431267 -257.959595 75.433983
37.264095 -254.960403 70.004921
-14.376267 -259.310577 64.181396
-112.055428 -257.305511 75.875641
-141.325653 -258.685883 73.772583
-125.214752 -260.367493 78.137100
-156.696365 -260.098572 70.695793
-123.308380 -266.816742 72.697845
-167.670227 -256.757843 75.140205
-146.115585 -265.640625 71.946342
-151.507690 -263.117981 69.101768
-12.365493 -263.610474 71.490860
-170.993637 -267.144012 75.846008
-15.607027 -272.551727 75.513306
-158.840103 -272.511566 72.921799
-150.009521 -273.631104 69.889801
-168.590927 -273.561218 75.346092
-161.566971 -274.915588 70.133881
-12.276141 -270.365967 75.645370
-161.468384 -284.280823 69.290947
-151.392105 -275.947479 68.998268
-132.703705 -280.324371 74.733673
-157.991043 -286.041809 70.790543
-146.097580 -284.183746 75.794411
-134.774033 -278.352753 78.685867
-6.130324 -286.865021 70.441414
-120.581429 -282.736816 70.548782
-142.297989 -289.765045 71.819824
-138.748871 -287.348358 73.135071
-109.133102 -289.097992 70.495468
-95.743401 -285.171234 74.668282
-72.326523 -285.061707 67.064034
-76.446533 -288.978271 70.794693
-64.631050 -284.337067 72.561493
-66.849365 -284.625427 68.290031
-57.679085 -286.916199 72.662170
0.288563 -285.607361 74.537544
-53.275459 -287.350952 69.512390
-51.295872 -290.132050 71.822327
-53.287601 -288.380402 74.122673
-68.412819 -287.581726 71.689018
-59.056515 -289.634918 72.449066
-66.624695 -289.210480 77.370384
-92.048195 -286.297302 72.594513
-80.658310 -292.599792 76.571495
0.350973 -290.147186 72.470818
-99.080711 -291.704285 71.336586
-124.291992 -292.405823 71.246933
-158.671661 -288.230255 72.321938
-137.539413 -286.644318 74.796555
-158.897079 -290.516083 77.282425
-125.962402 -292.331116 81.277725
-129.256027 -294.776855 73.592690
-140.401352 -290.381226 76.391624
-159.341110 -293.613678 71.213837
-157.441437 -302.379181 72.110596
-160.291306 -295.520355 75.483475
-146.944122 -311.483307 77.049713
26.642935 -12.893303 73.986061
53.107449 -19.288992 71.374954
21.361797 -22.526186 65.941887
43.013962 -29.687313 71.359398
43.994781 -34.238037 73.918236
47.466484 -32.696957 74.546143
22.281549 -37.847538 74.699844
-54.644684 -46.533241 66.652618
-55.097546 -49.406738 71.692108
-65.920586 -47.733971 71.773193
-74.141853 -53.204514 73.988922
-90.764717 -65.794724 70.731720
-16.070141 -63.171146 77.523758
85.962425 -65.310471 68.215195
85.659561 -67.654030 69.738770
71.970505 -64.113335 68.040955
72.671936 -68.885277 71.613289
93.479752 -63.839230 77.117142
94.097900 -68.821548 76.964485
-93.035912 -67.317673 71.737808
71.816734 -70.075096 74.400703
-98.800362 -71.421600 74.236473
-36.268414 -77.914268 70.577271
-29.654352 -78.572319 72.991005
-41.568512 -79.958786 72.760872
-95.674149 -86.733444 71.788292
55.681774 -88.932816 72.362259
54.456573 -88.425751 70.436882
99.053040 -86.277763 71.142845
-57.790653 -91.714371 70.260735
63.786263 -88.483360 68.552940
98.812111 -93.012314 73.530647
51.089020 -92.621880 73.558861
99.116722 -100.868507 74.525032
44.217754 -95.968857 71.406006
109.705650 -94.144836 72.214760
60.973454 -91.782799 74.030212
66.976768 -97.439690 68.954399
102.565712 -97.906410 69.283844
70.810493 -102.722595 70.331123
-74.108383 -99.963936 72.998535
-74.371979 -96.527916 71.142715
54.150997 -100.696747 70.884041
97.446297 -101.263138 67.078369
102.037865 -99.437241 71.698616
108.914520 -99.510002 72.623566
84.144737 -99.610161 78.533150
109.320770 -100.591248 72.141884
53.980991 -108.174515 72.658188
92.597961 -105.114563 70.606369
76.872505 -105.331528 65.516571
38.481434 -105.885643 70.797417
109.898888 -104.180397 71.006622
45.072403 -113.061890 73.811638
52.006275 -105.793854 73.821617
-79.711197 -115.576141 75.211792
105.051704 -114.080948 70.951462
106.494850 -108.062180 69.614624
45.977047 -111.011368 69.346909
108.582993 -116.028320 65.407494
46.330021 -112.781731 74.092041
108.027962 -111.819695 74.165276
108.797783 -108.002731 73.030350
-83.789474 -115.447891 66.695290
-81.451447 -109.920746 69.895531
42.880623 -119.519142 69.596680
-83.678391 -111.931168 72.289299
40.918995 -118.084747 73.221016
37.250816 -114.517746 70.157440
115.686096 -115.999367 70.198776
111.658691 -123.174217 70.343452
-81.265114 -121.793259 73.405182
40.205421 -126.635536 69.650513
108.895248 -118.824265 73.755547
-88.752525 -125.108910 75.181030
-76.017136 -122.072617 74.399544
-71.262665 -128.117874 72.512405
29.616291 -121.844566 67.491272
-53.634880 -122.437309 73.981667
-60.712044 -129.623199 73.918701
-54.172176 -125.598145 69.887703
-79.318977 -132.120972 74.248802
-75.796844 -135.395081 70.362717
-78.179512 -132.007050 73.363625
-52.491371 -132.624878 70.096695
113.472992 -130.125549 76.646393
-86.933136 -131.555206 70.304306
29.990677 -135.079483 73.503319
-76.596725 -134.799606 66.804062
38.403770 -135.714600 71.874573
-75.289604 -135.237106 73.294319
38.034885 -139.677048 68.075912
28.777605 -131.941620 76.624817
110.934967 -135.716232 73.334488
-50.081974 -137.299789 67.854889
25.546883 -137.897659 70.847870
-78.034172 -140.250244 67.174644
-71.604584 -143.474289 72.427406
-41.606258 -148.780716 75.541466
35.728493 -143.240280 73.196457
112.357826 -141.066635 65.959129
-46.721508 -143.782104 64.358315
28.659977 -148.910049 70.710342
111.864273 -142.339447 74.656334
36.086243 -143.221863 71.704742
109.838264 -145.689117 69.746384
-58.851921 -143.635193 72.545380
21.534088 -143.775528 69.914070
-74.954865 -147.448746 69.587204
-56.632221 -144.309586 71.894791
-70.748627 -151.014145 74.609863
21.039101 -145.549301 72.836632
-44.490379 -145.405457 72.012283
-48.647194 -155.404129 75.346947
-52.791260 -154.655289 74.281082
26.764698 -149.189209 69.022011
116.778061 -145.356689 72.509323
-67.187782 -150.652893 67.075478
-48.852066 -153.729477 70.354561
-68.481186 -153.915192 74.783684
8.762811 -154.805084 67.170494
6.550611 -150.686310 64.387161
-44.346241 -161.000778 75.513344
-43.071033 -154.837723 67.727913
2.606575 -159.911392 71.828728
14.056645 -158.019135 71.099289
113.277481 -148.607742 69.400658
120.554047 -156.085190 72.814110
112.517746 -154.644821 76.217041
9.650821 -158.312241 68.205154
11.319477 -159.127869 73.341591
14.620517 -160.491302 74.975502
13.175329 -157.070145 75.554756
23.828741 -155.016632 67.153999
116.087494 -158.424438 70.727013
111.493599 -162.120605 71.518837
116.145020 -162.584518 72.531891
25.306269 -166.088867 74.054321
108.074081 -162.507523 70.002388
30.064613 -168.964996 69.362541
22.126637 -171.452911 72.592781
114.129890 -163.403244 70.097664
111.655128 -165.580353 69.711349
-30.669376 -169.445663 72.453308
115.370026 -171.419434 74.310860
19.816418 -170.004303 73.231773
24.011600 -161.630646 71.187088
110.687996 -174.711731 72.081238
113.696106 -172.418961 64.441650
22.328245 -180.461334 66.288658
25.623346 -166.990158 76.744362
-35.312023 -176.008316 74.132339
110.420845 -177.366760 69.185432
-101.979019 -174.462555 71.372040
-142.602432 -172.503006 71.301788
106.496651 -180.081116 71.612099
-33.316887 -180.175018 70.671768
22.791361 -177.502029 71.799606
18.894640 -178.147491 75.631668
107.755127 -179.588470 72.601906
33.144737 -184.133469 69.988388
27.232470 -176.527954 69.150223
-154.844070 -183.563675 74.460114
-36.632847 -184.587296 71.083633
-108.534866 -178.303070 73.884132
-30.389580 -185.766891 70.880814
10.658468 -184.524551 69.920265
21.644924 -188.432159 71.473335
-112.124413 -182.810883 69.420151
-108.386879 -190.135818 72.345070
23.564749 -184.022232 69.450310
105.651512 -181.911728 72.626244
16.627014 -184.860641 69.544281
-24.359571 -188.395096 73.998528
-28.693188 -193.313187 69.336647
-21.535234 -189.240417 70.730522
17.032122 -183.348907 72.532051
26.011826 -196.067215 73.682518
-149.977722 -191.074814 77.406517
-143.481125 -190.100586 70.898880
-16.614695 -191.669571 68.866676
-126.459053 -193.421173 68.637917
-21.123970 -182.803177 74.047249
-143.679825 -198.258179 71.202080
-25.706350 -190.056778 69.183846
9.474505 -193.080215 71.939713
-160.163116 -197.787506 71.748703
96.204216 -192.510620 70.106476
-113.705055 -198.898849 72.140175
-26.257500 -193.134720 73.180809
18.563301 -194.050171 73.245964
-19.733549 -194.330612 69.636101
14.593452 -198.647964 74.190849
18.360916 -193.824402 70.857399
-17.305471 -196.494995 71.175880
105.894333 -200.140076 66.329979
11.635135 -198.019653 69.442360
-110.339005 -203.165939 70.253845
-18.379763 -193.517151 67.403946
-117.795006 -203.134399 72.803078
-134.434845 -207.278717 77.488297
-123.677353 -206.343002 76.194466
-115.194077 -203.945801 68.175964
7.453860 -199.371353 71.827660
11.067136 -198.164276 68.679901
-139.768906 -203.212357 68.643425
19.449404 -205.624130 70.471817
-133.476425 -205.440308 69.925522
-21.734009 -195.032501 74.069115
-13.013606 -205.809845 70.091560
18.217505 -204.283661 70.841507
91.255325 -202.658020 72.127724
-166.998993 -206.589706 74.521645
-10.580639 -207.443146 73.424294
96.678841 -207.114853 72.415253
-23.259720 -205.743240 70.517754
12.004346 -212.554214 73.837395
94.053368 -214.093658 68.088135
-14.869547 -207.491196 72.453705
10.725566 -204.638519 65.557426
95.354118 -215.896820 70.110054
13.763383 -206.508316 70.621910
19.316610 -209.315125 69.566216
90.008133 -213.638336 73.638885
13.694888 -206.764725 74.255501
15.161765 -212.731842 73.720947
-19.648624 -208.797607 71.745277
15.118204 -211.851883 74.599609
-144.427780 -218.868698 71.166397
-15.621302 -219.600052 71.443741
90.423470 -209.155350 69.895714
-15.429801 -213.299942 77.111519
-95.601372 -216.963974 70.698845
15.656190 -217.932785 66.020340
-98.977013 -220.154694 70.909966
-9.234962 -216.066147 69.863457
83.526581 -219.348038 70.802048
84.644341 -210.311310 73.448982
92.849152 -215.726624 70.285172
-95.311775 -220.874329 73.783272
-161.249268 -217.115799 72.211075
-105.866219 -219.930161 75.032104
-91.864998 -220.463196 71.707314
12.495238 -222.042999 71.705238
-2.527021 -216.675644 74.813400
86.657906 -219.765869 70.125885
-141.349396 -221.163696 71.333527
-133.332352 -226.197281 75.076332
-118.003838 -223.974106 76.078339
-117.280022 -222.666763 70.174568
3.937715 -224.447296 72.218582
-134.688614 -223.052567 67.620834
-109.803917 -223.358841 72.214668
-17.369551 -220.997360 70.076729
-11.929749 -226.656128 72.371964
75.294510 -222.335999 76.996933
-114.560242 -230.231949 76.184006
-5.050999 -220.351990 74.499107
-18.771000 -222.451752 69.652901
-1.232006 -228.073502 72.170563
-2.436023 -222.848907 73.383743
-14.072747 -226.745239 71.425667
-107.554733 -224.609329 71.129883
13.827297 -228.352493 73.422691
-25.264811 -229.046936 71.933975
81.589470 -225.362503 71.489410
-164.820908 -230.001160 75.216438
-108.351990 -227.346390 69.852066
4.470768 -229.248962 74.159927
-2.581889 -237.924622 73.753616
72.967743 -230.583450 67.072815
9.827289 -229.049988 72.941460
-11.867754 -231.971222 67.883690
-112.809120 -228.977676 70.628906
-131.437378 -236.228577 68.631538
15.135291 -227.830383 66.778351
-155.228745 -232.950363 65.181770
-2.885578 -228.796371 70.806595
-155.430023 -238.461075 74.156258
-138.509216 -228.140884 74.539749
70.639488 -226.281708 71.434975
-6.902490 -236.783401 65.256523
4.386713 -235.960052 73.465340
71.799294 -229.945831 73.802246
73.788841 -229.728531 69.627052
9.258416 -236.042847 76.607239
70.822998 -235.821487 70.716682
73.021858 -237.152176 70.800964
-0.590138 -235.729263 70.318565
65.997444 -233.832657 74.555489
-0.402200 -236.005035 72.335480
62.213486 -239.021423 72.654137
-166.297852 -231.821487 73.626526
-17.771711 -237.710022 69.962692
8.777251 -239.806076 70.628494
6.218553 -243.827850 71.390648
7.502872 -243.784836 75.914429
-16.388412 -244.307724 73.408470
4.370935 -234.296402 71.276634
64.009880 -239.228241 74.226875
-155.623108 -245.897949 66.589294
-152.848236 -244.201645 73.357315
59.210152 -242.861343 71.542900
-13.540992 -242.472946 75.842911
51.793835 -244.261185 74.953842
57.270802 -247.294800 71.647659
-144.640945 -247.807404 74.463287
-18.387932 -250.844879 72.899445
54.036575 -247.940308 69.698250
22.292913 -251.080338 77.266548
48.534924 -246.882858 71.965157
-77.440155 -251.405899 73.820839
-79.068275 -248.761108 71.489822
48.078381 -246.108292 74.243652
-83.944351 -251.068726 74.421875
-70.829300 -245.609879 64.782310
42.665108 -250.718246 72.533478
-93.066017 -253.125397 69.763573
-74.214943 -253.669907 69.100479
-74.861046 -250.304413 70.828102
-15.354887 -248.317947 71.798637
-146.150299 -251.855042 74.173820
-154.888123 -246.030823 69.813812
40.944733 -253.728958 74.199646
-94.762573 -249.628967 76.934692
-9.321989 -252.967728 71.271355
-157.265488 -248.485931 72.704575
-139.114502 -251.143494 69.615898
47.694290 -248.842270 72.749687
-133.009537 -256.804535 72.463425
-124.761742 -249.966873 74.525360
29.799730 -252.407440 73.901894
-121.211067 -257.851288 72.026039
-117.784752 -253.436020 71.660736
38.219799 -253.291214 74.572678
-97.187248 -250.556580 70.471786
-153.407944 -255.736511 70.706787
25.133453 -250.269180 74.371239
-14.310387 -259.103973 71.135674
-96.221748 -257.150482 71.318932
28.876308 -255.701553 72.607132
27.088329 -256.513672 75.960182
34.370186 -259.564606 72.842674
-108.821426 -256.661743 72.432915
31.394796 -264.561798 75.756851
-106.823608 -264.053589 71.826897
-163.699432 -257.785889 72.997749
36.706612 -255.979340 69.894455
-115.695969 -261.354156 77.646492
-153.399704 -262.004303 68.088242
-110.699478 -259.605133 75.519669
-19.006569 -260.751343 67.904602
-129.693695 -265.964478 77.180367
-128.645142 -262.099304 75.280785
-158.713684 -260.946533 71.440063
-160.092209 -266.733368 68.270515
-15.032817 -260.996979 73.440727
-164.935333 -261.746307 73.557495
-11.526897 -271.041443 73.274170
25.545767 -267.240601 73.728683
-158.914764 -273.040558 72.555397
-165.048935 -275.181366 66.468834
-159.710983 -271.639771 71.086800
-10.705650 -277.092316 69.832291
-154.393311 -281.122375 75.258163
-143.022583 -271.164368 75.074547
18.961540 -277.297852 68.792564
-8.638562 -277.170410 71.779625
-168.124023 -283.271912 71.052513
-169.916641 -282.165588 73.791367
-163.474045 -282.926208 70.141457
19.060104 -282.756104 72.154427
-161.778458 -280.641022 71.762787
-141.362167 -284.616119 71.852936
-169.004013 -284.300507 74.719429
9.407319 -284.521118 69.979408
-113.176720 -282.881165 71.050186
-106.484459 -287.129578 70.066734
-102.912338 -286.211487 72.836067
-100.652702 -283.499939 70.000359
-87.843575 -290.873749 78.105888
-164.796783 -287.224396 70.317307
-80.300758 -291.186096 70.199448
-159.354935 -284.550018 73.053001
-150.865295 -287.168488 73.394096
-80.135101 -289.727631 67.821594
-78.854713 -287.293884 74.134689
-69.508408 -292.687378 71.532387
-66.866386 -282.643463 71.192307
-146.326675 -285.003693 67.750984
-82.975960 -285.573456 69.826027
-88.715538 -293.997284 75.352913
-5.500924 -284.502533 73.444069
-165.209412 -293.309357 69.604362
-162.391724 -291.000275 73.114197
-90.485207 -287.484497 76.471855
3.507423 -289.363068 72.755623
-97.720436 -288.961548 71.000954
-144.699158 -291.533234 69.784599
-124.913002 -287.723907 72.045151
-115.329613 -293.897522 69.734230
-109.230247 -293.156097 67.391159
-111.826012 -290.105377 73.714668
-158.683441 -290.903625 68.976494
-131.726746 -292.276215 70.371628
-152.465210 -292.840179 71.154167
-149.406815 -298.883942 74.619247
-143.166382 -296.690338 69.383545
-156.197586 -308.175659 76.655899
-140.540771 -312.395782 75.849335
-150.403564 -314.598541 73.199707
24.799881 -16.291231 77.088242
31.636860 -15.809671 74.029495
42.220509 -17.202507 73.001457
45.910980 -19.205667 74.456352
23.781759 -20.983534 69.830681
44.411522 -24.158695 74.221649
27.389324 -28.651937 73.667473
27.293739 -31.241299 72.358376
24.235729 -29.297289 72.704292
30.788485 -42.860836 71.760307
34.211613 -36.575897 77.109406
37.925140 -39.841846 73.344086
-60.546295 -47.751816 70.896095
-71.136803 -47.255810 73.535103
-47.192726 -48.832226 72.388153
-39.273861 -50.901173 71.133560
-32.792664 -51.329521 64.630394
-81.015350 -54.473427 71.457985
-82.692871 -53.002811 67.132622
-18.979658 -54.890507 74.425514
-14.506577 -64.270485 66.500671
84.470459 -63.144550 67.775490
94.058907 -67.316475 69.638130
-16.801956 -66.329308 75.360367
98.293785 -70.919693 69.906601
73.098297 -78.810875 69.588570
99.267700 -76.458435 71.946579
97.797379 -74.777802 69.470787
-99.207237 -76.233109 67.953903
66.940933 -79.275986 78.165009
65.932716 -83.689346 71.193108
-43.805698 -90.087791 74.107681
59.681446 -85.009537 67.186829
-97.564003 -89.069145 70.433495
60.525154 -87.244080 73.403984
-52.739391 -88.564941 74.735184
-51.383625 -86.781364 65.901398
62.504272 -87.111641 72.204315
-55.892128 -89.394470 78.514565
65.155609 -86.955559 75.107132
64.771118 -88.429138 68.359413
102.404594 -89.412964 66.559357
48.686180 -94.678703 73.599136
55.039139 -92.986710 72.435440
61.320320 -98.514816 75.270050
-99.521950 -92.757301 70.144974
106.134613 -97.670784 69.367516
48.835415 -95.261566 70.192833
99.520981 -92.708710 71.858627
108.574944 -93.338486 69.626259
41.146698 -106.432938 69.220818
99.806564 -100.650558 70.138145
47.291046 -106.159309 72.453209
75.115593 -100.823494 72.448059
109.443085 -103.620193 68.107979
71.876976 -102.395027 71.619530
109.790642 -105.455429 68.640739
78.850166 -106.297050 73.361565
77.992752 -101.614464 71.051605
89.419540 -104.098816 74.294678
56.185051 -104.742561 69.597839
114.416901 -101.511894 72.728882
43.185913 -105.113449 70.906227
45.050884 -104.605782 72.829430
110.575951 -109.074959 68.385208
-94.514603 -106.043106 72.775475
-78.279182 -105.452484 70.256409
48.797070 -113.368126 72.816948
36.703827 -111.295486 72.052856
-81.204346 -108.911461 70.617310
105.132500 -111.215279 67.814644
-80.875862 -108.175652 70.404503
43.144970 -106.686089 67.559868
42.228184 -117.231995 71.123413
-83.849701 -113.462677 71.008751
-96.981796 -111.922638 73.137894
44.855175 -108.218399 69.381500
108.657387 -111.619186 73.790474
44.064743 -112.765732 72.301231
-88.195511 -118.333206 75.536369
-90.730858 -119.930374 69.375984
-87.715355 -122.033035 73.512405
33.703831 -119.842751 72.605530
115.569618 -121.949547 75.704414
33.417294 -118.812653 69.794083
113.044098 -122.795120 68.934601
-78.732315 -118.434059 71.829803
111.270737 -125.350166 73.810265
113.365562 -127.516701 71.666550
-82.140999 -127.466957 71.396538
31.628277 -127.932373 70.298492
112.950035 -125.660133 68.138451
-57.594173 -125.314827 69.543335
-60.855778 -129.308731 68.243752
-87.172989 -128.411057 72.735382
-83.393326 -130.633102 72.325485
-52.130753 -124.728371 72.908134
-80.325500 -129.121933 67.908478
32.942253 -128.146484 70.489975
-66.152687 -130.728088 68.460358
-51.567154 -134.096527 73.359589
-93.242279 -135.750458 63.311207
39.048386 -130.073761 70.196365
114.300049 -132.590469 66.818596
114.885048 -129.059998 74.986145
-92.193443 -132.487549 70.533745
-86.745598 -128.366409 71.877670
-87.769249 -130.559906 76.837936
-79.312172 -134.559555 68.335617
-52.155766 -130.080154 68.494385
-43.151100 -140.805603 73.480835
-71.966003 -132.542130 68.597511
115.053360 -136.485641 70.542137
118.301125 -137.745773 71.766953
-71.230995 -133.395935 68.287712
-52.424034 -134.400314 66.839973
111.296211 -133.588745 68.633682
-72.951714 -133.147629 69.908676
33.644497 -134.306732 75.511284
32.804070 -130.238617 70.084427
-84.551071 -137.567139 71.530579
-73.085114 -137.564713 73.082588
-76.237213 -135.462265 69.011513
-86.001312 -140.479919 69.461403
-77.417343 -142.871460 74.498604
-93.029770 -144.273010 68.112419
-58.781044 -141.498810 69.560478
35.639957 -137.681000 68.210464
111.029221 -143.078751 65.250641
-56.231243 -145.470261 69.900208
31.391512 -142.493759 73.668663
34.058735 -142.132935 69.570961
33.566708 -149.578125 67.222641
14.221138 -143.825272 75.351898
110.817963 -148.737839 67.377342
-90.056458 -149.028625 72.622742
-57.351582 -145.705124 70.418648
-47.394905 -146.990906 64.983315
18.935999 -146.358109 72.738167
-94.079422 -148.459793 63.910866
-72.272064 -151.645660 68.407074
17.509851 -145.345795 73.015648
-96.249588 -149.974945 72.581329
-72.461914 -152.127670 67.377266
-42.409164 -152.541260 68.383186
23.768383 -152.737701 72.287643
31.818380 -149.562576 72.010185
-50.260479 -155.651947 66.212357
7.890649 -151.192505 71.721443
10.699114 -155.827408 70.023796
-38.200745 -156.213547 71.350296
-101.615982 -155.775070 72.180359
13.019076 -154.768921 70.087669
11.161155 -156.181976 69.233917
20.413538 -159.047424 67.662544
-102.678391 -153.227600 72.143570
-36.283169 -163.912338 69.433350
34.414352 -153.679764 71.008804
-101.429222 -160.716446 71.876762
-43.307629 -158.546173 72.001617
-35.192917 -161.940582 74.694557
-41.549091 -162.365204 69.041183
-39.448700 -170.088867 69.865013
28.791304 -164.647919 70.897758
-38.796581 -167.716385 73.453484
-104.176788 -166.901260 70.555191
22.581690 -164.706024 73.105003
-34.526573 -171.539917 69.302467
-27.917709 -171.443237 76.148643
16.879412 -175.340408 75.030785
-140.418991 -174.962387 73.381546
-151.352066 -179.071518 74.888367
-30.482765 -171.775864 69.310005
25.156425 -170.377777 71.698608
-31.032063 -179.678162 66.798309
-27.949081 -171.516708 73.112335
-149.350494 -178.615829 67.786652
16.707233 -182.547531 72.942017
24.510963 -174.041153 73.524559
-26.697113 -183.238617 68.669228
-104.931068 -175.467865 65.411507
-105.427574 -184.950653 73.605240
22.350298 -183.858047 73.389977
21.577782 -180.416397 68.808968
-30.698372 -187.451874 67.429802
-19.776150 -178.089111 73.094879
-151.368942 -185.264938 75.766930
11.850308 -190.297379 73.224571
19.324772 -195.576141 71.384026
-26.679461 -185.538177 69.261543
12.059984 -183.035782 69.084274
22.417616 -194.317062 68.783463
-146.114685 -183.189713 73.838531
20.458105 -184.518570 66.387955
-103.613609 -188.038940 73.977509
-113.318893 -185.900162 72.750656
10.590549 -192.608582 73.410271
-15.833989 -189.307449 68.228882
-135.962433 -196.656982 66.024117
-115.063805 -197.329697 73.494186
14.601154 -191.630966 72.319061
-114.272179 -193.171417 72.771507
-110.472603 -189.113129 65.753212
-166.236053 -197.192551 74.631310
-12.115660 -192.199905 68.531769
16.888685 -197.106812 70.297386
21.857138 -201.591522 71.236084
-24.548023 -200.246262 74.046494
15.228692 -197.855850 69.643188
-166.038986 -201.673050 70.949303
20.112335 -203.457291 76.151260
-142.795563 -202.916824 71.250748
-130.872787 -205.712753 68.904976
-19.208811 -202.414124 66.135857
-17.304741 -201.510406 63.821877
-17.976191 -202.024139 71.259781
-168.854599 -204.907639 67.005348
-14.534531 -202.387405 76.581993
-15.637736 -209.182114 71.505730
-155.755066 -209.028290 67.546860
-145.936951 -208.990433 68.587280
15.666157 -203.484741 68.707596
-13.609600 -214.124542 73.459412
-15.948577 -209.307938 71.056633
-11.221053 -217.062241 70.683662
12.243125 -210.742752 68.977081
12.385094 -211.248749 62.072151
-9.908400 -210.861710 70.350006
-167.518036 -209.278488 74.053467
9.203115 -215.234604 66.016968
-159.750198 -211.284805 66.888321
-9.510938 -218.874802 72.030724
-14.562139 -218.366364 68.904320
9.965428 -216.517090 73.147987
-150.864243 -218.517395 71.976326
-92.434196 -216.502869 70.646812
-100.749832 -214.328201 67.286293
-87.557037 -213.662552 79.236465
-10.074522 -213.934830 71.083359
6.219011 -219.881866 72.632393
-1.097768 -218.828201 69.916031
-99.677956 -220.932449 70.248505
11.792130 -222.494888 65.178856
16.779036 -223.792313 70.011086
-11.417870 -216.751877 73.570168
-6.693437 -221.687683 76.040810
-147.720978 -214.932327 70.617638
-10.708832 -218.718689 63.102486
91.204430 -219.804642 72.681007
-159.886047 -217.297989 67.519485
-152.483276 -221.900497 69.467018
-12.254416 -216.559982 70.796814
86.390594 -220.329163 75.911697
-135.340057 -222.303253 68.717957
-125.599213 -231.406448 70.612160
-138.456894 -223.917007 70.794258
-103.528908 -223.454346 69.377197
-7.438161 -226.717102 76.026833
5.935364 -223.853638 68.069695
79.399490 -229.713303 63.243732
-162.981659 -216.894806 72.119408
10.488317 -224.984558 71.718811
-155.112717 -222.719086 68.719727
81.262657 -220.048294 73.472260
-0.548515 -227.574219 75.158958
2.028930 -222.447098 70.123199
-3.981314 -223.210419 72.418640
-13.374820 -228.635941 66.644958
78.085838 -227.944122 67.951782
1.556602 -223.650452 70.741135
-3.859568 -229.574677 68.028641
68.522453 -226.375748 68.102608
-14.294456 -227.493896 67.261520
78.207710 -223.187912 70.642204
0.877082 -231.281860 72.615479
2.648376 -229.541870 66.978836
-120.234459 -229.128510 66.386108
-5.411254 -229.895782 70.237129
-122.410416 -231.883194 72.800713
69.672180 -232.930038 69.875885
-137.291840 -230.894257 75.658783
-130.187698 -231.175201 68.162941
5.943473 -236.177292 73.031639
-165.287216 -242.757553 71.312515
-141.869904 -231.227280 71.551285
-1.888462 -232.819641 72.715797
4.389426 -232.839355 68.454010
67.066902 -233.572708 69.526917
3.655553 -228.871414 70.509354
-6.133591 -235.471375 67.328011
73.085686 -233.756226 71.317833
-159.173035 -236.154663 70.051582
-136.444046 -241.362488 71.663467
63.327038 -236.876587 67.014175
56.906101 -238.170059 71.154938
-159.324936 -241.373535 72.997452
-11.326792 -241.802460 68.028114
67.318886 -241.459366 69.733009
-163.234116 -241.055679 69.510521
7.508019 -239.989792 70.072418
13.137698 -245.717072 69.934380
-166.870209 -242.469147 69.671890
-161.471603 -244.608124 73.070709
-164.720078 -236.649643 63.752773
-162.124390 -242.683029 62.574615
10.849178 -244.568939 77.139374
55.551014 -244.732819 68.710922
56.655762 -243.276779 67.254517
65.299095 -246.763824 72.668587
20.752216 -245.356140 74.300674
50.173512 -244.447510 68.138496
61.779167 -248.198532 68.676468
52.400570 -236.731277 70.693390
55.572830 -246.551025 68.615494
-159.062927 -246.754150 69.475250
50.635418 -246.762833 69.817055
-154.785797 -249.390778 71.052437
-157.687714 -244.276001 70.367363
-151.797958 -250.396225 68.271729
49.240891 -243.483459 70.619339
-164.585556 -242.872162 70.238060
-8.476992 -248.944550 70.223793
-144.964371 -245.300690 67.175644
21.741405 -244.986862 70.875504
-166.741470 -249.671951 68.721306
-166.289490 -250.454193 70.915680
39.929966 -248.813690 72.599152
40.271389 -254.143158 71.143280
-142.225739 -253.962631 70.174286
-84.901886 -252.096695 74.883461
-166.329514 -250.028885 70.350784
40.407883 -254.860718 72.724380
51.996616 -251.913696 75.319069
-85.216827 -252.163071 68.553352
-99.949928 -254.104034 69.783760
41.620705 -251.712555 69.380600
22.206091 -254.013107 71.252716
-11.455395 -246.796478 72.993034
-141.993332 -255.605118 71.476059
-91.530884 -257.353607 71.392235
-85.196457 -255.653778 73.070953
-113.196434 -257.438568 69.410217
-107.921364 -253.105438 67.848717
-150.831482 -260.343994 73.396042
-162.320663 -259.776398 63.523682
-158.781677 -259.144226 71.118149
-99.011269 -256.190002 71.087234
34.338306 -257.369110 70.781898
-11.113556 -255.047882 73.425636
-107.819649 -259.428101 71.544296
-164.939056 -261.954803 73.735664
-154.918671 -263.695435 68.553841
-106.178291 -261.427094 70.847313
-165.684448 -258.983948 66.197609
-162.264343 -263.916229 71.434776
-106.798424 -264.434113 70.564613
-104.303680 -256.748108 67.589394
26.925276 -265.465149 66.537827
-114.202049 -260.160095 70.996979
-166.690445 -261.679199 69.487549
-154.149475 -263.503540 69.589569
-159.084610 -258.589447 70.749855
-165.120895 -266.080566 70.074829
-160.678055 -260.189362 66.454651
-161.505737 -265.387299 69.424500
-163.395645 -262.838959 70.125427
20.565538 -268.801758 69.735474
-10.379403 -262.441681 68.847878
-142.667694 -275.897461 72.349617
-145.626266 -265.582031 70.721725
-14.389560 -269.235443 72.680397
21.602428 -272.954987 76.748405
-145.767517 -284.798431 68.520866
26.150221 -274.562408 73.773209
15.282031 -280.390167 73.342308
-7.079666 -276.476349 66.610367
-131.361115 -283.489197 71.327629
-135.546143 -277.877838 72.551193
-134.030823 -283.046906 71.804543
-127.248528 -285.186462 72.070328
-115.386749 -283.925720 70.441750
-94.310860 -288.267609 74.660080
-104.978584 -287.858185 66.735748
7.005594 -285.850952 67.055252
-92.810684 -288.397736 67.360558
-95.203880 -290.941101 65.470840
-90.638985 -287.575195 69.350784
-52.791096 -286.346924 66.197586
-151.825119 -285.578217 70.567345
-101.612900 -285.035248 69.664398
-93.409286 -289.398468 71.200478
-55.864742 -286.400177 71.922127
-107.578400 -287.956543 72.552376
-103.949921 -293.428192 71.084175
-126.012131 -292.678375 69.719093
-106.467918 -289.429260 73.126884
-1.137241 -291.295227 69.115463
5.042309 -291.965454 75.271896
-143.762085 -289.324768 73.765884
