# This PCD file was generated using the MATLAB® pcwrite function
# from Computer Vision Toolbox®.
# .PCD v.7 - Point Cloud Data file format
VERSION .7
FIELDS x y z
SIZE 4 4 4
TYPE F F F
COUNT 1 1 1
WIDTH 1459
HEIGHT 1
VIEWPOINT 0 0 0 1 0 0 0
POINTS 1459
DATA ascii
-37.812496 -165.709412 78.571342
28.865982 -155.466125 80.422379
31.064619 -158.368195 82.841057
-0.477391 -161.495773 77.892593
-32.355591 -163.286270 82.978188
-0.602139 -165.687225 81.577538
27.257006 -160.819931 83.607361
-8.754673 -167.665512 81.190453
-56.461559 -164.660202 80.963463
-40.102615 -162.368896 81.937210
26.670515 -163.354034 77.974907
-37.500076 -169.347305 81.528267
-29.502213 -166.684738 80.623108
-32.097191 -172.694336 80.656464
24.632072 -170.297562 84.770218
-61.233448 -170.339706 77.346466
-6.772177 -170.961411 80.205109
-40.198101 -171.731094 80.921722
-53.984570 -172.414215 80.667480
-57.771477 -175.814774 78.024925
-25.169682 -177.463364 83.135674
24.153339 -171.967896 79.391769
-61.461708 -176.244431 83.803795
-20.127789 -176.604279 77.615364
-51.565933 -180.298019 78.677086
-29.398415 -175.809647 79.831985
-26.056931 -181.240402 82.339027
-23.434826 -179.039810 78.864319
-16.160337 -180.479156 79.490540
21.498117 -179.025208 76.897446
-26.914286 -179.011475 76.711159
-49.759266 -180.180450 81.442467
-33.362583 -180.884094 79.956177
-27.882053 -180.836929 82.516373
-53.292603 -183.801880 78.268280
22.646122 -183.820328 82.480904
-46.216167 -183.002182 81.544899
-31.550247 -182.864487 81.389618
-25.167496 -185.395248 78.666603
-50.139156 -185.556442 78.250000
-39.418659 -189.479401 80.501251
-30.114895 -185.221512 79.394989
-46.236691 -187.562241 77.632492
-43.665585 -192.907120 78.013847
17.506300 -187.097290 77.106125
-144.258636 -194.305801 80.523048
-23.168890 -187.545319 80.692924
-23.864990 -195.024643 75.335564
-134.442062 -193.294678 82.803856
-24.978220 -198.525406 83.504890
-147.690979 -197.117355 83.077164
-151.971008 -198.874573 84.200989
-134.508179 -197.065475 82.244476
18.111053 -195.414597 83.044769
-132.026520 -198.117447 76.129044
17.737963 -202.087875 79.829834
-21.916418 -198.599747 80.251495
-18.416056 -196.861069 80.677559
-37.048119 -199.058151 80.170753
17.412012 -198.944946 81.577095
-151.251938 -201.390472 82.368805
-137.831985 -199.823395 79.342567
-15.150557 -196.577652 77.873291
-33.455284 -201.273636 81.710876
-148.832077 -203.427155 81.304405
-32.296890 -201.367538 83.307381
-67.062897 -205.817245 81.265266
-35.507256 -204.178177 79.541626
-68.020531 -205.662537 78.821373
-66.666115 -207.993851 79.865738
9.161346 -207.513550 79.425240
15.849871 -205.558182 80.501793
-81.593384 -208.925613 81.367096
-31.419260 -210.023544 78.893639
-27.188587 -207.980560 81.616745
-39.347042 -208.319077 78.819901
17.895063 -207.427399 79.856766
-83.408615 -212.919327 80.373894
-31.169306 -215.421570 80.441139
-11.594817 -210.693375 79.711784
-9.680683 -218.570892 81.107155
-25.217102 -214.517563 77.930450
11.754332 -214.778915 80.655922
-80.495529 -213.753464 78.370125
-87.268028 -213.553589 79.467476
-82.449554 -216.479691 81.375710
15.453921 -214.033020 78.856339
-146.299332 -216.550140 84.051537
-6.966578 -215.898865 75.748322
-3.636374 -215.024261 78.826141
-10.752621 -217.747162 79.417671
16.759237 -213.984833 78.838066
13.109804 -222.594849 79.844337
-3.186675 -224.342484 81.898659
11.286301 -222.856964 81.957253
4.810648 -226.082840 82.063522
16.863823 -230.182434 80.122314
-143.365540 -226.382874 81.121262
-0.757184 -222.216614 79.175240
-7.550558 -224.241760 80.279755
-135.394196 -226.608383 82.886238
6.912387 -226.658249 82.871513
-149.182724 -228.822617 81.761047
-146.455627 -227.850586 82.041679
16.013363 -230.589951 81.041298
6.666101 -228.924042 78.901100
-0.355343 -229.834229 79.876747
4.120168 -232.520233 81.750237
-0.098465 -236.433243 79.980728
-27.677401 -235.713425 84.105370
-26.035574 -238.719009 82.089714
-36.357098 -238.721893 78.666023
-150.480652 -236.225037 79.377342
-144.905746 -241.369339 82.148735
-148.095505 -241.495239 81.494827
-23.967859 -239.300415 81.061348
12.257987 -242.095642 79.866676
-29.009069 -244.182114 81.282463
18.239893 -235.826141 78.321732
-35.310047 -241.590759 79.700470
-55.386059 -243.187439 81.121170
-45.899940 -244.758942 80.674110
10.180964 -244.029480 80.596725
-56.875641 -243.370544 80.875343
-46.945343 -244.315826 80.046761
-148.126587 -247.309494 79.733528
-62.738834 -240.833969 81.251755
-57.081608 -246.304123 77.193710
21.666620 -245.866516 79.223785
-2.530457 -246.119308 79.339790
-4.533940 -245.720963 82.364159
12.654419 -249.731873 79.939201
-11.649634 -257.870300 77.988594
-142.735397 -255.676712 80.179985
-135.583832 -253.660812 80.939873
-146.609802 -255.988510 84.912430
-138.733826 -256.333252 81.020859
-154.380096 -259.596832 82.952148
15.992568 -260.517670 77.968452
-140.909592 -257.673431 78.963867
-144.012451 -260.405914 77.072891
-136.775040 -260.452576 80.010605
20.933010 -261.570770 80.914413
-9.308694 -260.294159 81.329140
20.206738 -258.882904 83.790009
-147.646072 -267.581512 81.009712
20.768511 -270.630859 77.760773
-151.371826 -272.356720 82.508347
16.199005 -275.373230 81.043427
3.075223 -278.031708 83.537209
10.942190 -279.742889 78.738167
4.357967 -282.142090 81.800308
-145.662048 -280.141663 81.046989
4.988389 -280.807251 79.576820
-150.854279 -282.383484 80.465302
-141.840912 -286.227234 81.453392
-140.991577 -286.457520 83.563179
-32.610794 -289.660858 81.122498
-139.248291 -287.667511 80.549927
-32.166077 -290.811279 82.549759
-21.505630 -284.887543 80.692001
-150.133423 -291.953522 84.468124
-136.269211 -291.047760 81.913628
-18.339558 -285.664276 79.436012
-141.036606 -289.617523 78.266983
11.400452 -293.531219 80.311317
-153.394470 -291.018127 83.451950
-148.726822 -292.969147 83.985779
-148.350632 -304.066223 77.799538
-152.498276 -308.837189 78.854790
-148.785721 -308.856140 80.465919
-59.504139 -57.813900 76.598640
-49.329620 -57.431892 78.837212
-58.507645 -55.344540 79.556190
-52.824394 -59.030643 80.396484
-43.158554 -57.860664 78.777992
-70.875320 -57.947529 79.531860
-36.426903 -59.272846 76.219818
-76.224747 -59.544476 79.284485
-38.547577 -59.723709 77.008514
-80.481468 -64.572571 78.856827
-77.357544 -71.046539 80.322792
-22.146343 -66.913132 74.848114
-25.460703 -67.415558 79.668892
-25.942060 -71.690674 78.958145
-85.457199 -74.100197 78.788300
-25.493797 -73.268661 77.572578
-30.127480 -75.378601 81.069839
90.306236 -80.357567 80.695938
-32.308819 -77.546829 79.827164
86.066338 -81.315254 79.088501
84.610260 -81.920151 78.696136
85.856117 -83.132584 80.095467
74.148598 -85.867722 77.772888
-87.321404 -83.907669 80.309837
76.831635 -86.434402 79.239143
84.661240 -83.456200 79.815491
85.148308 -87.054535 78.939545
82.339279 -87.709511 79.627640
80.281685 -88.200653 79.172318
84.402672 -89.117180 79.317757
82.509560 -90.370918 77.003700
89.671013 -92.909996 79.093925
-90.934998 -91.692352 78.810684
-68.960747 -97.163422 77.368782
51.919048 -99.965813 78.919724
48.486374 -100.427948 76.746513
53.440380 -99.001747 76.501106
46.922035 -100.582657 80.100014
50.202934 -103.796257 80.141121
49.938644 -105.801750 77.684372
45.050865 -101.934929 77.587181
43.726479 -108.120567 79.735161
39.221859 -106.768768 78.220123
-87.640152 -113.557289 78.552498
42.673111 -110.994507 78.574547
43.757084 -116.562973 74.941429
36.978710 -115.327370 80.854767
44.275253 -110.876434 78.565079
31.212948 -121.167641 75.485718
43.348610 -117.719139 80.246117
31.118584 -129.430084 81.651039
40.009964 -121.552681 81.709846
30.312220 -133.524078 75.748573
26.199879 -139.760880 79.244499
25.248575 -143.994537 76.613670
31.374718 -141.990570 75.701836
26.629187 -141.925156 78.574341
-52.565872 -138.890198 80.829697
23.309986 -147.987930 78.502884
-46.477524 -148.206635 77.192657
-51.774086 -150.335007 79.277275
-67.609520 -155.424500 77.944824
-45.478157 -151.289124 80.749107
-43.059063 -154.844467 77.440735
-49.409954 -157.978394 79.822968
31.161633 -154.849258 74.837357
26.382513 -151.780518 80.262398
27.947346 -156.336472 78.971306
25.231234 -160.949448 80.845467
-70.001106 -158.315872 78.908150
-39.262733 -158.891220 79.166145
-66.292892 -162.238205 77.719147
-34.677544 -161.964920 81.212074
-1.838518 -160.957413 79.005936
-44.802227 -157.461411 79.715874
6.081407 -158.166687 78.042526
18.954485 -154.698013 78.848816
-61.338989 -162.302536 78.294365
33.912033 -161.657455 79.613091
-60.268108 -169.978073 78.781578
29.995729 -167.672897 80.390739
18.370787 -164.414520 78.373207
-46.368065 -159.630295 79.053627
-3.920127 -166.445160 77.501732
-6.128358 -166.553101 79.114647
-0.375799 -169.562943 78.671227
-57.794983 -168.900665 77.221710
109.919006 -167.666428 79.311600
-60.951923 -168.209381 80.111549
0.517236 -169.944183 78.088783
28.127439 -169.692535 81.418213
-60.149384 -172.035110 81.996010
-38.820564 -170.074127 80.588364
-33.847572 -166.405121 78.248398
-39.467064 -172.586212 83.017273
22.088385 -168.099838 81.360489
25.746580 -172.232788 79.863663
-19.527859 -174.944702 79.223000
-8.874557 -172.934860 77.106216
-54.136997 -174.448288 79.075943
-34.717251 -175.443314 80.843063
-60.971088 -172.339447 77.479340
106.992897 -181.117615 79.745323
20.752575 -171.641251 78.879784
-14.708218 -176.490158 80.180901
-52.763523 -180.307877 82.638351
-29.110643 -176.988174 78.528969
-52.612106 -178.570908 79.960419
-17.361343 -177.983337 80.301964
106.217819 -175.596405 80.586853
-48.840908 -175.951630 78.937851
22.918608 -178.587189 77.561653
18.320452 -185.939438 82.809158
24.942242 -177.905029 77.985435
-58.475227 -175.964111 81.558998
-21.232630 -181.510849 79.193054
107.910675 -181.535873 77.181290
-52.112247 -176.698761 79.890419
-30.827444 -180.997284 81.729187
-29.209620 -186.240372 79.462448
13.505527 -182.814606 78.205849
-35.319481 -182.128525 79.483452
-29.534546 -189.077423 77.665054
-147.886368 -181.796143 79.500175
-48.454529 -186.090927 75.841362
-47.384018 -183.388504 80.490128
-50.056129 -188.806961 77.604019
-21.678862 -186.581528 77.933182
22.099916 -186.125916 79.578827
-146.564835 -185.183380 79.145485
-49.002014 -189.393631 78.200974
18.137539 -184.196152 80.621132
102.638474 -186.174652 78.364937
-149.456284 -189.448242 76.947533
-54.083553 -185.384644 74.060234
-43.699383 -193.237976 78.824577
10.186554 -196.550415 79.531639
21.481043 -197.305740 76.811768
-147.186874 -190.481857 79.176895
-48.595264 -186.918121 75.770142
-19.960371 -189.782532 79.030045
98.525215 -195.667526 77.615913
105.041046 -193.809875 82.685677
-40.166649 -191.274887 78.021912
-17.899937 -192.222153 79.429932
-44.961781 -195.464859 80.733810
-144.274231 -193.299301 85.043449
-43.226700 -198.686295 81.086449
-144.424942 -201.365677 81.819748
-24.545109 -198.714798 76.753685
-38.302063 -199.663620 80.736038
14.942571 -201.424500 76.312607
96.745117 -201.076874 77.942558
-135.605896 -196.835358 78.213783
-16.716812 -199.871750 80.104500
-41.025745 -200.604691 80.234283
100.446297 -195.293106 81.686127
13.046584 -202.481949 78.807465
-35.410744 -203.776016 77.858757
-20.441540 -203.377548 82.880135
-15.762053 -204.785660 80.170410
14.348294 -204.568924 81.024940
95.402115 -200.841614 77.815422
8.771133 -200.383499 79.939613
-35.131737 -201.547180 79.180573
96.082184 -206.019547 83.982964
-11.088724 -212.179977 82.430405
-10.379115 -201.653214 77.621727
-41.099079 -204.008957 77.913223
-4.406908 -206.078827 79.600273
13.769615 -203.521774 79.318802
11.461463 -203.956375 76.737480
-74.753006 -206.941711 77.233002
-68.183334 -208.138916 78.926071
-65.938072 -209.995148 80.200539
11.950837 -208.294937 80.421646
-65.178963 -211.655334 79.358513
-79.741081 -212.615021 79.372269
-30.559492 -210.551804 79.843307
-141.397430 -210.881638 77.018135
-35.286968 -209.387436 78.479286
-147.018051 -208.137711 80.369606
97.475273 -204.739227 79.496040
18.740732 -206.810989 79.542137
-88.735733 -212.710907 80.581383
-72.381683 -212.761032 80.330978
-90.730621 -210.335251 79.665337
-33.896679 -211.920547 77.518623
-28.677885 -206.239655 79.456894
-9.527265 -212.008698 77.459534
11.545030 -210.834457 79.215492
-23.110380 -215.806900 83.725601
-26.180075 -213.579941 77.000061
-90.870796 -213.305084 77.721260
-144.608292 -213.800934 82.767807
-80.474129 -214.466568 78.142036
-88.914986 -214.912628 81.814034
-85.366745 -212.595764 78.931450
6.540191 -215.124557 79.316376
-151.854507 -217.268524 76.939850
-29.566969 -215.104706 78.793076
-9.189120 -214.003922 80.675659
7.813978 -221.541336 83.031593
-142.563232 -216.617584 76.767151
-24.588251 -222.003220 83.899185
10.173131 -221.524567 79.129868
17.149391 -223.630981 79.156647
-5.042566 -220.150421 78.054581
-18.268673 -219.588409 79.654846
-2.502352 -222.252426 79.215958
-1.981353 -218.531235 80.364510
16.462187 -216.495682 79.412453
-154.536041 -224.016937 78.162552
-144.691544 -221.821899 81.146347
-19.790054 -221.152344 78.184288
-137.107178 -224.618057 76.500885
-7.600654 -223.984436 82.295830
-15.423093 -224.125610 76.361481
-146.232941 -227.592026 78.556183
17.155367 -226.730713 80.374405
-149.382263 -228.003937 84.015587
-0.123014 -226.334259 80.567131
-138.627640 -230.012634 79.036156
12.059584 -233.258316 78.604469
5.141324 -232.347183 81.540398
12.801094 -233.551270 77.489525
-6.402748 -228.207428 79.013771
2.495270 -233.506393 79.896957
8.411734 -236.777573 80.319954
-149.283020 -232.520996 77.903000
7.145330 -232.506149 76.261650
-18.400070 -237.580368 78.802925
-30.303768 -235.800415 78.833344
6.957465 -237.724747 78.888123
-37.221775 -238.900070 81.557915
-0.594413 -235.477814 79.825577
20.803713 -238.665207 77.188507
-18.755323 -241.592239 78.251648
5.218397 -234.983246 80.514549
-54.176914 -243.430801 77.438545
-145.392090 -238.797653 81.621330
-39.573074 -244.574677 82.068138
-147.082108 -244.651047 76.856812
13.345785 -243.098907 79.158440
-1.056207 -247.660416 81.896652
-150.796707 -245.788864 81.443909
10.024705 -244.064148 76.464584
21.314932 -244.340683 77.896622
-49.632122 -246.097977 82.025276
-67.155617 -244.871994 77.837685
-64.421860 -246.152756 75.782646
-58.728329 -246.177841 78.640259
-66.951904 -246.531342 80.796471
-61.324238 -249.180115 80.189629
-62.944077 -250.509537 80.481110
-9.659359 -249.204605 78.838791
-145.979919 -251.643005 79.848724
18.671322 -248.990067 77.790245
-143.857208 -251.115799 80.671928
-155.009186 -252.274231 82.492706
-153.835251 -254.719727 83.556389
-147.139328 -256.118835 84.088310
-147.493683 -258.329346 82.913704
-139.898361 -259.160950 76.723015
-139.229202 -259.162476 79.470398
-138.776016 -255.175873 79.341522
-10.428494 -258.549561 79.840942
-139.487915 -258.674408 80.273514
-143.054581 -261.611053 81.292969
-12.778860 -266.567230 80.008339
-150.015564 -267.959412 79.197502
-147.618408 -274.478424 80.452011
-152.852814 -281.730835 82.721550
-145.785233 -281.321228 80.260406
-3.693733 -282.130859 79.737373
7.802026 -281.572815 75.718719
-146.051056 -283.767914 78.927795
-30.840694 -283.810303 73.822151
-26.751003 -286.812897 80.009361
-48.574265 -285.614868 77.656021
-22.446049 -288.340485 79.874908
-35.310860 -286.053253 78.444740
-17.638649 -287.341797 80.276421
-153.586258 -288.200806 82.459923
-38.483257 -287.096649 83.294014
-5.708431 -289.050415 81.473167
7.879828 -286.599152 77.523506
-131.593323 -285.184296 81.011841
-52.898029 -286.109558 79.579559
-123.454956 -288.503174 81.729111
14.152918 -292.482788 78.712067
-129.341705 -288.597198 81.139618
-55.623352 -287.831482 77.961411
12.680488 -285.431732 81.781456
-126.504822 -289.573792 78.624100
-38.871098 -287.674011 79.302353
-23.044424 -287.643585 75.231537
-13.779247 -287.942322 77.103699
-38.848915 -290.780060 82.210037
-32.178623 -289.905396 82.169289
-3.966112 -286.462097 80.187302
2.763327 -287.134247 80.389145
-11.952753 -289.566986 79.013741
-144.571716 -292.595093 78.922348
5.802813 -288.087341 80.473038
-152.599426 -298.473724 81.224777
-149.310638 -302.771759 78.980034
-149.955154 -308.138885 79.388405
-151.504181 -309.383484 78.458855
-145.260880 -307.830261 81.679161
-55.330135 -56.442272 78.709061
-44.813389 -55.379143 78.489342
-54.266273 -54.966473 77.574432
-66.366074 -59.642193 79.606506
-43.697987 -55.313881 79.093643
-41.906788 -54.054405 74.993439
-35.843800 -60.723694 78.273071
-24.537504 -65.391312 74.477127
-84.617485 -67.170357 79.704536
-24.648611 -70.843987 76.584213
-20.158089 -72.472206 75.829811
-28.318619 -75.019394 77.177788
84.885208 -80.028641 79.472305
77.293053 -77.889061 77.691902
-37.398525 -80.740387 77.193275
-86.515121 -79.555634 78.314507
78.708786 -81.591942 83.567856
88.937500 -80.473175 76.276337
84.304253 -80.199455 79.504005
-41.434010 -83.940201 80.586502
-46.316872 -86.222115 78.556282
93.325439 -83.295158 77.578453
-89.019821 -85.483429 75.430977
92.725891 -90.264824 78.440331
94.296661 -87.189453 72.444641
77.408165 -94.355171 76.491173
74.825890 -90.014198 76.877609
-62.339245 -94.566490 80.866531
80.970619 -91.465782 75.293266
83.341682 -94.138695 80.508690
88.524445 -93.475098 78.188385
-63.300064 -96.308243 80.363075
54.292622 -94.208405 74.233490
-67.869141 -100.528038 78.401695
46.650047 -103.684280 79.502052
47.290668 -102.451706 74.520569
44.808765 -104.361023 76.706062
41.564034 -107.013184 80.628235
46.866180 -104.024071 80.107254
-94.340759 -113.712700 78.147209
40.221775 -110.313530 76.631355
-85.439682 -107.523834 76.180214
42.672462 -114.265404 78.489754
35.686741 -117.473183 77.214813
45.914242 -121.368713 79.210808
36.359161 -121.493225 78.708900
33.057625 -125.159866 75.662262
43.233765 -124.208755 76.898148
38.650238 -128.622772 78.470039
30.494963 -133.426086 76.634888
-51.425606 -137.895081 74.842529
-49.928268 -145.841415 76.900597
33.511669 -135.081009 80.822510
39.051731 -141.839432 76.107201
117.402908 -136.552719 76.906761
-53.363060 -134.813950 76.578468
-45.835457 -141.049210 77.660698
35.672588 -141.653183 80.847054
-48.440495 -147.562164 74.919502
112.906883 -143.683395 79.354721
-45.080360 -149.052597 81.193886
110.267830 -137.507553 77.579033
113.794197 -145.513321 76.331528
25.694412 -141.490036 81.698380
33.114635 -149.288742 80.106735
-43.532440 -146.493393 83.607376
-48.104027 -148.917587 77.928741
112.290321 -154.524368 77.427582
23.377630 -150.053314 77.201981
-37.686836 -151.562836 79.280441
-69.236099 -153.329681 78.611687
114.187294 -150.083755 80.248528
109.844551 -163.353897 79.827782
-44.939209 -156.698776 77.442467
20.475035 -151.894211 78.105057
-65.055573 -153.086655 75.450127
2.362693 -155.985840 79.819580
-38.128803 -160.322266 75.305519
-36.888237 -159.765533 74.961151
1.126783 -162.096970 77.103622
112.240982 -154.513306 77.641861
115.216537 -160.974426 75.953056
25.183624 -162.509872 78.614014
-63.257397 -163.021179 82.199753
-38.714172 -161.964935 79.157463
2.940495 -164.355957 82.328285
112.454880 -165.340485 76.581261
31.211391 -157.025040 76.047348
-64.162140 -165.159073 74.524757
112.209846 -167.079697 79.356308
-61.745495 -168.110275 79.956688
108.951385 -163.398895 81.222786
-34.535957 -164.212189 77.724815
-64.132996 -166.533112 78.382805
-61.426304 -166.738647 77.815865
25.551563 -167.461807 80.535149
-56.010441 -172.703629 78.595909
-36.506283 -173.745605 75.225121
105.854073 -173.353912 75.607971
-59.423996 -168.947952 75.517593
-35.913746 -170.969330 78.677216
-13.227279 -172.652786 80.363953
113.500214 -173.261459 76.352165
-29.695110 -171.716141 79.427444
-58.915180 -169.437973 78.648178
-9.247622 -175.616531 77.996323
-8.532108 -171.621765 77.910255
27.446386 -168.514435 76.726357
-29.040833 -171.227234 77.041977
-14.608659 -175.718567 78.649376
-15.002886 -175.704544 76.264786
108.199783 -174.111023 78.452873
17.961731 -176.594193 76.109627
-54.229427 -176.908157 81.075485
29.146322 -168.739273 77.562935
-25.937042 -181.985916 76.041855
26.972372 -174.597183 80.212761
-54.617191 -176.548233 76.476402
16.348310 -178.665802 78.130882
106.001663 -181.249741 78.127335
-56.288769 -176.833801 77.131844
104.730103 -183.457138 80.220383
27.232344 -178.630051 79.575195
-50.224823 -181.340912 78.365822
107.157829 -181.939957 77.939034
11.395595 -181.094635 79.348045
-58.896553 -181.806122 80.154327
-49.429173 -183.087906 77.287224
-48.137859 -183.445633 79.248772
105.998001 -184.647476 77.821297
18.899305 -180.905594 80.296013
-143.501526 -186.249359 76.479736
101.827637 -190.333023 79.780441
-33.867611 -186.805099 80.531555
-39.356701 -190.262329 79.222481
18.372517 -189.060349 80.077469
14.698584 -187.931854 78.630104
-19.841009 -188.770813 77.536400
18.743341 -185.501907 79.442810
-20.433165 -189.002594 79.175400
-29.641916 -191.524857 79.101334
-48.301598 -192.978439 80.397591
101.492416 -190.971054 77.746254
15.903484 -195.119934 77.018822
-137.330521 -194.737732 77.213318
-144.808060 -195.041641 77.701225
12.201797 -196.113571 80.783295
-44.159950 -196.948044 80.499321
-37.937668 -198.689484 78.956596
97.693420 -197.186478 77.107864
-151.673370 -197.338760 75.800789
-148.216034 -199.552795 85.127510
16.098825 -193.958099 79.494415
-41.604610 -200.568283 77.606804
-34.076279 -203.563583 80.178246
-24.047131 -198.983261 76.761009
18.588369 -200.477356 77.864777
-149.213638 -202.003464 78.125938
-43.697559 -200.083252 76.650673
-39.610939 -196.589447 71.084023
99.878746 -198.764633 76.825447
-17.970478 -201.667587 79.674736
-147.870270 -203.905685 81.853584
-35.430206 -204.792908 78.599373
15.775868 -203.251083 78.900238
-146.333832 -201.288742 79.331139
-35.740669 -202.598007 76.781128
92.453758 -207.812012 79.912659
-31.121210 -205.819870 78.620590
-76.165039 -208.546204 80.734619
-151.908371 -208.045609 79.587952
-78.175804 -208.540222 78.927795
96.715385 -209.700745 77.650246
-32.344891 -206.137619 79.492966
91.619446 -213.178299 76.012527
-67.060951 -207.878754 77.085495
-30.523146 -209.159348 75.778717
-14.140733 -211.794724 77.092407
8.637192 -207.756424 78.434891
88.000343 -213.161240 78.063065
-76.788002 -212.609497 77.021492
90.417564 -211.648651 78.600258
-76.251846 -212.610947 75.964996
-28.101400 -211.639786 76.199051
-6.283640 -217.682220 77.554611
91.325409 -210.461182 79.388130
-17.292303 -210.733597 80.286507
-79.108307 -214.207413 81.501495
-13.133437 -216.843994 77.456985
10.150304 -210.531799 76.974548
20.589725 -215.645859 80.952797
-146.645370 -212.637970 81.189499
-29.412813 -216.459702 75.242462
-11.914333 -212.307098 76.215164
-31.582537 -215.994522 77.656593
10.379128 -218.801559 77.000374
83.708389 -214.940720 79.374695
-4.018873 -217.144287 83.032845
-93.618752 -215.411240 78.709473
-24.788912 -218.497131 78.708664
-89.146561 -217.564407 77.091095
-22.639658 -218.767410 81.027168
-21.825079 -216.010696 78.217667
88.903244 -213.468811 78.755081
6.549423 -221.515121 79.382957
16.178570 -219.019669 78.227089
80.637032 -220.517105 82.166939
1.191643 -221.424149 79.095200
84.233444 -221.866409 77.806198
-18.639118 -224.941238 75.552002
-15.909329 -219.063095 79.086548
14.969603 -220.587280 75.849930
-144.913528 -220.187195 78.894417
-153.286285 -225.386322 79.584732
-16.942661 -227.450455 81.421898
1.335203 -227.376694 79.848732
18.859570 -231.315842 82.697517
-154.820755 -228.633453 80.889122
-135.520462 -229.199860 75.130569
-150.448547 -227.285034 76.322807
7.897561 -226.487762 79.588631
-3.722261 -228.365738 79.317184
2.124579 -230.140411 78.218109
-8.357163 -228.468231 78.465866
-140.542908 -228.705185 79.297295
-133.921417 -229.843231 81.058434
-2.608446 -228.526489 79.647041
12.634084 -227.958237 77.291100
-137.960571 -228.684845 75.269386
-139.860550 -231.321381 79.284836
4.862652 -231.366852 78.272064
-147.984344 -231.760254 78.320541
-148.571365 -235.004333 79.120338
-142.169632 -233.862244 78.023743
-1.128745 -230.860001 81.155983
18.613689 -233.259140 76.998611
-144.931793 -232.659912 78.332695
-1.645930 -235.463989 75.838013
-31.899733 -238.065842 82.753242
-144.325638 -240.572311 80.279762
20.349693 -237.202988 78.331749
1.650780 -238.101883 80.882355
-149.429428 -239.742096 78.695686
-149.647644 -241.070816 79.659019
-41.577633 -242.697403 82.759109
4.983036 -239.278778 75.851891
-47.309437 -240.007523 80.773575
-29.493229 -241.157089 76.241051
7.262223 -240.395432 77.937981
10.727597 -242.292496 76.693054
4.683819 -248.384766 79.252243
-41.468330 -243.415131 79.542351
-34.581341 -244.132843 76.333138
1.205750 -244.008179 77.902878
20.473379 -243.838135 76.811615
22.444265 -245.243240 80.094223
-42.850594 -242.611496 80.492882
-6.381795 -246.539139 79.966393
-154.576096 -251.087494 77.927307
-56.200695 -248.601639 81.493507
-4.913884 -249.966019 77.528015
-144.613373 -248.106445 77.332603
-70.472855 -247.435837 77.544930
-70.451912 -250.602798 77.577415
-10.695971 -248.212402 76.232262
-147.325897 -261.419800 81.120049
-129.039749 -258.607544 75.479485
-148.444061 -260.103516 74.885735
-11.443606 -260.805603 77.315376
20.399063 -260.806763 76.042534
-145.837280 -263.592682 80.734428
-150.405151 -262.293640 78.016418
20.570417 -266.801727 75.795990
-9.492693 -270.314819 77.062508
-145.307083 -269.046722 79.848152
-4.951713 -279.318665 80.681801
2.565076 -281.691162 84.028793
-42.470985 -286.406219 80.126389
-131.306458 -284.983673 78.368607
-134.380341 -282.433380 78.424988
-123.621895 -284.160522 78.093102
-53.299809 -284.196716 76.172340
-13.087652 -286.535004 76.171547
-65.222969 -286.328491 78.805504
-7.136016 -283.935364 79.618088
-126.869400 -287.170837 80.632378
-68.468681 -286.769318 77.706665
-147.240494 -290.760162 80.906433
-118.219910 -285.957153 79.094833
-77.465111 -287.167328 79.209106
-69.627480 -287.082947 76.048317
11.401325 -288.769562 81.169640
-59.692059 -284.099243 78.271835
15.812119 -290.827911 80.030296
-142.926865 -286.330353 80.075996
-120.579536 -287.827026 79.658630
-60.182365 -285.878601 77.208694
-139.610687 -289.367859 77.061707
-120.900627 -289.178619 78.501175
-47.993713 -288.024231 77.829948
-33.075581 -289.760345 79.066925
-24.624861 -288.645508 79.849503
-133.635300 -290.378387 77.453049
-129.359894 -290.730103 78.533897
-12.630794 -289.982330 78.921104
-0.080760 -290.883270 79.583878
8.743495 -291.924988 82.140198
16.248598 -290.285126 77.514221
13.838890 -291.684326 79.207626
-147.429062 -293.043518 80.593880
-150.386475 -294.422119 76.956200
-153.629059 -297.134277 79.891556
-151.201385 -296.231934 81.132156
-146.024734 -298.851563 77.720253
-144.985916 -299.953491 76.365921
-155.782532 -303.572510 78.084465
-144.406021 -305.734406 78.381714
-47.724117 -55.275471 78.747581
-61.171326 -58.143806 71.679207
-69.986404 -55.250816 77.641960
-65.651222 -54.108437 78.781120
-32.916653 -59.779327 78.396400
-80.591125 -57.439369 76.956215
-28.963924 -62.909908 78.630936
-21.704201 -63.612488 79.550461
-87.253975 -70.333817 73.151520
-86.173111 -73.488716 77.821571
84.218704 -75.508286 76.070526
86.402817 -77.290947 74.233688
79.142006 -76.016098 79.847168
83.522026 -73.991776 76.732071
87.702576 -73.964790 80.052414
-29.336611 -76.602592 79.217056
83.403992 -77.422821 76.394104
-33.886795 -77.305351 76.628609
88.418785 -80.030800 79.601166
77.293839 -81.351051 76.028687
93.831207 -80.145935 79.066063
-89.390678 -80.475914 78.463837
-43.287537 -84.864594 81.032951
94.495995 -89.343109 79.210045
-66.683334 -88.319267 72.961678
93.552528 -96.531357 74.154640
75.160454 -92.344612 72.452194
-63.829266 -94.601028 78.120300
93.913383 -96.438820 77.425873
78.508736 -96.026314 77.472610
86.588104 -91.478645 74.143517
82.087845 -92.691902 76.611855
87.825081 -94.332817 79.241798
56.948471 -92.473022 75.516594
-80.005646 -101.311287 78.215614
-80.195076 -99.942505 75.308655
45.250530 -100.928185 75.849091
-77.152008 -101.310181 77.392632
53.538406 -107.108360 75.787788
-90.548676 -97.831657 74.418991
50.546474 -99.996597 76.911880
42.884834 -110.428886 76.150719
-84.641815 -106.763954 77.543228
-92.332123 -104.687576 80.283165
35.525295 -115.418098 81.326408
-91.513779 -112.877869 76.073357
43.262703 -116.049271 78.134605
111.631165 -122.285866 77.579063
38.241936 -119.976768 77.849586
32.050179 -123.836342 80.432671
109.574486 -113.946472 77.447227
113.767273 -129.299622 77.488731
114.173721 -131.295822 77.694862
40.912804 -127.687790 75.626419
28.343662 -132.040909 75.387749
110.211807 -131.063141 74.562897
30.356810 -131.987946 76.164032
112.845604 -134.301834 75.694038
-56.768486 -135.080307 75.508141
40.355831 -136.030014 78.089226
-53.497707 -140.777298 78.211113
34.431000 -139.221725 76.861359
-46.223621 -136.358826 79.000717
110.156731 -144.461929 74.884071
-50.767529 -146.731857 75.449448
33.353325 -147.376740 78.047112
-55.709282 -141.136703 76.387062
-52.762005 -144.360519 76.827934
114.831200 -141.748260 77.628517
-51.963558 -142.298019 78.297684
31.627165 -147.040787 78.354744
-73.628525 -144.854019 75.381760
-50.470673 -146.309723 78.421356
32.502110 -151.730972 79.819107
-43.001690 -147.248367 76.669647
-66.574310 -150.344894 79.118759
117.046127 -153.458038 80.169975
-35.992104 -153.968719 77.113190
-50.069504 -152.232559 76.899307
-48.955776 -154.564987 77.329910
109.563087 -148.853745 77.676849
-50.202648 -153.038269 75.885109
24.291773 -159.759903 75.835518
113.574661 -153.491455 78.729156
-64.666962 -153.149643 79.936317
-70.211922 -157.324539 75.478188
-47.598648 -157.976242 79.398338
5.156035 -153.181610 79.627785
-65.964485 -162.341309 78.996582
31.995884 -162.875748 79.064522
114.597214 -163.090302 78.065483
-63.653793 -160.954575 77.803719
-45.228718 -164.157547 77.318398
0.810526 -162.697647 79.009056
-47.591061 -164.005234 74.869919
-38.733616 -162.697693 75.297050
18.520435 -158.609833 77.006798
-33.617531 -159.400116 78.755989
31.719034 -162.262894 75.078796
-59.089581 -160.734543 79.799942
-55.809025 -169.530289 75.873741
20.828268 -164.280457 77.304962
-58.304173 -163.412750 76.005363
-33.811329 -164.800903 78.306435
-8.513560 -166.636032 79.778694
-24.590429 -169.348190 78.394234
-37.332073 -166.354706 74.345497
-60.314289 -171.408905 76.893524
20.735786 -167.879715 77.464409
-41.682049 -171.562866 73.863251
-14.354237 -171.612518 80.705864
-58.015785 -170.638733 77.780678
-3.826846 -168.317490 76.321777
114.358086 -166.646133 77.415901
20.704473 -175.539673 79.044701
19.755863 -173.303360 75.135292
110.172363 -173.616653 73.794868
-57.451359 -178.632202 76.329514
-22.952267 -178.692612 75.581879
23.823267 -176.738174 76.102180
-34.540493 -177.198746 73.571541
113.497879 -174.207809 78.560471
16.640972 -180.720657 79.107994
-23.613989 -180.038010 73.555969
-49.880943 -183.627457 76.215637
-29.870096 -180.543182 77.813354
-57.198727 -180.775940 76.768288
-145.410965 -183.743286 77.714172
-23.313818 -183.952164 77.919464
-148.230835 -185.828598 78.492722
-20.546654 -187.255035 78.431297
-147.206589 -182.827209 79.987968
-154.012848 -186.829666 77.631744
-41.588093 -189.836929 80.955437
112.288216 -188.601746 78.170692
98.923378 -190.109833 76.588951
13.711599 -188.190903 77.997238
-146.992996 -191.673126 76.382385
-142.491287 -193.567444 79.734184
-138.213257 -194.173141 73.799026
-152.054535 -194.272812 78.085762
9.849057 -193.417297 77.438087
19.716635 -191.451935 77.670670
-133.552628 -195.701172 75.987541
-134.114700 -196.242554 77.301613
-28.110510 -199.373535 76.582138
99.804497 -197.796906 80.545380
18.345493 -190.596710 77.278015
-142.299423 -194.867264 75.593178
95.619209 -194.053986 74.498093
-43.387383 -200.090973 76.342842
12.479711 -196.058182 75.828552
-136.208603 -200.087448 72.975784
-132.065948 -199.187393 75.642387
-10.194641 -203.444824 80.450783
-40.752563 -204.692963 76.971573
-20.364853 -197.935989 76.888451
7.296411 -204.710632 78.919884
-151.945572 -203.573364 81.099091
93.575127 -205.312225 76.625069
-14.859022 -202.681183 77.498817
101.190132 -202.896164 78.225426
-30.538719 -202.528076 75.484985
-17.535816 -210.078156 77.231789
-8.081605 -205.276199 78.688416
-79.214958 -211.123520 77.696198
-147.582230 -206.588242 77.907791
-76.823723 -205.952469 76.358963
-29.601572 -206.592422 76.932991
-16.694023 -207.079788 77.742622
8.772023 -207.072189 76.536064
-85.191971 -207.941025 80.152039
-78.783386 -208.346664 76.250710
7.599418 -208.967422 75.329834
-145.584290 -210.501160 77.987808
-31.734806 -210.413284 76.856010
-88.516304 -211.194321 77.490784
-30.776485 -212.331345 75.680229
-26.881752 -212.716034 80.011162
-73.484306 -208.863235 77.608452
18.030987 -213.600327 73.892662
18.486759 -213.440964 76.175316
-147.537888 -209.881210 76.163773
-90.608803 -207.780502 74.584435
-25.025740 -212.965240 75.881767
-23.236092 -215.502594 79.884209
-13.021076 -212.683105 77.849129
-80.103539 -216.495636 78.394341
-26.118187 -212.379837 76.297783
-79.660805 -215.321136 79.539436
9.400145 -213.891754 76.974007
-88.609810 -214.247986 77.578278
-95.811905 -217.890167 77.720406
-26.333372 -217.725189 78.102600
-25.545561 -220.342834 77.511238
-2.312318 -222.327835 78.025406
-149.324966 -214.585663 77.790199
-4.948668 -217.108978 78.336426
19.701841 -218.884872 77.799080
-22.334053 -219.310684 78.855728
2.715866 -224.109192 79.132950
84.973907 -221.954391 77.517113
-18.276093 -221.505966 80.286438
-145.481232 -223.705185 76.052307
-9.239044 -223.542374 80.148918
78.777031 -224.462906 80.769707
-142.660278 -224.387283 81.798195
-9.405275 -222.534271 77.819656
18.390087 -226.083466 75.560669
-147.865082 -225.373596 81.476006
6.521367 -225.574387 77.804047
-3.657872 -227.650681 78.995644
75.771271 -228.444473 76.292389
-146.800018 -229.630951 79.273895
6.042929 -230.454727 80.566315
13.625827 -221.065842 76.079224
-142.423065 -228.083633 78.175896
-15.687738 -228.031052 76.112526
77.861343 -225.835861 79.716583
-1.215435 -231.328232 76.181709
73.912399 -234.632339 76.238358
-153.505524 -231.283554 79.750687
3.564403 -232.732407 79.462547
8.657539 -229.978653 71.442474
69.864723 -233.151230 77.773262
17.318981 -234.276093 79.235962
-23.377903 -236.761032 80.926064
-152.494736 -239.515976 75.952156
-16.944645 -240.058533 80.071060
-49.039883 -242.696014 80.357765
-19.480314 -240.760803 77.528915
5.184677 -241.343216 76.555153
13.941809 -237.968582 76.679131
-48.898460 -241.318130 78.009300
-19.156900 -243.097778 78.430092
7.364141 -241.198593 78.017166
-52.802822 -241.950592 78.660698
-27.031893 -241.439896 79.431839
-63.407764 -242.896301 79.382004
-34.884735 -241.199966 77.026024
3.428902 -241.327133 77.875305
12.207164 -243.564346 78.398094
-66.747292 -246.837784 75.321014
-40.816002 -247.582489 76.266876
-45.847095 -244.023331 76.489082
-150.606598 -244.479538 77.955444
-46.801559 -246.121063 75.555870
-71.016045 -245.365921 80.209900
-51.893353 -246.224442 74.567276
-69.646179 -245.797455 77.759186
-8.346595 -250.099152 81.070251
-73.103882 -250.393433 76.312408
-78.936234 -249.192474 74.939026
-81.818687 -253.494003 78.206085
-83.060425 -253.193024 77.082306
-78.341995 -251.992828 75.394875
-158.385559 -255.712189 78.938995
-141.119110 -255.084473 79.328087
-148.677002 -257.398224 75.100708
-13.559225 -257.779083 78.975510
-138.850845 -258.472809 77.986023
-132.639709 -262.118988 74.518501
-125.785034 -258.551422 76.855492
-151.951416 -263.248779 71.884666
22.379654 -266.209595 76.067390
-14.125014 -263.353088 79.051025
-153.698807 -271.614410 78.126831
-149.233704 -273.227905 83.451607
-143.988708 -281.364624 79.882652
11.788244 -285.359497 76.940063
-29.521725 -287.022156 80.243736
-157.711716 -286.955048 80.485268
-48.256771 -285.466095 78.470306
-35.581573 -283.039642 78.107124
-28.083038 -286.302277 73.886627
-8.931913 -284.996704 74.957085
-69.945015 -290.298767 79.857513
4.593906 -285.819916 75.227196
-76.635475 -285.367706 79.097694
-5.340261 -286.634796 78.030273
-81.123795 -286.095428 76.904327
-5.459495 -289.313446 80.629669
8.618359 -286.549561 74.883873
-148.115860 -284.788757 75.576851
-135.181992 -288.948181 78.387032
-126.283867 -287.364746 78.885063
-86.831505 -287.803741 75.423584
-80.607666 -285.904572 76.958206
-147.143829 -286.568726 81.452347
-155.246017 -285.952057 75.048447
-78.944794 -290.113678 78.438835
17.277521 -290.087830 78.541580
-98.600609 -285.891602 81.834488
-67.708534 -287.856873 79.193359
-94.594887 -292.057861 76.328926
-136.686234 -287.625763 78.117920
-80.685509 -291.869141 78.941948
-57.887856 -289.225769 75.897614
-42.570675 -288.800568 79.440735
-143.762115 -290.353546 77.136574
-27.099243 -291.188354 79.069221
-20.855265 -289.138062 77.731209
-13.001443 -292.398926 75.345612
-4.780162 -292.377258 75.801643
-157.537720 -291.376984 74.608757
-149.727234 -291.182617 79.072342
-157.741867 -295.607880 77.723091
-152.897507 -298.164063 80.122902
-149.770111 -300.583008 76.435493
-154.076462 -309.473206 78.581917
-57.643429 -52.085625 75.501961
-46.246006 -50.845634 76.824852
-64.444420 -51.772038 75.352554
-68.892448 -53.135128 74.718781
-41.872471 -57.271400 77.328461
-49.283539 -55.430958 74.224792
-37.763763 -53.561375 75.457024
-75.877068 -58.631008 78.344177
-33.466072 -60.803364 74.470528
-29.535034 -55.268295 77.121712
-24.469189 -64.073051 71.151894
-19.922884 -67.334053 79.376358
-19.590244 -69.239258 74.214897
77.227509 -72.030228 73.915390
84.589096 -69.531700 75.508118
86.709541 -77.916084 75.766518
-29.085541 -80.634155 76.254211
75.614624 -80.399925 78.435165
96.876671 -80.730156 76.740234
73.178131 -80.328003 76.141258
71.587402 -79.759369 79.547295
97.839798 -84.588493 77.178894
73.947891 -87.243858 77.202866
59.340508 -94.101646 77.660286
51.654800 -89.757156 76.767525
50.125061 -95.675285 76.240593
53.028416 -98.800774 74.279366
-67.320580 -96.627441 78.566711
-66.775337 -102.278534 78.938545
-71.907570 -100.202446 70.205956
45.921612 -99.372635 76.197128
55.802658 -100.604256 76.785477
-78.444695 -104.907150 78.181946
45.414989 -105.322960 78.247421
-94.303413 -112.788963 76.002319
107.443596 -103.033096 75.763985
-84.788528 -110.176689 74.969345
52.572277 -108.186394 77.621590
49.056187 -108.079987 76.958336
108.264641 -112.495369 78.776451
108.970406 -108.104805 78.481247
48.676132 -115.660683 75.538887
29.892488 -113.259445 75.388741
107.811501 -117.618721 77.606178
47.419044 -118.932724 75.231438
43.921093 -126.634758 74.862015
33.212818 -120.966011 77.875656
116.909866 -119.097771 75.031403
107.699173 -121.337486 73.603340
42.693218 -124.824554 75.370934
39.852234 -129.278290 74.214233
-53.567093 -133.606766 74.778198
33.407219 -129.349808 77.478714
111.946144 -130.639679 75.497864
116.135811 -133.499573 79.936966
-49.070538 -144.961670 73.116760
23.303072 -138.017075 77.952957
-73.188988 -138.863007 75.394447
-71.436127 -142.025436 75.520065
116.077568 -143.112671 77.703880
-66.807320 -145.379822 75.991570
-54.436077 -144.012497 78.038795
24.222569 -142.359055 76.417076
-45.095997 -144.122574 78.297829
-40.508228 -148.926926 76.020592
-73.725494 -150.355667 76.987625
-65.140167 -146.235825 78.681717
-40.591606 -148.189392 79.803429
-70.505074 -146.811157 72.381233
34.961880 -149.110321 75.329300
109.455055 -149.110168 75.687195
24.739643 -154.427490 73.952759
24.113037 -152.154602 73.158279
-71.933075 -156.531525 78.729080
114.479805 -155.450577 75.513931
25.211002 -149.063873 78.783386
-34.677021 -159.232956 75.689453
113.976013 -152.884277 74.777214
8.650390 -156.341995 77.053276
34.897995 -154.805557 75.960014
-63.070953 -153.962860 75.118156
-62.669094 -156.713806 77.014984
117.556686 -156.327591 76.376518
-72.134254 -155.680725 77.195526
10.925469 -159.904861 74.329796
35.709534 -154.686417 74.253906
-66.557426 -164.114792 77.245346
-63.884769 -157.780319 76.010666
-42.658672 -162.033447 78.105553
-62.165600 -165.093018 76.428818
30.877937 -161.644836 79.018478
-64.742905 -162.529572 78.204193
-2.506887 -162.157715 76.401817
20.835306 -159.857346 75.941711
17.315096 -165.527802 75.403755
110.375687 -160.973969 76.819649
-59.236404 -167.128021 77.167984
-65.929482 -167.861664 77.329880
-30.132933 -165.915222 75.348015
110.873138 -159.891739 74.511002
107.208420 -170.177856 74.879951
-7.545597 -167.670792 75.356339
-4.016540 -167.521210 74.702835
111.497429 -164.913071 73.948792
-3.706703 -171.226837 74.261589
-31.405064 -172.525909 72.883240
-59.696548 -173.095474 77.463188
-27.045481 -175.710281 76.667061
-56.004261 -171.879135 71.496010
-53.267342 -177.654572 73.775955
24.835211 -173.273727 75.377510
109.893066 -175.100357 72.650139
111.483650 -172.592453 75.054138
109.849075 -174.352676 78.670685
15.219659 -179.929962 75.325203
18.501892 -174.425049 78.672234
-37.933380 -178.337921 76.453972
-49.818741 -179.082581 78.412758
103.485641 -184.994080 75.489769
-17.937769 -186.029724 74.815575
24.649721 -179.101181 78.895607
109.467598 -179.131638 76.931213
108.612106 -181.327469 75.138504
-146.475800 -186.365356 74.361389
106.431808 -184.543533 75.964302
-53.803440 -188.908279 79.142410
-48.486362 -186.334198 76.642952
26.392656 -183.853134 76.278374
-53.890858 -181.513626 73.091675
-33.449890 -185.954819 71.572884
-48.030148 -188.665894 71.999794
-16.755550 -186.064316 77.196716
-51.600746 -189.181030 74.441307
103.776100 -189.584198 76.595856
-152.936966 -193.211411 77.456474
-41.530064 -198.159744 76.324646
-144.045792 -193.123245 77.367455
-47.274834 -192.118271 77.269569
-15.976516 -192.019516 74.740601
102.483315 -192.831589 80.039925
-42.552322 -192.642746 74.257881
-17.581661 -196.807693 77.965591
24.418701 -190.077698 74.971718
-142.916565 -194.514526 78.808449
-44.203384 -197.668213 76.690636
-15.529165 -192.317612 76.616333
108.422318 -195.154526 79.076599
104.084396 -190.259750 75.002296
-47.832058 -197.311310 75.442924
-25.287384 -192.055801 79.072296
96.032120 -195.668945 76.082024
-150.365036 -197.470337 80.884903
-29.201822 -202.367050 78.457664
99.434563 -194.606888 76.495422
-152.059998 -194.682312 79.538635
18.953379 -196.596497 74.662880
-16.036777 -201.413773 75.647591
11.760564 -196.647476 80.483269
-153.793579 -202.390060 76.269814
-36.987068 -199.769196 74.483376
-141.433350 -200.491150 77.919922
-32.223179 -200.252899 77.388527
97.736961 -201.765411 78.047127
-40.577797 -206.960114 74.919685
100.973076 -201.480682 77.743752
-36.436905 -200.018402 71.479927
-145.188904 -207.827026 78.776169
16.587290 -204.748596 78.535751
-39.151089 -208.192703 73.676933
-15.424564 -210.305664 75.389130
92.801048 -203.671234 77.310158
92.184731 -204.016052 76.128899
93.758942 -204.800323 74.960175
-5.583817 -206.909836 76.231987
93.585045 -210.340240 79.414375
-33.203800 -213.833389 75.232048
-84.496040 -211.249603 73.529091
17.258856 -205.991821 75.780434
-76.019417 -209.538239 75.674828
4.235163 -214.398010 78.403038
-5.643077 -212.395203 79.288017
-96.408905 -213.883896 77.614037
-21.440460 -212.991104 73.614037
-149.353149 -210.106964 77.542976
-27.630302 -215.336105 77.876396
84.742233 -214.037125 76.011688
93.814278 -214.660995 78.981361
-21.339857 -218.642685 76.369118
92.729973 -220.418320 76.126678
-7.664744 -221.657440 78.249916
78.047806 -220.746262 73.813774
92.325661 -211.099594 78.842415
-99.822235 -217.046783 74.633507
-20.474163 -221.096054 74.058563
-18.181114 -221.891815 75.279961
-9.314722 -224.701309 74.318764
-148.738083 -216.765366 77.823830
-143.446823 -221.019928 80.219551
-16.776722 -225.267700 74.719887
75.550896 -219.769791 76.123795
-25.858852 -219.904037 74.127953
-12.455849 -225.644882 75.483147
-8.155534 -226.247574 77.987267
-148.302887 -225.565506 78.897163
-126.474564 -223.330002 77.188179
-26.074228 -219.775558 73.303841
-121.855492 -223.851196 77.101418
-130.655167 -225.116714 77.783295
-9.470846 -228.408600 75.199074
4.505080 -225.510513 75.637718
20.567423 -226.300095 77.448814
-128.616272 -226.951004 74.844177
-5.685542 -229.875336 78.028320
21.257746 -231.671783 76.442291
-131.407333 -227.675034 76.929092
15.885772 -228.203476 75.124084
-153.195374 -231.265366 82.652763
-123.843544 -229.370560 77.717056
73.231956 -228.476456 78.245110
-4.976322 -227.575378 78.014343
-2.550816 -228.452927 77.620895
-7.926331 -232.124557 78.379822
-1.978298 -229.353928 74.445534
-0.765061 -234.861557 76.820030
65.725166 -233.648102 77.147064
71.847015 -233.661316 72.565460
-0.869895 -237.577728 78.749657
15.960173 -238.061356 79.074066
-30.795475 -237.603088 75.315369
-27.458582 -236.231232 75.758179
-34.151043 -240.040054 79.800545
3.745445 -235.905167 74.718689
-42.326378 -239.157623 79.224770
-34.079067 -242.163071 77.283081
-31.589401 -239.685928 76.485405
-18.481050 -241.890839 77.306931
-50.922005 -243.440094 77.426735
2.641640 -242.345993 75.776390
9.829464 -241.251083 75.651939
-53.564171 -243.224274 75.805710
-38.435413 -245.308701 76.172523
1.100457 -239.432037 74.821457
-60.198544 -241.407639 78.273506
-43.889519 -245.069153 77.207634
-68.237846 -243.182114 75.117416
20.388393 -241.147858 77.761627
-71.189018 -244.154419 74.476563
19.845377 -244.387848 76.275620
-145.252563 -242.625137 77.223045
-159.507996 -249.572510 72.023621
-74.088150 -248.018021 76.509987
16.550280 -244.413361 77.953903
-160.656143 -247.004486 75.423859
-83.966187 -248.172607 74.893021
16.388744 -248.149612 83.617592
-81.073593 -248.347687 76.852715
-76.398270 -251.463715 74.672920
-90.009872 -253.242203 76.948578
-77.944000 -251.268539 76.230354
17.888384 -254.777649 78.155388
-94.176819 -252.820297 75.157883
-125.331474 -255.151779 76.007103
-144.330643 -251.238007 78.448540
-150.469833 -254.918182 79.402893
-117.173264 -256.183777 75.517441
23.554724 -259.786102 75.619156
-150.478943 -253.653732 76.198196
-143.225204 -257.485840 75.095123
-132.877777 -256.993378 76.522163
-120.992455 -258.996857 76.100471
-10.724647 -256.634369 77.234253
-153.342804 -256.789368 75.912292
-136.193420 -258.575623 74.632607
-150.397522 -257.978546 76.656326
-140.529022 -257.034668 75.818581
-134.086380 -261.853180 76.780655
-132.726151 -260.175690 77.350014
-122.190521 -259.459686 77.635056
-164.549377 -260.379303 74.185661
-126.073708 -263.750519 72.711723
23.742079 -260.737122 77.662163
-131.219467 -262.565460 77.236168
-165.649643 -261.285767 71.923622
-162.990891 -264.058838 74.333275
-151.683395 -263.001434 73.577774
-160.923676 -264.521393 77.090118
-153.364761 -262.940002 77.427345
-155.632202 -266.497467 75.721642
-144.995331 -265.384766 75.251701
-165.948502 -267.514038 75.569077
15.421214 -278.608917 82.969963
-163.907135 -277.489258 77.260582
-152.992020 -272.431366 75.408073
-7.083230 -273.306000 81.492004
-162.078262 -273.840118 76.051300
-149.980957 -275.313721 76.379982
-150.412338 -275.481171 74.097115
-5.828699 -280.177460 78.880615
14.373052 -280.070007 80.436035
-150.693268 -278.789795 76.984901
-168.337158 -278.663483 75.560036
-145.772125 -280.315491 76.474846
-4.455502 -279.986084 74.038307
-146.780014 -282.137054 75.942169
-157.298355 -278.414490 74.024750
-164.050964 -284.627380 77.444077
-164.512955 -281.966309 81.746910
-152.946777 -283.042175 79.438187
-165.549042 -284.558777 75.975380
-137.973450 -286.221802 76.841927
-69.059715 -287.152832 76.503181
-34.927212 -283.264282 78.319977
-23.534941 -285.780975 77.337425
-9.025054 -284.355865 76.349007
-4.907889 -284.996002 73.958214
-0.593047 -285.411133 76.492699
10.932843 -283.269745 82.061806
-98.708443 -288.192047 78.617180
5.835744 -284.853973 77.830849
-120.363373 -285.971436 75.405464
-112.546196 -289.159882 81.023689
-149.335770 -286.880829 79.744064
-148.656250 -282.487915 76.761154
15.071966 -289.612610 77.723473
-100.845612 -285.512421 75.504326
-151.221115 -289.649506 78.261902
-147.667236 -290.593353 74.608528
-127.922577 -290.398010 76.574188
-111.327835 -291.250977 75.136696
-82.735245 -292.453186 76.123756
-69.183968 -291.758484 75.305672
-160.424225 -288.639709 80.663612
-162.006744 -291.275818 75.691628
-123.423508 -290.725800 77.190506
-36.637810 -288.930573 74.621063
11.923929 -286.925720 77.528320
-157.330109 -289.679779 76.883896
-30.930523 -288.739777 77.118736
-135.508194 -291.827606 77.979462
-10.425914 -293.156281 77.567818
5.987645 -293.328644 76.192062
-126.454826 -290.554382 82.177757
9.358648 -293.237335 78.160049
17.911085 -291.742523 75.347801
-136.761780 -291.662537 78.391075
-144.787766 -291.795654 77.209076
-144.714905 -299.220642 75.549355
-156.613708 -308.606750 76.949036
-149.083954 -309.296387 78.600609
-71.933067 -49.668564 75.854652
-65.974472 -51.024483 74.689095
