# This PCD file was generated using the MATLAB® pcwrite function
# from Computer Vision Toolbox®.
# .PCD v.7 - Point Cloud Data file format
VERSION .7
FIELDS x y z
SIZE 4 4 4
TYPE F F F
COUNT 1 1 1
WIDTH 1499
HEIGHT 1
VIEWPOINT 0 0 0 1 0 0 0
POINTS 1499
DATA ascii
103.535927 -92.393669 60.833542
81.425224 -92.111046 57.860008
104.571373 -90.823624 60.220860
74.791138 -94.146423 60.542755
79.990372 -94.707329 58.199535
65.005745 -95.051155 61.558907
-100.076096 -93.642036 59.135029
75.846474 -98.893234 60.101849
79.827385 -98.899078 57.203552
80.479767 -97.851402 58.449333
103.409576 -97.489273 59.043034
76.385391 -102.235054 60.240665
67.639938 -95.960472 60.045692
66.445953 -102.877785 59.413086
71.442627 -97.258453 56.449646
-71.815544 -98.757759 63.415024
76.577614 -100.976204 60.060299
86.058861 -101.909271 57.390636
71.760269 -100.999092 57.821609
75.238907 -100.379967 58.144501
63.673042 -101.845009 59.795692
80.433807 -102.121422 59.780369
54.293072 -106.848686 61.423271
-100.449165 -105.798805 63.541710
85.456390 -107.162605 63.025154
-73.359573 -108.291008 60.915230
-70.560829 -113.879753 59.987324
-60.160049 -109.012253 58.725891
-81.312851 -116.457558 57.541492
-96.600769 -117.941513 60.009068
-79.987564 -117.156982 55.442844
-85.783867 -119.724358 61.843227
-58.835407 -113.702827 61.696918
-97.206306 -117.428146 61.443233
-66.842384 -119.622314 60.333260
-59.785480 -118.918854 60.126850
-56.916374 -123.578575 57.889980
-68.166885 -122.737366 60.171574
-62.436291 -122.562157 56.203888
35.536198 -118.666039 58.904861
-63.801044 -123.748428 62.621891
38.990009 -124.375542 57.083000
-63.861767 -127.962555 58.766068
-55.492390 -129.398300 59.967758
29.655920 -130.244171 61.839111
31.672239 -129.212585 56.729214
9.975449 -239.695129 62.302498
20.871653 -239.248032 61.223297
1.798726 -241.781479 58.800655
0.875305 -242.350906 59.499607
9.967865 -241.561371 56.248768
5.758505 -247.210556 58.477322
23.093157 -249.618927 59.704872
4.000839 -257.799255 62.340622
-16.801462 -258.307037 58.419495
-14.905118 -258.871582 58.689045
-18.092928 -261.188049 62.298397
-16.500902 -256.879974 60.016106
-18.131866 -260.547394 60.046181
-19.479557 -261.583649 58.809437
-15.957941 -261.752838 58.016644
-14.320662 -259.088745 58.386314
-21.699196 -264.004608 57.551285
14.002147 -264.004517 57.217712
9.816525 -266.680450 59.877953
-14.427716 -267.222321 60.823807
24.757246 -268.145966 54.098782
22.238209 -272.485291 63.271210
-14.227948 -271.014160 58.053288
-12.385836 -271.033875 61.032303
-9.907547 -283.839569 60.883015
-3.678262 -281.894226 61.667427
-7.217747 -281.298828 62.330433
21.195505 -284.306244 59.964325
19.643356 -279.661682 59.964062
38.372387 -13.547383 55.739239
39.891010 -9.232210 56.523830
44.068485 -13.517756 60.858482
45.405441 -13.867663 60.535568
22.479490 -17.606915 58.065659
45.458164 -18.467499 57.269951
18.854206 -24.432669 56.801910
48.466034 -28.388418 60.436680
49.077774 -33.297287 60.680546
37.285915 -35.531906 59.304108
46.265369 -35.268257 62.082500
23.415361 -38.011204 59.900669
25.060822 -35.387375 69.814430
43.110313 -36.184658 60.260681
35.828640 -39.203579 67.407593
36.336060 -40.242752 65.995453
37.191730 -40.602409 53.050762
-60.004406 -40.142063 58.056793
-46.279221 -43.503578 59.813046
-35.895039 -48.615673 58.908375
-85.796448 -47.811867 58.846340
-15.305015 -52.890377 58.946278
84.320618 -59.823360 57.397560
91.697899 -60.099598 59.661781
70.499062 -56.521286 57.542629
95.494644 -58.185432 60.184998
-95.462318 -60.016087 58.160896
-20.918978 -59.018982 56.283966
98.900589 -64.077431 59.310894
69.186623 -64.171135 59.001369
-97.235786 -65.548439 57.761646
-61.854858 -67.690453 56.683525
100.813522 -66.060135 60.298225
-99.893776 -71.860344 56.277771
102.723877 -74.700478 60.071720
64.281914 -78.164955 62.568336
-48.691692 -77.299568 59.510429
107.015625 -77.534737 60.609085
-46.696106 -76.163872 57.556164
64.411980 -81.800255 61.238064
-52.527618 -76.154404 58.888836
102.244347 -82.654259 62.365112
64.187675 -78.427238 59.431854
87.294861 -85.408485 56.998005
85.613220 -85.818138 56.399284
75.686134 -87.562653 58.270744
75.805527 -91.576103 57.823471
90.247154 -88.115074 54.913853
-68.357857 -94.072304 63.627853
85.742645 -92.918533 61.731182
66.521866 -94.968460 56.777859
65.889893 -95.645836 61.495937
62.638309 -100.325760 58.731659
82.086464 -98.955482 60.577324
76.991623 -99.143951 58.867355
86.736984 -96.537300 59.193859
93.536331 -103.842918 57.404087
68.761734 -100.261330 60.715881
102.523170 -99.692039 56.767452
59.591602 -98.593887 58.680111
103.162674 -103.315186 59.468925
90.629776 -99.478882 56.533344
-61.901424 -104.493896 59.812290
-65.891998 -104.209991 60.790035
88.581810 -103.303444 57.871136
-59.046005 -101.077812 58.677658
-63.543648 -104.514183 55.108925
-75.526123 -108.016335 63.727634
47.626472 -103.611000 57.300812
46.405399 -106.147125 58.686996
96.127647 -107.044060 58.982830
88.849953 -105.032341 59.429070
-60.972595 -106.802315 57.125641
-61.888912 -108.752579 55.959141
-71.636299 -109.723778 57.141621
-72.478027 -110.221680 56.211475
41.355030 -109.048340 57.964287
-58.285603 -108.730339 61.434631
-62.020798 -112.065041 57.874790
-78.396828 -113.791611 57.970501
38.457489 -111.302376 58.069069
46.830761 -112.357208 58.820564
-69.212776 -115.704933 58.961086
-57.630356 -118.534370 61.107845
44.183422 -119.901520 61.618359
-58.185265 -125.398407 57.336918
35.907288 -117.609215 58.331562
33.896011 -123.118172 57.998325
-91.033791 -120.443855 60.204342
41.616894 -124.209129 56.332127
-58.429653 -125.504990 59.425549
31.970917 -122.413414 57.997559
36.233795 -126.748550 58.880276
-62.892849 -127.722794 57.325699
31.483578 -128.600433 56.618893
32.248661 -128.423843 59.305668
-59.754337 -129.646957 57.541859
-58.506546 -128.693558 56.760399
-1.059479 -237.728836 58.588165
3.427435 -237.957474 56.172806
18.225140 -239.359711 59.141277
5.040237 -240.782074 55.757675
10.351099 -246.694077 61.110630
13.185522 -240.997833 52.521221
6.274547 -246.613373 57.198769
25.436310 -251.194275 59.369583
-19.381430 -248.466766 55.014484
-17.040371 -250.152679 56.987152
-22.216940 -258.875214 58.792130
21.962471 -255.272369 55.962879
-15.697651 -254.384140 59.130611
14.691343 -251.483170 58.267609
25.045303 -257.090424 57.340137
-16.489445 -258.493561 59.710735
-16.857885 -261.960114 57.677177
-18.201818 -258.100403 55.926678
-16.588223 -263.408936 56.976719
-19.446373 -262.013275 58.467285
-16.819061 -264.715942 59.712818
-17.372246 -266.769531 58.759495
-14.382595 -269.839600 58.219616
-11.970432 -266.302887 57.292366
-16.097538 -272.342041 58.598595
-14.335167 -275.780273 57.832165
-13.947823 -273.334412 56.260567
-12.049643 -273.161011 59.583893
-13.838756 -274.241791 56.689491
23.539501 -278.330719 54.101761
-13.180037 -278.108978 59.721104
11.287624 -275.505157 60.365810
-12.513085 -281.536560 58.394985
-9.679610 -280.075897 60.213543
-12.299994 -281.909180 58.597904
-9.408410 -278.825470 55.717812
-10.393847 -282.697266 57.873146
-10.030604 -282.351257 61.512318
-9.859041 -279.825836 57.714016
-5.391685 -281.457245 59.393452
9.437304 -283.651154 60.371799
10.172207 -286.184448 58.376301
14.107295 -285.857452 58.510990
-4.978792 -287.461670 56.100933
-3.237035 -283.244324 59.640381
0.600370 -289.637939 59.852772
2.872618 -292.384827 56.175007
33.930313 -9.315638 60.551571
25.521698 -14.865596 56.329151
35.379017 -16.429836 61.780659
38.488010 -14.420326 53.270805
43.759121 -15.598870 57.987175
47.465080 -20.688725 56.718410
26.431452 -22.417982 50.323643
27.893164 -22.832945 52.491714
43.074730 -26.787340 55.004253
20.730469 -32.762299 62.051922
19.119492 -31.279480 62.970432
29.545757 -31.147696 55.211617
47.491703 -34.573208 57.060875
41.290073 -40.232067 56.339256
-76.815742 -42.769524 60.126942
-47.782825 -45.757748 57.447227
-81.983734 -42.663609 55.780857
-37.164398 -45.691357 58.473083
-91.992821 -50.316929 58.683193
76.654709 -57.205830 59.282459
81.902794 -57.362381 58.090351
92.815872 -58.277832 56.767700
-15.817261 -56.473488 57.153709
-11.580648 -61.447861 55.896404
-26.401112 -61.992767 54.481552
68.484604 -62.566994 53.734985
-27.483578 -64.178223 57.381393
96.550957 -62.341015 59.810810
-31.167053 -68.154968 55.530754
-67.707336 -65.579681 54.883575
-61.349052 -71.669174 55.127029
-67.582382 -69.833359 53.668358
65.930908 -70.637627 58.206913
-100.405052 -75.765640 56.136936
103.249969 -73.483643 56.240250
-46.904606 -75.320236 58.520325
-38.035316 -76.688217 54.690826
-46.377861 -78.313942 56.499557
76.887550 -79.675301 56.266808
81.361191 -84.838432 57.631664
-98.728584 -87.404198 59.328575
76.921608 -85.916046 61.337460
85.811249 -81.613510 57.601292
76.122795 -78.641785 54.477634
-59.733421 -84.518349 59.847332
70.760010 -83.306503 56.590672
88.142441 -84.357018 57.897461
-62.932415 -86.886452 56.857426
91.652115 -86.414810 58.620064
-67.987434 -89.893654 60.318760
64.382057 -86.710091 59.205631
70.664993 -88.867889 57.429543
65.444122 -91.872849 58.887356
66.248245 -92.718399 58.538330
103.104713 -94.076401 59.275032
67.615173 -90.648438 56.445591
-99.858810 -86.616165 58.495422
67.800980 -93.776886 56.785042
93.538651 -95.514526 56.909439
93.344154 -92.344276 56.846142
70.881180 -93.754196 57.028599
104.719032 -94.397423 58.176723
-100.629517 -96.364166 56.511265
62.553719 -96.507263 54.798737
103.468651 -100.861595 57.360687
77.688141 -99.701729 55.440018
87.726471 -97.609009 55.531548
56.539555 -101.214745 55.589409
96.782837 -103.195374 54.732315
96.548691 -99.220833 57.166348
99.327576 -101.785843 54.146767
65.836647 -102.157104 56.818371
57.399822 -104.362434 57.608788
95.016396 -105.899422 55.322891
86.964531 -106.506706 57.311131
96.804039 -105.372704 55.970890
89.691116 -109.371071 56.216503
95.440697 -109.419838 58.556183
54.183701 -111.305664 54.063484
-76.684723 -107.116600 55.795456
53.496635 -113.959084 54.869450
-73.696663 -114.625443 59.426502
-100.537552 -116.542572 62.713093
-80.508446 -116.135902 58.936630
-69.156166 -111.852463 54.644272
52.531574 -114.023232 58.598759
44.585068 -114.742889 56.650627
-83.066925 -113.797234 59.028725
38.862339 -115.430786 59.392136
-71.771454 -119.425446 56.125427
-60.451748 -116.227707 59.279369
43.022400 -119.841591 58.899925
-67.848763 -118.697975 57.347225
-64.037003 -119.050072 55.976501
-56.325512 -115.147278 53.853500
-68.777176 -119.656296 56.297020
-62.045937 -117.657455 55.228436
41.051559 -116.745262 57.774372
39.621441 -124.610130 56.348770
40.287392 -119.241852 57.649075
-59.995998 -122.548607 56.367123
-64.688568 -126.540115 59.140362
-63.617069 -125.614777 56.032360
-59.257732 -126.049774 56.125423
1.743397 -238.646454 58.170399
6.883204 -234.546387 56.121563
8.072003 -235.043945 59.130970
5.075511 -238.485260 57.349216
1.309574 -239.093185 58.549252
-13.796593 -237.435379 57.260635
4.724380 -241.715607 59.247139
0.616753 -239.236588 56.664383
-0.334026 -239.071762 56.538670
18.022062 -240.762711 57.772938
-17.698105 -237.861649 56.034660
15.188235 -241.691681 58.384777
22.517553 -246.192276 56.958511
-16.067921 -246.886856 56.094200
10.783106 -248.513184 57.999165
-19.350353 -247.599854 56.976418
20.115883 -249.460236 54.059574
-15.805470 -247.952820 54.728493
-16.425369 -250.762817 56.472393
26.594822 -249.487900 57.415630
8.196490 -252.813797 59.040558
20.189203 -250.988525 56.614693
-16.172619 -255.210541 55.391453
-17.976851 -256.428040 53.883663
-17.078636 -254.805237 55.613926
-14.710672 -256.761810 59.660694
-16.387131 -261.039337 56.657055
26.493910 -261.165436 59.085907
-14.072184 -262.030731 56.630341
25.397989 -261.352234 56.590549
30.717825 -267.116150 57.818508
-12.811618 -263.452942 59.339684
-11.017085 -267.007996 58.705006
19.954189 -273.326874 57.131214
25.133211 -273.432617 58.729225
-12.088795 -272.829956 57.042557
-10.316331 -273.812592 55.680599
-12.760144 -282.078461 55.294659
19.521059 -276.551575 57.263443
17.455397 -277.015259 58.885334
-8.985188 -274.767059 57.112808
23.517996 -277.779175 55.407608
9.533954 -281.360382 58.247639
14.948776 -283.006683 57.459564
-7.430522 -282.466034 60.540115
-10.764822 -281.603851 58.536476
-3.531711 -285.750549 59.575043
-7.583120 -286.025909 59.175251
15.270531 -288.277161 56.333149
17.848284 -288.832214 54.821384
-1.688020 -289.290314 57.846474
12.314689 -293.759003 58.246193
8.414144 -290.467743 58.386589
6.110859 -294.295563 56.686272
9.622254 -291.812775 58.133785
29.692112 -11.202656 58.443825
31.237713 -17.494232 51.972481
27.013407 -19.485689 60.090813
46.497341 -21.502172 58.964478
42.230713 -23.950909 65.930679
20.568302 -26.730516 57.512188
27.371431 -28.773209 57.780666
26.859493 -31.203909 59.149658
48.112091 -30.593475 58.570503
44.257656 -30.163345 58.891003
20.859972 -33.544952 58.643684
38.633564 -35.692562 55.588112
37.232533 -34.617271 56.068554
37.042839 -34.920048 65.908371
28.395449 -42.372650 54.634876
-62.443588 -39.468582 56.702137
-70.621155 -42.859310 57.623280
-66.880684 -42.703510 54.162018
-79.300797 -42.101685 60.139896
-55.757076 -43.096088 53.758797
-50.594017 -46.259403 54.323639
-86.608223 -46.228626 57.923573
-44.112144 -46.096607 59.484547
-88.369797 -46.823090 51.528000
-26.134558 -47.357460 53.390587
-90.970627 -49.993149 58.788498
76.748497 -56.522240 59.319332
73.086327 -58.430901 54.661583
-95.873192 -63.847534 58.165321
70.022118 -59.696609 54.778164
91.601646 -59.934551 55.342522
-64.240387 -62.393429 53.281296
102.010750 -69.254257 53.167641
-65.379028 -65.716675 58.385296
-65.957336 -68.607307 56.847919
-35.236004 -73.227592 55.577805
63.714214 -74.616440 58.149715
82.088959 -78.235611 57.339272
-40.684635 -78.120163 57.024971
83.090149 -77.345337 55.516254
79.466080 -77.056442 55.183464
89.488419 -77.413437 55.458256
72.953850 -82.117424 55.946209
103.551163 -82.048973 53.732777
63.910957 -83.261192 56.429913
68.141327 -84.596046 54.707687
105.221687 -86.074265 55.419971
65.877731 -83.178886 60.714870
91.503448 -85.077576 56.451332
64.173813 -85.464119 55.455761
68.053726 -86.164696 56.046211
65.090141 -88.734283 53.882374
67.704018 -91.654022 56.422028
91.441315 -86.100929 56.102306
97.695435 -87.856377 51.587631
79.519196 -92.639740 55.011013
92.064804 -95.235123 58.836525
95.694733 -98.561363 56.829857
71.515396 -99.373856 56.186340
98.057007 -97.375900 58.081501
-100.113274 -100.982391 54.588039
68.826561 -101.636848 58.577209
97.613159 -102.406097 56.757336
63.252342 -101.182777 57.097862
51.404442 -103.961212 55.853394
-61.120537 -104.293320 56.873299
-70.678108 -105.778564 54.545055
-74.600342 -109.495483 55.950321
-73.415260 -105.883064 56.444538
-64.415359 -104.022598 57.264744
-76.731743 -111.280876 53.759529
-72.207542 -111.080811 57.416512
49.461117 -110.607018 55.703323
-62.066345 -109.525703 58.445606
42.415413 -114.667328 60.044582
46.538177 -118.285004 55.585926
-56.903778 -113.761711 53.085018
42.089622 -111.991577 54.584515
-66.199867 -113.276581 55.672962
42.387844 -118.630486 53.756355
-63.316456 -119.355721 56.050636
40.652248 -119.103828 59.371830
-85.192406 -117.539024 57.585644
-13.142653 -236.166290 57.743610
10.777978 -236.037048 55.024094
-0.036926 -238.821945 55.979900
20.743361 -240.899933 55.276176
-9.986595 -240.041168 55.359455
6.062689 -239.865585 57.747990
-12.685347 -237.879425 56.294147
-12.692703 -240.508194 59.105194
1.878640 -239.978714 58.106953
15.500476 -240.589371 54.789085
16.768970 -239.518936 55.388592
18.263695 -244.825165 53.976570
-19.579317 -238.597946 58.183174
25.464931 -242.311295 55.854164
21.788445 -248.528809 57.712025
-20.852396 -243.929749 56.001415
28.755922 -249.647003 57.265846
-15.181562 -250.775345 57.815475
-19.458241 -248.615448 53.963505
26.210691 -252.989059 56.369209
29.863008 -253.807892 58.205875
-14.944580 -253.894043 56.945602
26.055845 -253.698425 56.472614
26.428682 -258.228058 54.618427
26.273067 -255.209000 54.911129
25.218647 -255.576553 57.994816
9.544632 -259.673859 61.094822
28.137978 -254.533676 55.615173
-11.986027 -262.250641 55.300293
-13.817816 -260.156830 57.772015
16.535778 -273.834015 55.410194
-17.220289 -266.002563 56.533348
25.211281 -266.484192 57.071266
24.888384 -265.723083 55.663811
-10.003444 -269.370026 57.547577
-12.292118 -267.836609 53.725071
11.056708 -272.834900 58.548309
-10.593239 -269.715363 55.165695
26.962730 -267.105988 57.734138
19.690393 -274.984192 57.765743
27.091972 -272.965485 57.214466
23.609415 -281.055359 59.626587
-7.199062 -278.545502 54.533913
-9.042123 -274.470184 57.564659
16.836269 -278.514282 56.565502
17.788248 -277.313080 56.510574
-7.980439 -277.790833 58.935104
13.555132 -281.355347 57.181904
22.561613 -284.210724 57.019459
-11.554128 -281.829681 56.582821
15.834517 -288.781036 55.319252
-2.771672 -282.741760 57.239357
20.897627 -282.130554 55.047405
-1.806122 -287.329651 56.535614
-7.824662 -287.514374 55.546112
-7.343880 -287.303162 55.875870
-0.726994 -287.925446 56.820313
-8.364683 -288.415771 55.210735
-0.202223 -291.346283 57.595779
9.858841 -289.546997 52.808086
-0.860610 -293.921143 59.197102
7.559099 -292.580078 55.543587
23.387993 -13.344784 57.541512
23.111740 -19.640760 55.470314
29.735271 -18.637104 56.665283
44.218998 -21.751949 58.435474
28.239605 -31.994097 56.960846
21.300890 -36.232994 53.293804
32.909763 -35.657059 57.370071
33.199474 -37.816620 59.261005
33.696030 -39.430813 59.333138
-58.972858 -39.003708 57.475216
-41.724911 -44.225697 55.619816
-16.150181 -49.218159 56.462151
-6.462670 -49.769501 56.583096
-94.582176 -55.859570 57.515144
87.933517 -53.829239 54.728004
86.362404 -57.807384 56.114929
-99.206902 -58.896404 56.512276
-7.429372 -62.382309 61.364079
-20.442318 -60.563114 56.933239
-61.457458 -64.526497 57.066437
101.144341 -65.634636 55.885120
-98.799347 -69.966805 57.643501
-61.115002 -67.007088 53.052052
-65.643143 -73.126083 56.180283
66.485664 -67.164162 56.412853
-64.384727 -70.317917 53.563091
-100.087593 -71.207230 52.560341
63.609894 -71.041199 56.095913
62.134785 -68.824059 55.390526
-38.714325 -75.494415 55.191181
61.860992 -74.227097 56.950481
83.764740 -77.073265 54.377331
83.639313 -75.600449 49.793716
-43.078682 -77.559593 53.467590
76.587265 -77.268745 53.671356
74.996193 -77.398438 55.118660
90.292801 -78.253029 53.832424
86.562325 -80.953125 57.061943
106.364555 -81.951065 57.297306
61.835743 -77.114738 54.241768
66.739929 -83.274719 54.106380
91.845253 -80.947083 56.936043
-52.125393 -82.819435 58.060650
67.557991 -82.523438 53.829861
-56.009827 -80.638168 56.291912
106.404854 -89.432198 55.430477
106.675308 -90.875183 56.178562
83.053642 -92.183388 53.292091
77.547562 -90.435951 52.619659
93.823135 -93.496735 52.502178
99.871277 -92.665298 52.093010
-71.141739 -93.377869 60.751198
98.123535 -95.212761 55.921062
67.981400 -95.575272 53.571400
95.800232 -98.206604 55.399338
80.721169 -99.650002 52.426987
88.450264 -97.742409 54.534698
101.672890 -100.925888 58.180054
57.890617 -98.886757 57.264652
-100.494629 -102.656548 57.039165
55.138355 -100.396225 55.510895
51.406788 -106.167015 54.831512
60.272141 -104.746712 55.323284
58.757462 -109.273705 55.758987
-69.772156 -107.992462 54.738979
56.939919 -103.869621 56.367447
-67.278938 -105.838806 54.700768
54.348228 -108.143753 54.311283
-67.132607 -109.383377 54.449089
-59.392170 -111.151276 55.482571
49.747341 -111.262413 54.578304
48.006626 -105.241852 52.450592
46.738846 -110.487556 55.114044
-78.157959 -110.020927 59.292843
-67.983055 -107.967209 55.303493
-66.880791 -114.439613 53.267334
-71.356728 -114.540703 53.496693
-86.728195 -116.403717 55.272781
-93.784943 -120.705498 55.737030
-67.114456 -117.175827 54.313583
-56.374874 -123.376129 55.771313
-94.572258 -121.582283 53.962513
-59.272606 -117.750031 55.817924
-64.966927 -122.217949 53.165394
-6.605664 -233.580154 57.112045
-17.007748 -238.384659 54.362896
1.561418 -235.662292 56.106689
12.288614 -235.998718 56.992352
-7.577421 -240.498505 56.174244
-7.838592 -239.006241 53.079803
3.992611 -238.101746 53.251598
16.831781 -238.275833 58.057018
-5.117196 -240.395111 54.745182
6.541667 -238.263931 55.603226
9.237730 -237.040024 57.929573
17.263180 -239.336700 56.982716
-13.996691 -237.075089 54.763542
-10.320753 -237.913681 52.427067
10.184069 -239.549759 58.062519
-16.369297 -244.182831 55.885593
-3.907507 -240.649826 55.435257
-10.957385 -243.088165 57.324718
-14.586957 -244.734222 58.713982
21.971245 -241.283524 55.971687
19.982416 -243.038834 57.153801
-12.554774 -242.848938 53.684444
-13.098562 -247.979980 55.867577
9.408185 -246.568405 57.310406
10.813354 -247.404129 57.099720
-14.445007 -247.477585 55.360062
22.728571 -248.142365 55.963299
31.181168 -250.175873 58.256588
28.611059 -252.782059 54.896240
-15.811515 -252.250031 55.122086
-14.113667 -255.881683 54.056698
27.639833 -258.034851 54.218716
19.263798 -259.654205 55.210690
23.058470 -261.106628 55.162998
31.350504 -265.923370 55.569145
-13.781573 -268.226715 54.906738
29.151302 -264.231140 57.731724
-11.392368 -261.457794 55.698708
-13.942692 -268.737701 56.631577
26.818516 -261.907104 54.647427
20.827597 -266.467560 56.271446
29.517097 -270.369629 55.815487
-11.319130 -272.155426 53.933369
22.363255 -267.605377 59.654236
24.769108 -269.467621 55.477005
20.524427 -272.055237 53.081726
20.270571 -275.987549 54.955032
-7.559310 -278.996918 58.173901
-6.782604 -278.795807 52.741058
-7.261404 -278.378845 54.531597
18.070370 -276.752777 52.873360
22.785475 -279.082916 57.529510
-3.046518 -283.580231 55.745438
-5.675671 -277.972382 57.993374
-4.902474 -282.511749 55.247871
18.883606 -279.735260 55.258358
-4.004824 -280.361755 55.835098
19.089006 -284.452087 57.060307
-0.073876 -286.770721 58.315823
1.771587 -286.236511 54.758038
-5.051990 -287.084717 53.260487
17.609980 -284.867676 53.237156
-3.643670 -287.311554 55.653847
2.539191 -286.493439 57.053684
3.417294 -289.262726 55.227619
9.952862 -291.409088 57.089054
-3.177077 -291.790619 57.228851
4.396311 -291.780243 57.382580
3.907058 -290.386200 53.882053
3.908392 -297.354340 57.676331
13.711698 -291.986298 56.352345
36.132736 -11.350093 51.695019
27.524141 -14.915826 55.545567
25.646576 -11.731244 54.194977
31.177822 -15.904998 53.692177
41.350117 -16.121157 54.845837
21.098875 -18.263704 54.728012
16.642345 -21.023655 54.286800
21.112633 -19.119400 55.746193
19.882959 -22.904831 57.027996
45.456036 -27.540180 55.753544
27.479424 -23.755035 56.307678
19.391268 -26.584682 55.136757
25.603018 -31.647627 53.739265
29.543213 -33.806881 56.077072
45.590607 -35.804588 56.062634
31.826801 -36.471561 51.409126
25.015226 -36.102348 54.658295
24.527893 -36.070297 54.305912
33.774174 -35.469345 52.674450
24.425806 -39.442776 53.206524
34.675903 -39.224270 52.207096
43.220074 -42.051449 53.743771
30.195534 -41.136604 53.711224
-78.173187 -42.622318 53.171680
-71.594711 -42.731541 52.276367
-35.476700 -47.912102 53.603455
-8.509722 -49.762306 56.322510
-90.465439 -51.718693 53.509811
-8.695891 -57.661133 56.776783
76.212494 -56.552704 55.370766
82.879768 -54.805466 59.069355
-61.126217 -61.259640 54.702194
72.144295 -59.129597 53.129250
-63.653305 -60.826385 52.667339
-99.381279 -65.123993 58.121735
-30.494875 -60.425148 52.976192
-59.513512 -65.248215 51.547871
-36.158810 -68.145729 52.415878
103.200066 -70.892975 58.470882
77.777916 -72.190109 53.527958
-37.058826 -73.825905 53.071617
76.947769 -73.139244 53.961498
79.978142 -78.108215 51.160309
71.376877 -74.694504 53.618279
71.822357 -76.778511 53.662472
101.502304 -71.382721 55.386154
68.035774 -75.515038 54.253719
69.148529 -78.346542 54.664768
89.070343 -75.911629 52.880516
-46.328613 -77.397110 56.371544
65.340408 -77.790817 53.721062
65.509773 -76.907112 53.525333
104.989349 -83.468185 54.330894
-49.387794 -81.384903 54.484932
97.489761 -84.903946 52.640495
-61.186573 -85.939178 54.919800
-66.422371 -86.732819 59.070660
-69.787514 -94.778503 54.229256
-67.963470 -94.167786 58.268044
73.044418 -95.133682 56.185467
90.005455 -92.272751 53.191471
92.191986 -95.108742 55.436264
77.036133 -95.991196 56.123722
79.953529 -95.111809 52.650959
103.565376 -96.989006 54.211079
-69.251480 -97.355568 50.141342
70.002312 -95.079994 52.341969
80.917397 -96.101669 53.501095
88.458214 -97.063667 54.114956
78.345924 -95.686714 56.095665
86.752167 -94.713531 52.705872
79.128571 -97.186684 53.317108
77.592201 -99.522820 50.509018
65.845818 -100.208443 54.342842
68.643425 -100.392700 51.739388
62.728912 -96.251381 54.230633
-76.075203 -104.667046 58.060234
60.854168 -104.283592 53.733459
-78.185196 -103.231697 59.813118
-66.625046 -105.641937 52.398487
-62.312183 -102.078514 54.075020
-77.271683 -108.822777 52.794201
-98.834534 -111.438225 52.004841
-61.175991 -109.109825 51.432041
-70.898834 -112.887688 53.834846
-61.121674 -115.574272 54.546314
-80.506126 -115.463661 58.263794
-66.943237 -113.738792 53.656631
-62.801994 -114.520508 54.911922
-65.669151 -113.969566 56.935810
-65.130898 -121.005943 53.906353
-90.065842 -118.506004 55.449471
-93.056190 -118.900375 53.245136
-3.270812 -235.173935 53.549149
-2.647542 -235.108521 54.426750
0.393323 -235.470566 55.837406
12.810180 -238.052216 56.300499
-5.411094 -236.774902 54.284176
-7.676659 -237.687225 54.052605
-7.051930 -239.059891 51.942230
1.667876 -236.910522 59.244873
6.696870 -237.153992 53.637020
2.828125 -239.946945 54.108620
6.300687 -237.302673 54.025391
-7.365351 -237.762466 53.693928
-5.138053 -236.564987 54.839687
16.249800 -237.828537 55.641106
-1.004514 -239.018433 55.901871
-0.463721 -236.741180 53.942772
-14.715658 -238.270523 53.507908
14.998423 -240.441452 56.656834
-10.581982 -239.412598 53.140007
-1.751088 -240.348755 55.716595
18.181145 -236.937454 57.232246
21.343756 -242.270035 53.903816
13.806888 -247.578659 52.258854
27.066753 -244.707443 56.645988
25.580225 -247.150421 54.374081
28.395210 -248.909241 52.609459
19.633196 -246.081802 53.262897
28.736347 -252.164154 54.418022
-11.149150 -248.933640 52.004292
-13.626009 -251.039413 57.266697
-13.295960 -252.995773 56.022987
-13.922320 -253.326126 52.628021
27.285103 -253.921768 55.153515
28.699030 -255.847000 53.521275
27.625622 -256.765686 53.215122
-13.973510 -258.150604 53.135601
-13.891676 -257.580933 54.065693
-12.950617 -258.283997 56.161922
-13.441045 -257.205109 50.794544
-14.851733 -261.070251 56.889805
26.141205 -256.813995 53.558380
29.960222 -255.738419 57.189106
-16.569397 -257.064697 54.061783
25.413136 -260.513794 56.234844
27.251266 -258.252380 57.810425
-12.029085 -255.895523 57.397781
-13.500074 -261.576355 53.552090
29.791952 -262.697388 52.906212
27.778191 -263.051422 57.457096
24.885838 -266.870728 54.679386
25.919285 -266.491882 53.099541
-4.683933 -267.889984 53.901127
20.577099 -268.351074 56.932980
22.573814 -270.568604 55.241711
23.790854 -270.034393 54.568661
29.669214 -269.004761 57.696079
25.378752 -268.311249 55.738388
-1.993606 -275.300415 54.913174
-11.356350 -270.904236 55.364761
15.111352 -276.425446 54.473450
21.470974 -274.276093 55.460819
22.080811 -274.244873 53.403587
14.194145 -277.276428 55.671799
21.669830 -277.762878 52.378441
22.689156 -273.626678 54.757469
20.850254 -274.959229 56.008690
23.568216 -279.306915 55.439533
20.518314 -278.479675 53.476757
15.084654 -280.007904 54.987400
21.751312 -279.554443 55.292095
22.845909 -271.809570 55.358074
-4.701303 -277.052826 56.819855
-5.804131 -279.356689 51.544064
-2.831047 -277.941437 54.579094
25.603556 -277.342102 53.520592
-1.603189 -279.004028 52.790302
21.060171 -284.814056 54.301613
22.828777 -282.945557 53.831127
14.098736 -285.323029 53.411983
18.977198 -281.694366 57.098057
8.337280 -283.947784 56.129421
-2.464826 -280.414154 53.861069
2.402597 -281.316650 55.856541
13.510955 -287.049347 57.375351
15.732433 -291.367310 54.916161
3.789856 -287.391449 54.036190
14.136132 -287.241791 55.431774
-0.995870 -293.328369 58.930698
6.812241 -289.597626 55.910431
0.986739 -290.770660 52.165146
0.062102 -289.805542 54.673477
8.630480 -291.701660 56.868694
1.411313 -294.249329 52.955917
11.935434 -290.856232 53.913349
13.556457 -292.378662 53.655407
2.405439 -292.800934 55.456745
35.641876 -12.313512 57.606613
38.161987 -10.949011 52.299492
42.687550 -11.566889 51.646362
28.265829 -11.441162 53.059956
43.300976 -14.184566 53.620449
24.088362 -12.918784 52.948307
47.117474 -15.853045 53.951977
19.159515 -17.223627 53.848724
28.584667 -19.173580 52.890770
47.282570 -17.480558 51.644268
30.003063 -22.051689 52.478046
44.885750 -20.199450 53.865009
46.779953 -20.240168 52.205944
40.366173 -21.122360 52.774300
21.041740 -21.996416 50.803230
41.850647 -21.280718 52.483391
54.546318 -24.662344 52.082069
43.289791 -26.009525 52.751118
22.345568 -25.382765 52.142452
19.020714 -29.586620 55.194134
27.104057 -24.645802 50.346081
23.396626 -25.932293 51.021587
40.443703 -32.020546 55.250916
51.536556 -30.702785 54.190426
25.785248 -27.592106 54.054089
49.564278 -30.816277 55.282539
16.395958 -29.620565 50.853073
27.928661 -36.541676 50.830006
25.204746 -30.959665 51.774647
41.397385 -34.236019 53.806694
22.462709 -34.875641 51.664894
25.213457 -33.434269 54.278858
29.378496 -35.081635 53.489189
39.591888 -35.344685 52.171913
37.298203 -37.499687 54.892677
46.208809 -34.725166 54.504665
26.299175 -35.509258 52.913845
24.019335 -38.766136 51.888786
31.778986 -36.605644 49.671917
30.445135 -37.236908 54.729218
29.521164 -39.607224 54.842205
30.400219 -39.926666 52.193924
38.176640 -37.738937 54.743687
-67.763397 -41.768772 54.173733
-90.055191 -47.413033 53.855576
-38.317299 -48.058544 52.883797
-26.791498 -48.724018 55.516056
-20.693602 -46.291527 52.802944
-16.065636 -52.829556 48.739212
-14.949089 -51.458118 56.050812
-93.463684 -53.672806 52.832520
81.243050 -57.175575 55.304317
76.903137 -60.534733 52.793606
-61.610096 -54.947937 52.401764
-7.414331 -57.507427 57.838379
80.392815 -56.534542 52.319267
87.135139 -58.775642 51.742184
92.616127 -56.519970 52.708164
-7.306107 -57.676113 56.338245
-64.075249 -58.034695 55.707855
93.273865 -55.697292 53.173866
69.808815 -59.713772 51.238598
99.741631 -61.023296 57.030437
-94.830093 -62.738216 55.422707
-60.893028 -57.705765 52.248295
100.167030 -63.841484 51.855431
-63.941547 -67.204712 56.099392
65.964043 -66.839317 54.113575
101.411201 -67.490036 55.200493
66.344505 -66.506569 54.556129
-39.113991 -70.114944 56.294250
74.749519 -70.822067 52.690006
80.206230 -71.999458 53.961620
84.924377 -72.062599 51.190529
71.506851 -69.396729 53.902390
66.285370 -76.339661 52.950008
88.199699 -70.725204 52.610954
98.462685 -76.179985 53.862572
97.206772 -80.167793 53.079044
101.925278 -80.188286 49.188511
92.455795 -77.276009 55.160927
-101.485649 -81.011124 55.724926
63.838272 -75.217575 53.593239
-51.318016 -83.830246 56.052635
102.763214 -82.184380 51.978172
104.700592 -84.090515 55.788361
94.888794 -89.379219 52.984203
65.972984 -93.255295 53.966690
101.239555 -89.558540 54.359119
105.572311 -92.561577 54.097267
102.636200 -92.978767 53.410770
96.164047 -96.653847 55.533691
100.064781 -98.027252 54.764244
-63.836742 -102.531189 53.502361
-64.149933 -105.875023 52.571621
-100.786339 -102.777992 56.672604
-70.753006 -108.772774 54.329960
-97.306931 -114.193298 55.185387
-61.552517 -113.911530 51.473690
-97.174850 -119.778915 56.806564
-97.956001 -115.749214 53.611546
-94.072014 -120.624115 54.369461
-87.532600 -115.440918 54.596577
2.255216 -233.057999 55.706974
-2.349204 -234.518585 55.345722
-6.191096 -238.327652 55.425049
-1.281959 -234.867554 54.639103
6.592359 -236.925735 54.734039
9.639887 -236.997025 52.901608
12.775118 -233.808838 57.191353
3.581286 -236.169678 55.044418
15.372742 -235.700806 54.037441
20.637272 -237.124908 55.331852
4.820883 -238.860001 53.901821
0.955388 -237.041016 53.302731
16.091488 -237.876785 52.609413
19.750803 -238.950409 52.671478
-2.658389 -238.523651 52.756966
9.058365 -239.899460 53.312191
19.640551 -240.372925 52.707535
3.692153 -243.156067 52.690907
-12.800995 -242.447586 52.905762
-4.862996 -243.891190 55.092491
6.022306 -241.750443 56.269588
21.472532 -241.613480 54.199265
17.391930 -242.061081 56.541527
23.506771 -243.439148 59.651382
21.836872 -243.514267 53.961754
17.299921 -245.730042 51.723724
-10.729786 -246.156982 51.192635
28.705162 -244.176926 52.361870
-12.859690 -241.744629 56.663460
-13.334963 -245.991898 54.584774
25.927622 -245.537628 54.293579
13.951731 -247.421036 55.146034
24.155029 -247.118896 55.749897
-10.619087 -250.374420 52.148460
32.210484 -247.159500 53.421741
-10.671045 -247.229935 55.379093
-11.510716 -251.660095 53.454979
-13.778450 -248.984787 55.506744
-14.755667 -249.279343 54.239281
-10.548311 -250.880035 52.419491
27.603283 -250.846375 53.903301
-12.504534 -250.457870 53.109829
30.425407 -248.147552 53.772701
-13.595519 -251.636276 54.283836
-15.864902 -253.734772 51.628338
-12.789606 -250.057129 51.482445
-13.893972 -251.064667 52.770798
-12.580022 -252.589920 49.883091
-11.109675 -250.372971 53.781563
25.434460 -251.950928 50.933159
29.569199 -256.951538 51.726208
16.464155 -254.272598 53.885948
-15.830129 -251.828659 54.196728
19.109619 -255.472870 53.014423
14.260073 -261.385162 53.654022
-14.720035 -253.606674 54.018642
17.046782 -264.838287 54.358036
20.121754 -255.534210 50.346214
28.365885 -259.328613 53.312004
9.899098 -261.282013 52.797058
-14.565029 -259.494812 52.294304
28.663446 -262.781647 54.326698
29.046438 -260.182709 52.558105
19.595200 -261.493134 55.036835
29.949850 -260.741241 54.426956
-10.803496 -263.208038 53.223637
-5.312172 -257.344116 54.513645
15.103617 -262.991760 52.743881
-9.442860 -258.945892 53.232124
3.425068 -265.511139 54.178810
25.179855 -266.224152 54.438461
-2.095101 -266.355713 53.316788
28.139402 -270.485596 54.130676
-6.663936 -267.841949 53.920166
-5.948017 -265.129456 54.914028
-0.786994 -263.929352 50.065197
27.324219 -269.298370 50.684509
11.521592 -269.037689 53.527607
-0.050436 -271.402435 56.893658
7.878074 -268.773132 52.555244
12.922693 -269.476776 52.491474
26.525471 -269.953186 55.061550
24.191374 -270.885803 52.053204
27.521107 -274.586884 52.032944
17.917620 -276.151123 55.272232
16.846973 -271.286285 51.552067
17.342783 -274.713470 53.321484
23.517975 -269.286133 56.229855
9.591463 -277.188110 55.290546
-5.921830 -272.533966 48.964745
-7.220613 -274.704865 54.027344
1.549406 -278.707001 53.997463
25.641312 -277.496582 53.967094
12.847873 -282.131165 54.022625
16.518740 -281.742188 54.071754
11.739413 -281.564240 51.192226
22.026661 -279.198822 52.972939
18.830164 -284.206177 53.116405
22.821251 -281.674805 52.215561
16.016874 -284.610779 55.673832
-1.118938 -282.307129 55.206627
6.677902 -285.064423 52.235767
24.883085 -283.068024 53.572926
12.891976 -287.878235 52.530148
4.251169 -289.351288 53.388855
16.947918 -291.529877 52.890396
17.134359 -288.089233 54.218243
12.521910 -290.383850 57.189678
4.015247 -288.947571 54.713940
9.649365 -291.624756 53.851227
14.658777 -291.172241 55.797695
8.589005 -293.595612 53.341129
2.935363 -294.317902 51.985031
5.352324 -294.384735 53.319843
41.803104 -12.652212 55.403927
40.738846 -14.575350 53.513557
28.462187 -12.707797 51.385490
38.950466 -16.844120 51.565746
35.997868 -13.723563 50.966530
35.638992 -15.597058 53.443451
27.414881 -16.002132 52.921951
31.159794 -16.040041 51.771275
24.991308 -17.898983 54.917297
26.309704 -17.552683 51.472893
40.829323 -18.949846 54.478382
45.084595 -16.862839 49.334686
27.860289 -21.107635 53.633419
50.242374 -20.847015 51.760479
45.685440 -23.282188 52.122684
50.505943 -22.603594 52.204727
52.116817 -27.893637 51.996498
44.358341 -29.446568 51.375225
44.803101 -25.338343 48.953457
44.934677 -29.215883 50.655094
47.405655 -35.178486 50.476303
42.578362 -33.700073 52.676254
43.995975 -33.361465 49.336575
31.874163 -36.209454 53.638012
32.649998 -38.942757 53.828861
34.803352 -38.475544 51.325016
27.212147 -39.193867 51.981281
43.295040 -37.414539 50.073082
44.923645 -36.640896 52.740761
43.997791 -38.155636 56.188007
30.174826 -37.872547 50.026051
38.978806 -42.586994 54.147541
37.620628 -38.791702 53.587204
-79.227486 -42.801586 54.817345
-89.756935 -48.336582 51.790272
-37.269947 -45.779377 52.336746
-7.458841 -54.793583 55.131393
-96.677872 -54.144123 56.683552
-5.997682 -53.167427 50.967228
-66.910347 -60.123257 53.246742
-97.359703 -58.606628 51.815407
95.225410 -60.450802 51.972317
-28.023195 -60.665989 55.974667
-61.348949 -62.842216 52.318020
67.659981 -61.604488 54.765003
98.016113 -62.444485 52.710911
99.988129 -63.032707 54.484116
-62.425816 -68.967377 50.017765
-98.899254 -66.725174 52.705666
67.036339 -66.844505 53.919575
84.143051 -69.842751 54.048779
67.306442 -71.398842 51.087402
73.148010 -68.813034 53.095306
101.349533 -65.746513 50.381958
80.577637 -71.827446 55.144703
87.970657 -69.720284 51.703247
63.252937 -73.199623 53.170883
65.437881 -69.654137 50.975334
103.911774 -71.096252 51.899586
98.835114 -71.718735 53.001495
103.415268 -79.367386 54.583294
82.484604 -72.194298 52.421368
-40.582500 -79.709305 57.291599
97.977226 -75.191986 54.028500
66.317993 -74.749542 48.881229
102.299637 -87.285477 51.065773
62.069435 -82.952232 55.141743
97.783203 -83.150665 51.485600
99.491806 -87.046776 52.075306
100.948380 -88.818878 52.953495
98.642799 -91.968102 51.991844
61.022499 -90.146645 53.362190
62.908215 -90.870377 54.570614
103.507774 -94.039146 53.310452
63.103119 -96.844879 52.592655
-71.387436 -102.492294 53.615540
63.948105 -96.934502 52.630157
62.724182 -102.108849 52.012753
66.198685 -100.001640 52.855598
-101.138962 -106.629066 50.198280
-78.378265 -107.334435 56.944035
71.751953 -105.852806 49.927711
70.479172 -103.864395 51.805008
74.748322 -106.941605 52.714909
-70.689537 -109.509178 51.310001
-66.261475 -109.809990 53.652973
-81.170738 -114.831062 54.640217
-95.629265 -123.225052 58.982304
8.468850 -238.934875 54.576569
2.905503 -234.417007 49.561485
13.286983 -233.651550 54.004562
9.330072 -235.183273 51.292618
8.819345 -235.181580 51.836819
4.120846 -238.033905 53.571198
13.773122 -242.562714 49.617016
14.301540 -242.173523 52.086739
-7.104888 -241.329269 56.824638
7.423661 -240.273849 55.003544
16.858782 -239.731628 51.045937
23.397840 -239.598953 50.285751
2.927625 -239.289474 53.618286
1.449076 -241.040314 51.396221
16.274139 -241.750351 52.111820
14.244431 -239.975525 54.014530
3.684767 -241.128601 50.469948
-14.864242 -240.340988 51.809723
-6.473683 -241.101776 50.275421
-2.904182 -241.575897 51.775562
2.776920 -242.865982 50.718472
3.327513 -240.910751 56.225632
19.986563 -241.351471 53.545944
17.829842 -246.022339 52.566971
18.549057 -239.446106 53.245899
18.955757 -243.737610 51.842625
22.299051 -242.452515 52.534580
11.800073 -240.318481 52.272942
14.337161 -243.141785 53.426617
9.880150 -241.733673 52.206013
24.615803 -240.978012 52.809727
-14.272464 -243.222366 53.352947
4.675180 -241.938187 51.575417
15.654906 -242.109833 54.414188
30.683268 -247.211807 51.936974
-16.199821 -245.721313 54.100697
-11.953663 -244.703491 50.118477
23.200369 -246.803757 51.573193
-9.970497 -247.568787 49.143208
-14.466081 -242.656921 49.542023
-11.922589 -245.254532 54.762600
29.837011 -248.056122 50.915535
22.621096 -247.314148 52.238953
31.867777 -248.654709 53.654720
-12.209752 -248.417191 53.833633
-10.677330 -249.102829 51.822517
-12.830448 -247.116013 50.482906
-12.264815 -250.410416 53.909649
-0.705930 -245.355362 51.734489
8.131192 -249.495148 55.139648
-11.640507 -248.921127 53.660774
-8.958672 -251.732727 52.472363
11.621732 -250.478790 53.138790
-14.419129 -248.587112 53.953236
6.831733 -250.807144 54.011623
1.569735 -251.069016 52.047596
18.915905 -255.332779 50.752476
31.026083 -248.162125 51.733013
-14.543244 -253.535614 50.529041
-7.516761 -259.796539 49.808693
32.106361 -251.523132 52.782475
-11.321597 -252.524094 51.299282
3.424769 -255.939713 50.312557
29.349003 -255.468964 51.453709
-1.596265 -255.076843 51.534660
27.811239 -254.261276 52.078964
31.168352 -258.123749 51.183308
-12.336801 -254.204468 54.564262
23.213888 -256.272095 55.118923
-11.794502 -257.590179 52.455143
-3.284202 -255.871124 53.491570
1.533135 -251.071533 51.780796
0.859020 -261.930328 53.324146
29.927551 -256.158203 54.127171
-2.942133 -262.488770 52.535557
26.214310 -266.142517 53.777637
24.829617 -263.150757 52.738956
-5.003420 -266.178558 53.169727
21.753750 -265.434814 51.894051
-2.018811 -272.455688 51.727699
6.185112 -269.271698 48.133121
18.928091 -269.746460 53.692593
22.667479 -270.417297 53.108044
4.406731 -273.179413 51.833237
3.407622 -275.324005 49.795418
9.169061 -276.476257 55.474792
26.240179 -276.637726 51.955276
-2.121907 -278.768799 53.927406
17.640512 -272.973358 54.555416
20.458025 -274.361542 52.896126
25.656723 -279.692139 52.053379
5.956826 -281.892944 53.196434
13.864535 -277.329742 50.257092
23.558863 -280.739136 52.649128
18.988222 -285.763824 53.167061
21.217579 -286.164825 51.406918
10.787737 -284.867889 51.765511
9.082068 -286.967133 54.497093
20.981770 -287.218109 52.408924
18.830566 -290.609039 53.091904
16.446838 -290.730225 49.510506
17.804117 -292.205872 51.483383
16.251806 -294.365021 53.262569
14.016966 -292.608765 52.872757
11.637305 -294.890045 53.427280
9.334569 -293.980560 54.005119
10.069275 -296.486938 50.473927
11.177156 -295.905396 53.521046
-76.349228 -45.769470 51.393440
-82.252724 -44.586372 52.473854
-46.324810 -45.506042 53.544918
-90.200333 -48.507065 50.743641
-34.429790 -46.479103 48.877693
-26.756308 -50.387798 54.226269
73.350601 -55.346581 55.579914
76.986221 -54.803131 52.680473
-60.864567 -56.309357 48.269135
-9.958210 -54.848633 53.120834
82.252113 -58.738041 55.483452
-17.286686 -57.807095 51.259026
86.175896 -58.502365 50.789478
-21.254389 -59.205044 46.883514
-59.013519 -57.275158 50.707371
-23.150692 -59.784126 52.605309
-65.174263 -62.483524 53.551033
-64.989441 -65.996414 53.881393
66.827888 -66.861641 53.484268
81.258583 -66.107628 48.040504
101.573410 -64.387932 52.645466
77.396729 -65.973335 50.460041
-36.501690 -67.963562 50.928360
80.608879 -68.271843 51.230087
92.278908 -67.084076 52.518272
64.066200 -71.821304 52.058014
102.212242 -72.012085 49.668056
96.603683 -75.114220 50.539719
100.058640 -73.650681 53.703484
-42.709309 -78.387039 50.904503
-43.858257 -77.438278 49.798328
63.550098 -78.016502 48.344810
62.294724 -86.387604 51.547131
61.933620 -83.540680 49.630672
-98.550804 -87.285736 54.660534
63.903538 -89.705276 50.556221
60.888596 -90.488976 49.822094
62.884766 -94.106140 51.922562
64.712868 -96.472908 54.296993
-74.781853 -100.520859 51.122547
-99.531586 -108.222084 54.885994
80.204399 -107.468300 49.221077
73.168686 -108.234390 52.533466
-99.512138 -106.586731 51.557655
74.241905 -109.972595 53.393547
-96.644310 -114.776245 55.645493
-81.189438 -112.120636 52.534401
-88.259743 -117.548004 50.091301
13.685748 -235.004852 52.015255
17.180115 -233.626419 49.250683
16.070641 -235.183838 52.016575
22.052345 -238.715652 53.077995
18.440151 -238.518707 51.042328
18.382635 -238.084610 48.667831
2.313590 -239.666504 51.201710
10.236758 -240.690125 49.920422
22.366501 -239.023041 50.936096
-5.325962 -240.254639 51.671436
16.300747 -239.913483 53.211311
17.472063 -243.075836 51.187542
22.965649 -241.426270 48.901737
7.064092 -242.887100 54.407795
-10.625480 -240.166595 51.165314
-10.362431 -243.225677 51.851517
-1.825403 -241.972656 49.549320
-9.688947 -247.198547 53.429100
4.444318 -245.004395 49.297543
-7.523807 -244.346695 51.491367
13.791289 -244.448700 51.582657
19.669786 -246.072815 51.067799
-13.070558 -244.451950 51.622448
-10.276468 -247.082321 48.550125
-7.261039 -246.306335 49.601112
-5.299348 -252.428925 52.432400
14.393203 -250.843933 51.110760
6.883413 -246.434525 51.578056
19.073463 -247.645798 48.264442
-13.814202 -247.393005 53.137859
-11.723076 -251.315399 50.608913
19.666361 -249.748032 50.306164
0.718954 -246.569916 49.372971
15.202646 -249.795288 53.442272
-9.733308 -253.232025 52.377380
3.220866 -255.089584 50.079559
-6.708776 -257.138885 50.161613
15.129434 -254.935867 51.514202
14.082781 -262.118256 51.553761
27.055117 -249.571259 53.154373
10.162251 -254.488663 50.017002
21.890068 -251.866989 54.389412
3.483113 -253.168610 51.090267
-1.244203 -255.827957 50.155891
15.995090 -258.988434 51.901592
3.426708 -263.346619 50.671833
10.796679 -256.414001 54.477524
19.678827 -260.560303 50.513584
-5.924766 -262.790375 49.926510
-0.879193 -266.124817 50.479050
9.369193 -265.382965 50.270901
6.161146 -266.696045 49.806862
14.898084 -265.010040 55.674030
-1.900482 -270.363373 51.780659
14.562716 -265.112823 51.314388
13.500670 -270.178101 52.725761
4.596427 -272.171814 53.011124
12.569131 -276.121185 52.897640
-58.155876 -44.445595 49.523792
-54.244122 -45.105152 51.317604
-43.304482 -49.935921 52.214436
-21.349489 -49.962269 50.489536
-12.587032 -50.986057 52.185398
77.393379 -54.764400 48.366177
83.017357 -55.464706 49.284122
-63.545227 -62.290234 50.677551
74.384666 -56.442097 49.537117
-11.200553 -57.635658 51.104034
-10.070442 -56.618732 49.947819
81.346985 -57.541626 53.987610
95.581787 -55.615643 53.803795
-64.338058 -57.778236 49.377396
70.504829 -62.239807 51.037342
68.668434 -64.917023 50.162952
71.955154 -61.026402 51.633667
87.089867 -65.311333 47.076744
101.180466 -70.904617 52.693424
67.198792 -63.980488 52.345829
66.142029 -66.582001 51.402885
89.942055 -66.295631 49.179024
95.236900 -73.687927 48.944374
97.730331 -72.241486 49.795124
65.116608 -73.125092 51.036388
-103.562675 -73.407356 49.015907
62.068035 -74.621880 49.679653
-41.666656 -77.256966 50.722477
62.981285 -86.322266 50.266216
58.998955 -76.639305 49.768074
-54.846653 -83.970207 49.896805
-58.016769 -83.077393 53.397400
63.519817 -83.268097 53.082123
65.050629 -76.568619 52.148960
61.607628 -89.728081 50.021660
66.565979 -90.399185 50.110649
63.480595 -91.085686 48.328030
67.433640 -88.707092 51.120560
60.248470 -88.811768 52.617588
-99.667580 -95.116524 52.583012
63.221977 -91.904907 49.777718
66.633156 -99.095375 48.583797
-99.487541 -98.014053 48.884392
65.435257 -97.023651 51.520485
64.027847 -96.883064 51.628677
-74.805328 -98.326141 53.667400
68.954834 -104.556648 50.322849
66.978157 -104.034660 48.463390
-74.415565 -106.025276 51.048859
66.264870 -103.636673 53.172855
73.297173 -104.480103 53.135502
74.539719 -103.513351 51.033905
72.394073 -103.798592 48.445404
84.817871 -104.883789 50.815144
85.534760 -108.435081 50.638172
82.947487 -109.193382 50.453159
-82.781723 -112.949013 52.841419
-89.131996 -117.913895 52.062237
-90.335808 -118.629692 50.134136
-7.016281 -241.461945 50.989674
-3.689857 -244.114517 51.979591
-11.375037 -242.072327 50.617264
-1.424976 -245.982422 48.220329
-9.559272 -246.493622 49.943977
-1.655804 -250.851837 51.473106
-4.651705 -251.076172 48.362602
-81.960373 -43.595791 52.184746
-61.573261 -44.614807 49.449268
-57.693501 -47.735069 46.945854
-85.595604 -45.983658 51.916668
-51.156578 -48.144855 48.894329
-63.153126 -50.411594 50.736942
-44.201149 -48.124668 51.500381
-63.514759 -48.889080 49.203197
-63.792801 -52.804008 52.025547
-65.033577 -54.578548 50.152691
71.106461 -54.428574 50.618603
-58.702629 -58.372002 50.679707
88.080635 -57.679646 52.521637
93.223175 -56.062153 49.015263
84.542648 -58.275002 50.062225
71.081215 -60.316853 50.818619
-63.901173 -59.852238 50.192142
96.533394 -60.337574 47.220436
71.358742 -62.923916 49.606827
61.822800 -65.053032 50.932858
81.242149 -65.429298 52.653179
66.750305 -64.854546 47.969509
70.483711 -66.016785 51.678318
70.477455 -68.645554 48.805241
88.426689 -66.978188 52.414902
62.558071 -67.276283 52.061802
97.630424 -69.488747 47.611145
90.568878 -67.035240 49.373436
66.571198 -70.131149 50.917450
99.209656 -70.582443 46.708160
66.648804 -69.831642 47.663628
-38.310871 -73.463631 50.323036
60.536987 -77.655533 49.630028
65.140503 -74.092880 48.506466
64.855629 -76.778625 48.246891
-46.160534 -78.969963 47.553509
61.824131 -79.106689 50.782486
63.499825 -79.758400 49.420979
-52.948593 -81.494408 50.050495
61.813835 -82.291565 49.474213
64.394279 -77.579948 50.197308
65.505508 -78.004211 50.731918
64.363144 -85.739807 48.506664
60.583755 -82.397385 50.408226
64.623253 -91.587463 49.072357
62.827225 -88.357414 49.925003
