# This PCD file was generated using the MATLAB® pcwrite function
# from Computer Vision Toolbox®.
# .PCD v.7 - Point Cloud Data file format
VERSION .7
FIELDS x y z
SIZE 4 4 4
TYPE F F F
COUNT 1 1 1
WIDTH 1377
HEIGHT 1
VIEWPOINT 0 0 0 1 0 0 0
POINTS 1377
DATA ascii
51.1271264	-53.8558729	-108.486679
51.0997713	-64.3489104	-97.5271931
53.3441822	-64.928226	-96.58872
53.6645725	-63.744067	-93.9654687
50.2789409	-64.5693672	-95.1862783
53.9372866	-62.9613581	-95.3072148
53.1761583	-62.434689	-92.7778674
52.3604081	-63.2197955	-91.6716397
24.4155869	-71.5722086	-35.4045723
24.6143006	-70.537835	-37.1725186
21.520129	-71.0305952	-33.3327683
22.9178507	-71.0411318	-35.2287775
22.1822697	-70.9431107	-34.5912813
23.8848333	-70.9286261	-36.3909885
25.4951572	-65.3869877	-37.941912
23.2771877	-70.8111952	-35.9991445
24.5280221	-65.3993868	-37.0972788
21.5298386	-58.7940575	-33.2011086
22.9934476	-61.4544002	-35.2227181
22.4018445	-60.8318465	-34.5977494
23.9095	-59.3893165	-36.51273
25.8209002	-59.4919228	-38.3557096
21.9749488	-60.7179624	-33.9457909
23.1573766	-56.6183882	-35.9684995
21.9817527	-53.3447545	-34.6197944
23.9869312	-53.2842278	-37.2401409
25.0837622	-52.886262	-38.694636
25.0111094	-51.9451049	-36.795222
24.6649557	-52.3235397	-37.6451606
54.2827989	-67.7400506	-87.6006335
52.6622647	-67.0400126	-89.0764444
32.1871337	-70.6646234	-40.8500251
31.4607921	-69.5857411	-40.7074753
28.9770304	-71.5800742	-39.3277197
28.4328338	-71.8317301	-35.0992421
32.2743887	-71.5618601	-36.9022876
32.1693383	-71.501085	-39.5926166
30.685794	-70.9311261	-35.3276784
28.475759	-70.7303892	-39.8646897
29.7669679	-68.089189	-34.735503
26.4507163	-70.9202319	-38.5157566
32.8064731	-67.2010954	-36.699074
27.1860991	-65.9779571	-38.968066
36.8951357	-71.2102207	-40.2954255
36.3062917	-70.7930474	-41.3182378
35.3621613	-70.630092	-41.0894239
33.502744	-69.1987745	-40.5217041
40.0408168	-70.8664157	-40.6123688
39.1440833	-70.9342341	-41.0409099
34.9466886	-70.7832388	-40.4303904
38.1082636	-70.8621686	-41.2853545
37.1119984	-71.2627485	-36.9458856
38.9812139	-70.6250036	-35.4349241
34.0322931	-70.8317256	-37.0545572
33.909583	-70.7985371	-40.1268993
36.4962364	-69.8762672	-36.1946624
35.4736805	-70.7900723	-36.9781997
39.0638662	-66.34274	-35.4458512
33.8823643	-70.4325941	-38.6894388
33.7956032	-70.793437	-39.6993996
43.8995189	-71.2339077	-33.5464344
40.4720432	-71.2889017	-35.9475667
45.7891682	-71.027941	-35.3353919
40.5624741	-71.177533	-39.7169053
41.3401918	-70.874173	-34.0594375
47.0285111	-70.6308395	-35.0588802
44.591238	-70.5775729	-37.857235
47.36535	-69.981208	-35.4430574
42.0437831	-70.668248	-39.8487194
45.637856	-69.9172163	-37.3264111
41.8253305	-66.2098692	-39.6206336
44.0678908	-69.9867099	-38.686181
46.0753082	-66.9827352	-36.2993989
48.514518	-69.9538868	-34.0365
53.2660906	-63.6380172	-89.5256434
32.3209116	-64.7738466	-40.6894278
29.9287812	-63.3045919	-40.1738375
28.5153237	-61.9418485	-33.6400429
30.5286958	-61.7087983	-35.5686286
27.7651876	-60.3000605	-39.3579447
29.9309122	-55.4154189	-40.3179277
32.854715	-57.1972886	-40.2746016
32.4018939	-53.1910145	-41.032859
33.203829	-52.1516092	-40.2726823
29.5750622	-52.3194136	-40.458221
31.1486371	-52.4676911	-40.9598377
28.7687345	-56.2146467	-34.3763575
32.5656845	-57.6409089	-36.8587519
28.1761495	-52.8585979	-34.1209216
30.6127209	-53.5399048	-35.7052616
33.1934126	-51.8408685	-37.2941551
27.0430512	-52.2307136	-39.812213
27.5714679	-51.7492392	-34.5337987
29.9021185	-51.7259176	-36.042527
26.5146941	-52.115669	-39.2234185
30.677459	-51.5224702	-37.2779392
32.476562	-51.754297	-36.7067679
28.0038701	-51.8227316	-39.2508375
32.0892774	-51.768685	-39.7262573
36.1491683	-63.9566968	-40.94843
34.2534677	-63.0611055	-40.2945302
38.5019077	-60.9477145	-35.778393
33.3525685	-60.0691964	-39.9550882
33.857755	-61.1343391	-39.1835772
34.0758089	-60.0376546	-37.9750322
40.3297832	-61.0307444	-34.9472882
36.5037144	-61.1843853	-36.7473569
33.332589	-59.8923839	-39.7201687
34.7430864	-64.067842	-38.4808447
35.4650376	-59.1135899	-37.0662757
35.1990827	-62.3881085	-37.9371303
33.4653557	-58.2139222	-38.7627525
39.9668262	-56.2525396	-40.4447035
39.0736528	-57.4329767	-40.4008212
35.0058527	-53.5015121	-41.3389221
37.9195175	-52.1254629	-41.0617891
34.3210831	-52.2546638	-40.7720438
36.2211038	-52.9108483	-41.5128245
35.8587609	-51.6900179	-40.6214782
38.693047	-55.9697354	-35.8679927
34.5218311	-51.8071954	-37.5954607
38.9585339	-51.9443112	-35.7226072
35.3053903	-51.9106204	-36.8647075
36.0899708	-51.4721245	-37.9116567
41.8659605	-63.6826717	-33.3989376
47.0720941	-60.5442706	-34.8353377
45.1321022	-60.0310922	-36.9580875
44.3585996	-59.3359533	-37.7662547
45.4462274	-58.9698648	-36.5749683
42.8412549	-59.7810275	-38.3943722
46.5845486	-59.6929167	-35.4979509
41.4619779	-57.8882626	-39.7064871
47.3058207	-60.9177131	-34.0377215
40.5418997	-52.3811911	-40.0329024
45.4350635	-52.1720894	-37.3628786
41.762923	-56.1026255	-33.2134021
40.6122265	-55.6831932	-34.5388452
47.1409075	-53.4419768	-35.0240133
41.6735737	-52.2351657	-33.6700443
46.5500208	-52.2782647	-36.0245641
43.7912348	-52.2369436	-38.5853021
47.3880515	-51.7051232	-33.9821775
40.9858357	-51.2103219	-35.6511065
44.5306488	-51.3272358	-36.9490809
43.9060186	-51.0891614	-36.5522993
41.0467476	-51.3624928	-39.2907998
47.8981066	-59.5120657	-33.4707403
48.3037138	-52.0855005	-33.4189382
54.9463233	-75.1117268	-98.2310397
54.9762203	-74.1166298	-97.5273111
55.2124493	-72.5530531	-100.049759
57.4991727	-73.2952057	-93.3708269
57.6673661	-72.8656844	-97.0168593
55.4122102	-72.8486453	-92.7744205
57.5385965	-72.317849	-92.9211158
55.2195769	-71.1172341	-100.415624
57.9291416	-70.968426	-98.2823515
55.0475198	-70.7124384	-102.14834
57.2791089	-69.4815277	-98.9802712
56.6874361	-66.7306474	-98.2335739
60.6907995	-71.4521381	-92.1737613
60.0402586	-70.8612383	-91.994738
59.2761995	-70.9869433	-96.2982727
58.2619035	-71.6685837	-95.3093805
60.468316	-70.7657819	-94.3782499
58.5648911	-70.2973835	-96.101254
57.3646523	-68.1734107	-97.3650237
59.9426383	-67.6139852	-94.4794691
59.9058106	-68.2218215	-95.8613484
56.0222348	-66.3373945	-97.217172
58.2228338	-66.1935783	-95.3311143
57.1223464	-65.1137492	-96.6136754
67.7509952	-66.3897503	-97.679841
67.3683797	-68.787851	-93.149048
64.2165625	-67.499753	-91.201235
68.294917	-68.7733033	-95.6348646
62.4706584	-67.059136	-91.8628384
66.215448	-66.6017103	-92.1016476
66.3615375	-65.1496038	-95.4853999
62.9707702	-66.1904338	-92.8591076
73.0419194	-65.1990341	-105.255026
74.0139321	-66.5928504	-105.125885
79.2771822	-67.5101961	-106.030724
77.5042868	-68.698092	-104.999443
74.3773769	-72.3847891	-99.2680711
75.8416986	-72.7354338	-99.8840091
75.5474092	-75.3317694	-93.8643815
72.2688562	-72.4402426	-96.4849644
75.0161288	-73.8143135	-97.3210362
72.7855174	-74.2535606	-91.9922604
73.6914543	-74.1567804	-94.7758596
71.4549543	-70.9983038	-97.9422038
73.1721962	-70.0310715	-101.054896
74.6007841	-68.5769685	-103.993106
73.8602405	-69.3714127	-102.609637
70.6375914	-69.0288059	-99.5552835
70.9191906	-67.9339222	-101.061737
71.3946349	-66.3903429	-103.017103
69.4419576	-72.0029517	-91.0167079
70.0682508	-71.3041923	-94.4973184
69.9920208	-69.9641588	-97.148356
79.6598991	-74.1260628	-98.4863247
82.8496313	-72.6417443	-100.690209
82.4825527	-74.9265606	-97.6482866
76.1145496	-75.9749726	-92.3936696
79.3865499	-77.1420537	-90.5740051
81.8366104	-76.9070644	-92.5136233
78.3359224	-76.699356	-91.7994716
80.8857395	-76.3674554	-94.0334378
79.9826383	-75.6668821	-95.8167331
77.2001001	-74.5505493	-97.2198147
79.0082972	-71.9098195	-101.821023
76.4775379	-70.900455	-102.403727
82.2079591	-70.3236178	-103.260094
79.9163075	-69.9790971	-103.935187
56.6849711	-58.4614318	-104.964476
58.5227286	-57.6676422	-105.374556
60.007148	-56.2205857	-105.332416
54.7362977	-56.4183005	-109.145054
57.4462258	-54.7852714	-106.716358
56.1031319	-53.6503815	-106.382769
58.6757806	-58.0765584	-104.053362
56.7103974	-57.806752	-103.459192
61.6202997	-63.462835	-91.9071997
54.6689568	-63.2087673	-90.302895
56.7263079	-63.9459966	-94.3847614
60.4570748	-61.1329563	-91.3093371
55.4189272	-63.4035398	-95.8302588
56.0413621	-60.4084432	-91.1025015
58.26011	-60.2484891	-92.1954136
56.5418107	-61.4929856	-91.6222306
61.2531761	-59.9885564	-91.4966342
58.6604537	-59.0024959	-90.7653566
57.8675501	-56.4397057	-101.757693
56.9856554	-55.115762	-102.244795
60.524868	-54.6433346	-99.9660112
56.4511862	-53.8725089	-103.663306
61.3558098	-53.4875617	-103.984062
58.3469744	-53.3911501	-104.08074
68.2963885	-64.869745	-99.9582556
66.3110137	-58.1077334	-99.6125308
67.8491098	-59.93511	-101.104708
67.7014712	-58.0483704	-101.068623
64.7329129	-64.0765207	-92.2021598
64.0397736	-63.8954069	-90.8665432
65.0822958	-61.4200493	-92.424803
65.3678792	-64.8110393	-91.8986865
62.5829316	-62.8813092	-92.2498625
64.6698942	-61.3578993	-90.3235507
65.7885734	-63.819165	-93.5121733
64.9079629	-58.6308262	-91.5241618
65.0165852	-57.9650189	-95.4854681
63.7218259	-57.6297469	-100.033419
63.0388382	-57.6957393	-102.447312
67.0158278	-56.9342566	-101.854426
65.8560537	-57.3430102	-97.701713
63.3768442	-56.7212689	-98.7458483
62.6785858	-55.2525352	-98.7152108
64.453232	-56.3346667	-102.975028
64.1774376	-55.1414612	-103.308224
65.1276203	-52.2857525	-101.302376
62.879614	-52.8109552	-99.7268905
65.1494253	-51.0870077	-98.2641794
65.7851957	-51.2177112	-102.469419
66.2910933	-51.2534216	-101.755006
66.7668367	-53.4482363	-97.4453874
67.4994747	-56.1991865	-96.676123
65.7079133	-56.1668061	-92.1053546
65.4260746	-56.9772338	-93.7989949
66.332573	-54.8441624	-91.8208021
67.3643252	-55.8871488	-94.7076336
63.600314	-51.3522491	-93.1232742
63.5360373	-51.1730824	-96.5924902
65.8141783	-54.2159608	-90.3348959
67.3832285	-50.1042046	-104.7295
66.0836051	-47.6196302	-106.114331
68.3456974	-46.8137639	-109.549558
65.5618608	-47.2674668	-105.931502
66.5300167	-47.7902834	-105.486522
61.5493717	-47.2520249	-98.0129244
60.5982091	-48.8965029	-90.2867577
61.0415684	-47.5751288	-95.5764295
60.9474186	-47.6181933	-95.0346768
66.2789105	-49.839696	-99.3673618
63.2115525	-48.925836	-98.7137764
64.3365828	-49.5825226	-98.9748626
66.9903783	-49.3563517	-103.722024
65.5468437	-49.1428168	-98.8866803
68.2701464	-47.9458091	-100.189065
68.4332612	-47.9346428	-100.591874
67.9753935	-47.8685748	-100.463688
68.5099159	-47.8789439	-100.584396
67.5205267	-48.2640521	-99.4006026
63.2372212	-47.8469709	-100.162263
66.0230417	-49.8981893	-100.881438
62.5238199	-47.7169466	-99.8862775
64.8284671	-47.8830764	-103.40395
62.5328103	-47.7929243	-97.4961618
68.6965302	-47.4286026	-99.1922984
67.499332	-47.6673516	-98.3641122
67.9062292	-48.1702087	-101.78922
62.6313059	-49.2090879	-91.2783468
62.2315032	-49.3857363	-94.5005025
65.0085647	-49.3958514	-94.8159511
63.5236982	-48.8839686	-90.6222143
64.7512061	-48.5416902	-90.604621
65.573549	-47.8652258	-90.587229
63.9232558	-49.1935302	-94.7457797
66.632775	-47.3802298	-91.7834245
62.0622862	-48.5815534	-92.145701
67.1323885	-47.645712	-95.4203932
62.5643431	-48.895717	-94.1753283
65.6884789	-48.4608285	-94.4204882
67.4815412	-46.8371564	-91.1656558
65.3761056	-48.1570647	-95.7307064
65.9591248	-47.6690337	-93.3380262
65.5669077	-47.8290918	-90.2867397
74.5786276	-63.1175925	-107.162736
72.4887437	-62.4366447	-105.457542
74.4343192	-61.5060175	-106.884589
75.852387	-60.0821712	-106.763493
73.2242825	-58.2842084	-104.700046
75.3687462	-58.3262016	-105.346654
69.2378717	-50.9502339	-105.353619
77.2008092	-64.8777841	-107.854662
79.5026655	-64.8499959	-107.812785
82.671295	-62.986412	-107.5385
76.9560607	-63.011425	-108.259287
79.8448115	-59.1926962	-105.895799
80.4383568	-62.3039277	-108.130376
80.1696876	-60.6622835	-107.515607
82.8705413	-58.9615462	-107.053766
82.8364434	-57.9688162	-104.743429
69.0064934	-63.7950393	-101.531192
69.9810069	-62.708219	-102.980879
71.4667086	-62.5806001	-104.467934
71.261322	-58.3772951	-103.413952
72.4517934	-56.457899	-100.435029
73.0333325	-57.198977	-103.61987
75.0103849	-57.4195814	-103.898627
70.1354555	-57.2970545	-101.577398
72.627247	-55.6316018	-100.457719
69.1231714	-55.1314475	-101.629746
70.0794389	-52.2436833	-97.7820375
74.7325962	-52.1942762	-97.8062486
68.9937215	-53.5881097	-101.130807
74.9660226	-56.4669199	-95.0453033
74.6156881	-56.3036175	-92.2882968
71.3285357	-55.6765308	-92.2903438
70.3363791	-55.8895523	-95.7085625
69.1269054	-55.292178	-91.8783135
75.8662053	-54.8847087	-94.5467673
72.4165495	-54.3414907	-95.475619
74.9874199	-52.7237094	-96.5356559
81.5915588	-58.0216624	-103.395774
78.1417121	-58.0607854	-103.083595
76.2025497	-57.0665865	-98.9408216
79.6270251	-57.3740589	-98.4240156
77.1602909	-57.5074372	-100.306283
81.7788609	-56.9402827	-98.7499672
76.3774452	-56.4624393	-99.5164215
77.6534098	-55.133909	-99.123481
80.3555208	-53.5298963	-97.9931464
76.4085241	-54.2810147	-99.1240147
76.4334876	-52.8150267	-98.319262
80.3111712	-57.1177747	-93.112846
79.8166612	-57.207329	-94.5193205
82.9822825	-55.3232468	-93.8089263
80.4327551	-52.1578949	-95.8573291
79.1199314	-52.1262165	-96.7045205
69.9100782	-49.5975742	-107.365165
74.7157007	-49.5806417	-108.67005
72.5667198	-49.5239371	-108.916208
74.5546366	-49.291774	-109.631567
69.8500074	-49.7306795	-105.563209
73.3478682	-49.5731297	-107.823435
70.3361867	-49.2922979	-107.141486
72.3982172	-47.5679841	-105.128918
69.1630506	-49.1660741	-105.410672
75.7674663	-47.4749473	-106.663584
73.5852248	-47.2514282	-106.409859
74.6859449	-48.5212155	-108.279156
75.8291489	-47.2908603	-107.326354
72.928728	-48.785969	-108.982275
75.9772549	-48.06153	-109.954355
70.7825359	-47.6303216	-104.694072
71.4525506	-47.3410718	-109.680796
74.1588745	-46.9644935	-110.725413
71.5099889	-46.6879911	-110.916453
70.1080034	-46.599329	-110.436243
74.0505841	-46.4133012	-111.532841
78.8447141	-45.9221786	-112.031929
80.1513032	-45.6217935	-112.07097
81.8396512	-45.1587542	-112.619104
76.5399816	-46.9506709	-111.33245
79.7448899	-48.7761937	-108.715902
76.3975379	-48.7039431	-107.860221
82.4394882	-48.4907347	-109.447615
81.0471383	-47.9270042	-108.284776
79.6990566	-48.0738722	-108.94849
80.0195419	-48.3840607	-109.534722
81.3520013	-46.6400118	-110.74582
77.9193829	-46.6632322	-105.537038
81.2600733	-47.106754	-106.623568
82.7901887	-46.3466804	-106.006422
82.4391154	-47.2021205	-107.71536
80.8185486	-47.2198798	-109.539635
80.4101183	-46.0424732	-104.959718
78.082957	-46.5654428	-106.217124
82.5706189	-46.195708	-110.701275
78.0934391	-46.4984307	-110.969489
83.0324825	-48.130352	-108.041104
69.6484184	-47.5777251	-101.919967
74.9524726	-46.9783353	-99.1668972
70.717606	-47.0618029	-101.833844
75.464941	-46.6496994	-101.124423
74.2804901	-46.5986687	-103.823827
73.8459203	-46.3333979	-91.2166198
74.6430792	-46.7393578	-94.9480345
75.1681156	-46.102345	-91.9802968
69.7965836	-46.5201204	-96.5904972
82.7927995	-45.9435101	-100.724148
81.2187361	-45.4954691	-97.6565609
77.7360645	-45.9668629	-100.044611
81.2625847	-45.6919105	-102.260588
79.9057794	-46.0687573	-92.9090598
82.3124022	-45.7968943	-96.935041
80.6395598	-45.5513837	-95.236376
82.7803621	-45.2567878	-91.2791839
111.239836	-74.8400342	-143.670142
110.62166	-74.199856	-140.592436
110.561445	-73.1346645	-143.624248
110.605598	-73.9957566	-134.510741
110.064754	-73.0047297	-138.986171
110.018109	-72.1315763	-137.629428
110.693515	-71.1658682	-141.602447
110.969472	-70.2427141	-137.331269
110.844185	-74.8007831	-127.196197
111.043544	-74.8418987	-129.938815
109.592526	-73.4663329	-129.116067
111.206108	-72.7682721	-126.137867
109.468996	-72.1983981	-130.800106
111.552282	-72.1262569	-132.230343
110.505666	-74.60555	-125.51433
108.368434	-73.1485771	-119.789591
110.96577	-72.6577585	-121.810459
109.005961	-71.9204253	-127.191935
109.879724	-71.1651378	-132.584134
109.575966	-70.4508387	-128.621972
111.742714	-69.2533428	-131.30431
111.082302	-69.153278	-130.043325
107.546341	-71.8551312	-119.768056
111.730372	-72.0171359	-120.764447
109.595584	-71.9661709	-119.804581
110.705571	-71.7797495	-125.458178
111.267264	-71.1214262	-119.261263
110.469152	-70.9939582	-123.168682
111.400575	-71.0738195	-125.453538
108.483046	-70.0090638	-123.528915
108.412378	-69.0501248	-120.235472
109.830403	-68.5450927	-125.339899
110.460982	-68.4084827	-121.696614
111.36932	-68.4696209	-121.149154
89.0626068	-69.9719042	-105.070576
86.124716	-66.3296776	-106.489309
83.5469582	-66.6421029	-105.445831
92.5048692	-69.0785309	-105.265005
95.0571102	-66.3078128	-105.779087
90.3716282	-66.9543715	-107.08824
92.9312264	-64.9707244	-107.403671
86.4228001	-74.8293312	-98.5248273
89.0638651	-74.6508581	-99.0708172
88.9939896	-73.160483	-101.450207
85.3038021	-77.3569889	-90.3074642
83.8492148	-76.1744806	-94.5424322
87.327212	-76.8570273	-93.0869772
87.3561559	-76.0692562	-95.9287916
89.7671648	-75.5868278	-96.8791939
84.9533229	-75.3709909	-97.0553624
86.6725307	-72.0382337	-102.412136
84.0401071	-71.0673247	-102.485405
87.673451	-71.0037849	-103.884804
83.9471068	-69.0821301	-103.942526
92.358205	-74.4004357	-98.0533549
92.1530278	-73.8104018	-99.1859438
91.8010351	-76.6672843	-91.6194281
94.2928362	-75.7475476	-91.0437742
92.3671536	-76.0991774	-93.6895973
91.3468745	-75.8765424	-95.3951577
93.6539056	-74.6542859	-96.5440151
95.6988502	-74.3404125	-94.2565217
97.104104	-73.7952933	-92.0788545
97.5055113	-72.28259	-97.0639576
97.4177887	-71.7318149	-98.4214661
95.6913864	-71.6285281	-100.348346
93.6708222	-71.1199131	-102.612157
91.8321479	-70.4653305	-104.255126
94.846602	-69.2827808	-103.687448
97.3938541	-66.4869286	-103.906077
104.605211	-71.31681	-107.196147
103.992916	-69.4915291	-106.185549
110.39514	-75.2217659	-118.532251
109.70798	-73.6691216	-112.725722
110.068252	-74.5370991	-118.580856
107.29017	-73.177584	-112.716072
106.722893	-72.1395925	-114.343515
109.512414	-72.241369	-117.175382
110.491771	-72.3461007	-117.953624
107.188354	-73.4000344	-105.727604
107.693506	-73.6646833	-108.840552
106.771506	-73.468546	-108.419378
109.761517	-73.3574788	-110.607105
110.114137	-72.1864015	-107.828647
107.764763	-72.0893464	-108.867993
105.807272	-72.4425885	-109.693027
109.934366	-71.9356884	-113.409305
108.257311	-71.8405324	-112.1534
106.664641	-70.3207022	-117.075652
108.185969	-70.9473013	-113.541496
108.61829	-71.0159315	-116.482095
109.350234	-70.7727567	-115.481697
106.075151	-70.8228606	-113.045553
108.494324	-70.0448976	-112.15696
106.71603	-69.2077468	-113.838412
109.741276	-68.0602957	-114.900642
107.294434	-68.234944	-112.734259
108.645152	-68.06671	-115.070251
110.442581	-68.5509105	-111.720803
111.786573	-71.9770524	-112.67255
106.820593	-71.570461	-106.205608
107.773192	-71.0025751	-105.621964
106.552962	-70.9980187	-107.367453
110.05759	-70.5437045	-105.092878
108.039248	-69.957469	-108.000374
107.177259	-69.9455881	-108.703889
109.160379	-70.9009227	-111.410602
110.492458	-70.4984443	-106.939761
105.760613	-68.5651578	-109.404143
108.34343	-67.027808	-108.622811
108.16658	-67.2672163	-109.852385
110.985528	-69.3636074	-110.762065
103.054741	-73.1657443	-97.3796881
101.268328	-71.6103192	-97.6018034
101.532278	-69.6732646	-100.523625
102.832434	-70.4293271	-97.7185724
97.7776324	-69.5763329	-100.884363
100.332845	-69.7063254	-98.4225221
104.562205	-68.9159799	-98.1240922
101.064312	-67.8366019	-99.2242061
103.059498	-68.8647603	-97.899897
103.739173	-67.5788379	-104.40223
101.799236	-67.0507101	-98.4148943
104.395689	-66.7686585	-103.569025
104.280477	-65.8109083	-98.4265864
100.29538	-66.6767228	-100.620622
98.8293689	-66.9304861	-101.95959
101.44446	-68.6754207	-97.6339638
98.6602792	-72.0544113	-95.8022087
100.335939	-71.229901	-90.6016631
100.003649	-71.2902241	-93.5111509
102.524456	-68.4691417	-91.0781694
102.267917	-68.4909996	-94.7731713
103.43733	-65.5399571	-95.8656513
103.759274	-65.2088694	-93.4455029
105.016131	-72.6861366	-103.432153
106.227454	-73.4609942	-102.378414
105.258597	-72.5093149	-98.2459267
106.538663	-72.8825536	-101.475629
104.929155	-69.9328268	-102.810544
108.039521	-71.5407305	-102.046784
106.283857	-71.2407078	-102.295247
105.682008	-71.3247371	-103.048554
105.018047	-70.7468765	-98.0118352
106.065684	-69.9895653	-100.726244
105.576607	-69.1140179	-102.564313
107.935594	-68.734353	-100.248429
108.729991	-68.1813266	-102.88296
108.467332	-67.8147373	-104.489681
106.473979	-67.1634304	-104.228467
106.519248	-67.1117559	-100.491201
107.160207	-69.9437364	-97.4668459
106.146214	-67.4662983	-97.8522571
106.494415	-71.9473775	-97.3458428
105.079548	-71.5521432	-97.2076156
104.906577	-67.7477749	-97.2184989
83.5952215	-64.6619074	-106.616981
86.8369921	-64.4745839	-107.773118
84.1912954	-60.3101716	-107.930383
87.1259945	-61.5258533	-108.763637
84.822032	-57.1260844	-106.877104
86.0497746	-56.719061	-105.424011
88.1647253	-56.8915146	-108.280402
88.0526216	-55.532369	-107.755473
96.8679483	-64.1510092	-105.815411
90.9214467	-61.0208494	-108.937204
91.1505753	-64.6614475	-108.120318
94.1196739	-59.6246239	-108.415749
96.3799092	-61.2377401	-107.169522
96.4370562	-57.2057118	-106.73733
92.3666234	-55.8599891	-106.033464
95.1396374	-55.9991912	-106.699494
92.5038933	-57.2327595	-108.630315
91.8432987	-55.9067438	-107.860636
85.5014624	-57.1449266	-100.853136
85.2787625	-57.0024314	-99.3692227
87.0028369	-56.6813288	-104.399893
87.6876901	-56.1161191	-99.3278672
86.1518547	-55.4528115	-98.8253103
87.7801695	-54.4737507	-98.4917185
89.435748	-53.5904861	-97.496171
85.9540304	-52.9590431	-96.938256
83.5647951	-56.7848412	-90.675725
85.7299643	-56.5744859	-93.7826411
83.3223281	-53.8655254	-94.6683452
87.5604121	-52.9005046	-95.7646346
88.5728972	-53.7458151	-95.0033224
93.8847939	-56.0923366	-100.248874
91.1517425	-56.4706821	-102.914792
94.779326	-55.7897745	-102.201877
96.2735972	-55.3734584	-103.755601
95.7221244	-54.9635899	-99.1708189
97.3695309	-54.8663517	-99.885232
97.1675473	-54.2981856	-97.558072
94.9314357	-54.050654	-97.3360883
90.7603657	-56.0071346	-93.5755355
93.8870261	-55.139641	-94.0801352
95.3698418	-54.391873	-94.7836622
93.5261988	-54.7167058	-90.4704339
97.4222795	-52.6906036	-91.9499621
90.4315338	-55.341553	-93.8843953
94.2213996	-53.9914764	-95.7632337
88.5688535	-47.2566829	-111.69441
85.3458087	-45.943683	-112.167478
85.9734335	-45.4472649	-112.352079
90.2626331	-45.0735484	-113.098971
87.1276945	-45.030715	-113.047635
83.2925886	-46.2570567	-107.077
83.6734433	-48.6167781	-108.664933
87.5042715	-47.8644049	-109.966317
85.4606848	-47.873691	-110.754818
87.3967163	-48.2990748	-110.358978
89.3359988	-46.5543417	-109.713772
87.6144073	-47.2600378	-110.274998
87.182194	-47.2150782	-110.971692
88.0164966	-45.7724958	-107.969597
87.8571942	-45.8612041	-108.898547
84.3533267	-46.0568982	-111.401299
85.3415442	-45.4765883	-106.445893
91.4885289	-44.6406915	-112.875117
93.4021975	-44.2305021	-112.530483
97.0941597	-47.1972639	-107.558506
93.0890359	-47.652388	-109.9361
95.497143	-46.8853017	-109.265734
90.9339022	-46.8965302	-109.269452
91.9924807	-47.3315987	-110.885957
95.8916481	-46.6975009	-107.00414
91.5337239	-45.4089541	-107.495047
96.1908454	-46.5228272	-107.488056
93.6442309	-46.6592249	-109.107673
94.1494135	-46.4390877	-109.727633
91.0604067	-46.4181171	-111.273222
94.821782	-44.8521816	-104.775424
91.3377245	-45.6218065	-108.654089
96.2747452	-45.9702648	-109.284328
91.5699572	-44.9809202	-107.053941
94.8841714	-45.1405391	-106.261281
95.725148	-44.0233778	-111.159678
94.6489671	-44.4910593	-111.196664
85.563123	-45.6610761	-100.852145
87.2926211	-44.8496699	-103.968001
89.7457531	-44.4897797	-104.035478
86.2488958	-45.4757025	-96.634311
89.0310257	-44.988461	-93.4697606
88.8338549	-44.7059804	-91.7615275
85.1162146	-45.1700151	-95.5198181
88.9096183	-44.8538771	-95.9847164
92.6816672	-44.7472732	-100.496472
95.2851633	-44.1681315	-102.219894
92.202399	-44.5253023	-91.8298231
90.3774179	-45.0923263	-97.2175538
97.3056806	-44.0699893	-95.0927146
93.1322662	-44.4658511	-94.4424614
92.4445603	-44.3574939	-94.3980958
95.1063064	-43.7610185	-92.1204569
96.6254389	-43.8321951	-95.7721625
99.0503474	-61.9895372	-105.074235
102.350821	-64.4667673	-98.9204566
101.127292	-62.6821604	-102.581753
103.119892	-61.7164797	-98.9605904
101.920342	-62.6600827	-101.320466
103.526187	-61.6525254	-97.4999405
102.915096	-58.3842197	-99.4568151
101.844051	-57.8389818	-101.374264
100.969448	-58.1552858	-102.766925
104.148809	-64.4828089	-91.1635869
104.336906	-60.6072468	-92.9151717
104.123954	-60.1625946	-94.7624257
101.575524	-54.761435	-99.4519094
100.478083	-55.795982	-102.197919
98.6572695	-55.2372199	-103.315681
100.046618	-54.8232566	-101.171969
98.6265703	-54.2369334	-98.821751
100.871865	-53.6399587	-98.1658145
103.38766	-57.3445844	-97.2626632
103.99462	-56.9548598	-94.0464005
103.499504	-56.2289355	-95.4000225
104.149661	-55.9078254	-92.4576566
98.5921539	-52.3685504	-93.4683955
102.064176	-53.7983902	-96.866698
102.606297	-52.8587608	-93.5193697
101.875527	-51.6138724	-94.3125998
99.1892929	-51.6480863	-90.970894
101.01298	-51.2918575	-94.3236892
98.0057188	-47.0064194	-106.146119
98.5854046	-45.5538993	-105.665145
98.6800646	-44.7047699	-107.232244
99.5445583	-44.2984374	-106.734842
100.575647	-46.788063	-101.540028
100.926774	-47.1780813	-100.964378
100.799112	-45.5690285	-98.6266468
102.308048	-45.2415386	-97.9869886
98.9947332	-44.2711154	-97.7316093
98.4002701	-44.364089	-100.006812
100.262198	-45.5907939	-102.314748
100.509644	-45.7158496	-103.434819
100.24342	-44.4443122	-98.6434825
98.2187933	-44.435701	-101.907422
104.133829	-44.3757233	-98.5527027
100.951506	-44.7759275	-102.651989
102.065998	-44.3386482	-102.998009
104.048538	-44.2547857	-98.1642764
97.6639561	-43.8587419	-98.6950187
103.014072	-44.1214427	-100.211165
102.908096	-46.9242547	-95.4553929
103.382227	-45.6444224	-96.8432914
103.103704	-45.8068164	-93.4991615
100.41241	-44.3925038	-96.2195036
103.080686	-45.0083749	-95.675024
102.134453	-44.2148772	-91.6933231
103.850221	-44.8399201	-93.5863403
97.5910129	-43.9471197	-93.0700014
101.047639	-43.8712288	-92.1262677
101.374205	-44.0464315	-94.4850837
99.9852055	-43.8407507	-95.1893585
100.031313	-43.4240765	-91.369659
105.441553	-44.4913104	-94.4059
105.115446	-44.2112063	-95.653247
105.904622	-43.9498563	-92.5568491
54.8836492	-69.819033	-88.0858284
55.2441473	-71.4889228	-89.2996564
59.6070752	-71.5005768	-89.1315713
58.6813796	-71.1197688	-88.0349454
58.411263	-70.3496552	-88.3389809
61.2599418	-69.5861515	-86.0901649
58.1467052	-69.5770419	-86.489371
60.7202312	-67.9411695	-85.6477684
56.3775031	-68.477137	-87.3469565
58.3418571	-67.8780344	-85.3950257
59.6216733	-65.4988206	-84.0192951
61.7433184	-65.4125364	-83.9047244
55.379832	-65.5481873	-86.6516165
54.7213535	-65.684246	-88.2457145
67.7462631	-70.534894	-84.1960831
63.7635953	-69.5513037	-87.4954926
66.6140213	-69.443282	-86.4054293
62.2569845	-69.2837515	-88.0312211
65.8502264	-68.995157	-86.7127003
63.7242848	-69.3623435	-89.9638708
66.3956986	-68.4535286	-83.2932947
65.3395369	-68.3192758	-84.3811033
62.1044545	-68.1133573	-84.5063379
65.6769532	-68.2458446	-89.7901198
64.7186008	-67.6674486	-87.1854158
63.0280733	-68.4672382	-90.2565571
64.7928626	-65.9428931	-83.4068962
64.8715202	-65.580256	-84.5564268
64.9329173	-65.2821327	-89.4728742
64.9926993	-65.8032016	-86.6101885
68.4165724	-70.8814023	-82.14929
65.3648029	-65.9823427	-79.3804962
65.8416508	-67.5253206	-82.1279579
66.3282901	-67.3980412	-78.4687188
65.1702381	-66.2169909	-81.2835922
65.4620001	-65.3800463	-76.6649997
68.5434975	-69.2782078	-74.9303062
68.5797881	-68.8036514	-73.8906801
75.0443897	-76.2266902	-87.6639996
75.7704988	-76.4594179	-84.3167764
74.2228762	-75.70496	-89.6829825
70.6959414	-73.466194	-84.6542611
73.3281395	-75.3976399	-85.8149772
69.9929334	-72.9465244	-87.9629604
74.4793881	-75.6087989	-81.6737909
74.5112078	-74.4034725	-77.175668
71.0981856	-73.5398151	-81.9636379
70.760205	-72.9352845	-80.2769388
70.8828503	-71.8940791	-76.2518808
69.5876899	-71.4801579	-78.2352511
81.6813617	-77.5214901	-85.4594621
77.3557012	-76.9591533	-86.7605837
82.9006069	-77.446212	-89.6576763
81.9298794	-76.4891798	-78.5718453
78.9048755	-75.8674655	-77.2357019
81.8278848	-77.1597914	-81.7115319
82.8458228	-75.5805481	-76.3247998
77.4436606	-76.8014376	-82.6014391
76.285493	-75.9322852	-79.9726711
75.8947167	-74.0471949	-74.7281014
75.2115671	-73.2009997	-73.354709
75.4444948	-71.739629	-70.1706673
73.3679307	-69.9903357	-69.1038588
72.3252897	-71.5134656	-73.1684847
69.7949948	-68.4426229	-71.2478367
69.0542913	-66.3788734	-69.7486962
72.1224468	-67.6890536	-67.4588343
75.9953624	-67.2700668	-64.1924874
72.9761603	-66.7750245	-65.5671489
70.5358941	-65.4558747	-66.1740316
79.0676184	-75.2728654	-75.4466911
77.8395625	-73.84616	-72.8947017
78.9989924	-73.2343515	-71.0765429
82.9168745	-73.7395911	-71.4261421
80.6203142	-72.2879243	-69.0156418
83.0517356	-72.0649903	-68.6980272
82.5685422	-69.1042136	-65.052395
76.9556594	-69.8858428	-66.6763996
79.5199146	-70.3594314	-66.6907744
78.4765958	-67.5178309	-63.7707494
81.1052954	-66.4539701	-62.6602485
77.4254935	-66.3273463	-62.7526455
76.60515	-65.3095319	-62.0881708
82.2470087	-65.3173684	-61.8787202
59.1625188	-64.2920299	-84.9468182
57.3420573	-62.7397597	-86.8671133
58.810988	-59.9672846	-88.0017229
57.9739098	-61.1224204	-85.5361522
55.9998108	-60.9123445	-88.5225346
61.4051601	-59.5308836	-90.0066833
61.5611117	-57.9794257	-84.0535268
60.1903146	-57.7948251	-88.4604472
64.1791591	-63.1197929	-85.6123079
63.4772217	-60.7296017	-83.9070697
64.6391834	-61.8209905	-88.7280145
62.8907743	-58.9464912	-83.7026264
63.6869558	-59.0089228	-88.2853183
64.3720756	-59.5248699	-89.6499668
62.2868635	-58.2143997	-87.948459
61.9822249	-60.8750282	-82.2591957
63.6998481	-63.6107776	-81.2487698
64.3291494	-63.8819945	-80.7891796
63.4589934	-63.1685197	-82.8684056
64.154399	-63.2897504	-82.5529911
63.1103313	-60.1789585	-82.8741177
64.0991483	-62.297683	-78.9135982
63.3595509	-61.0468496	-81.243422
63.333373	-58.516427	-80.2453928
63.9709487	-59.8620741	-76.7415835
63.5937672	-58.6576287	-79.0262826
61.9263535	-56.6409801	-85.719114
62.9725342	-57.6568029	-85.6085312
62.9809284	-57.0958359	-83.2312686
63.9979783	-56.6757569	-89.4038429
63.7236587	-54.7132545	-83.156747
63.512816	-55.8177365	-86.761758
64.5553879	-54.571025	-88.9344056
64.4719271	-53.898551	-84.559281
65.8793518	-53.7862656	-84.9403286
62.4382646	-51.32831	-90.2591771
63.8785176	-50.9507463	-87.955791
62.3114316	-50.9154204	-82.3007794
63.8122677	-56.663276	-77.0201969
64.0013843	-54.120136	-78.774058
65.5900276	-52.8723518	-80.3395876
64.7293345	-52.9954373	-79.4870262
65.5526469	-52.4886538	-79.0297665
63.4558003	-50.8830144	-76.8455945
64.1595777	-53.9887692	-75.9875275
65.612879	-64.8095732	-74.849617
66.0347889	-64.3017153	-72.6068621
64.43537	-61.5872543	-75.7524042
66.3360522	-62.9772046	-70.4472792
65.4688077	-60.083315	-70.572398
64.5116406	-59.1491999	-73.3152729
68.6882702	-63.5739338	-66.5075465
67.218044	-63.2646438	-68.7564676
67.1507719	-59.8849644	-66.47639
66.3229433	-58.5574929	-67.3617379
64.9849437	-55.0540691	-69.7193462
64.4836534	-56.2286104	-72.4757412
64.8519763	-53.0972933	-69.919
64.6236935	-53.2785158	-71.1487133
64.6102912	-53.2445409	-74.2703301
65.0087329	-52.2145807	-75.8136602
65.6631114	-51.2687395	-72.5137539
67.764783	-51.7929235	-75.1604053
63.9228846	-50.8703464	-75.7235128
65.4929537	-50.7577741	-69.8709504
66.3355802	-56.2732934	-66.5049328
68.3077343	-57.4670856	-63.9692838
67.2177679	-54.73712	-64.2685178
65.4504085	-53.4628539	-67.4891483
67.408387	-51.7338865	-63.4678787
66.3228644	-50.8730211	-67.135959
61.4230733	-49.3595878	-84.9352354
59.6407186	-48.1553489	-85.3113849
61.1954137	-48.485527	-88.7560886
60.0684003	-48.5580476	-90.2151856
61.7967306	-49.0350779	-85.5756909
61.4265809	-48.9780366	-79.7114932
61.3102106	-48.1179322	-77.0909593
60.1263612	-48.2832418	-80.3510928
61.0237699	-48.558777	-82.3720074
62.7520873	-49.2742429	-86.2437972
63.956664	-49.8129441	-88.5054394
64.1670154	-48.7192512	-85.2499844
64.7136301	-48.5458019	-90.1938256
63.9124499	-48.3001441	-85.7768849
64.1665569	-48.3461773	-89.7393614
65.5317321	-47.8023119	-89.7851439
65.0893756	-47.7863063	-89.7003537
65.6000318	-47.5391967	-87.3408024
64.163242	-48.3573745	-90.136713
65.5511027	-47.8267126	-90.186479
65.0927432	-47.8133111	-90.0977337
66.5168316	-47.2708115	-90.1911776
65.0401049	-47.598049	-85.7213268
65.0570787	-47.7642775	-89.304717
65.0976989	-47.7630098	-89.5301455
66.0373422	-47.3185519	-89.6967719
67.8918554	-46.5869987	-87.3848578
64.2416176	-50.1638992	-79.4920862
62.9086009	-49.4289736	-77.125532
63.3961654	-49.093806	-79.7603254
65.7300298	-47.7053196	-78.0700796
62.1811288	-49.0567474	-80.3385714
65.681864	-47.545332	-81.1453121
65.3610104	-47.6670808	-76.1457966
64.818654	-47.7196641	-81.0531092
67.8812711	-46.4723728	-78.4928785
61.2372196	-47.7206473	-75.252352
61.719815	-47.4084519	-72.4255881
66.8453957	-50.4332091	-69.7186187
67.3294574	-49.9720046	-68.9751571
63.0009375	-49.7120687	-74.5895692
63.784585	-48.9262184	-72.7600341
66.760061	-49.853734	-69.1072568
65.14086	-50.2116663	-73.7933971
67.8608518	-47.9105951	-69.200553
65.8619931	-49.3375325	-69.3138182
66.5846897	-47.6949892	-73.4479488
64.0795053	-49.2941528	-74.3657612
68.475633	-46.9808309	-70.0064329
67.9589901	-46.7882556	-70.3466777
62.5133134	-47.4663179	-71.1925325
62.5694804	-47.8923614	-71.9298497
67.278899	-47.5709779	-69.4029577
67.5738249	-47.1235348	-71.936227
68.0392216	-46.7426202	-70.3499325
67.9590406	-46.7272485	-70.5350479
67.9959946	-46.4891838	-71.75277
67.7515635	-46.5654336	-74.0650238
68.0383967	-49.562819	-66.8602132
65.4767764	-50.2672121	-68.4001393
67.039234	-48.7820219	-65.6173806
66.9782217	-48.6035151	-68.5853726
67.8024537	-49.2265282	-63.129266
65.8913934	-46.6767054	-63.8599587
63.4038208	-47.0680073	-67.7152799
64.4780917	-47.3436792	-67.4571769
66.3984232	-46.7863434	-63.9580493
68.7607252	-48.6359203	-66.5068929
74.8744563	-55.6160707	-86.7233598
72.1812672	-55.3250129	-87.9260577
70.2345317	-54.7052301	-86.1860075
68.9713494	-54.3298713	-85.0283843
74.1545213	-54.6129148	-82.7704958
73.5413115	-53.3477902	-78.1448738
74.2355216	-53.6981981	-79.1095366
73.161354	-52.7607193	-76.4144576
78.4583925	-56.5978237	-89.3325719
76.5872764	-56.2786746	-88.8689528
81.1998241	-55.8523888	-84.9514685
76.6672989	-55.2472594	-84.1291325
81.0889752	-54.8371434	-81.151459
81.498626	-53.8253913	-78.1218874
79.3617041	-54.3982049	-80.0946144
79.9148344	-53.1987396	-76.4595272
73.603067	-63.9911482	-62.7498648
71.2336561	-64.4889941	-64.598027
70.3588339	-60.8259522	-63.0734101
72.765617	-52.5286364	-75.8319677
71.8953603	-51.0575321	-71.7346858
70.2774052	-51.4872036	-73.1377668
77.2502959	-51.7660465	-72.7469069
79.0855336	-52.2769918	-74.0155239
79.5614128	-51.3838496	-71.8730351
81.5510209	-50.8188047	-70.9174115
71.432192	-46.3792538	-86.0054858
70.5657235	-46.263466	-89.1514256
74.2602269	-45.7624667	-85.8671358
69.8671697	-46.6598803	-81.5975992
73.5895825	-45.6147975	-76.6281789
74.3147597	-45.574025	-81.5704889
79.0233611	-46.1082641	-87.1315163
80.1842165	-45.55774	-83.9612536
83.0592036	-45.3636452	-89.84706
81.6375231	-45.0552468	-84.6338779
76.6130531	-45.8653905	-81.5594574
78.1923782	-45.6689263	-77.409941
80.3938602	-45.000528	-79.8548464
75.7559677	-50.327283	-69.5417931
69.3888396	-46.7238354	-69.502874
69.5339451	-46.4838257	-75.7915424
72.8919178	-45.937292	-69.4685479
74.4548522	-45.6462767	-69.7357119
73.9461792	-45.9025008	-75.1813843
72.458451	-45.6935751	-71.3119966
76.0840045	-49.7052393	-68.3442733
71.6639239	-47.5909642	-63.1389205
69.0870108	-48.8984295	-65.9480954
71.076259	-48.0647693	-64.5496458
73.0435246	-47.0265155	-62.3786309
69.5426253	-47.7818038	-61.8752444
72.2814005	-46.8576121	-62.7681482
69.7114843	-47.8300368	-63.2814046
70.2321526	-46.9418564	-67.2452574
70.671452	-46.6856621	-64.3723794
72.5892387	-46.2684325	-62.2097688
73.5683492	-45.8837003	-62.2656617
73.5650925	-45.8366255	-62.6439707
74.6810973	-45.8437141	-62.0888247
74.4030285	-45.7348292	-65.0127482
74.5092042	-45.6208034	-62.2945307
73.4345148	-45.7336597	-63.4208892
72.8000969	-45.749227	-66.6411358
75.256965	-45.1552838	-68.1564661
81.4109608	-45.2085155	-71.1429574
78.6957731	-44.6166098	-69.4232878
79.0889127	-49.5511894	-68.1903688
80.440331	-47.9502233	-66.1094199
82.5577056	-47.164483	-65.1243962
81.6865913	-46.2831098	-63.4711654
82.9197359	-45.1933474	-62.9489198
82.4011905	-45.3873593	-65.0332497
78.9355581	-45.4726176	-64.8154381
78.101667	-44.9471673	-65.0625739
83.026047	-44.5732824	-65.4865419
68.8353164	-46.3868697	-60.8915153
67.2179671	-46.1496221	-61.6203935
73.6430448	-61.9915342	-61.4493494
71.4995086	-58.2999769	-61.2699204
75.8318899	-59.1058272	-59.0388555
72.760187	-57.109307	-60.0520188
75.1339765	-55.6505542	-58.7611613
71.7575472	-53.2497361	-59.4181679
70.1469175	-55.2850963	-61.1080391
69.8999078	-53.6124035	-60.8097943
69.8136925	-50.7835451	-60.2742671
73.2996117	-51.3562429	-58.3285568
79.945093	-63.9293848	-60.630693
76.3592062	-63.4244577	-60.7797796
82.2220343	-62.5349925	-60.1171488
76.5209858	-61.2666951	-59.5800697
78.1699478	-58.557978	-58.4136871
81.4264199	-58.3667258	-58.6331301
78.6836797	-56.2699663	-58.121964
76.2996253	-54.2933781	-58.2346371
82.9170299	-54.1506489	-58.5772813
80.4131227	-54.8004879	-58.1086832
77.533567	-52.9113817	-57.8168656
72.642885	-49.201298	-58.4079031
71.095856	-48.912977	-59.4031434
73.2773015	-45.2715409	-55.9599026
73.1259691	-47.8973463	-58.8646216
74.3958256	-47.2429339	-59.2925314
74.5898899	-46.6419446	-60.8927152
70.1449467	-46.5378085	-58.5302544
73.3886639	-46.3870154	-60.9893144
71.0309128	-46.2555769	-58.9394137
79.5266799	-48.4827109	-57.8844255
78.5434014	-50.4186676	-57.5334778
76.6503147	-48.4663876	-56.9881695
81.6223686	-48.0098519	-57.6725342
76.5115888	-49.2846137	-57.4520554
81.7393364	-48.4988899	-58.5149302
77.653316	-47.2966648	-58.1092019
81.060245	-46.8200501	-56.7418919
79.3915119	-47.9386269	-56.6075534
80.7616164	-45.7984351	-55.1987366
76.8459159	-47.848992	-57.3238698
82.2686167	-46.8310284	-56.7935411
80.3126666	-46.7432928	-58.5091669
76.2556929	-46.1749491	-60.4793508
80.9769085	-46.1166008	-60.6103296
79.1434861	-45.7164188	-60.9519926
81.5559062	-45.688367	-55.709246
76.1002056	-45.3766038	-55.5029868
78.2716694	-45.7486093	-59.5907107
76.8588638	-45.8008959	-59.8119958
78.0460765	-45.337231	-61.5893707
81.7772872	-45.1586293	-61.3707501
76.9134531	-44.9375105	-54.6421051
80.5114318	-44.6571573	-54.3905917
83.1707615	-44.4397825	-54.4275823
88.8272632	-77.2349728	-86.2873385
84.8084456	-77.3443902	-86.4739151
87.6268757	-77.4062595	-89.4774942
88.7738486	-76.9919715	-83.1494545
84.2532141	-77.1385572	-82.0043216
88.6070061	-76.6525272	-80.9004239
86.0569123	-77.0514357	-82.4398964
87.793251	-76.0987134	-78.1499472
85.4730284	-76.2688031	-78.8662422
89.7642114	-76.0567521	-78.893625
85.2030096	-75.2122394	-76.0158159
93.4317927	-75.9480661	-85.3397669
92.1260988	-76.6170774	-86.8548483
92.773861	-76.4501154	-88.9050025
96.6000889	-74.267936	-87.1580461
97.2295578	-73.9348872	-90.035854
92.9956372	-75.7811752	-82.3904088
96.9845398	-73.5379074	-80.7198951
93.2542776	-74.9635782	-79.6428117
95.2956005	-73.7198002	-77.8755875
97.2901558	-73.0436192	-79.1769884
83.4335145	-74.4546833	-73.1370783
87.6348957	-75.0792711	-75.193587
85.2969814	-74.5022728	-73.6773903
87.4790112	-73.7240937	-71.6596652
89.8312082	-73.908186	-72.4024675
90.080538	-72.8941028	-70.5918476
85.2002648	-72.6048685	-69.7102375
89.1680486	-71.8882758	-68.8867105
87.1305219	-71.2139366	-67.7900609
85.9567773	-69.5741775	-65.910984
87.9964835	-68.8507214	-65.2303663
86.8190872	-67.7729767	-63.9846213
84.6955655	-67.6091541	-63.7317722
87.5603849	-65.5479799	-62.3512838
89.4201373	-66.8498934	-63.4732377
92.1928426	-74.4655923	-75.3430732
91.719671	-73.9522439	-73.6632653
93.4015554	-72.1305572	-71.6549681
95.2841732	-71.7370459	-72.886226
93.5348276	-70.8309153	-69.7142705
96.9568383	-69.0441057	-70.8717719
97.417667	-71.8109888	-75.9661971
90.945994	-67.9664589	-64.8745877
91.8421388	-70.0982987	-67.6667796
94.6794996	-66.6572717	-65.6459252
96.2420162	-66.3314383	-66.621632
97.7847773	-73.2495049	-85.0575992
98.5791397	-72.7911957	-87.2233661
97.8355746	-72.1431191	-77.5475211
98.5402724	-72.6658849	-82.0464105
100.368166	-71.0135781	-83.6543183
100.809402	-70.7726067	-87.5611857
101.838791	-69.4614157	-85.6205315
102.65907	-68.3768262	-87.5780771
103.251359	-67.1234537	-89.2688989
102.980002	-67.1104432	-83.8872036
104.09981	-65.0874748	-86.9232617
101.037241	-69.6654233	-80.514879
100.298581	-69.2086998	-77.118522
102.743286	-65.772146	-76.6780132
103.273062	-65.7850892	-79.1243553
99.766878	-68.7502595	-74.1166887
98.9043681	-68.5138698	-72.2240057
100.217839	-66.1408167	-71.0311635
101.43318	-66.9115526	-75.0272032
98.7357309	-65.5530852	-68.5022579
85.7360932	-56.4705848	-88.4293369
85.6868388	-56.2676062	-87.0181158
86.6630298	-55.3561961	-83.6520684
86.1944695	-55.5944711	-84.2992504
83.9900828	-54.3020003	-79.6911339
87.273143	-54.7047832	-81.8345397
86.0778259	-53.7090566	-78.5521481
85.8289642	-52.7251504	-75.9986338
89.4157638	-52.958407	-78.1474374
89.8278436	-53.9736121	-81.3921373
90.5764094	-55.5922066	-89.1631966
91.3026626	-55.2115844	-88.1003482
91.9762858	-54.4539493	-85.767298
96.1577337	-52.5504645	-84.4695401
95.6283823	-53.2635351	-88.3320232
92.1500206	-53.5411643	-82.2637542
97.0421094	-51.3966721	-79.306737
93.57489	-52.4753549	-79.862682
89.7571709	-52.0410995	-75.9753627
85.6395714	-51.8184756	-73.8220609
87.950916	-51.4541406	-73.7487564
88.1415857	-50.8564649	-72.5263456
94.3229836	-63.0546052	-62.9513509
96.9278637	-60.4975566	-63.2073384
90.5423181	-64.099024	-61.9730442
96.1038868	-58.4081423	-61.8954551
97.2006885	-53.1340275	-62.1946887
89.6018692	-44.9073205	-89.8940997
84.0072088	-44.8396506	-88.2766556
84.9173058	-44.9094044	-78.9734935
88.1515315	-44.4519194	-78.7202486
87.0218492	-44.3427833	-79.3542226
84.0224691	-44.4139461	-82.5194116
89.5937628	-43.7933242	-76.0016911
90.4515265	-44.6907079	-85.3111731
94.5735344	-44.0237129	-85.7091044
91.7006358	-44.1651382	-86.3867682
93.7622949	-43.7390703	-87.5968364
93.7541945	-43.9410571	-79.2593472
96.1398615	-43.5416534	-77.6290555
94.3393389	-43.6042901	-80.5111039
84.6851815	-49.935915	-69.7720355
89.6811098	-50.1045555	-71.5722079
89.8322239	-49.5390816	-70.505879
88.9907432	-48.8313095	-68.9898931
84.7733927	-44.9941916	-72.1513441
86.0727908	-44.1579585	-74.2444845
83.7694689	-48.9886564	-67.9471819
83.8569812	-48.5665911	-67.3664603
88.678778	-47.718179	-67.0303519
85.1138937	-45.7090891	-62.8354005
85.4738082	-44.6406956	-62.9098813
88.2404826	-44.7738944	-62.9227136
85.8251932	-44.8371111	-63.3878074
90.3403364	-44.2689779	-64.316858
87.9758349	-44.9876941	-67.915059
87.6660711	-44.3525208	-62.847628
88.4797294	-43.8565828	-66.0987003
96.7383661	-49.4276007	-74.0436529
94.6079028	-48.788623	-71.4771931
91.4143642	-43.9919344	-75.9391723
96.1042326	-46.6272402	-68.9106172
90.7276911	-44.5114366	-68.5098242
91.0532067	-48.0438029	-68.5291838
96.9122329	-47.747151	-62.9132562
91.0862853	-46.4450234	-65.4613397
90.5384396	-45.2130947	-62.3976489
95.5913553	-45.0388817	-63.3636482
97.3997882	-44.8799618	-66.4596371
95.1700793	-45.3782216	-61.8157499
93.1231877	-44.1684755	-62.2565565
95.9808494	-43.9489022	-63.3470975
91.2253081	-44.1042151	-62.0866742
94.7215492	-43.9636276	-61.8934232
94.9474283	-42.9758017	-74.1350813
96.2780693	-42.5864401	-71.8965087
95.0587872	-43.179777	-64.7431603
95.0480789	-42.7967164	-66.536536
96.9514735	-42.664895	-67.8536399
96.3969152	-42.8246038	-66.2330413
93.7918789	-42.9918965	-68.260346
104.375054	-63.7623015	-84.0111413
104.492276	-62.9673661	-88.7914141
104.067347	-64.6830569	-82.5913814
104.102255	-61.6248523	-76.3325176
104.645429	-59.3732689	-77.3374973
104.352817	-62.2375963	-78.1852823
104.363967	-54.4711951	-86.7199064
104.026251	-53.884547	-89.5509495
104.043141	-52.8968817	-85.280299
103.268555	-52.2667495	-88.3818776
102.885523	-51.0836893	-85.0171561
99.6286586	-51.2348243	-85.9099893
100.781245	-50.7670021	-88.0829644
104.315168	-53.286313	-81.488953
98.4370132	-50.8495147	-78.1230696
99.0652966	-51.4169561	-82.2457488
101.76989	-51.707635	-81.0858662
103.225744	-51.9070119	-76.782165
99.0893609	-50.6811472	-77.5665987
104.815343	-61.4161212	-86.3673882
105.063915	-58.399885	-85.4784628
104.696225	-58.4243443	-89.2787261
105.08852	-60.2558328	-83.5589277
105.071036	-60.3191977	-82.0839259
104.93381	-60.3040777	-79.7603594
105.036889	-54.9177881	-82.8110224
104.92368	-55.0266251	-79.8570956
101.614609	-63.8201122	-71.1925076
103.206511	-63.6853856	-74.8872489
101.379754	-62.0630449	-69.434523
102.815505	-62.0128149	-72.1427085
103.525184	-61.2750634	-73.5502
102.743905	-58.9951898	-70.703695
104.211522	-58.8574263	-74.8162322
99.3269655	-61.6713206	-66.2254403
100.935084	-59.6952404	-67.4330437
98.4054225	-59.7676521	-64.2087902
101.501244	-57.8715642	-67.8527504
104.289764	-55.3528174	-75.4851139
102.154446	-53.2336137	-69.1574721
103.274279	-57.1809791	-71.5988407
103.981103	-52.9677134	-74.7809682
102.989661	-52.4284969	-71.1889164
99.7091027	-57.470684	-64.9846186
100.743765	-53.9693852	-66.3066079
99.3424445	-50.8966769	-64.9113458
101.298615	-53.0368171	-67.4673717
97.8556914	-51.2396639	-62.9527093
99.6528144	-53.3279954	-64.786667
100.641465	-50.9673734	-67.0312832
102.280358	-50.3529684	-87.6415331
103.827791	-44.6248719	-85.4737211
103.04752	-44.0566138	-85.3896958
103.214645	-43.8564569	-83.3861252
104.535231	-44.3821441	-83.7451839
103.087114	-44.0127142	-84.9945873
102.008999	-43.6570417	-85.3602642
98.5247157	-43.5363142	-84.4613564
102.242021	-43.8271841	-87.9734345
104.041754	-46.2875682	-88.2791913
102.445409	-43.5294964	-83.4562023
103.690487	-43.8686307	-83.7132104
103.680787	-43.8963497	-84.1028897
102.661329	-43.8732045	-90.1881581
102.731315	-43.5533668	-84.0895486
103.609889	-43.8087602	-83.4460966
104.341979	-46.4041877	-89.5183465
101.060095	-50.5415794	-76.2757454
103.07853	-43.9717255	-79.716661
103.269297	-44.5135506	-77.1419512
103.047762	-44.0011983	-79.2632995
103.055167	-43.9853699	-79.4526414
102.010775	-43.5381569	-79.7433549
103.229096	-43.8129616	-81.8733878
104.477995	-44.3156043	-81.75
103.273095	-43.839083	-82.563778
103.214241	-43.8301432	-82.9758303
104.495844	-44.3372889	-82.949002
103.709154	-43.8136676	-81.7500586
103.707312	-43.8305708	-82.930025
103.28237	-43.7354109	-79.4518636
103.734484	-43.823823	-81.3529139
103.705224	-43.8099851	-81.6505108
103.701584	-43.8032116	-82.1423062
103.697339	-43.8063506	-82.535798
102.154491	-43.4371429	-84.4694385
98.9123271	-43.3120227	-85.2321815
98.2873351	-43.5059662	-80.4016772
102.733125	-43.4355143	-81.7534602
102.720112	-43.4312482	-82.9216775
100.544262	-42.8976703	-76.3953529
100.000047	-43.0533422	-79.985603
100.503882	-43.0796605	-81.7179139
106.128638	-46.2950171	-85.8292265
105.557592	-45.2552233	-88.6188736
104.772139	-44.7611317	-90.1650012
104.799453	-44.5985835	-84.2560213
106.520949	-44.2283578	-89.8111586
105.583617	-44.6856683	-84.9599647
106.934585	-44.8402355	-83.8182541
105.936529	-44.2497401	-88.5040889
106.806971	-43.9189705	-88.1243227
104.703737	-45.2395438	-82.8038293
105.342387	-46.2449422	-82.5046196
105.326108	-44.9939423	-78.1247354
106.978096	-45.4259477	-83.029192
104.985638	-44.4161691	-78.8250377
105.948631	-43.680267	-76.3011665
106.97752	-43.3967228	-77.768271
106.779315	-43.428147	-78.1246631
103.181904	-50.5541034	-72.8727744
98.0832728	-49.9618875	-75.4680187
102.388618	-49.474441	-73.1864677
101.909456	-49.1213758	-70.2303371
98.5152758	-48.4015108	-72.1527165
101.176458	-47.7821693	-70.4233841
104.024053	-46.4133882	-74.9171692
100.194954	-46.7795116	-69.0338754
102.460585	-46.3643396	-70.3468473
103.254848	-45.9559324	-70.2243005
103.521191	-46.114604	-75.4658071
101.40754	-45.1331396	-69.5342654
102.416905	-44.4740461	-69.1268051
102.001844	-43.7804505	-73.1101808
103.880003	-44.5202745	-71.1716819
