# This PCD file was generated using the MATLAB® pcwrite function
# from Computer Vision Toolbox®.
# .PCD v.7 - Point Cloud Data file format
VERSION .7
FIELDS x y z
SIZE 8 8 8
TYPE F F F
COUNT 1 1 1
WIDTH 808
HEIGHT 1
VIEWPOINT 0 0 0 1 0 0 0
POINTS 808
DATA ascii
96.509442969051776 -58.338239519829635 -65.589880238484994
97.422252680215109 -59.529459648146272 68.593824719281017
98.769473102262566 -57.128393563457031 68.339332596521871
99.144162058193245 -56.643054387594987 -70.213964013519345
99.314917625589061 -58.545560590722367 68.882643703274468
101.896094026265132 -55.921516226443316 -97.606646569761509
102.548307236388226 -56.826722255059408 -68.205460057092537
100.470593896783868 -58.183874985574441 105.393518379669018
103.332430133701436 -61.822102316511256 72.656495023537886
101.077958491140762 -59.417076023038980 103.715085932482040
100.648366193354917 -60.005013124438953 101.840114879148160
103.098911770201710 -59.476279068266983 100.108640774141605
103.443560543024347 -57.439943849224662 59.603785431074002
101.618586559940340 -59.496076024594615 59.285632635286674
105.446667083392498 -57.762469591272584 -63.452532363471519
106.304818312889196 -57.314040443021149 57.385114988881440
104.925789278840270 -57.938578720178597 79.603807066706651
108.160991846723263 -59.614450875509384 100.057023021331943
104.031029683082721 -62.714951742605308 -68.465144010206103
107.002680131176390 -56.311640027236479 55.243086554926805
104.171713019082532 -59.012572148077581 -76.131321982680888
104.825695757850966 -56.634234395931635 82.311398139070292
104.618959777584791 -57.717967707228354 55.566630479685571
105.258778495696902 -58.003690918515098 80.157522363269237
107.907346473368619 -57.781818635513581 79.642641970063821
106.520506962741138 -60.628233503501477 96.361235561001592
107.939660262680249 -56.323449034018715 -71.915352207456323
106.218546237156403 -58.377069842345719 -65.672272195453687
105.916451689186360 -58.467769064729417 54.382733430040041
106.382138146970846 -57.458143316422550 82.128765366985633
106.998184948013986 -56.058308353714047 -67.147845010384671
106.877874599523508 -57.393787921924698 -62.482149852637384
106.082339940568232 -57.075829279189279 55.682522873715328
107.331225046597041 -57.423871150044562 57.809298925814097
108.180330131541908 -57.972302958674589 84.393790876034160
109.346365954323474 -56.482751278777712 -71.343731164469617
108.143766587253396 -55.683340565346143 -65.847648109682268
105.581641332023878 -57.021680625677632 85.563124906345237
106.337931073111562 -58.776118170128889 97.436012804521695
107.518559195384327 -58.886974120097442 96.169267582120654
109.450954374912982 -58.911494054029042 -76.103838916006097
107.331817398993621 -55.194140467601095 -66.732105283337773
108.298385339204501 -58.177706625430261 -66.883735362573219
109.063119917093928 -58.391878155455565 -67.502660632281064
107.269898702910382 -55.156712098887866 -62.650403844823430
107.009620478621187 -58.703491143126804 54.332364517870829
107.808593177965321 -57.522795905774224 -67.633007829221000
107.993507115521254 -59.410089674404411 50.106059561389706
109.181330088502179 -56.508332361670128 55.714130745118581
108.271112679074136 -58.537091091405678 88.947522219300780
106.927425956550536 -58.498677065904864 95.527065773709083
107.896463249336236 -58.820867195454561 93.618644098279987
109.984918976956394 -56.005600978492758 -63.573381739817506
109.917097668085745 -60.097141315161323 51.901789931146226
109.084240391952306 -58.765340268609066 -96.456131660315194
113.326663582900991 -56.938963121381683 -78.138844374413466
109.929823437797722 -55.501878444123534 -68.346488604009807
111.091416620270294 -56.544434686903593 -59.269937244684563
107.670201332780962 -56.277320109372248 49.660815943452384
111.291628363974070 -59.068011347257446 -65.242379213894552
107.054957858270797 -57.099445948941081 -71.911614018305315
111.958471087708347 -54.394288545811925 -62.658412875345086
108.951491910003824 -58.752151308941436 50.365521407418498
110.235665126472171 -56.801320317033486 -54.903777236542503
111.787862566891505 -56.536433058627956 49.309181530633943
112.659619188329998 -56.713151416041207 -77.823582986606397
111.456811717468966 -55.744840044354014 -67.868050337096548
111.560158388704096 -55.668849072250339 -66.245784203434582
111.841139562615993 -58.136037192747935 46.751213237269361
108.640033432344197 -58.099504458186317 47.221967062599369
114.324735349730787 -58.846096669114452 49.212315208160703
112.026975545070272 -59.118125304937941 51.231249891282779
110.636680548765511 -56.250024854855809 -78.083386563245909
113.963486519323851 -59.836257205465927 -64.923447052212651
113.756262096750191 -56.494305094829215 -60.750998338870858
111.960939573357066 -57.465685813966218 -57.002266919713314
113.549051913538491 -58.326428266146515 46.623176581401907
114.417502374521447 -57.649559251617447 -77.354840893358130
117.058038651477119 -57.351736104653732 -76.382246768747436
113.507466208859299 -56.669496245503211 -71.626631156724343
111.144435947332852 -56.360589032934918 -58.310273398178744
110.657864815061743 -56.725144274418518 -59.014154661221376
117.368840203076303 -58.045884872830705 -70.229699198596208
115.909106095580043 -56.987627232201547 -98.663829959549403
114.233424268888243 -56.147472559647177 44.699829090721749
116.581243734758885 -56.939555773238446 -76.503319658059056
113.428432934576634 -59.619489975434874 -56.686490785566001
115.930885481395450 -58.639553672276143 47.155783199870839
115.713660645583673 -57.040585781894571 -83.319244598868224
116.744933076948101 -57.280050488745211 -56.427317216174792
112.299037332158477 -59.647309650387470 50.430748314938917
115.185576670595196 -58.798313399982064 -83.675489967627399
115.034046849590609 -56.934121534341855 -73.827617421715644
114.210090821662064 -57.896204580573773 44.576218865608070
118.505855090934219 -57.723066452978344 -75.976382328735511
114.574440966983872 -58.804267303916021 42.789834945947909
116.714653585181154 -59.495454088201242 -57.302623834827997
117.726733199486986 -60.372382311427387 45.914702725141268
117.982897194516184 -58.495493335587938 -82.374415173976303
119.548007092250401 -56.665120063965034 -75.255819790809554
118.074957089139303 -56.958975860956762 -82.871938140244282
118.049670677715341 -54.713303179994917 -78.456880906537151
118.554082839578371 -58.206846594991767 44.796737873717383
116.094087802110977 -55.208449173464899 -85.704748716343403
117.156007604533968 -58.156581005860453 -82.318284769688191
116.676955086598397 -56.561250865227869 -75.714767204081213
119.154103039933517 -56.778819372281674 -65.135240099137789
117.241989534632552 -59.631695422947764 -55.423038403782805
118.932950242698496 -57.973971230538943 40.128891865555651
119.656334932556646 -60.313738352696667 -89.393576478736563
119.238743825983804 -55.978648826351403 -83.600171571979999
117.685427256450609 -56.313661839469731 -77.291085504390281
120.351297884952032 -57.531561807003257 -79.799528945736995
122.050160128369484 -58.297589784443495 -80.705545781103481
121.995073065980407 -55.979021697088342 -65.854378994904096
118.875315352484236 -59.508366393503906 -53.525261285656299
119.762568784584786 -58.786709902391010 -64.760528834151401
119.505731951769860 -55.834370015637020 37.837630017786516
121.062903414469787 -56.460167334845686 -86.132987296585583
120.640207090950653 -56.517098675800320 -64.933949538964768
119.922310440242484 -58.491640744361803 -57.711824892639022
122.797336494552525 -55.681506424028136 -54.354235407619157
119.989399260339994 -58.820137152180237 43.103519505519365
122.178045199992511 -58.152505346437323 -90.316639559313316
122.943272884958958 -59.637071439356724 -63.395025202937120
123.472863780801219 -58.474268722779584 -88.851720674563509
126.052546787579288 -57.007759249822399 -55.950829624846008
121.703983328094779 -55.868145333358676 37.350189481967938
124.726242179596866 -58.187155975776598 -91.373408612135620
124.764857243195493 -58.227326763399248 -90.670423235685575
123.594811495484436 -57.334646698235396 -66.445724612455948
122.936595887749263 -56.745028642555319 35.865040778815974
122.004541721920788 -55.888230681208348 -55.616802242564077
122.351363267377323 -53.924670548879895 43.955786733127539
124.234423946383444 -57.727378057951114 -64.680908483846309
121.271726314660313 -55.820015762487380 -57.743165240379412
124.117803836018567 -55.199182304172403 34.874252149788738
126.747224004975294 -58.743287716071869 -65.225872626632622
122.565046184890662 -57.900782901653514 -63.870729704065766
124.093487856812914 -56.708823489802846 32.380050558611302
125.282402301774155 -61.332028595052158 40.590060626365243
126.821755725014910 -56.835751145669185 -63.721076708460316
125.351241848361596 -57.474803101938996 -64.498476502377542
125.302112249421697 -57.659611344403899 -51.959147869630236
126.725052568394958 -57.631664557068774 33.815976002417379
126.493508783863433 -58.020716693341072 -59.775022958309059
125.305264886003656 -54.539741028702004 39.732950617328051
129.756669679320282 -59.631522241296757 -51.105186634523371
126.625232911665705 -56.377202847476873 -56.795275254510756
127.441661009125070 -56.312635017344419 -53.466792781449378
131.358773365912469 -56.258328278406353 30.546186820577169
128.488330488239598 -57.456718496913012 35.763006640483717
128.021978784686837 -57.959957763707244 29.560800360330440
128.406481912195886 -56.730022476020963 -57.260414555006889
129.494537968371247 -59.539929629309874 38.087519423060940
131.463348042323560 -57.013185992374446 -58.382122396647034
131.226910482233109 -59.402568339434410 29.887581924576008
131.654297079302268 -57.336585608577444 -60.824487010162649
132.043557582746928 -56.018927523527260 -60.154293403831801
133.482336317098316 -58.757306350898133 -58.807879219149569
127.701821025167902 -56.193497475697036 -58.123201647680069
132.717913068591400 -56.146650542641353 35.737390518187382
130.834853966141623 -58.232326418054775 37.241592990983520
130.542386698143616 -55.313174396807746 -54.342659803431459
132.899667477852347 -57.908576939718444 -61.814511775611948
133.047112135602333 -56.415817596770616 30.893790443619885
130.961096068057032 -59.477093694032327 -53.118276524572863
132.504326825331759 -59.113359858620818 36.846035564245618
133.768364161994811 -57.828027062195083 -61.725227222729224
132.092494771353927 -56.236403998748372 -53.070616609328290
135.160402299408531 -54.526682068174196 -55.927493287979409
133.754459679888612 -57.907513443609275 32.131880777964717
134.738822092114987 -56.174010876573483 -59.282826609823623
131.726969217119233 -56.060276772416813 -54.377518157192881
131.522713024183844 -56.819849036784099 28.290862724809827
136.640503146612843 -54.934410601127496 33.677550096030338
135.937983537445831 -55.983669018562587 -58.173755359660213
134.138148279247588 -57.204660213214424 -54.818544044327027
134.607667621046971 -55.836183740166625 26.373409114346867
134.552557411633643 -57.395824985959983 30.517474375310826
135.601865276165967 -57.910350460952188 32.055258122082769
136.093213437682891 -56.458565588032123 31.245322870305454
136.442543811833303 -56.303953832386789 29.047242295738933
135.963505807349577 -53.664237893338473 27.771853941799815
138.205999061969976 -54.619323551549328 27.847591987222884
134.759576500782629 -56.914114325092577 31.202317305818354
139.235817938660944 -58.433740304192433 25.249511962162259
136.778024429017108 -59.213892988526126 29.901347871439846
138.695896291854552 -56.038230291087530 24.833031528071022
140.062011200676068 -58.626137581551113 28.731700207922994
238.603390353602521 -60.103673061273952 7.402826458412024
240.380508699888054 -57.359984061025941 6.067195989728989
241.727816284820335 -57.530687366745212 17.734553768050890
244.298267122428257 -60.339920499415328 -0.237230238412451
240.112284941168525 -56.887046657672663 22.591334361894450
243.243628545701284 -54.869464101809704 11.021446140455474
243.116336299974961 -55.830065011444368 6.950826687955714
240.603507473109744 -57.236626906299378 3.209118881365171
244.099164076726566 -57.086474020804808 12.937438068188305
242.700191795467987 -58.068929606377893 26.266767786256107
245.762919065538654 -59.355454705618151 3.556275909803004
243.354842781790410 -54.873528388239151 4.656701716290261
247.137297076345448 -58.750433269438638 5.664451832419394
244.612184452703815 -61.024171240810873 2.161094094195178
244.895870239104937 -56.927993289947906 2.919313107405072
245.431104829135847 -58.818243226219295 4.612453265344828
243.034728793910148 -57.823180408490948 21.555098196707291
249.377749161920235 -58.178848701213226 24.318783790036615
246.534314775860111 -56.647505292809974 1.190409487154776
250.840748433280766 -57.392306261003107 22.453498937030034
249.051853415624663 -56.715505007034139 4.534736183561874
252.182999006896125 -58.833668138426482 22.105143037920062
248.980155479619270 -55.776194694808048 6.462122020296712
253.539287918345252 -56.387294870324183 23.775821984261682
251.715156699229880 -56.734357608808565 25.460571733912090
253.737412178842021 -56.077355134747506 6.425089382529632
251.001059014582779 -57.071643898406862 23.706283252022761
254.194247344742195 -59.875001908213747 21.743105657001202
254.743008450107595 -57.799200533355972 26.598584659872415
257.887638251930184 -59.053343888979427 6.612605701855348
255.845762985677680 -56.648260128790184 27.493613823141803
258.002353508866577 -55.942675924226300 26.242144216075900
262.281258146445793 -56.610350195317451 28.522416651807184
259.161665967393844 -56.695671613587216 9.984668101610541
262.790883698251150 -59.294900217107724 11.453679404445214
263.051877118018183 -57.655811210755559 30.500628464157010
264.956390793287312 -58.413258830968267 11.145597870995326
268.252768164553004 -57.767300161680332 27.632034520335154
267.561469809724770 -54.749027258831511 -14.205622017485256
266.777911301166284 -54.475165272774142 -15.165894230210579
268.297904114507162 -55.654562296622963 -13.834630563278003
266.857486820507461 -56.296659523324841 12.162688846866972
269.668019438851331 -56.347489379818846 -15.250492679842210
271.203991360590578 -57.043524100421017 -14.534785001569372
270.173424744307169 -57.053368978780640 -14.185526061434814
271.898917071355186 -55.924357226012404 -11.635511825020123
271.399142866231387 -60.697212256651817 26.640331112486045
274.263522644961483 -58.952688303410504 14.565638979498203
274.731323198029884 -58.040608256115235 -9.854183494654466
276.302999270287728 -59.229972140694095 10.196899471112250
276.546008245830251 -56.573626122089685 23.115841967831596
282.197646135687592 -56.471715071093094 22.559687872374322
286.543956854345595 -56.706515724020967 9.310558371464246
287.745536113689127 -57.027626860898998 18.480266315281987
285.971037048184201 -58.091121489886618 7.401235284338244
284.713065829038044 -55.526032138318243 18.370099044705235
287.807272038098233 -57.789069328364917 9.188776982480238
285.398649611855376 -56.656536264104702 7.024840507777665
289.452009027657539 -54.733023520484828 8.111039725887316
288.388141168562470 -55.178347956995715 9.077872825658186
290.395895081047854 -56.144476586332559 11.324448755084013
290.563682624369790 -54.339889092029317 9.994422816181745
11.012740377391061 -59.605268845836484 31.308931600191375
17.008341887490307 -58.715005539286750 26.908832085952486
15.391169023816081 -57.720020614141298 25.767109477376657
18.266596061577104 -56.293670140861202 27.590016523984687
13.843929801626405 -58.907797734783067 47.131216461933569
19.178966297312005 -58.992495185314219 39.192118387123905
17.504106624287207 -56.935335992930533 30.528886937712926
15.050081920247125 -55.303361209267493 40.291075023600136
18.194444786024082 -59.263268742547481 30.954959035689996
16.788072676247754 -59.424519196471842 20.868568844413794
18.989325213247565 -55.237356787083186 22.110445576189431
19.958552585133983 -58.375526739473486 29.117892045070985
20.781056900728760 -57.129127167304738 17.997871263750081
21.550772490834014 -58.572743826792120 28.751046627384206
24.991672097378416 -57.558282705325155 44.153985995603385
24.604806167207109 -58.654651969626954 46.271903212036179
26.338465641734889 -55.750080813922004 52.637540674256691
27.033143620127444 -53.221713195562657 49.318429822906275
26.785671837936857 -56.676201879903367 22.545212192310156
28.637936315187996 -56.639619326251790 50.851339326768645
32.233370632670962 -56.897559872199736 28.929639914141458
28.881274022122714 -57.490558802012991 50.856415786651752
33.640052956027063 -55.553942630734497 28.871103419711204
35.190724995996234 -57.012394223190725 44.443568600824285
33.828226228023262 -58.013658616602235 26.238954841104498
37.948414793230064 -59.050702646823460 30.394214533190897
34.591014676891604 -58.383362654407840 39.504776421246781
38.959428093038738 -57.011399984232860 36.408159240609457
36.994043371834884 -60.020669607499705 36.418593270333872
40.080585151763195 -54.885326358932936 35.591570922915054
37.138880220092112 -54.898693867494870 36.280067125128568
39.203040462720580 -56.787550921925046 34.935619569387214
41.462280470531013 -60.467942820952594 39.607895525922309
42.025845411535528 -55.796260937938719 30.753761921331584
39.920284007317463 -63.851542898671497 32.112682535534859
40.845851505045125 -59.078716882606614 43.205728102425141
42.647237740785719 -60.736691362070225 43.478493956141321
40.752843665260009 -60.737317481903702 -57.552892022545009
42.646867022060071 -57.086289188843288 -52.612484873819440
43.377246184822809 -55.398632766259077 -69.413011981060862
43.276598822205777 -58.876773752439021 -48.101799155334071
44.394043012549062 -58.759513298366237 -77.080618721804484
41.063570274194383 -57.355341145021683 -44.113405240011119
46.395110663799912 -54.758797181872197 -44.246758335949401
44.008837272507108 -56.496945877951283 -44.342835002041291
47.475055593182113 -56.413319242108848 -83.349582139082173
48.522132858521609 -58.274075122188414 -84.497278294541303
48.052116274950933 -56.646797180222883 -27.596229339859029
48.178820000633628 -57.577986623205078 -25.177773093883236
47.288374739570173 -54.815996367691142 -24.092557123920162
47.452318276605659 -56.714379231797871 -22.354590635271663
50.250519562932347 -55.212473953165237 -84.318383398588168
49.525917957839823 -58.889070624160610 -21.506248186507950
49.874520887066083 -55.346201131560974 -88.281112556891557
52.465962004316999 -57.244103082154218 -88.220388741935608
50.538153082208908 -56.335465312418002 -88.335070415484140
52.467702336757782 -55.436958843406970 -10.681033879407407
52.763038106194713 -58.627949767474121 -90.933474404117490
50.459701963341530 -56.414547026986853 -11.509320263656372
51.309411181916836 -54.630096789868624 -11.213837002269926
52.689661419452044 -57.987433093660499 -5.545856126428633
53.653775890660512 -56.129639958183780 -90.677891447788525
56.363036019538931 -54.491893727439006 -91.544149067470173
56.764200460601366 -59.069303595235525 -92.474913047525078
54.250560399871894 -54.828742165423449 -7.862581241914953
58.077688877448317 -56.798176293428440 -8.850282771213196
58.187198776284511 -58.809683685370473 -8.189660342563892
57.795797896890399 -57.861624888929846 -94.877128240726506
58.038839821931539 -54.973358727446865 -7.402376632377702
60.065336025486708 -55.315309669217733 77.445405209077933
58.905696767054479 -53.367325942775295 -95.349149930399534
59.999748608972531 -56.426257710954836 -97.012871955214550
58.441068403971244 -57.666288516685910 94.118762058587492
62.823628008935124 -57.579446796471608 -9.605543554215888
64.125533242202479 -57.462903473146760 72.868077692658233
63.279936064183516 -58.696303364612334 -11.073113270171676
63.043311106490080 -57.876541520660560 -9.566369003441926
65.332084390587625 -57.876169005264885 72.213033058268749
63.358343196083311 -56.438326110780416 -20.340693144932601
64.040738552164612 -57.751412291154381 -18.349478346917003
64.897137553807141 -53.850156049477050 68.395592940746667
62.732932163722140 -54.640784291134608 -98.162730313676917
63.984785921899935 -55.785055808394510 -20.678447814045896
65.490839987051189 -57.220733629104288 99.183053419666052
62.802583436210774 -59.021701753880436 69.871033674309430
63.133553033437877 -56.698622842836230 -25.815217194966099
65.864405581847251 -57.558831862018451 68.866684412361465
66.986540955991941 -59.363947769473427 101.295106984839691
65.895465998158429 -60.853553874060047 69.010057734610982
66.781975254163356 -57.609090921412140 102.670517083317876
65.506246008004183 -54.469921959402640 -99.522204722524691
65.738172049431697 -55.794308095231536 -31.861122948199508
68.157000976238521 -54.949210432897239 64.673257546539588
67.758784728591948 -57.210380441626015 -94.981703941774214
69.529915854262327 -57.288077298539058 67.785910314240851
68.849310626186380 -57.171205029937447 105.461653455286978
71.175803007530632 -55.629482783328797 67.932729735959086
73.335951609932380 -57.367408520441700 -33.547865290558711
74.970241096480436 -59.939439872439053 63.932774356439360
76.157986580284756 -57.617845390670382 64.154117523217991
76.572464400017438 -57.229887216377442 -34.412958990555708
77.694807090739971 -56.365251269160986 -49.655924791311385
77.646461023624568 -57.230552991337028 -98.307140478366478
76.315723392029810 -56.136874649931663 105.393367330030529
82.374061931428315 -59.789673340268003 -50.558181182849140
79.501292841149379 -58.330251721065295 -36.577604794501120
78.485263174264304 -54.512763430308333 -45.742187549189588
80.070091912981212 -55.920204569541454 -38.509155632350854
79.725390816199223 -53.775250222763667 -34.129453512694887
80.347740888560651 -55.788059926117896 105.867477801229256
78.808360940633037 -55.788673291689989 63.730210049123087
79.417880420159065 -58.761453624854589 -56.575810768468877
81.143322897003145 -54.721033231044622 -43.983529144559846
82.326786230614474 -59.344695720573625 -55.409972367573332
83.404998993838376 -57.465147791615941 60.181865986795479
81.919298338637162 -58.956489474529988 104.461885927523483
81.860641659673220 -57.855929232610606 61.154222554019540
85.049241076188807 -59.658699218453449 108.124093823354812
83.247595029657361 -58.304195961776564 62.572375947230498
84.937760918413801 -55.072423566591922 -61.473166028308569
84.924018054631830 -58.957992199433832 109.469272202258452
82.442251947804124 -55.469671638115280 58.907867111711937
86.063335486728292 -59.079194967843769 65.128143326117723
85.472130073195913 -56.835555296259940 -99.226546920303505
84.578696932376047 -55.495052684753972 63.867330064435592
84.852687836114271 -54.193107916102974 64.641969037598329
89.215695099563689 -57.331272146173582 105.762732100074615
88.374206934141810 -55.063649735107738 63.603563278183934
87.226834656372432 -55.390716211246655 63.542599361681212
85.320442643991242 -54.217934211841914 59.429547316622447
91.768494954994878 -55.398785514558739 60.371922060181319
88.524552103191823 -59.935021599856299 -60.969256651126379
89.493380319010981 -56.379474102073942 -64.923560533405848
91.131253709315274 -55.138631583751376 -63.563613809327336
89.831616904334368 -54.293286325184766 57.987096635855252
94.493753245484584 -57.563343493027709 59.382218926204793
89.064057010033991 -54.691967601867155 61.509897711282143
93.486300215912735 -57.977531238697857 64.476679394002005
92.233184440355302 -54.777845322268988 59.920835886510652
91.038776316320508 -57.824832011601572 67.601321964881876
92.322076372172901 -55.952239176046511 65.323159916481615
91.117617460425265 -55.535211674186044 -99.468147333004012
93.020174019992368 -56.232986632036877 65.049691426583237
93.517124670129931 -60.645145625076871 -96.714354693618631
96.216613602617244 -60.584409909899037 -65.811419930405251
92.371285306081418 -57.322705547812632 -99.349693092008408
97.487109714375393 -59.047660568497065 106.881098922807979
95.142708495215999 -56.458868315113250 -70.793642373498329
95.369131681404099 -58.007196834173769 -96.403528081230675
96.016030104813751 -56.730990459172524 104.081914192040472
100.017006315479705 -54.212897183333119 75.291443883039335
99.865948222177764 -55.159266104442302 104.541831142220644
99.542015205955806 -58.009678279642685 -68.396355764637846
99.559694379325222 -54.666308197853212 80.657451500046193
100.481403336711196 -55.552481045026127 83.178891520192295
95.734931844612447 -58.286699474722326 -100.635661926362062
98.864545300600028 -56.761358734627954 66.310049290757348
101.588502103953687 -58.026338139364455 63.526540071786563
99.719833963716184 -55.628394567758967 68.914076854008712
98.110929967370410 -55.401069201059869 77.044294316849005
102.054716994117314 -55.427271762067114 82.791006606348645
100.912775423715189 -56.451488202502716 61.594532506200828
100.723187344097255 -54.931563780461865 80.811292027024137
100.429101974379080 -56.578867835566797 80.159026161055678
98.812329777478681 -58.476458499831210 62.915184028854796
100.047405847476867 -58.252053010452165 65.233018192297152
100.383695594192062 -58.695204860631783 68.113306881927286
101.876991443770862 -59.169114729942734 103.428178800403501
102.499678464141496 -53.812496251880887 63.685490207973565
100.866618640534028 -57.999880586734292 71.011708263303049
102.568560327440977 -56.981790800871060 61.660668847971365
102.204376142916360 -55.379266808349769 68.170435787206912
101.436345346962611 -55.141479594015713 80.017322567225420
99.002959907436392 -57.513523054844981 69.399430829395882
105.001352226452056 -56.552920909423641 86.515008139304186
101.565312493040736 -54.604701014305604 61.274958881407471
102.912845174859811 -58.160501928015769 104.154960120224828
102.433457434416596 -57.318749180748078 61.765174577646505
101.659575772215234 -58.107047242585658 73.221117738682466
106.465733148215278 -56.975577661468044 87.171769194388574
104.026850925381254 -53.047284995124656 58.161965242402196
101.073662893976461 -55.803455051455693 71.532151713015580
103.231758452049434 -58.129505837406292 81.825237019095326
101.766313553683091 -55.586018459079725 78.695136863582960
100.568751003096253 -52.166219017510542 83.697727211707118
102.312394229445587 -55.585620535135185 88.507549255438420
101.062842579908590 -56.316245729031365 101.962650252845307
106.162580304845974 -57.937257930651981 -97.465312459528093
103.607537791337677 -55.653902488310557 -72.631316022783338
104.942548069464152 -55.406160997682456 78.540310828851133
105.737847811807470 -59.239599109155485 -62.910222226772945
105.016447125975461 -56.148528982553003 62.654140717350856
106.558038163211421 -57.500194446782338 82.399485609980431
106.474381492423859 -58.341141910446012 -71.180203354758731
105.649760382123745 -54.453657354657771 55.961176886438466
103.598904770310511 -56.631971603337604 74.119002773785240
106.045506670278726 -58.714624081915183 -64.136809439885425
103.964954167517618 -58.743134877059106 56.672072562020162
102.300138130396277 -57.238828131633049 57.812012366011899
104.343723341453710 -57.790170437262013 72.788828711172030
107.616170226088684 -56.318597108632162 79.508311693155918
106.354933943391899 -57.988947533188259 78.583343686984719
106.742800881808719 -54.154475507429694 52.900685086545558
105.029776869432794 -56.534339260494264 74.345181520755588
105.306367713231325 -57.014788540739602 75.793428239965266
106.080382459951565 -58.857336551863042 -65.691313553869136
105.862160163935329 -55.779892715274698 -61.681966816861376
106.398667827742784 -52.984792234694744 59.300619489528913
106.400808633017050 -58.542516015048896 -97.406129008550664
106.513300909720556 -55.317184785627276 -61.211332231649017
103.736622387830636 -57.473470891214959 83.712333034716124
107.302059352098084 -54.546263261085350 -67.522063710549617
108.526036410145508 -55.843686847994476 -63.285067711286388
106.182962591347646 -56.742593698652243 50.443955381142061
106.852434519631728 -56.684429351918887 83.628855952144590
109.352866756506089 -58.978741920476224 -93.931000550378101
104.357257545032908 -60.848154604248116 84.532439245473356
106.264927696958978 -58.831579960879495 -76.196100409597292
107.989788366128565 -57.308531701762846 49.289147445292507
109.609729046082663 -56.272405951555506 84.237226733393726
108.898190220373792 -59.072808652399949 84.446085619081003
107.289650370912028 -55.876161721973332 55.458242519092849
108.684370738627038 -55.992533755000515 85.210837629427814
106.581838830075199 -57.058003188188593 53.760781987565771
110.154727898043234 -57.100428550854375 89.552113892218912
107.716036351222215 -53.806033168797853 93.189471651158996
110.716012779027110 -55.833075061470751 -72.150231677038931
111.045323317054198 -54.778404431395941 -60.936729903513289
110.055652014288171 -57.130144337243586 -71.324065869626182
107.133151710878153 -54.230492201665683 -71.143559319993898
109.148682421420233 -55.266041989702316 -67.365033207456165
109.830288604300065 -54.337198504316852 -62.918097713439394
111.359876231789841 -56.714584976287611 50.938344694259065
111.202564873783231 -57.180230365874174 -96.530189086758156
111.734710111201679 -55.470427308234264 -67.515532560062937
111.121257644348049 -57.816869206789313 -58.813497678058546
112.690674574736434 -59.390312365361318 49.298841295139972
111.392633439167156 -60.163152156508900 -71.581196165961245
109.487764994494526 -57.606584294614315 55.122727189055951
110.911546709068730 -58.609187730789962 -77.436130800921489
110.223072571718546 -56.695311333330203 -67.304392734975039
110.224829101321475 -55.913473118542534 -62.235610370576616
112.129322212503268 -57.041898608917634 -80.814098998277899
112.918462441335237 -54.975932659214152 52.665672993785471
110.993283144413567 -55.995412901869571 -70.476669069572267
111.176925917222420 -57.543357550517527 41.452421237134487
115.730845636185705 -56.959563843153198 50.225946328757992
112.339629842353673 -57.092340172539750 -95.738575040160924
115.692253446800478 -56.373763786610631 -72.621783230164908
113.294875021488821 -59.160853935323118 49.754851114227804
114.450936211226377 -55.410785925480418 41.865584010517267
115.882428383242114 -55.166529679722146 -94.680288032970950
117.366906034233608 -55.278996704597290 -82.577502437927194
116.099588812331135 -55.986917840247237 -76.947884416060504
119.182102201910766 -56.592596820670593 -84.517928738397018
115.747846461415122 -60.432761542279358 -57.346937749313724
116.588955210738263 -55.692833056321625 -53.055098562559088
116.045984942877396 -57.119539099848041 43.430412545119950
115.898291719027299 -56.354353424662101 50.418195046218912
118.106176611727989 -58.486842425332149 -83.286348364883580
115.562597280803416 -56.196720019631549 -80.646236702634567
114.714109469041389 -58.235572726307907 -68.615505890510207
118.953590818650795 -56.913205584139291 -66.388652658171026
117.977547806453359 -55.588894443749531 39.117411225500661
118.246807082629758 -58.713400547682689 49.370782625242235
114.775535494290239 -53.121661076470559 -85.173779011901829
116.677303501108639 -55.782464561004289 -78.255606313230132
117.701028956628846 -55.725744263981461 48.465223415739331
118.676396642249784 -58.805515873187659 -94.893041435720718
119.704456308345371 -54.805655325263913 -81.866028438960257
117.748557659616452 -53.894251621676837 37.503944949348437
119.973155657102609 -57.208935016915916 49.766839288797620
118.248991082559328 -57.169754603573764 -82.868694494525641
120.487920635191202 -58.953970883802107 -65.247443505816193
120.767057257536564 -57.508951577635557 -55.949670204654986
118.988251946162265 -56.762238301626589 46.754597971639392
119.420333509798667 -55.294847581870997 -57.212282576680344
117.448757446884812 -54.150423381939952 38.874337358757565
120.342128726366994 -57.586591185795228 -88.751097736076346
119.511881242771494 -56.187938219805190 -90.086771441677683
121.614284728484805 -58.240462848140687 -97.471222923378093
120.045320450110680 -55.973513922761349 37.860902026779272
122.339227120178194 -59.089738365062544 -94.386832714460738
121.313067271019790 -54.008762655832626 -63.114117896879904
121.520813870607313 -56.142006453823342 35.293910855986134
125.489685865505109 -56.152749873429805 -93.837990741695947
123.877668914731814 -58.369014640548947 -92.815036213687151
121.349799377706660 -55.808584352728730 -68.011399595825182
122.139171605956051 -54.966495354636628 -93.722429115135910
120.994511458370198 -54.886624684555976 -57.851954308965958
125.394692849135481 -55.515271183101483 -56.322544548640806
126.956480051883716 -55.665483274256175 41.449287743324028
124.200829310245226 -56.860849646725356 35.805564529757909
124.716377937919546 -57.435708586678082 -64.149452489211512
121.369469864486319 -58.480269449488162 -64.028254137704991
126.874093246742717 -56.207447872089695 -57.663555760714608
126.073061109323305 -58.547535298722302 32.651799118343902
126.962518549967044 -59.549316029933294 -51.137015752327059
125.811730688669471 -57.514683273988254 -62.587584438441581
126.532770634381038 -54.454708193340764 -59.503486644877519
125.358120644867313 -60.706239450270111 -56.561568407708272
125.419866170715906 -57.171392325539585 -64.486364512991443
126.554163478498495 -56.953045369320130 -61.060464003581835
131.569685755479185 -57.555651135521835 -59.550769064547239
126.240809933151269 -58.866468629161879 -59.380917429980478
125.364059125944479 -58.560417684508941 31.843177771052119
126.404887459773789 -54.933972790330976 -56.768681131236910
128.355135460459280 -58.962389055291247 31.178536808337523
129.289511566889331 -55.788415748461745 -59.095284679413204
128.532244936681252 -55.529906630724824 40.721079979421631
127.808041481669107 -56.974107530466277 -59.628675682532489
128.011107661847518 -58.309639844485396 -58.877182237800838
130.350225023280984 -55.038300889321576 -62.951367156990855
126.794464061618726 -58.831084173806353 -53.102735553250007
131.179746451310734 -58.972351600524249 38.596777724669074
130.439066631521655 -55.845437051767043 29.619297849149703
129.679102378198081 -54.734856963968774 30.431017432520523
132.459886949738262 -54.137571305351329 41.179776739732411
131.629108919040334 -54.411424350963173 -56.602547604755301
134.123150290544828 -58.106148130513070 -58.452080210928912
133.454529358737631 -54.830599886781407 -59.386140963477239
130.881107087506393 -57.801973367000102 -56.683212125123944
131.685196006643793 -59.107420148979486 -55.736539713849297
133.471676517507575 -55.317926697893533 27.556763945751218
132.322290402951126 -56.970986021436737 33.124433911824809
131.099646126024595 -53.372998540921841 32.903825006226839
134.320399749375838 -56.846983654154506 30.141124733147119
131.762834706845496 -57.397806523699707 31.987778458893274
133.120288898060380 -58.434859315635087 29.380643773722081
135.543063973727158 -56.863419510410658 30.659349572098840
132.549476244473027 -55.833588352760849 27.060283612618289
237.407346509002650 -57.425813680535072 5.986090901128778
238.597218136967626 -57.555853045002664 5.139803750082912
236.738047153781054 -55.702654803876001 5.875741277300282
241.354524830582278 -57.969218363348787 -2.127745629179028
238.858316536342528 -54.810870105788474 7.246386412039156
239.612383846700283 -57.924451489649101 1.392119964921041
240.431880683689968 -56.374965197163768 20.650812419127909
239.805806612552431 -58.616776565914286 0.261199436456507
238.911697258231356 -52.570200714713252 17.416452305036795
241.579595322716699 -55.829910257658838 19.022118341163964
245.878275349022857 -53.713599045282017 0.259336120291626
241.650029567984461 -59.677416667340161 5.682408463311502
242.512380023532955 -57.811403676629411 14.737909901709065
241.038589182705437 -55.413893410807290 6.051073847830065
243.664289183197639 -56.286749045605156 16.064853263758245
244.488853997182673 -54.796337505897604 10.973762831542388
243.585852420080641 -55.313005503413329 10.461950261127202
244.415068687246986 -59.235370845427646 6.142699867499390
247.893394073485496 -56.158567517880876 2.994597115176315
246.660323293154903 -56.914731516668454 4.079823207661997
245.485613101809889 -56.496143412572323 8.970580514478902
246.289410556591776 -56.208107017234596 0.463473303753239
247.520110048387892 -58.339991069174502 20.900528693731363
246.372334221038557 -58.642425662815661 2.701818826582678
247.020194274400581 -52.638073908633174 1.578194405100615
248.836407516892763 -60.104566910862331 23.045703758630442
249.035925521736061 -55.225529849748668 21.879652797816725
248.529879672809869 -53.575939459572112 3.297193940089746
252.405427288244226 -55.820543466712273 3.085104205978938
254.939069047578300 -53.464120900293779 5.910205329698398
252.170878231412416 -54.931045603064206 25.066129714493513
255.460003743256749 -57.813612526700616 24.250943943817742
256.848461404949887 -58.292888502907765 8.127436047849896
252.383615085478908 -54.224010871274082 9.704643178769510
258.488294641970299 -58.961161926622907 10.127583098627833
258.838042944922393 -56.308309503163443 25.446022134135461
260.897829854035137 -56.073236890562519 10.078900938117775
259.860846363060602 -53.611363111183699 25.310350970762261
260.000873706816435 -53.450041189236231 9.487280021528715
260.165403835453958 -52.182748206600721 -14.468622918699690
262.985517104133123 -54.742347458825499 27.016812439856164
260.683759561899876 -56.567386621177015 -15.301416607604558
263.264538056727758 -55.634755585582894 -15.259538673831582
262.564471959515117 -56.377588236307361 -14.802841457090066
260.422582410958228 -58.283236565204547 11.065287582297360
265.147403130030568 -53.565926879068208 -15.329144521336755
265.901616902660123 -55.158956992604459 -13.734697697417078
267.229788142263374 -55.058807405828205 -17.505579969317193
267.448909345081347 -56.236302535247439 -17.069501000203772
267.300045059846411 -55.249117515212006 -12.609800639887105
267.956058829335461 -56.778497338497964 25.847715832690010
267.303828795526044 -57.214452949684429 -12.347018735384232
267.180962075793843 -58.379298282228518 12.436288328870951
270.157569528586919 -55.426897842862743 24.803778460653604
266.348192451430918 -56.040005330899028 -10.555852858672653
271.190868958165879 -59.217265277431054 26.041525404785681
272.245303671589227 -59.282712554354880 -14.733420142283906
270.977563833624345 -56.321020868738316 -10.994852552912244
268.460734737824566 -55.552772188416732 -13.528382367751206
272.322732292295655 -56.595257387581988 7.112957024780116
269.847846298361162 -54.983717807243195 -10.596334897147431
273.104487914437811 -56.542262032910138 -15.197267643364821
273.609219781388674 -57.262872725782657 -13.040766150786071
275.240025472093123 -53.569239387580872 -10.981714061676547
276.262235810132040 -57.016635298739637 -12.513191540752908
277.159588338516983 -58.155513780207478 -8.253368373588666
272.321875996982044 -57.404334056915452 -11.672716587435646
274.871032781301835 -58.177606780384082 23.981961597280751
278.544666620558530 -57.005176076900092 -8.328801310506970
275.911321767371419 -54.911802944954310 10.102808948448962
277.379938872030550 -57.098131392624111 10.746883999723240
274.323208506720675 -56.880705856994098 -8.862671652983456
280.678804020498148 -56.659840998553811 -9.005397537238739
278.879111512818099 -55.191838432744049 -8.371267181163065
277.289037858680160 -59.032441162102081 -5.897859043619448
279.938800447068445 -56.136956977466618 23.538316179597352
282.311879666515154 -58.431356806708379 -4.733062672152239
280.520193787881794 -55.676669225226306 9.096750587016272
278.484863563817896 -58.484540870523695 -7.645301688294978
283.119011214862098 -56.079889309413772 -5.641687505273921
289.016740122786018 -55.176761196437475 16.082403753498987
288.211878688180605 -58.655215496910060 14.429808403683204
289.807173435706204 -58.942378958118844 15.706921896432783
286.390068363651608 -57.421383852599270 11.169699449653326
289.374738657883711 -54.537693386675826 16.773299285591726
290.311023532659931 -55.204561230699717 10.244342702496388
289.480180326800564 -57.499438734545805 11.921578839156156
293.966863949129049 -54.151811307020488 8.603984544789917
291.764298727369464 -56.899370112028222 13.904027010563452
12.813642656811313 -54.092793326849481 31.134813226696636
14.120692142393761 -57.284109278614956 48.107350110035320
14.356021147079639 -57.638314043279607 44.087395936695401
17.986043759529011 -55.853474717336134 35.944093154182923
16.404086647268191 -54.694591295204461 48.212264118045688
15.125858041764694 -59.217397886956981 35.773481040086239
18.452093972028081 -55.846273535005302 49.266761726121082
18.100922448029195 -58.919073605978532 48.635763553016517
18.263194872074109 -55.635471178120767 42.084268441403253
21.325172124777939 -56.549125087970388 49.954830269797810
20.734661501121071 -57.331639174907117 20.165899326223876
24.040891482805030 -53.661602526413908 20.646194553962360
26.574590743512246 -57.180341618218876 43.073555774539003
24.711758780665072 -56.446852329684745 19.497925059626553
27.048007140874358 -58.787594603510115 44.775851060813743
27.672362778925471 -54.873983089296026 19.089842803321730
26.247115183326539 -57.253723265584540 28.672835210157888
27.591376638118838 -59.334661370978424 52.589100917613486
29.032702857399951 -57.684013155553565 25.903709627482129
29.686633798674066 -58.567473858085314 43.635154037943821
32.788560676962021 -53.129835161422228 44.850422899586597
34.785997055041072 -56.200918076408577 27.468927429714832
35.859283495437282 -59.305347225674538 22.209954825727273
37.833666317366969 -56.515876867290132 29.511694785491088
34.126225732189972 -57.089444247516177 41.073559820470933
35.454453385064802 -53.882813152490655 44.019461681460001
36.374828443573108 -57.479383518891851 24.864156692305023
36.807928373364000 -57.734842114049478 25.955217704524795
38.506206862966451 -53.138300530848973 29.493185857290687
35.829659034277093 -50.928359248910191 46.572357133933345
41.124014434197633 -61.006488982544958 43.555776078431350
39.837217648230862 -54.508782216761610 37.628926801337002
38.729422011821107 -60.357312109775663 38.704766263479257
38.419654021014985 -58.308337065695667 28.346372969362047
43.371822982623037 -62.801717610924683 36.211854937845374
37.197577578209561 -52.585519026058826 29.774279778250804
39.180355934762602 -57.224888992434821 32.268316875073367
40.962439175022169 -55.715243512689717 38.876796210392854
43.285110773171276 -58.860764221575465 37.378561866739261
43.153730989062126 -56.590661411111206 -63.792159122462635
42.607379309660459 -52.573896505207486 -56.103623285400296
42.189130659522085 -55.594107491466289 -53.477050162612969
45.934752445602825 -56.383836283300617 -73.138516566231317
45.810963007174642 -57.112913172407772 -72.271913882940268
45.766436844032995 -55.728050489334002 -49.800509129889740
44.165891690055204 -53.437013563212140 -48.815942023958534
42.872281557570084 -56.871572227564251 -77.505009578111697
45.161754124920975 -57.140940781028917 -48.510024552864436
44.126135857230018 -57.080127690458596 -78.397647703125159
46.018605750677558 -54.853337251634201 -81.010922677503913
45.538816590817618 -58.854337191180448 -40.337387554442550
46.445669708335402 -54.819809509561210 -84.566159370050869
48.270034006980445 -54.904830452818999 -84.011000182312472
45.688004413468043 -58.045514942700166 -30.870282385579092
51.991641690665496 -55.580912438774703 -27.758324285972328
48.339061084276324 -54.755840012014048 -26.185578685479737
49.567282005285193 -53.586169869196695 -18.429335859362446
49.038010465915946 -58.087375865884816 -13.456822192801326
51.493418265885644 -57.640318329657376 -89.487059727923722
52.942757322775911 -53.868811971953861 -89.180430219581268
52.395370916280349 -57.686841718830429 -7.406227289001169
53.783637093110272 -56.179801933751683 -7.581554282193634
60.404850083227018 -57.590834177818216 -93.595795569534459
54.341183565745752 -56.099334033127690 80.439105481735638
57.178631920460411 -57.773059909723770 76.390672832596891
57.152435477887870 -58.120468340391945 80.576354643885409
60.074461976366187 -58.249489407542768 87.034303470288080
60.378596133205733 -53.018832108731814 89.986874575042862
60.870363251516046 -57.053023611950323 89.026880954241292
58.650589381280398 -56.536194392792360 85.794486764381446
59.208748476855511 -56.530325407102112 87.760298055322849
59.217910824400512 -55.695011373112308 84.410735490759933
56.725926026487585 -56.318496798615264 -11.114896166956312
60.070853097993499 -58.473896506655294 73.183299849192878
64.182443895134455 -59.040832547994235 74.558369618252030
61.857848784245355 -55.024572399246416 -12.459034854502926
60.765132087942121 -56.164408074080647 -7.494351672592767
61.550739784500699 -55.723293738246454 -18.514618130211026
61.258269652333851 -57.097397784978526 -16.663914525102335
61.532998218490512 -53.240018540021325 -13.632564524779959
62.169131267633112 -54.264665028034059 -22.798410743596143
62.469653744302228 -57.138177191006676 97.577698017824304
63.422136214047356 -57.377834187159301 -22.637702349248091
62.812786323389524 -52.760919668646011 -27.012007561052236
63.866458498760046 -52.247302281064918 99.460168844450948
63.114701821403216 -53.394209385735103 64.348144871001892
63.948860807505099 -56.491309865273649 -97.410442939687201
66.149345980276735 -55.260032169937467 -26.263285508915583
66.535577910051472 -57.255087207931084 65.886650349461561
64.073171087370298 -57.025773754204046 101.917717785331021
64.207823361327073 -56.451082283154442 65.183182187017579
64.845850937327725 -56.560829333054102 67.814449221215682
68.297845225052768 -54.214347711273739 -62.239128144540977
70.743506478464582 -55.501630627337896 -62.584631266371204
67.803654429573214 -56.356881959526717 -65.292799443309562
73.252724815061157 -56.294838112740365 -61.434696436761548
70.179256511146036 -58.132353586357041 104.051583575039018
73.495159025449055 -55.558426903514665 -33.950764855763666
72.310008372132998 -53.093071456911566 66.271255516197073
72.371938666042695 -57.545361120550574 -63.710831376925398
69.192075923540912 -53.401681500469138 -63.040546329229016
72.693360615159534 -59.416723610091424 -62.030947167655583
71.869008800428574 -56.540325916379615 105.188167064482812
74.790836893992136 -57.428854180574049 -100.081942271351608
74.633403754480511 -57.225223684465391 -33.826634504828547
73.760895462400441 -57.348276784288295 64.096005951642184
77.273405037320529 -55.250403876596678 -98.004646191654615
76.748049589490279 -58.197067240762536 -34.115977481002822
77.916754153517175 -55.775601675355652 105.173322967115311
77.215234890113052 -56.378852651829291 -34.530329731785365
77.813451731051956 -52.271826178482264 -50.787718560296454
75.539473535293610 -57.704477584462410 -47.132458286746044
75.161486163737820 -56.635686570568154 -36.204578251394416
81.752149162078126 -55.695010418269760 -99.241178994828715
77.462603480795167 -56.826202418081756 -48.992363308977922
79.170660058471839 -57.201726406125246 -52.024122905611598
79.221038661002950 -56.960233582791332 105.417696842310519
81.155834915976016 -55.873925050980283 -51.744665850133075
80.960474839742005 -57.261462366723215 -45.159505471418377
81.691011520658734 -55.465775141312761 -41.726949915766646
81.914199497891076 -52.482826742114227 -100.887793826218996
78.821280220746388 -57.876143532625960 -53.089577710684502
80.914169590618172 -53.308030630464224 65.266688068965749
82.271042069663523 -57.449451480136354 105.376814201943745
80.183841579076969 -58.020201579765327 -99.004110606529864
79.990698175381439 -57.302989900034774 -56.561540238511689
80.309120926888227 -54.777450914200060 108.734480928389871
82.398118536688258 -54.833214146299980 -57.337251964116199
81.886212512574275 -52.975415260226541 -52.497751926097536
86.212752662118035 -53.208162101159914 62.824619350479068
83.592134805249060 -54.122520477017673 61.299010042765005
82.460503539350668 -56.314314050846022 -57.462466295796318
86.539375724553608 -53.443336797109289 -99.062039869346123
86.378910381255650 -53.183882767869463 59.962309839703408
84.570218175482239 -56.864892489271064 -59.756328409615975
88.742019222791200 -55.441357257242160 58.663662809519934
