# This PCD file was generated using the MATLAB® pcwrite function
# from Computer Vision Toolbox®.
# .PCD v.7 - Point Cloud Data file format
VERSION .7
FIELDS x y z
SIZE 8 8 8
TYPE F F F
COUNT 1 1 1
WIDTH 795
HEIGHT 1
VIEWPOINT 0 0 0 1 0 0 0
POINTS 795
DATA ascii
192.609967717706269 -71.557014956726874 12.359005476817524
194.299392172113642 -72.535231889116815 -24.856102572096358
194.003599028673818 -71.216774917421404 -16.033446200548621
194.056114081270920 -72.329449010517621 99.622101063669803
195.000655597427482 -72.355993615849471 -13.293175154936078
194.025678770872929 -70.857636157020778 13.771272107779231
193.671130960751071 -72.400388376001615 104.750316998594471
194.667994749053577 -73.821218850847018 -15.723869176370449
195.806232535121126 -71.120874507129216 104.371630409818778
195.704647320110581 -70.356736474308903 103.640640835816967
196.956483650235867 -70.477067330502607 -139.271835300169101
196.119708475610082 -73.040676252977846 12.378016409588952
194.670082447854696 -71.609521674101458 102.204668020615699
196.973089654621504 -72.439660808074095 -151.664428310896881
196.126887483576752 -71.473633058578869 13.373461740971878
196.488624844283521 -71.658563034674657 98.007473665189494
198.406884838194571 -70.964901670348937 14.172445143560747
197.050843767264524 -71.547818031338650 101.108428879647022
197.169792589240615 -72.836820557184964 102.915835469068824
197.214704344515411 -72.666371062522330 -153.065702552355987
197.607186372248805 -71.477231689745523 -130.260768212783489
197.940842106471194 -71.543993123364615 -127.355649256912955
197.165353548859400 -71.731003734304110 100.373878957811115
198.274917563301699 -72.167053403079038 -138.269431685566957
198.861340311921026 -72.099146132832445 -124.523391053668078
197.695746209504506 -71.340987003477863 -123.011800202479549
197.885942694124878 -71.348820067009314 97.357861806654171
199.339688181534967 -71.599369686708698 100.462587268593310
199.399480650395049 -71.569106606581428 -144.719216803035550
198.489752777294569 -70.741708336225415 -122.801307511033926
197.968393740713140 -71.854131708097682 -21.370443190511626
197.796301251038585 -72.359445077822400 105.615702858802322
199.581946528350102 -71.670257735131045 -129.158983871540869
199.146835455318893 -71.581692978437772 -128.585088481046427
198.812636722555993 -71.215889823640595 -123.066369511370652
198.553742356073911 -73.145133935395066 -13.600609015945588
199.127906176635946 -72.255856874910862 10.739814492891584
199.138118193064571 -70.397655434200473 -23.941167033436273
202.827638432792924 -70.859368238353980 -131.704484803516209
199.612759316113028 -71.777093483984771 -13.360189964323522
199.142025846984069 -72.532050156319684 23.435493832495641
198.915811162435062 -72.785763616151215 96.695086925449246
198.074431700776699 -71.703126390419996 100.198938580704535
198.659255155773309 -70.752167058296621 102.799233909663855
199.911497280776132 -73.416278661126952 -147.451639643481002
201.474530306512577 -72.092178787750385 -127.050472881245071
199.502479823688901 -72.426585078645985 -23.703415612785324
199.756856900203786 -71.891164130935877 21.819605956681265
199.139719920333192 -72.670462704276304 104.334093804984178
200.417663137981435 -72.581226106526756 -20.341471396428247
201.150660234661899 -73.902487603331579 -145.377759343946565
201.494136794956091 -71.681846186222117 -129.363814170051114
200.298739886184535 -72.742746901853423 -121.869970140776573
200.381831453638966 -71.800941006468463 -10.630326214616723
200.643435750185574 -71.641412732526817 98.661570831664164
200.633421609175343 -72.839706126252906 -138.703045537311397
202.193603897392734 -71.976928883618811 -121.314952680224934
201.020520826395739 -72.260338408469821 -152.186907777947766
202.105024944964669 -70.519459028941171 -22.503822507828914
201.773902744929217 -70.964729082515632 -12.143836106154229
202.105564049223773 -71.678366088369756 12.215394361874836
200.203396612164227 -71.329915720350726 104.122020695548997
202.371440741444331 -71.113393102878192 -129.488892636057642
202.984698538159904 -71.765593353764430 -127.207289498388036
201.998325353189642 -71.029047930244118 -124.659436657660066
201.861478140313920 -70.676130809132644 -12.027326556108795
201.332317854147277 -72.981281334565267 20.175171948181827
201.835415664810483 -71.634246304558403 22.734489121275164
200.254601792246689 -72.956000803433213 101.024262041836280
203.211984808498499 -71.377022595352784 -124.013375128618705
202.337021377304467 -71.291081663651781 -123.099850115695816
201.231156243335903 -72.221187700054429 -36.591081026005668
201.460171526617330 -72.839715524025877 -22.507306233236118
202.804214975221100 -71.992591473430139 -19.021513855255208
202.347790413396353 -72.598498214742079 -9.688291027151621
202.923308692710350 -72.307380660729223 21.487696161393956
201.790960401701398 -72.353020345918495 98.171422773394283
203.402229502318619 -70.854061956291702 -126.467316851725570
202.744028309481280 -72.008978079950211 95.495238330128288
203.047804799849303 -72.004722968418974 97.534220827089371
203.968999748613015 -73.762432682377863 -8.994432894121227
201.741582763228507 -71.094551056928225 100.471790818832176
203.547336129195315 -71.879453348337904 -150.908566521646151
203.425380343255057 -71.334619815948955 -36.069532097653550
204.034060313826842 -72.981969094164228 -9.782586692987929
203.684176562494059 -71.274144669746164 96.725402858028531
203.407628924089153 -73.387260448422936 103.312461407832174
205.634084618530892 -71.622934727689383 -37.477293909743622
204.111962232595545 -72.483379290648472 -9.208457414001598
203.116732024467979 -72.687980859127350 94.583790964167022
204.534529459843583 -71.767989420129624 -35.521309527734665
204.960307040820823 -73.333980410855290 -11.157142228540156
204.225918576475323 -71.482443804603022 98.879298887960829
204.196279823815360 -71.353057235169288 12.091781344572315
203.993589752708942 -71.682177409608897 -36.485579825199984
206.364266009967054 -71.356591721186632 -33.831669254313624
204.337734379521635 -72.083469238120898 -18.719126740864375
205.186552377444798 -72.071874571838862 9.066681784830573
204.878967961676807 -72.023905658347957 20.316321124817300
205.647400048428949 -71.440168021051974 22.092200004566777
204.711277071986245 -71.518382323187893 93.221546846554091
205.617586037349184 -72.522494785062605 -7.756222542596561
205.760409574270426 -71.520009417446772 96.442753266906280
205.526005361621799 -71.988555461194466 -17.684357864924227
205.567398750105696 -71.594792996947646 97.870430825282014
205.736866236145687 -71.734963535535542 -31.664666214972108
206.448689875399822 -70.117368653115776 -10.251744782763030
206.242847203558114 -71.561901545656596 -6.888415423344016
205.936650553299074 -72.539585463287807 101.206971182789601
207.194832377479571 -70.892287120744044 -34.671702126926746
206.863369523087357 -71.317501443091757 -33.140048835294515
206.554349323865722 -71.178014052352140 -19.815320672996126
207.207654495688928 -72.021771901992608 -9.939357249517208
207.446358790652084 -71.776061209975168 95.078267231289104
208.016605369663296 -71.722946267782078 11.132889214728120
206.396352476590124 -70.618821342752511 100.900937490732900
208.141351151570802 -70.878623568951227 -19.583168568795070
207.188844243043349 -71.643571642095893 -16.323808829926250
207.420795899465389 -71.833787784006844 -147.316289447355359
208.590019367646363 -72.827863953710235 -144.580907763825138
208.185702131793818 -71.747796474754480 94.547754672757691
208.519039272837176 -72.813752075084267 96.659246637451034
209.111305018298197 -70.954256164540226 96.768608213179832
209.670800705327309 -72.488945303320577 -147.970802650519715
209.747127335024658 -71.642522017797532 -74.902445611152487
208.253723191878294 -71.215682534854764 -28.841374040313696
208.549180743085458 -71.074870552927777 -6.840232285046747
209.150367475784890 -72.704430330086325 -6.304450348268971
208.732465498955349 -72.428213849759416 93.507111743575777
209.165002852125525 -71.869787659717915 -74.816660555240432
208.508916626356978 -70.858624447911168 -33.103231853948095
208.440636604005959 -71.121847806197849 -31.103239971529014
210.692062983972818 -70.880023724494023 19.441267877374585
209.446787368317530 -71.577210976797090 98.998439447532505
209.546365588359606 -71.682897979805375 -30.480284666254178
209.859466375547953 -71.488749908867405 -29.595085438501187
209.590999579430559 -72.726334814689054 -27.373996716173131
210.178356542302339 -71.868503739557440 -76.206627436120854
209.147617104410926 -72.281032004726484 -74.536283261116210
210.730762476434734 -71.237622877353147 -32.658199261077222
210.179933573304083 -70.843431457394630 -27.158904207411684
209.577820917807173 -71.423847304275654 -8.415666240403532
210.718168073973175 -71.001614365313642 93.560251784511138
210.203420560617332 -71.245557680227350 99.284880489818974
210.542924749551361 -74.700256432655110 -143.893382530175700
210.181659923252568 -73.168160452240727 -76.561419565591606
211.020205423022105 -72.780238025155882 -75.879307450783855
210.827432759037123 -73.060094748330727 -144.260830539556963
212.113783248630767 -72.315312812369527 -77.463913509993532
210.414990548731339 -70.878141168569826 -75.117930892956892
212.031047625095084 -71.862821818445795 -31.052496652033298
210.542753969964735 -71.760296609522413 89.537505647551257
209.519200638170986 -71.414716187501455 95.845575284586872
211.398228177187320 -72.655472421935201 -143.646696938570528
211.747373725958766 -71.641864512000168 -74.764405686233673
209.628711809753952 -72.256201916052973 10.459765108727838
212.648727224130141 -72.019464149315851 -76.201101559521732
211.175568744877040 -71.829198815424391 -4.055162290274801
211.629782527138559 -71.838015193191822 20.259886638826785
211.264301345391715 -70.414804100909038 97.697495901669186
212.122631092376793 -72.917619307316940 -76.450920889022512
211.846044226423004 -70.913755049527794 -29.465798497697083
211.131471091538685 -72.319194972606908 -26.708502170656772
213.395265300337144 -71.872680668987186 -84.313342072621992
212.072673052824683 -70.930505947451422 -31.720093125767022
211.825534393010400 -72.017900184168369 -15.938598513484553
213.463842210534523 -71.287611527182108 10.009629088732735
213.263489728519801 -71.608921754835904 -144.089337437600960
212.692842862311863 -70.706171458702528 -82.949083744898388
212.175438791544877 -71.182098172243641 -79.165866796333560
213.076905484924822 -72.172410559026872 -22.543320693969669
211.539117803637623 -70.566165384625563 -25.448758487587757
213.910967581094468 -72.505842584730004 -2.702436765276551
211.477718292855371 -71.355430222081480 6.968181886900873
212.586200881240160 -71.780781941517446 91.338160581077958
212.269065381572744 -72.546591061511464 94.938678792889448
213.715225444900796 -71.427239296693728 -86.837837013750729
214.168969770067889 -70.988348486536239 -79.231664053700300
211.959127984229639 -72.896905120352798 -79.588546359541027
213.079278791824379 -72.957729737179520 -15.889466065973281
213.259360020780036 -72.138261356423655 -24.041268561743209
212.960935714342810 -72.040953206845913 -13.607497527862781
213.017638541455540 -71.552509667728785 87.711349746917165
212.459491836972347 -71.501379681284121 96.607950953222925
215.343196791183829 -71.667370116767785 -80.762744166574294
213.386995693876457 -71.776909523946600 -30.504301434452401
214.269612991221663 -72.849860571723781 -4.993933167339924
214.435469803665171 -71.503091661437551 87.476979919206599
214.062305137802667 -71.506935799838544 96.651957311318938
215.879639884632979 -72.589220171209405 -93.030016359815988
214.425413158663247 -71.664232023964658 -89.582147571494076
214.441479404800759 -71.573607119962062 -2.124610871080081
214.117203582016487 -72.334300245654418 94.256002271496143
214.083414581867544 -71.900581569984780 -22.557415531891746
215.736181824762269 -72.398029124868771 -13.725405823849206
215.002055885952188 -71.902977521341697 -4.635356596682661
215.898226759915644 -72.505519882601789 -144.672611039873630
215.435111767012444 -71.905564932623562 -20.283251388098158
215.281486610273049 -70.918682392028856 -12.860289662512539
214.229974059515996 -72.146965936612929 90.238420541055788
214.964507038444680 -71.226850433913114 92.270224573650864
214.010148718799513 -72.556232151626944 95.339621496138960
217.778108746548980 -70.599268918301192 -144.223009590146233
216.440948686201494 -71.613267643631048 -79.861452976441242
217.182923885564094 -71.671272076102511 -80.333624532387489
215.924147601428672 -70.770411856323250 -14.811674422790636
216.398701437694996 -72.432156214220996 -11.134222729042849
215.865657230489546 -72.076548592134841 -27.730014406227582
215.272897613133864 -73.637755046910698 -4.391034560917328
216.150454351280729 -71.525257735377451 -20.211005879378956
217.308293727720610 -72.324571645324582 -95.384241299882873
218.817960639426929 -71.421828655244113 -84.436443776440271
216.850319377282830 -72.756517045913753 -14.413718936536789
216.248062238338292 -72.171299298291544 -1.116241171204186
216.363608126187813 -71.976129764896200 20.501629680415629
217.262940428329642 -71.506031555926157 84.950959450117963
217.044115362618840 -71.958531642278203 89.397270138490441
218.216478423949610 -72.751850475047149 -144.378447366173077
216.694154525905105 -71.752253725284149 -82.822532511049829
216.988614276830646 -72.736025784914091 -3.458779136492985
217.450724620012011 -71.672106570800466 94.777634255375261
218.720758615309848 -70.345555657963686 -25.176814878565800
217.563154029538651 -71.246663076096738 -13.749822693945175
219.347418939908380 -71.707662731400703 -143.729823335629703
217.972203172816165 -71.775043680468329 -96.981307467378585
218.585597149631809 -72.276142347536748 -84.517300239030703
218.119738409182787 -72.627987785757142 -27.545854805219097
217.544399433154894 -72.579924018893777 -18.288794873946191
218.862027279324735 -70.561406647622704 -2.755014740383307
217.827691306162478 -71.806872653900143 7.374297765302778
219.027857708916997 -72.044132763941974 83.416805628240368
217.639044479431675 -71.793095530000357 87.395043943778802
217.681944519603377 -71.708721980115897 90.039353068703448
219.667787748044390 -72.429926126690575 -97.709534081465421
219.394293017447154 -70.890505841227295 -86.971489871670471
219.392837387115662 -71.682927249597626 -25.578905815857766
218.449546001707006 -71.851645583017401 -13.204571168998584
219.594250561979123 -74.018821673820000 -144.667950082802037
220.142643176993772 -72.483402355418775 -88.188078125295945
218.397980913141822 -71.620981008698251 17.338142341053278
219.642750544570532 -73.329754810404296 -147.937133362394434
220.344340306138832 -72.312696221421078 -97.875135438028536
220.125393292580071 -73.170835058055772 -26.100179863274747
218.837154252267993 -71.293239961758673 -16.518324586218220
219.466640066054367 -71.948147960811511 -11.883670245461900
218.047236611124845 -72.929584294839898 -10.221957543041890
219.330177315383992 -72.611627711970385 -1.113068742595664
218.600099454842251 -72.751916495963357 9.824816899539815
220.756797266844217 -72.611318666121250 -147.883300732648650
219.047552077243523 -70.501255322621887 -99.061463245351845
221.122775181954211 -72.486537222723541 -90.372693602947919
220.316353046480032 -72.263310018557306 -1.205057690203374
219.993103306154353 -72.721264371282956 -24.549926361472359
219.244324279391975 -71.913644428785943 -19.388006760573433
220.759148481070554 -72.557225781255113 18.182698912481005
220.813605315323940 -72.341414831904231 -92.509017240970920
220.235204484048467 -71.190631560637883 -16.880065020309186
219.776771937035818 -72.323170372852417 -11.515860513488867
219.357672313975854 -73.249353753715980 19.824355902520434
221.931003337204885 -72.453660059314387 81.888161769627317
220.762528290410870 -72.347111509933896 85.608703191779497
221.453489702917437 -71.693136259672542 -143.978852819095295
220.358584404014977 -72.224797327491572 -100.432507267314747
220.647981118270309 -71.451910199145388 -23.670334567805856
222.152855477671153 -72.183073870810645 -17.937959097442601
221.661887299394607 -74.034231484910592 7.997943244085864
221.366764265417601 -72.581277382976864 9.480536704209465
221.777471938513912 -71.873708204205982 -101.008263917903250
220.914810286852656 -71.571875404444896 -93.241754164208743
220.923475824563610 -72.013352483578586 -20.476738345947556
221.637031078925560 -72.048910201858149 -17.450345941826118
222.229385524235482 -71.074142755028703 -12.714910931057048
221.257482624520208 -73.014577937373133 -0.103620448223148
221.149725921291406 -73.123148120193619 20.821064669769296
221.512829236209228 -72.341107119758931 85.182669852475541
220.874404877003343 -73.299742054610746 87.858278149289063
222.643229086270821 -71.613768499664801 -144.774697461734604
221.975867454459575 -71.713521749298508 -99.125943565530278
220.770056131554497 -70.434487622994965 -11.116779240452171
222.106936742405338 -72.891259163742220 2.510651721123722
222.136268184568451 -71.813980806486171 84.829905785575605
222.109757652641122 -71.870388443847332 -100.165328990398336
222.655328151483729 -73.018653086713769 -8.299628962809161
222.674501646310205 -69.662683943287803 0.918409421450343
221.473388776918426 -72.621864415046218 80.376114955590793
221.663383706058397 -72.167062218861616 86.700381093176063
222.597570351830512 -70.923886846771296 1.016980627816387
222.262001008426154 -72.233739318478030 3.657527300394188
222.622602485765327 -71.684253947202947 89.684684001061456
222.607677592785706 -71.536103849126604 -19.055579021072653
222.249651986940052 -72.170301090732323 -18.021345781414684
223.803918480244704 -71.175065644902915 -16.546738715222649
221.979196078266170 -72.037425487693184 -15.180467639537177
222.601289857226533 -71.854923328409114 -6.976993589794142
223.701175528374051 -71.811462961710546 -100.006765855967217
224.254103916098501 -73.279183755171033 -7.977113546092012
223.617200981542652 -71.272575275307517 0.282283496257533
223.185150550964465 -72.729702800914353 19.710102213604408
223.690517740989804 -73.075516482076125 -150.970728314509074
224.567337289014262 -71.833223022009690 -101.538419995284812
223.167052362606768 -71.896296781587537 -22.170984373311040
223.792058333497238 -73.376072688159411 2.650023389580706
222.593021152014501 -71.678114809698229 86.269782640175791
224.226467850303919 -71.951794334102146 -13.982176806527493
224.118886942222332 -71.456757392412300 78.227954590487670
224.661879823725883 -73.133493700662711 -140.404489953256274
224.905032971878910 -70.593273576280993 -103.129129158634086
226.023312421899874 -72.958699468159864 -20.894045462368322
224.583271515661806 -71.396819091022252 -9.366268674304866
224.058913731221878 -71.324411489631842 7.804365835128927
225.002599131525415 -73.119546978196155 17.542218259838201
223.640004880700445 -71.302439487250638 83.464653333172521
223.951774991296702 -72.443421799135990 84.865757463203863
225.543739414026106 -70.351750374157405 88.567114644536872
225.313413085527287 -71.183850837742654 -19.682955728770310
224.290325789014076 -72.053351157332827 -12.347120560531289
225.037250744343453 -73.250067603893086 4.226977273134619
226.186732867463775 -71.215014946986514 -160.404952173193379
225.677349120746527 -71.802522115054330 -158.873715524598140
225.315127222365561 -73.485191150491914 -151.598749271759459
226.801265161083876 -72.185675854789096 -11.463126026681927
225.630228501997863 -72.092600723873119 -8.537241201905950
226.564944195981241 -73.766009317439611 -9.241849369822628
225.286693835914377 -71.783811992195737 8.967997462448153
224.222753936577561 -71.866985606360345 19.746911412097031
225.005121521105366 -71.972224203783057 82.682877998364603
227.264666281318398 -71.967739030127817 -159.279965947635105
226.209455133831312 -72.244670436014289 -125.900172919264037
226.285072722029611 -72.364110946082022 4.521080764140633
226.149002710840421 -72.507515123008631 -152.545287398299507
225.871306476853619 -71.076956185649180 -129.026478800047272
226.240952446429475 -71.677325837107517 -129.749257593140385
225.975159361912148 -72.076671053061872 -124.968753649154692
225.774192017815579 -71.352239972011489 -15.498578087428580
225.975616127167228 -72.429599051241226 -8.185288661571139
225.625484043191790 -71.690658568727372 -7.921352168878197
226.094556524139762 -71.571669293399012 4.555585616888028
227.210471944653506 -72.243228886023090 18.039663170935661
225.282505893449041 -71.791635195737143 -159.661494948453452
226.733219283958732 -70.703192634298901 -129.716623311397115
226.930170635290722 -71.477102941611690 -126.247631950185408
227.363574987336534 -71.883991077400893 4.443164841582190
225.876333154440971 -71.043377609205521 82.503575925307274
228.070641207796655 -71.851809878629595 -139.114405543627470
227.219768603048351 -72.133207162562243 -132.629688622293088
226.308260231672250 -72.428026400700034 -123.177935681489799
227.216754798649589 -72.021276988457998 -14.703057152878605
226.446434481841635 -71.591882684348022 82.993946354298814
227.335325498617010 -70.204531264056385 -159.395898949147977
227.554491557689516 -70.645841412272489 -145.331426238839441
227.367894193671646 -70.782366714705802 -18.347013655233628
226.550784681382254 -71.852701370480361 -4.282679667067421
227.275255169971473 -72.059611203674123 8.010033743963064
226.938948666852070 -71.684699266700079 76.301505530411177
228.250258482956212 -71.628434850478030 84.762184558754669
227.981492424527488 -70.337152652224248 -135.723721358263219
228.054597153667913 -71.965453935920110 -10.574867969441529
228.567295767086648 -71.155786059597602 -3.224879357851831
227.869096320905925 -72.141810512896924 79.533538324784246
226.935903845638506 -71.325026867417364 80.901795575513191
227.892814751698637 -72.057985551099236 -140.028023728467673
227.141929978853938 -71.797436215615164 -139.577584255268562
227.793822086691506 -71.214392925709419 -132.914066181598173
228.860767861454661 -73.168381061852159 -15.941684904444134
228.284147967734185 -71.398122107606738 -12.136796249406652
228.278533824383913 -72.540075369369163 -10.616226637888655
226.925164624711527 -71.743442361334573 10.754028551534949
229.439648810966332 -71.879861769876015 -148.363275601460799
229.162561435995428 -71.779151804011633 -138.823902215147342
228.767726923426636 -71.915092470270821 -134.366444630202551
229.800470694906892 -71.672785179795710 10.330671774744168
228.168817223351738 -71.327397543744937 74.282639781039620
230.682713298428865 -73.059751443546517 -152.951355553881115
228.641867181621564 -71.381544208268693 80.077891170672004
228.501784720116063 -72.640173361667451 83.686646467813517
229.775792261948283 -72.051441437232626 -144.040105331893500
230.609467937308722 -72.055660189906135 -133.713212573131841
229.886668507294985 -71.299314161013385 -133.600846013474097
228.938374968990360 -70.973447930784502 -10.200819306371791
230.055115202835054 -71.321638879255985 -9.037830260667533
230.367773441989641 -72.361784783053395 73.146329914446284
228.615026971684728 -71.609166120150519 78.681661893972745
230.671283624743467 -71.778933884751638 -147.956013584992547
231.188802036286432 -72.436578144703972 -139.235917305986192
229.744127322765081 -71.544373333863419 -15.528946147972089
229.051193775121448 -71.726416927420175 -3.256100034749506
230.579643532911973 -71.997101833225372 -2.682518461722974
230.306052583500872 -72.410407896408401 73.320412220515863
231.224708331666932 -72.523640380718646 -146.864943156059070
230.747305825121970 -73.020555896094905 -145.086736783570416
231.666156905422810 -71.726236580188200 -133.432998987703201
230.622031595566682 -70.195372699668752 78.097490953804453
231.529219533233658 -72.810686776698617 -152.564634104399261
231.756401321688202 -71.075028502728841 -146.061496019841400
231.403454105326659 -71.740176695413609 -122.404084093594349
231.176368525659484 -70.811581936188432 -8.847152145649003
229.903052819785501 -72.261091642957979 21.547674194167321
230.760505266567492 -73.579968162157229 73.489170015604785
230.789400921738348 -73.136762973884117 80.848722155919162
231.438108419904694 -71.241018618792495 -139.576622280519700
231.377850293538899 -72.738886940185708 -137.769317491821909
231.129941940852518 -71.988962597745044 -132.497511908131429
230.273694732787419 -71.937631160915586 -13.877288044702397
232.815800369301343 -71.072657363134738 -152.909796066809690
232.402930876767670 -71.169685231684824 -139.213902649192391
232.632315951323648 -71.288506800932652 -122.982755774275844
232.000009695819955 -72.369041286722251 6.162807352150070
231.981406814148613 -70.169654249596960 69.526136860057846
232.287331735362386 -72.160855840352596 -163.044245735927547
233.070026549316964 -70.887714531522349 -131.557952371777304
232.707427593427212 -72.291957977864342 -127.541710424658959
232.429074424802735 -72.871178747764716 73.077164918750654
231.207096557139835 -71.360311745222887 77.712991293716073
230.235241801504571 -70.286941422316033 76.896134476107733
233.474188833240675 -71.616609173567497 -162.077122622753905
231.362267681023724 -72.044516836162543 79.536769915407689
233.406288432968438 -71.771792586419210 -130.806332791835132
233.574286178030974 -72.496301197757234 -127.417550935890716
233.584112802055870 -72.209571620859933 -125.535303750722150
233.064003434514632 -71.431493951638330 -124.480881544295755
233.181616157912060 -72.475053119583166 -0.011441426511877
232.937268311939931 -71.880983365877825 -125.989568641857105
232.502371926700334 -71.432773969952578 10.597878440162265
233.783655741126722 -71.026913505399847 18.359043368230086
233.665754302547100 -71.709246684349949 70.571318187903074
234.043199609662366 -71.255171023838386 77.841271354850562
234.330898007334355 -71.502517682274757 -150.879626822083111
234.710670602550124 -72.263574149143125 0.607585796987498
234.610256587927950 -70.935571744614450 -162.617121870765573
233.979927169174090 -71.017704287995528 -160.854437708332085
233.263766487851342 -73.224453122761517 -141.434350086877942
235.423545956059741 -71.665077604445287 -3.942305129745912
234.405800635529602 -72.130928329268556 19.921509772852044
235.145734156807890 -72.118154479280861 -148.413012801286527
234.892107143581114 -72.440962562208341 1.341919358599141
236.815603531757915 -72.370117901580258 -163.023854966358954
234.764958035044231 -71.436568855997123 -6.336252346530832
235.531282311310378 -71.623905583796159 11.899073834403691
236.109441432223520 -72.263969467657716 21.125308162596241
234.954736711911380 -71.037329465967446 -162.203849108609319
235.923446454491142 -72.412781239090094 -160.750312157461224
235.218506619494832 -71.290652403052221 -158.653170742359293
235.993737585037366 -70.719429191334484 1.154879152920064
237.603620812496587 -71.672108570425152 -159.377672789454294
234.635224816682523 -71.815114254641855 17.691807101669092
235.993978121227514 -70.669604170447187 66.286030733452463
237.152155214284136 -70.676093309355991 -162.795234863971416
236.325555611808454 -71.022858470494867 -156.531971647163175
236.084735418379296 -71.654815459066526 -148.822363783611848
236.858366731364896 -71.459756551891417 -144.930890987281145
234.808197360333622 -72.100555046348575 -1.696959947943545
236.586233820074568 -71.816116481457641 -0.004906661226128
235.890137085635274 -70.987569897262503 8.221263855502684
236.728975428498273 -72.168605266582787 -17.101654694629765
235.667770235585039 -71.211257110746061 -3.521190803109063
236.653198216204601 -72.701027049516924 21.303817274800757
235.679617835337154 -72.435250949669921 74.650999180040444
237.185256610634099 -71.453672496877019 -157.278743884028586
236.967075487872449 -72.263698672313893 -19.619333161916177
237.336537677337617 -72.193661470515551 -12.369724406535685
237.293235239490571 -71.708651620977236 -3.966382954813829
237.821376800705480 -72.488428309999207 10.987046456256286
237.554681935095630 -71.871789784008371 66.602857150080254
237.800129345586498 -73.184222775673561 -22.621769111769439
237.689207970511461 -71.978458272852038 -1.119925236652451
237.240247828801103 -71.151289477919804 -0.979630030854054
237.151851813989481 -71.525214854318321 -144.990217871648895
238.563163389354429 -71.394556712071292 0.057245237979790
237.051440238552431 -72.803201922148645 1.786559132675998
238.004876979908090 -70.290666976887380 64.206226303409068
238.171848816124907 -71.721919531903126 -162.141675170160994
238.641257378698384 -70.837056052894823 -156.274299753502902
239.702866486771285 -71.601731186665489 -155.304882513609499
238.317525497267127 -71.555049406878226 21.345766003606606
238.140689814552559 -71.586120400662480 -159.148068178224889
236.704039467277795 -72.693118082589947 -148.026778896774573
238.942852471695915 -72.327106612791411 -24.776203280984891
239.934470861587783 -71.214230556731536 -23.819705666156636
237.702639413649081 -72.075391060560463 8.190332590380994
239.503924702901571 -71.918502921722521 11.866283127618857
238.718916675476038 -71.821675538116807 18.094447965857018
240.373852877324197 -71.578462014916951 21.660582085852745
238.521786805150157 -71.706285825915799 71.049541931299601
239.496771531770236 -70.675758448205116 -163.091737689917892
239.282748791781074 -71.089177256825295 -157.163044926759596
240.309811663454440 -70.987471213068389 -152.274396508348275
238.448816267910530 -71.396456422829942 -9.613327195738673
238.965965586333368 -72.769670919183355 68.708730756424274
240.482960221100967 -70.761291637212167 -160.886507218604550
239.036647105326438 -70.934397402696163 -24.230699443080550
239.447229297265721 -72.146946081011777 -9.400334579120338
239.760421923925946 -72.367561589298333 0.116404518473854
240.432520735882548 -69.752055188385626 20.518043963154152
241.264722386805516 -70.849578048553511 -162.062210468088466
240.182486015533129 -72.217577588646790 64.218242908929625
239.626959588795756 -71.134054366264664 69.611765475908257
241.663893125847466 -71.336146668390413 -158.698337661447198
239.621705970158416 -70.559961323606615 -157.211027987813480
241.551352077043049 -71.896066064057351 -144.575901897288247
240.930542489430110 -71.463550191282906 14.278102860757874
240.504910820671739 -72.022038643761746 20.842304124703507
240.451394784859190 -72.031574408474228 67.634603636363209
240.424773511155195 -71.041141782894456 -155.431485810759824
240.671256037445829 -71.756426603582653 -149.554781682191191
240.745130227289110 -70.779677180796668 -25.259252648245617
240.361542939174967 -70.759485126672104 -21.754051733279820
241.950992252703259 -71.472965133615872 -1.744862375198874
240.786853886972438 -71.690182715149533 62.216043521769841
239.187508143309174 -72.023293226988216 63.352792067957111
243.739987614778300 -70.920022506845257 -153.989370994628246
242.279384687969639 -71.221905662309567 -149.505171891327450
240.653895341886511 -71.983610417330937 -27.739370349931615
241.407911192731973 -73.122873706429132 -11.411270962663455
241.972216959943154 -71.382793256722053 15.468907407370558
241.414427925630235 -71.344595551379598 -22.121023624331858
241.347891883425319 -71.889470191429396 -12.217383666503785
240.935483818834143 -72.365898935443170 3.316800249815164
242.408403056202047 -72.569780692848610 17.479265938468089
241.258493028522679 -72.223569597113482 60.840185093008841
241.473083722571801 -72.892086946408824 63.484235587414879
242.267946347432058 -71.614946158467674 64.001958088459972
241.517630472614826 -72.000720916454441 -23.296658168257490
242.392883735385624 -71.610453865647273 1.294636146340695
241.684987246926909 -71.035000519293860 9.579221421078286
241.314905231283404 -72.976098075456122 22.080162907065631
241.491451249725458 -71.482069956860357 -163.555676904332586
244.425237269585040 -72.219387651824647 -159.928650938812382
244.177368531669401 -71.075857427365378 -157.929888281684953
243.060008463227348 -72.062047665139389 -153.681564495501675
242.990814334646302 -72.294679855381233 -18.627721029902141
242.493489119221152 -72.854722217005502 -16.650582977038887
242.608335685236966 -72.434783349783018 -18.351004632017105
242.652449358989315 -71.649394479690940 -1.732435617533435
243.533390534086948 -72.230230981891467 11.574253583514677
242.715730384243756 -70.683484176246196 11.085203697836119
243.199749306671634 -71.258788724545539 -150.587396355214707
241.971359853182150 -71.188479189593281 -4.350460255972913
242.758629969055249 -72.958640051230319 2.074749629267433
242.124489815434572 -72.101518612152361 3.828230293292982
243.759194345844151 -71.434083533426914 7.020533127667678
241.845395366652980 -71.170565848685726 65.469519442802962
243.903465964413044 -70.971204771454296 -153.890775304957458
242.568475091461892 -72.342492145421602 -49.994574685587040
243.690976518931592 -71.565383812982944 -3.987722557601802
243.949780434366886 -70.992749504082482 8.809430182135895
242.368811362357036 -71.777736154942303 14.423923027942882
241.212294719182665 -72.055690449900197 14.673064357371848
243.351393020096509 -72.666292034483035 21.425411383849653
243.787227346504153 -71.086879818683897 -155.738609409571211
243.953056507758731 -71.368558786423904 -152.489814748905474
242.450312051974294 -71.913099089756557 -144.746750662506628
243.607297813437100 -72.494847447379868 -52.700051904024399
243.492155216432508 -71.360271883785657 -48.940421920047037
243.379080180301969 -71.749015464570221 2.460117685441335
244.250088255563924 -71.536535358858870 17.467996135989324
244.772389634674255 -70.859500414621309 -149.664281969977793
244.895555574956717 -70.923302662079081 -53.994096475806678
245.066234198774652 -70.442217551910716 -0.915096769673926
244.154616718848672 -70.950650114856643 0.567869386287284
244.579332648712665 -72.374848675128391 11.056932832453938
243.270209964367154 -71.686592423876561 62.028879114990985
244.595926350655816 -70.787703817059466 63.658539585497813
244.873811305142112 -71.643316592553120 -162.669729685088782
244.510310350153247 -71.603411799759002 -154.553831167687974
242.240333079589703 -71.215922692911477 -149.534281491007505
244.804424638934904 -71.654598187523334 -59.069272888614833
245.643603872345068 -71.398328206680361 -55.160644942173825
244.374681941297411 -71.052476413533341 -51.780306517980719
244.185459981372134 -72.079350456207180 -45.061576547360829
245.099352557694829 -71.720240449660338 -1.051506292822137
244.326804415954854 -71.254599871933081 -0.020113331300128
244.462496318594219 -71.485760002644383 15.426234204334863
243.388056299964745 -71.053656788322300 18.841859502941560
244.164947172471386 -71.286601684906159 60.616681155388569
245.142645136317640 -71.391955941646373 -160.460747368934307
245.545201370741808 -71.155604952567302 -151.453569647337559
243.513271894143685 -71.969369596810395 -150.546498684318806
245.203097570512710 -71.639731546405528 -61.495025662675950
243.945738077446322 -70.744673298363608 -49.951629730143402
244.534704459225424 -71.386823488685522 -46.748027392179836
243.847154648651411 -72.330351154191916 21.469946070511298
243.998073351303844 -71.429806996238966 59.226390591509187
245.732021175909040 -71.914035156554618 -158.204918373066278
245.818470356751050 -71.327373146469370 -62.462882492385248
245.660244379909500 -70.672595335815160 -53.353545242284397
245.029170596710514 -70.729967485411464 -48.434544356046523
245.188246915166047 -72.873613743384652 -48.116160357232836
245.788924936259519 -72.981567016948645 -46.793844805414992
245.321252659480649 -72.476644346905928 0.244818836648762
245.857431060286643 -71.092101225224326 -159.389580699231374
246.369386323391353 -71.082513699578840 -152.437295982935524
246.644593116215589 -71.126069614071582 -53.326739445141087
247.005676690282939 -70.931880426221383 -162.795822050929416
245.749426285091175 -70.829752295689914 -155.656039994903978
246.976639445248594 -72.546359651025867 -68.014901661421206
246.078144667009099 -72.186185159703513 -47.159304740012224
246.611999038693540 -71.707964926990329 -2.270250467759417
245.319030780408383 -71.310476311480016 17.113421810512662
246.472776244419407 -71.021427570294591 18.874205823663928
247.612936822548590 -71.191859753788506 -51.493809529681798
245.915023334271240 -72.532011117864528 -3.000052949805029
246.405805588856595 -70.896621572313435 -4.489635013728388
245.432770054059603 -72.158061494963292 17.235352644852089
246.619367652836956 -71.599084526216529 23.546932963608072
246.484642854673410 -71.710121316673622 -159.345548806673548
247.122172339073387 -71.455067041076632 -157.155366021060303
247.214655596273928 -70.655991501715306 -151.438476596124076
248.308131890921914 -71.458804416323801 -69.521988967805825
246.417363004225479 -71.449006594072912 17.884565655637694
248.612255907524400 -71.891941003783373 -153.357780979121571
249.628411227972407 -71.478654294707155 -151.981817775595431
246.208486348757333 -71.729793752921296 -50.273124033166745
247.583486596456027 -71.387939674343684 -164.651321190259182
248.456717474434527 -71.149788434497822 -161.001064452724307
248.990986842221730 -71.553965969611269 -156.980759606860659
246.400280742744570 -72.463342311075294 -149.103471196831919
247.605640717890736 -72.614188985906750 -72.433559058655206
247.575211467023820 -71.717395139583402 -53.278926076479429
246.953527123950948 -70.520984572408594 -5.011583681314390
248.363772765117886 -72.871045439258666 18.073976094015009
247.232761779983889 -71.875917149242483 -143.956491777817263
249.306918051007642 -71.497933173524558 -74.834279575337504
248.197988853902700 -70.331191967922891 -56.682299390213053
248.542136422595803 -71.874235261992325 -53.880889021321913
247.577465135247991 -71.729906042140840 -55.144530727575145
246.414194297022078 -70.862727644941970 -150.255703538124664
248.069028631047843 -73.057138964222318 -54.481960583062673
249.213130395271037 -71.944482924181671 -6.613729847753095
249.816641028027533 -71.818431888243254 20.333526656379050
249.147990559795062 -71.237550805839504 -78.674142666854948
249.962283277723685 -70.165288373973326 -59.276841543999687
249.960967293713736 -72.764484494038967 -59.994061967043081
249.160459945574928 -72.000388690617172 -58.174653938885704
249.466401080107602 -71.599352137259473 -158.244526852177358
249.519915034077172 -72.586036131641606 -7.956130685953122
251.029752044662899 -72.436362564710151 -61.498806297734077
251.282177477009384 -71.680815864262456 -158.063199215263381
250.668979518759244 -72.421743846418281 -155.742311471776731
251.177027137158404 -71.496826789116312 -149.251023155706804
250.513647547139044 -71.136644043624898 -62.087453199795249
250.299437348895310 -72.462908811234101 -163.335862895644652
251.333410474248126 -72.049173895524206 -161.574754298500011
251.368981428357102 -72.602322508425289 -64.887702039782468
250.447357960425080 -72.244364169235922 -164.289059667304286
251.165645828349227 -71.627323902667143 -149.322215806627440
251.751465064166439 -71.885840711125340 -145.019049836327696
252.060895381151653 -72.003304688589367 -84.367459703012017
251.424915649293581 -71.792501649622423 -66.604078127504053
250.806371986077551 -72.277486691877883 -8.764365871001763
251.021888680788607 -71.616958925315259 22.602712455087012
252.365154644883035 -72.457915798398474 -152.924397247569715
250.878276054079691 -71.011323478496010 -88.096598073728529
251.545908681574304 -71.769785821951146 -66.368678792096986
252.424744323289474 -71.561045487962289 -160.512902076476166
252.431664596630611 -72.347571745875712 -158.563685608100513
252.769689316190409 -71.188322819378229 -150.080024855805760
253.842771295403509 -71.500340606309123 -161.696363742686117
253.917051426950962 -71.680661734230355 -157.877316056637653
253.726868479728552 -71.868551482127359 -151.566119025460779
253.289528207513456 -71.962865768524196 -71.305898115862959
251.539006609401696 -72.177723287310002 -73.611074593411701
252.139486671646495 -71.315291500497125 22.623293909259569
253.575126929684416 -71.782711756649036 -163.734958539319109
254.701006388043311 -72.138800638182147 -162.260797762705749
253.658559444805604 -71.643830832512222 -159.446139565448703
253.430117257770121 -71.098416308925124 -152.358492614319118
252.440382999317791 -71.372777219889301 -142.966987365096571
253.282932073995312 -71.351758561343459 -92.346682235355019
252.995522723932282 -71.571789878134553 -91.374518236971568
252.787785062379754 -72.229103623491852 -153.276166036101927
254.758824786351738 -73.147733255651943 -142.435038091144207
253.901047903429941 -72.106629392084471 -89.575678719278187
253.637664941317496 -72.203101441818802 -76.716982216292280
254.703888740754053 -72.772511668082856 -11.511858870112290
254.375301150495318 -72.464930587636672 22.253406563900665
254.955445251508593 -71.693302691177735 -163.459714681230594
254.186267055010461 -71.266804711886138 -160.145326962319473
254.445823859917368 -71.858869705160814 -152.834142225816578
255.027671330517848 -71.347728971059979 -96.311146295724143
254.792921515790908 -72.082942234319319 -90.513465148449441
254.572198389440587 -72.373011411633343 -79.751509593236548
257.463409341943759 -70.430253426363521 -166.025531913320606
254.205580117026983 -71.620687676206913 -165.211126165518323
255.678989220782057 -71.885507683412555 -151.971918844178361
254.733872184872865 -70.949145673489667 -92.548953625527432
254.985323042613601 -71.839371105092425 -160.800684210716668
254.547625570057249 -72.423510903789023 -154.517822358699931
254.689066838069721 -71.983339984560914 -129.295406382658030
255.492549586721424 -70.867071718596478 -129.270803530799128
255.871532817135318 -72.155706527498765 -124.537541665033203
255.322969668594482 -70.422208879153331 -83.358741348867028
255.105561089873248 -72.107700919552940 -82.568307255310827
255.831869962305916 -71.745933830419915 -82.114300996128748
254.546759830730934 -71.493769489178206 -162.088818006028902
255.490819980286602 -73.154129527003192 -141.740810054038178
256.184455182913894 -72.618589946002544 -128.218671697831240
254.402407502391554 -71.880418094660797 -123.390976544023601
255.890105983154797 -71.561678494130447 -119.178861564471191
255.798619715100500 -71.477310889658312 -117.115043638966540
255.619549284140959 -72.166282005488668 -95.385270138040568
254.695745969425701 -71.125729388929074 -94.630128541602659
255.370535321699180 -71.895235590360599 -85.153552616254814
255.574952394392852 -71.625455525929581 -99.905755140730889
256.204310193562037 -71.597349955308431 -93.661456033565273
255.867164993777408 -71.635235520044375 -92.342268751733869
256.101859626016676 -72.185275142371523 -86.509850869427481
255.705124744087954 -71.700971745684924 -85.591894713364539
255.620734829007972 -71.649326293104508 -157.129992793525787
256.493824665430509 -71.875478687420582 -139.937679163392403
256.001722057603502 -71.343001646770020 -134.474375216365445
255.640203452404052 -70.952913804695115 -115.707604132559439
256.273532207972835 -71.552983806256549 -90.935970372992074
256.082444285445206 -71.014245821102904 -87.472914327412155
257.466775666172794 -71.160808509288600 -160.869090880053875
257.762629466307260 -71.994557572788324 -158.111101367352319
256.577057396379757 -71.829770726087631 -154.332854499023938
256.001385859676532 -71.791790516399729 -152.808738784263909
256.696471738746311 -72.519907791902398 -138.896865051613645
257.235924873299837 -70.175081976813189 -134.482328743213600
256.919526257859161 -71.714581752546110 -133.848980105355565
257.230073796491240 -71.951068055824990 -99.166676528909292
256.434601381225264 -71.372497798993990 -90.816432279321702
257.164636698344566 -71.617806626764093 -13.113350576744649
257.774783164063820 -71.834902771996582 -153.458970909197063
257.461831300210179 -71.537351640087493 -147.444474724982683
256.229982076179112 -72.385578578905026 -133.392649818632322
256.765623350833948 -71.493256514880400 -102.085188066033709
257.095402267814165 -71.338067287235134 -93.126098824250050
257.668249329384764 -70.663329256520370 24.463431106542863
256.329972850284037 -72.065522179597139 -164.645820194896885
258.099785268636595 -72.398600020363972 -145.771577866662255
258.229830972413424 -71.399339314652437 -122.220558092211490
258.957795889380634 -70.895479533403488 -117.819663825821337
256.436615073034545 -70.544492682840541 -96.621358840388424
257.458458236455215 -71.486767819110824 -92.509621121789039
257.222846284993125 -71.878181373570754 -146.959044159954175
257.068955477856434 -70.715090728791921 -115.623484493337401
257.496256687849723 -71.292682359145530 -104.599218471203443
257.451751104778111 -71.977873523808796 -99.236670947477734
258.711013353241412 -72.707434638055176 -122.108692884875282
258.704170015696491 -72.243744525155805 -118.945182384573727
259.915706774784553 -71.864166546497131 -115.559166629008658
258.677065417333552 -70.455661306652232 -102.909668983911885
258.318186832162780 -71.827031221944281 24.096642747199127
259.318607990273904 -71.836411164765252 -161.707771248135430
258.834511131293937 -72.749725726127849 -159.582574311003782
259.166762334623627 -71.618955139077073 -154.359208294338288
259.027759039888963 -71.658985529603839 -148.915636921241088
258.625441027009856 -71.139809746510849 -109.372789056219034
259.031077039725915 -70.469382236250979 -106.777198947826221
257.930827940865470 -71.889545969232771 -12.833647523825372
258.994027192333533 -71.213666042896833 -145.841943110465678
257.843359167057713 -71.382481030723525 -117.643364773652294
258.495434712076189 -71.810023166513417 -113.834198207333301
258.808370610809447 -71.565823305842031 -113.603383440874779
259.642891380197966 -71.384684640874241 -148.667968264623823
258.731646702132593 -72.283499762250344 -122.508193249332010
259.104273833646516 -70.824069024352312 -107.801523381690927
259.194794154033218 -71.739228615881416 -104.455978667995552
260.285283781155840 -72.743500533570298 -163.710601473340176
260.464519314846541 -71.429643078182423 -165.569960521371200
259.997927948799031 -71.517395478431922 -156.159869649870927
260.460866553886149 -71.554486607070729 -148.264776808994668
259.465849194052510 -71.125268339293925 -145.625196116764840
260.722528844779731 -71.942803391632069 -115.889873109700815
260.518859986872314 -70.980242812729855 -112.218168924591708
259.571530975934024 -72.104029206830603 -13.727959239667589
260.009439413676091 -72.398675206589331 -120.265308585406217
260.636193691525477 -72.936578706349863 -117.471618140326527
258.872814390553970 -71.940382149836950 -113.395834586895546
262.417884046732524 -72.773104185769014 -164.173716828127368
260.327196752301347 -72.165591127810316 -147.489201342135942
260.666498155887552 -72.465235290181283 -146.130934646592237
260.450551188544125 -71.340905747907826 -118.869541375907374
260.973090160321647 -72.202191956757957 -112.959569420813011
261.034476802369056 -70.666797480696800 -121.678113344556749
260.798605867790002 -71.772748749224178 -157.608490821355161
262.069319877365615 -72.081740219377792 -138.699359480635508
260.864016348458847 -72.475216803149408 -135.054337031804266
261.253911470503624 -71.719495998707515 -122.193496644279122
261.803535957138990 -72.240497601133285 -117.769677095107966
259.973200516485065 -71.521291032524175 -115.943335689442463
262.183939814020164 -71.716933224908374 -13.044499582558927
262.630059141056336 -72.676547002344421 -157.245497219227587
262.376545424852054 -71.955925968970121 -135.124587863622679
262.293407776182050 -72.096057067549225 -133.426793810351228
262.716069900323362 -71.687315431559909 -140.333724356706597
263.101861274928467 -70.684896079707158 -134.234495811997533
263.179437755250660 -71.499011607918717 -122.342866086801479
262.799050800766167 -71.778363889722783 -163.755829045365829
263.193100989689242 -71.459776615369321 -165.955016520327376
263.444317413190561 -72.053946955837802 -153.069487903241622
262.607026877938267 -71.624774654342772 -141.786515033065513
263.996853591128058 -71.240070094473097 -155.782970937165885
262.769467874864517 -72.060800816579174 -152.185351982750547
