# This PCD file was generated using the MATLAB® pcwrite function
# from Computer Vision Toolbox®.
# .PCD v.7 - Point Cloud Data file format
VERSION .7
FIELDS x y z
SIZE 8 8 8
TYPE F F F
COUNT 1 1 1
WIDTH 806
HEIGHT 1
VIEWPOINT 0 0 0 1 0 0 0
POINTS 806
DATA ascii
301.826809158085553 -70.674767580588366 -144.904168471657670
299.632544409614013 -73.801384898795121 -144.565845956459157
298.806344192937217 -69.885620205783866 -152.833098496025656
302.043050996191766 -74.126110183125661 -143.742880287087644
304.364722443857261 -70.207832161760777 -153.858131927013915
305.960762727676922 -72.768370106156610 -144.324450565170025
305.372299158608541 -72.922738084730909 -153.817068516481072
312.234544895084582 -69.524610425449737 -152.457402171835326
315.021477690120150 -69.590620352997618 -148.311172203062853
312.212996007990910 -73.722254952382258 -149.625556194099943
311.720679323382797 -69.006984272480267 -146.934171198068185
314.130898536794007 -72.457069070154077 -144.923331440485754
311.571720742472223 -71.797525198832176 -143.485618897841789
13.876846945212748 -68.586328026495650 37.864642508041406
14.291867903976000 -69.061576115755145 35.079140165257108
12.161652308376464 -66.199642126162416 31.879192638184815
14.142887748960463 -71.686274501317683 33.235019892255160
12.298260859733597 -69.870380149723246 40.509215546909765
14.430201593914125 -70.552812963095903 28.935836006256253
12.279458792274085 -70.474123066815551 31.072852258864373
11.906115860405876 -67.807931386617923 39.863674559316244
14.811319076542702 -67.760073966353588 43.727155258044363
15.954133342635775 -71.142737297195225 37.201531024537296
15.187497053151031 -71.791434944845179 33.791630079563738
15.236355506934174 -68.870495129298760 40.619494377089701
13.613670545067775 -70.176791103531144 31.785124780539110
13.527716872954555 -68.601900393923856 39.519667697157779
14.368891422436223 -69.612051958596865 42.157245491190224
15.195335567019736 -69.374976675502893 35.321018273160895
15.489836546286829 -66.977724779636119 23.279073240772529
14.910544376085753 -70.044021538064229 28.733780125734377
15.346986284671514 -68.860761283522720 35.104956322716980
16.814835360027626 -72.804346689365588 26.203000803796584
20.087524719494382 -68.095164370079800 31.246573634306252
16.684314428332524 -67.922846941688277 34.955567587708778
15.626937248414295 -69.253442140579494 39.266978156374378
16.483854550545527 -66.390160913675288 40.689886029960036
16.479238825534015 -68.780123626171175 45.791353730769259
16.045021607258189 -71.359197571981611 33.176646895304074
17.596441931078946 -70.651270742878125 40.018637499974425
16.341086270821183 -69.349309125992747 47.460791451437075
16.295393243882177 -70.074676113262583 38.638369252391364
18.652785721034640 -70.461107213945809 43.391277128141859
18.016991051398527 -69.909602384240216 28.400513324362585
15.884518118975121 -69.826108276274468 47.460295520371716
19.149340431073995 -71.799692548267728 42.166521689868851
17.380182054787792 -68.823249817685848 44.939704624384575
15.725573206520851 -67.823496809940110 46.685250860023672
18.893301442406031 -70.663133243320118 27.109985564091136
17.412243428102357 -68.432384369488972 23.775080715079703
16.257801673639058 -70.832672447927777 45.195837242401829
21.080811025539720 -72.547454296669812 47.585964406520027
20.076908450370127 -69.599576135941405 47.199146532655469
20.166771885913484 -71.544617007517928 27.302828773767256
20.020093226250633 -68.838429483984797 43.380563302624019
21.358096949943594 -69.665228276323418 25.112202339368984
18.872171077973917 -72.298871129523135 44.387369402782937
22.560202278720556 -72.411282211970644 48.606212248112641
19.878083899175774 -72.288297632476073 46.556680779685799
19.075552904685111 -70.744095769389503 26.440349533009762
23.843216239493756 -67.203291389162516 49.001979477659148
22.858633577245136 -68.720209242079605 53.222227268643522
24.564408182016436 -71.018625668709788 22.732203099471509
27.655104557739634 -70.505819303857706 46.943092763429640
24.811189754511197 -69.143946555998724 30.055835421358157
24.934437354898499 -69.663035256859374 49.295109800470790
23.430210353286380 -70.789669806377731 20.532684755876058
26.411484563206034 -68.468201973008220 50.651648324873463
21.661953655276587 -68.850515415893227 47.648708224192390
23.956643309195730 -68.357453601344588 46.878913912972514
28.702679267076814 -71.309817406159169 45.888273584149182
28.116784384070947 -69.277285682246458 22.450682066018683
27.251951366860656 -67.937566267270995 25.143167324791403
30.642105632792088 -69.604631648556577 26.410157739553913
28.014346503622690 -71.798130802230020 50.908117519995841
32.043812048224353 -68.724501038184187 22.057061399001057
29.649195309339767 -71.066248495965468 46.740675828195876
29.176070665492752 -69.013176606499727 44.629357556606536
30.040019078962409 -70.365007570983380 47.384266034670503
32.317992106036840 -70.553832644727493 46.401936393102723
32.107838906999810 -69.534478487071070 49.230503835460169
31.738926186377419 -71.114407831702053 21.357236379671065
34.275032308915961 -69.461486013269578 47.508331088943798
31.929008931449747 -71.287517573608625 24.396135328735035
33.305122665231877 -67.873944255810642 44.903779122878376
33.436229193732579 -68.899661995778686 28.975101666625179
33.475821284595384 -70.147385968652628 44.024487202178314
34.752829020763691 -69.991694796219534 49.941921166485258
34.100812535292420 -68.464935632944972 32.327890180960871
35.494540749745426 -70.826090634926643 41.774079863730300
29.963257251748800 -71.479623631273483 26.343780220006863
36.613976439083302 -70.895438054627419 48.109636631313400
34.716855829380641 -69.272517459397832 48.277942776528498
36.582490492821982 -68.559500799243423 23.561503792016858
34.308679393676606 -68.589288133234575 28.197299570686933
35.097579309353840 -70.002364150148153 40.858866932469368
34.921483224313846 -67.356001133874869 41.567720191620900
35.780343386533808 -68.863595148339726 42.759817864733343
36.560371299996582 -67.126935699003653 40.196999762578436
36.157608509157420 -69.648914677630700 47.774963242002308
32.300199947964288 -69.308315877237405 31.471940398647064
37.796273043764813 -69.409330419109025 37.499509204398912
37.331860023565547 -71.081865822840243 41.764155836036231
39.406013848780134 -68.409475679131887 40.381288278840529
38.532494999464674 -69.386172692644635 24.177533947407586
36.258122029206795 -68.384691914835727 25.361037334843708
38.215487203823209 -71.724202368249550 42.849813570635881
34.942795530261023 -69.588689247034296 46.356383521658806
37.574560567287129 -68.815540475207982 34.199268261940631
38.327005874318175 -71.951360713747349 39.642367022205740
37.317800266864481 -70.559518703606983 38.155197133827414
37.517849804284275 -69.958037163287841 35.929230207462034
40.735063901129067 -70.885054815701807 37.000773950369833
39.036841999997904 -66.599812112669483 40.816570543941360
38.621096079657853 -70.407647885537997 27.621240567220617
36.768942670841533 -70.277664458143647 45.010367054864204
39.243907527674985 -71.596210939440184 40.953382703798383
42.123214657669898 -71.474658340755767 38.649460454070514
40.713001763131054 -68.788619105750072 40.059004063229743
42.736542455133467 -66.288140623896012 35.279545891243288
43.085646057042403 -69.257661910831203 37.397424061319519
50.621573582162320 -66.856542200292708 -56.608856610274046
50.804493501648572 -73.880520978861938 -60.921155283393880
51.067048777909562 -68.697170752301474 -51.612284693988997
49.477667983652552 -69.251178335715551 -52.261224551568702
51.864879350244586 -67.244160777073091 -42.395355263577287
49.922626096682087 -68.767876154496051 -67.550399556557466
46.911295397910962 -69.986798308674864 -62.062102124953370
49.937194227530007 -68.873475151907982 -63.223030991093609
50.498317447259197 -70.096091226805299 -46.491252310332229
51.023344763897292 -67.604184202515341 -66.366194894324721
51.632254566696531 -69.452688181265415 -67.898431281428145
49.534967979614372 -71.465070373047098 -44.414301801842903
50.815007547020549 -70.898136024234546 -71.018956659679887
51.380895570518973 -67.364074958549892 -39.730586531062180
51.497363033580370 -70.247202126744099 -35.822269511986356
52.269540613139860 -68.706838256646392 -38.466840216277362
50.291149965444369 -71.449605265747550 -36.156660610285272
54.338454558124624 -71.054216683087105 -76.032264685891363
51.722947604623236 -69.592355478824544 -37.825801082636737
53.506704458601803 -68.206869758851639 -70.738720575715462
53.399255479203589 -67.821911788076704 -31.361396197225318
55.097541029273515 -70.498531609751396 -77.845194884797721
52.334348023054993 -69.404964654530161 -36.096452923958964
56.330105582586647 -70.165383056162412 -28.739937788913831
58.037860638471365 -69.048379627616200 -28.854461439311830
57.232314077218597 -69.870262879438329 -27.701502199021650
58.482740973018707 -68.096440867108782 -80.855710240254979
55.458961670613462 -68.441495233247352 -29.666603152274078
55.217406810017543 -71.085858127725785 -81.300942956134264
56.270964670871471 -67.312177885215178 -23.900619385022914
59.416035177765565 -69.574995696962361 -83.061751893320164
59.043541423006076 -69.058846790447618 -23.575887309345728
59.266661527859576 -70.851321587107506 -21.360503283468155
58.361035180001188 -68.803257609854597 -86.374014320614421
61.581587150135931 -68.893949810682244 -86.049884862568973
58.621826219071465 -70.471957725161289 -20.428450838159790
62.118348787050508 -69.196312106365639 -82.219533439537898
63.518391997308520 -67.852116468187532 -87.816935739687366
61.877944837120950 -67.978417324475373 -19.053630735748182
61.004645491474662 -72.435939801728168 -88.001084957883307
61.635630673637834 -68.554054915805608 -18.216120044485809
65.314610063655493 -70.584436507559602 -13.276979594751976
67.235872198791256 -70.794302239127461 -85.862649275454885
66.249070584917575 -70.323417896052959 86.228274808263109
68.943873440907069 -68.935005045732609 77.589882038905358
67.902396023875383 -68.166822543322269 80.246069978030135
68.692274123579722 -70.253224361538386 85.010214960399580
70.388795865689303 -68.301884590830952 91.115224602025279
71.379376330728789 -70.544091911950261 87.364465551462231
68.778319733936570 -69.394902971339491 90.070359943245322
71.261364386906152 -70.335526643807597 92.547970366721771
70.369800152442423 -69.555318195808979 -14.055125860157389
68.606522089423919 -67.659908879366995 77.545829100502786
67.843103332004247 -71.396789647537943 94.474458795170420
68.352142542458139 -70.214620858871740 -90.263073630714942
70.912411897754666 -70.466917998717705 75.729907133919937
70.158254667910100 -70.520540636998021 93.935845599654826
68.568928819726139 -70.289967999692450 -90.616391677441285
71.745834311357910 -73.720759635725884 -20.522289841838898
74.664025537326154 -70.356728709041207 -88.778151382900916
73.632245805310220 -67.310198085646022 -92.902672761682098
76.222440597752680 -71.238350665423326 95.925080042690098
71.994028222410975 -69.790538017915907 -85.735309766629825
74.921355910976743 -70.753630331790731 -19.361885333124526
74.446797626966003 -69.226066243242599 -18.345845868691850
71.544612295009898 -68.317996664860971 73.579660209751012
75.054585943270737 -70.489002601131048 -21.068670577966746
73.180182530719279 -71.815929763407595 97.999876676838497
73.696031961414093 -68.921747206353530 -22.868579847211919
78.399432400251300 -68.232679510052563 -93.312239128533321
76.674849568892142 -71.580038605358581 -34.548450336008266
74.191834627836414 -70.900260744321457 -24.211149125763164
76.568453649656973 -68.955074402629918 -28.388632143722049
78.654609807639133 -68.244934239143362 -30.903853291348689
78.084504851665031 -71.171425239791631 -28.223942352749177
76.268352010825907 -69.271655926683692 71.439246171068078
76.093583800069538 -69.136222652268998 74.811844325790858
82.612041908381386 -69.089419539148565 -91.439762706805197
79.647624609229624 -70.979836695328245 73.430759357229320
79.730656932999679 -65.565123674273096 -43.092826257046667
81.468972175576909 -67.492755768045072 -40.988576672292432
83.102948694127306 -70.140578287274735 68.946314957636091
81.269827200647597 -70.531434534567921 102.651659367845696
81.328233754720301 -71.823870330080709 102.638766736499036
84.047006696045841 -72.190329355656814 68.858834322728057
84.664794317283736 -71.387498022441719 -51.114870835456578
84.219284417821484 -71.029807798888456 -48.104017512585358
85.680239983200465 -70.515044806969357 100.926357882308722
88.140023890744558 -68.689293937022200 -93.694054734710434
84.666779135710641 -66.751251598711860 72.146517790440711
87.668407687417542 -69.641119132333799 99.538708306804836
85.705684649437728 -69.628817133316943 61.500246745698142
88.300255562762644 -70.525421142308190 60.392391928187301
86.766399069177524 -70.812128389215857 57.314259936129957
88.868066303978182 -73.740357835288421 62.389803879394371
89.144175033435971 -68.511153043961926 72.247251226511665
88.968163265315127 -66.641141704355945 55.572632229479417
90.614527797920928 -68.743110167057438 55.008679864128659
87.533962265627537 -67.300995211902020 61.956355724229624
88.823639508572100 -66.916580746409906 60.250895546918521
91.909886416785454 -71.448420699167229 -52.283793443711261
88.854700710873146 -68.646830430788526 51.780774352284489
92.639886175419747 -70.225232001138735 57.588249120619501
87.818461046250306 -71.082386494271930 99.947298446195617
90.309589718745272 -73.125167937359734 53.505701518868314
93.749039250004088 -71.543335241984877 58.466147155302927
89.406275955962471 -70.932269557823091 59.531788442288047
93.340396626268912 -70.580028505208006 57.006641226063579
89.632860496398720 -69.653239092056438 -93.633304768398091
91.780565988565101 -70.483377801375582 -60.120652615995624
92.672250376001259 -69.455339676325210 58.489428373773741
94.911501998977911 -69.011500162526787 71.144526364075475
91.877602078005054 -68.773396899258302 53.717658214525493
92.309768922035701 -68.840131466582136 99.420678290385666
94.699381435425948 -68.524427683512684 -62.712707991137336
92.142806534740771 -67.334975184894262 -61.317435979348041
91.097392183387555 -70.814288956538178 56.026202704782520
92.990744706202051 -70.436025639790245 59.512175416604563
93.252446699443908 -69.385182671393778 47.864420571977874
94.620298393008198 -69.813986231804250 55.661119268603144
93.687265155528749 -70.417008294145617 -64.311143651781023
91.926269061184968 -70.737973373482447 64.619072817746172
92.576207766954596 -69.905210407539954 103.411414225218621
93.790316909451889 -71.587503814130130 -61.969066289854858
94.707204903611014 -69.756783007856455 48.492984119645222
91.160184692238616 -69.298112453245693 70.844834564723470
93.385010018282344 -67.008929480906772 100.741330237607627
94.499741369192463 -70.300507103042293 52.413942701635726
91.221979706224715 -72.036283813349414 -64.552083592710773
92.683558175589965 -68.329066680219185 46.614935481128278
97.151618944970167 -70.615225788866894 -94.756763958357851
94.902432513420209 -68.286696030617094 71.280415364107029
96.721304499233966 -72.367715960104661 97.987596654841226
95.095798648113586 -70.082717089286703 47.918564111791895
94.891656088733328 -72.006452034554741 60.618419241695442
96.963734402661757 -72.107357849555257 59.875773552527185
95.299812954029647 -69.730780998154870 101.575557342301082
93.011400909371815 -69.578669928858289 109.901799274208784
98.062713424337588 -70.662641901556810 58.448390150401451
99.427257619330646 -71.824139469360219 103.614835707376187
94.541267644137307 -69.274142205872224 109.226814648886645
96.528074344963443 -70.948134919622447 -94.460535100157500
96.102193877127206 -72.708171479854784 71.809803379716513
99.534879365860405 -73.342135979956225 -66.639984539594224
99.408427493148963 -69.713180561451779 47.168771262703906
100.779855825156616 -70.532289757751968 102.343304757219244
99.027440661139451 -73.883522433420254 77.553276292341678
98.386655340218510 -70.947764854565889 99.060782768840653
99.834535106355915 -70.228106118917282 -69.208625751452416
100.504603820472596 -68.778374829790806 43.564018347156221
100.630416613714104 -69.708953249452222 56.568681630566019
98.502425115894965 -68.494477184683745 57.976875048282324
98.209152757034644 -72.161158679475307 108.871407811146611
99.277996846666142 -69.572201920392075 96.214889465341145
101.992601750431334 -70.504481995579880 -74.377017775097485
100.415528629876192 -73.415160349284932 -72.463767367675104
99.241920346197674 -69.208217224742100 47.829156911594012
103.428777088450161 -71.548995159231893 55.102497304416985
101.303415771989037 -68.343007153786886 93.367422932850843
99.890778377736282 -70.022556143328927 107.186538234785104
104.782673972454020 -68.701767572964343 -71.796690293703335
103.290922168430868 -72.523145927217882 45.959797022549402
100.624772514764743 -70.016366220969061 76.528113658129868
100.305209173501723 -69.445276853298807 85.078970654072819
100.673485381646998 -69.467969798713369 99.378036536201137
102.880447068760105 -69.858711570657391 112.065613254252597
100.296263784170947 -69.838720843502401 -92.614474504171085
101.095513162475157 -70.947438014846938 76.174370537314729
103.707909449324106 -68.821217148513682 83.850186500685510
103.556874908720630 -69.473084104541925 78.184588405876113
101.293905881445255 -68.760634983367751 83.291069315672573
100.662394233254844 -68.044532541742171 80.244150915180981
100.734141963059557 -71.460705481400396 89.316130219308505
102.988216853927256 -70.464155520513174 95.043871833591751
102.787025646828724 -68.034538324328224 44.441300225194155
103.367698733178827 -70.716860669062214 46.254827894836545
103.981135610546147 -70.097291325669858 56.661994801678517
102.507395461356580 -72.822198934015987 40.732581373732856
103.795472576678492 -67.740787871643619 91.463748527516458
105.861468645175790 -71.500631503287565 93.448493731636447
102.424460232702756 -70.497519928169538 104.459190109249661
103.761815213714243 -68.799136067433423 107.002790346174933
104.035768621275196 -68.402527035019304 -96.049559578687322
102.803857877630151 -68.037225968615658 44.701586244259410
104.668092106473054 -68.481427450728532 89.918595105015129
100.738630727100642 -70.270124260386766 108.526003755337214
103.586178576590669 -72.401671565341047 54.228523056178936
104.191894864997039 -69.517557020511234 43.046088159798650
103.966236947610795 -67.233113676286052 104.639041526779081
104.929121852601440 -66.864115800829396 107.744801304225589
105.572078759198078 -69.072913678749117 108.806875191946702
104.555559959360238 -69.907657939753477 -81.390336298019164
107.562900270655646 -70.518085439413198 104.973861656893888
104.855695405854974 -69.573982998621275 109.871546490779679
104.584195771245447 -68.431685475457257 -82.585747658412828
106.851136629532562 -70.169046606873735 43.748321787458337
105.613532607391605 -69.969303858034380 110.519656619812224
106.594516667734183 -70.953207026800058 -95.625622677637296
106.334032949637049 -69.793980468770243 107.748578424758747
107.583121635130439 -68.861219421077351 107.993584610173883
106.413797027874523 -71.705376572208479 -82.973095841496161
108.459012633485713 -71.550521085853887 42.507752686744247
108.171244774034520 -70.308070717852232 104.850815573898174
106.929905644034562 -71.656611931847692 108.206777652469611
106.955674715330787 -71.055373640177052 -93.018837131545027
108.243373855068285 -68.161509487274898 -83.804653633111215
109.860780193557602 -68.074230975107113 38.902810150369874
109.927469164703950 -68.547963655694986 54.020803218394875
106.841956429818183 -69.490278574823478 107.045298994735916
105.752704339095303 -67.877050605062152 113.090527830681253
108.191169705111776 -71.959893029115406 52.995420872747978
106.943079266113514 -70.875782407366117 51.980928663740443
107.973423449674812 -71.864910596442598 38.905505775560812
110.071959766134796 -71.131818481647628 -84.292401711101164
109.321608269926614 -69.228943560472189 41.847193814374243
108.782241405601098 -70.772724077816008 48.752237404112584
108.925953050969227 -72.454418193888998 41.016898665954457
108.089373498023235 -67.388618612809935 50.608289764962201
109.665278556897633 -71.086441759781977 52.751935898577628
109.669754761685269 -70.395540030240653 110.470516665764222
110.350070715338035 -69.586211391710336 48.204303776099330
111.172701760515110 -73.373854488415077 41.625075094312237
108.565103278342391 -71.533006502842341 102.154435645749871
113.785378040070242 -69.791105369413543 -84.095122230486083
111.622598819338606 -70.181565211426289 51.627365817071677
111.850429741463373 -71.119463816642295 50.408557317230603
110.129101903960219 -69.585039546826366 107.719210766419096
111.232081419282508 -69.681279074195544 107.784001991382056
110.940492305195832 -70.118196446849041 39.131087090810858
113.034061972296342 -66.237831558105796 47.716393186783804
113.136263022304945 -70.816867967154792 107.414025310077307
111.958577606167538 -70.530393191491100 113.450266767330859
108.841740530731116 -66.890280400451402 -93.434424774383231
115.730743631424971 -69.437246276805951 39.740159434304552
111.654186904718628 -69.619506587282629 51.767219841476376
112.537400923057518 -70.680948449888902 108.069102910109237
113.684309750126189 -70.502024147901224 -93.075573828562227
112.262372743396583 -70.782907211821581 39.013348586413748
116.375489200459640 -70.299622500819680 -85.111421400632395
114.744430960467554 -70.017866990253125 105.866043131836548
112.813333286302864 -68.168088626027640 108.272553940711845
116.291319889663626 -68.823625426886707 -92.293341305147422
117.160805955383950 -68.911604643176446 40.543092700264431
114.807122603464137 -68.092141992671927 46.543240869815548
118.675355297159214 -71.814844806826073 47.963316164000794
114.927643127534679 -72.015576112594232 47.136736301255553
117.761708613327514 -71.967501666319805 35.866031722681512
111.778541374610455 -70.144265824574219 115.834671957361678
112.082662624596580 -70.398072208689783 108.030432122744614
113.632799854672214 -70.980478256447071 112.076295669589328
116.211019122844490 -70.880244142965935 48.146388216257819
113.784894140753551 -68.728760656979418 106.442618994476462
117.838463222577388 -69.902633406505089 38.962331458883533
115.556831475703973 -71.896551982171204 108.581801740353001
118.009446837221944 -70.622092702130104 -92.763836207803649
119.051336665091554 -68.867760978008562 -88.190338205916788
119.503465458636370 -68.810132877042321 35.442880982176334
118.577599948437523 -68.009472337679341 49.097471329667052
119.528735784311905 -73.283774754422510 34.272373098458488
115.646685763005038 -69.983200284292124 43.647633630348736
117.328185360876290 -67.477035553059721 113.668027710276704
120.759566046434003 -69.706903897697714 -90.809533929548508
120.943570867085228 -68.872599785249335 -88.696091499628295
116.951389601667969 -69.343204568883934 32.235544834381066
119.912116114816214 -66.445177787705774 110.785438169432666
118.921100682376448 -69.595168103176050 109.597028799684793
121.124709999650548 -67.960228737187506 113.372822641817208
118.621962134574815 -70.131335603937956 34.002128550134323
117.328494758938390 -68.905444242110391 36.046118203234712
119.879912644463801 -68.426854507351933 45.732829702129465
120.353059714900908 -69.876755008552706 109.409844784864177
121.710354156386984 -74.685878859402635 35.162939410508535
122.615397071022230 -72.723602079499244 46.129536127520915
122.563848054464529 -71.146189663598520 42.463173639092062
121.314110288764027 -69.178173424302713 36.608540688088716
122.086760099164081 -72.714181953104671 44.288091751998991
120.537632971053242 -72.059471475209946 42.424500132454881
118.794570806708222 -71.414125101660503 108.642622141493931
120.894990525886698 -70.654605993993101 31.406824167696946
121.518703743150638 -68.968314648892004 42.924512344283649
119.918162953943295 -71.945898172860211 114.005482108206138
121.321423999814016 -67.784730949947800 113.831876069129706
123.734875922455089 -70.186971393307132 43.511204148086101
124.538434051328920 -69.236015977236150 110.505317772416660
125.729304139507292 -70.472763228824562 31.231703645383938
124.599107861486971 -67.198320159753294 36.425335151461816
122.278073520551757 -71.142215204519118 42.129866682593658
123.894687389575864 -70.148947452714083 36.260359789338210
126.636892221756398 -67.447722755325856 112.964069217778629
122.794939296722006 -71.925237450084168 40.716511423029864
122.479573071618788 -69.385651579684321 44.805201225210560
119.324986870458346 -68.485079089715541 115.820133954715345
125.365710283714705 -70.135105221297422 29.652503882334688
126.023901358969070 -70.457230454747148 34.360190861469135
123.749670597522481 -72.147991775909091 118.206104032977933
124.670617568533714 -68.917524478752114 31.208261615619456
125.554434160042646 -65.302504749164385 39.026701447250801
123.701669326431045 -71.770458661010693 46.103542957526223
123.965424984692604 -69.265679325045028 111.434045920417589
126.487947726682251 -69.410131084431370 110.276241847361945
124.325004964031905 -69.361456124123208 114.976250104266242
126.086294542504120 -70.506343606782579 44.712496460663353
126.472384274384268 -70.198730563221815 110.802141888046933
127.827841815364749 -69.148522344713172 115.336379879884262
129.684086777583047 -69.203026926169869 33.412816848666537
128.295584467652247 -67.098219926596954 113.416147982335119
128.711270717158925 -68.881183052577256 118.367562206785294
129.890192044440198 -69.296844909582077 -56.591881024509725
129.590330596903556 -67.329063868386697 -53.378142425681261
128.227013367572511 -68.898361994020192 109.733417360076203
130.193786906990937 -68.628552727504143 -52.820355545229617
127.302053022432901 -69.283181088640276 114.838030388866670
131.676740881661033 -69.879439484350328 -56.000795305465310
131.313631130659843 -69.595528125797202 115.334042589866840
127.409115648851397 -71.825244798259604 32.314775829345180
129.335691402175371 -68.136529115503251 38.281758011835926
129.676185905357755 -71.809694947275773 -52.911217860806389
127.402435677271782 -69.349308195180626 114.059828711385933
129.432615900212738 -69.925153255566826 -74.591254707949247
131.716557961677239 -70.123954394080741 -49.793651953092457
129.344424681442376 -69.347388942160293 106.685933552910001
133.187173154768828 -70.302141239784277 -55.958321984437852
132.022543045653350 -70.037237463683638 33.531246074964280
131.933033758886637 -68.404711418909898 -75.314476615132136
131.915394985975269 -70.615403880860924 -75.370774538076972
127.909032644087802 -70.934103864641813 -73.263027626918714
135.145904211908089 -70.936013614852399 28.138488005563403
132.468112918862374 -67.955099344193215 -76.101635028510714
134.526762467023701 -69.601296855762087 -78.276514816346932
132.190315664196504 -68.795574082197419 38.554571842518961
133.070087224717525 -68.857414770764265 113.629791409241989
133.898720820882460 -72.032372085327580 -54.429662439795507
131.159307079541691 -70.179925100684400 -71.731304521427219
133.127174573790825 -69.857557014783836 31.257103868164894
133.943968882024734 -69.116315764754845 113.631271300108580
129.864319304837153 -68.438443304044270 116.500637117861260
131.811662075310437 -72.428046149574342 118.950772704738569
134.097312188563507 -67.466837455376108 -48.396332218100866
133.820470388673840 -67.163003531237209 119.390408955494294
134.352875555757720 -71.487542766050197 -55.040864756505698
135.277680868781886 -69.548887569607274 37.016834531990085
131.992692379075464 -69.461760742698388 -71.578772848793662
135.037203942205934 -66.965339437817136 -57.067529161642305
132.592985174199271 -69.901100100978667 -51.296843185170175
135.011949044916605 -71.320730143909799 -45.601677120809278
133.872838985169437 -70.506180880654654 29.290937948305519
132.605567869426352 -69.445523469395013 39.450286868433622
132.885323198690912 -70.723911706215603 114.874580879169997
133.832434521153033 -70.313414162951602 -54.902142433004400
136.008559567137269 -70.140345757862264 -51.570420588282531
133.562114343672704 -69.252756290843294 40.141623452290666
139.071226158181048 -66.891500150150407 112.321446948239782
138.354161824715078 -69.439721706837275 39.100252575049240
134.304054542478355 -70.796436682954692 39.184480685639684
133.268679315300943 -71.771451590109621 -77.541958795514986
134.490915161261768 -70.782266420296565 -74.865937347318948
137.100928113177332 -71.477993111015195 -49.256505983336012
135.677803077427882 -70.250578271070225 -47.213782371959127
136.077791850583452 -70.270543897524092 31.991367981535628
137.945971850145156 -70.589865924456262 -59.049571286544968
137.396275528082867 -70.410631263555402 -55.154975248653116
137.375789529490021 -71.444897311836542 -46.420684394950342
136.077879163400070 -69.329384166561411 -49.543312965648767
136.795662925881999 -70.308718934137090 -46.984325022175902
135.962277375276642 -71.073977999129085 -71.242480343257228
137.917282421349114 -68.259674811734115 -55.702580608560908
137.085715289283144 -68.648161443892292 29.277127922682219
135.417939852833285 -69.641387764758392 30.188329700699331
135.666333027864198 -70.450225212003787 -75.108389203135189
140.805016741915722 -70.426510780070217 119.176290233673072
139.653266232374818 -71.491341269654370 -59.073749530662774
136.744970610094470 -68.194880935044054 -44.389072619438352
138.146329004957607 -68.848541993046723 113.065627627457999
136.099951124423114 -69.912494845697879 -72.874155551551397
139.506092845694866 -69.444532288582565 37.223106969243624
136.966637932541516 -70.464715055051457 113.610122378873783
138.259511448931761 -70.862145290366072 29.490669952963930
136.678184203651966 -69.661153950601829 35.960509412803077
140.905170097742882 -69.766579970074375 115.756258413926545
137.436237022576051 -71.309255312637703 -78.282748946082492
139.916010433658755 -67.761741775057473 -69.639069416470548
143.026262361587953 -71.973007110596299 -56.701495137401039
139.568629505733014 -72.523369188203887 37.107744916551340
141.593002796868916 -68.923418691756709 -74.100376689678185
139.901108732111112 -71.532615762803601 -68.573852734651666
139.389951615205376 -68.177733306432017 29.275620057679344
142.111773524920920 -73.873902355480567 39.334890613937837
141.599268162068370 -68.364154109707613 109.468436632393434
142.347093333528051 -69.959792969778064 111.516520566882264
142.302488647093867 -69.167424231452202 -75.547319555810077
139.994855122303335 -71.638573774715795 -73.105614664063822
143.573289998638018 -68.097011123390004 -73.467222333842656
141.989646221037759 -69.366885216999435 -70.200579311518837
141.998906773337779 -68.408508695034101 -41.992273145310577
142.181152263574234 -68.002343152101147 29.686523743130319
139.135102561133095 -70.667647739395505 114.097758125278403
142.184937068174037 -69.032297683763431 35.222810927985115
143.051700452935535 -71.226631272922830 116.231675674464569
141.570335027447697 -70.915047047549308 -66.292791690261154
142.247639811171013 -70.174544964913380 -44.788747131346973
145.998108963090971 -70.986925008649465 -42.352945095421241
142.950829437374608 -66.978184494743829 -44.627055733162209
141.932167319258781 -68.693263397433910 34.429349523773197
142.486110634581166 -70.519344887899948 113.541220790327145
146.625570126366426 -72.643472160224192 34.648715197381804
144.993208949330807 -70.977592802169042 38.132583134765028
143.607673906625109 -70.570284765858730 -73.281287192777242
144.675335371399683 -68.253280694501811 -71.798047212309953
147.349830555618723 -70.305173902853099 112.730445775198959
145.511886010714392 -67.137890643968774 -40.177241164129072
142.877580515739851 -66.929288069782700 117.334091952789706
147.880392110019983 -71.379229276530495 -72.954403091633139
144.979467755127075 -70.189987210608777 -72.562614692135355
145.851259056919332 -69.945890979080090 -70.798020515949659
147.587528638684518 -68.470181119840035 -55.658247779106659
144.304205631444944 -70.825037114812275 27.860362655118308
144.569772578266594 -70.661429953830776 -71.853410155521786
146.195333669327255 -68.275262231119228 -43.004499237397823
145.905382297323769 -70.320176782767462 27.753557290942215
145.060811725246708 -71.327764267104570 39.810675620703847
149.643971130292300 -69.740628246506873 -76.834289883345605
145.707879652933514 -72.345158909870378 -37.846670597544218
146.993952397932190 -66.816013738525314 35.125002459749041
147.663026531283009 -69.397175350162854 -68.329243391325790
146.995615826696906 -68.632089270088272 30.391132673783634
151.722855576403248 -70.434471002825816 118.971764307587776
145.569506141356982 -71.014802344766750 -70.261300039370525
149.733659521363307 -68.455937470254653 -51.093213876488548
148.308059788563639 -69.902750120369731 26.760722133920158
145.550690814563865 -70.766266985810717 37.630102148060438
149.388593412780835 -69.275008700266213 -41.142995678488376
147.832851030954998 -72.629795223212099 -69.283223803379272
149.279027329596488 -69.361974234044538 -40.029543124391864
146.435977262894056 -72.095577455773295 22.740395928535552
145.675819249349615 -68.701934533432350 32.913403358330690
148.256108608661066 -68.385660009291200 112.957822321734696
150.885305259662431 -70.567508435570403 -73.584539265360945
150.701326064215380 -71.168834136042491 -63.429829215325213
150.314380413576913 -68.867177348318748 -50.157422451070126
149.943137849083655 -72.900611902879803 -42.489884037377934
150.567227397159144 -72.346811223688690 -39.699976889543969
151.000227399506230 -71.094865499106277 -42.944956541646611
148.870910407140173 -69.904376265354230 14.770513182914817
149.375492178963952 -70.235557733855728 -70.605048644946194
151.489287405409300 -70.332553015937222 -66.583373216850433
151.180421151901186 -70.837196755519457 15.520710105114436
148.340041125972562 -70.851563197951791 25.238676194050157
151.536346068324349 -71.381114379946595 32.675682618092665
150.638608601699957 -70.051325999624822 -68.113362142517389
152.111692284745061 -71.602672696817493 -68.333529243882097
152.145060636554433 -69.133865356594228 -47.125880865264385
148.599598336209169 -71.792166108442345 14.729753082227866
151.343107764557345 -70.922906917273394 25.725303980601133
148.860029364087694 -72.318414325061241 34.211480926138947
152.793195177048347 -69.633009858094013 13.923944161356536
149.586244595422869 -69.524919858242484 23.547044689657358
151.086900686023199 -68.144347450835014 -74.119783224462338
152.584891848458625 -71.073659773108801 -50.496640033287200
151.819876672419809 -70.824866071204838 -36.901755257202815
149.096014987173163 -68.611439134678122 14.720194257928211
150.804518397495514 -67.576111044232505 17.328578081244384
152.345621083847988 -70.913538130240255 -63.198893893122943
154.594324693457537 -72.729881982406667 -48.774086855473854
153.592863338112465 -69.570518075448277 12.963911305130900
150.121315039549501 -73.188146835271993 25.021278188442068
152.518657968944296 -70.559109227556235 117.389620593533394
151.648769975277531 -68.811026935688744 -49.367910222882053
151.019243580386217 -69.277864166004463 -71.599480300636458
155.288321955366428 -71.481830356034010 6.392082116601754
154.161665816146581 -68.814761591702577 14.768204710727263
155.175742078547501 -72.012270202088558 -71.008959939852929
155.790083130093393 -69.264845046573328 -46.192007045001041
149.138760541950859 -67.290060151905365 -41.140917237457373
156.443728553599726 -70.154263693750565 114.626368133250253
156.516185110985703 -69.426190963302304 -64.751618239180672
155.318806225258101 -69.089739559062707 -35.416278852891040
155.941297538250154 -70.936012031124093 9.600093146596535
152.065715383845145 -70.995124150214892 35.201335985142926
152.298747822119850 -70.986333111546415 22.953171584952280
151.854382526762663 -71.134663204255745 22.794239956716392
157.559959924767440 -71.447845648142746 34.637350195543263
154.554714418715520 -71.156054551398881 -71.782491604750447
152.424370658558502 -68.643225380680647 -51.104184775890126
153.486035854288957 -74.115748325444699 -38.842000337516893
156.223174894641346 -68.094873954855842 33.262617475973663
155.885933812930176 -67.347513283332731 32.739272942559666
154.499046544136121 -71.544596523335557 112.140040999168733
154.755000876514686 -68.518721415794616 -48.241838809854087
154.924458645559895 -71.675116341354453 -37.252119366409211
154.893380686940986 -69.740409508053403 24.178118055067820
154.154773992921179 -68.261648194252103 32.713949894935382
156.040064504565748 -73.504967344300027 -71.778823909372008
156.284732564186470 -70.022432365733138 -64.188022498371893
155.388659328840333 -68.122412008770127 -50.487782220344933
159.754934480173830 -70.804291686658317 17.221954233896913
155.185620513059632 -68.374176773607374 -68.034655567110732
154.480038780802204 -70.811022070783324 -36.500360038887372
156.723082861124595 -71.364567685912817 116.887235262207184
155.692187474390636 -69.556920293735075 -69.073273663449584
157.740265731250730 -72.108835732449776 7.458914419942561
158.085584215221985 -70.045962679417443 -47.766125808778746
154.517794532260751 -69.539641606555165 -46.559370598878445
156.634443299046779 -71.017755177948885 -34.480680294856334
156.604647384099025 -68.975874096822821 -64.648669894492443
158.390173994609228 -67.900136269701164 -39.240222310747505
154.821196014511486 -69.774644554342728 16.510551448756345
157.779045089661878 -70.436796552260233 16.363888262915431
156.546200229413813 -71.583973249305828 24.886858713476681
160.728804989020261 -70.349693696597953 31.336311852038538
157.635099292831910 -69.974281661857759 -62.857906128609713
156.847333184624119 -71.710037871464920 16.257383378386265
155.790552816950765 -72.326223516710357 -44.238416967237164
158.191366078572742 -67.566994658526113 14.129492151229959
158.265517615041063 -72.348682639071939 13.641118497135974
158.615258339853398 -68.351726407210322 20.645163636121200
156.793835780991259 -67.389491945108148 116.229583022549050
157.690622263902753 -69.900206805710795 -68.191521241111303
158.191111658081127 -67.664007382603046 -66.842191339822236
156.179153730119083 -69.259917036142355 -46.292213503063962
158.487514852346095 -68.158293947417960 4.103280226491406
157.379992280369606 -71.456880601303325 30.622202052052863
159.850988892295732 -69.310247072960451 110.951440192675989
156.903201729027359 -70.682781239331121 10.243743904174675
160.320698796693932 -68.094868956696075 16.170054979474891
159.134461246132105 -68.954629369701536 17.890274022778470
158.574829500659234 -69.862533114032161 -44.492920929480668
160.738542112762076 -68.928274945742913 2.791820359580298
161.422270057388573 -69.526681193291225 16.451579412824305
157.302333209661128 -71.745639627692185 32.667053582928162
158.489871757261596 -70.071695725481248 -61.267708618809948
159.628345872014705 -69.719872688999402 -45.731186486943237
159.803153054283285 -67.556376525073034 -37.241851545426243
159.232090464937130 -68.669715473894499 -32.267511349912837
162.507951742760895 -67.720557447735558 8.891352547034389
157.633242731850572 -70.759248857110364 -64.373753695269954
161.664407478632569 -64.470227556546845 -62.498173985718275
161.805707434388381 -69.593854190169907 -43.172122876893120
159.258463195748618 -68.238561404042755 4.943161936012409
161.615944971652056 -71.788034127890256 33.909335622753431
159.676298148307666 -70.228065559407952 -68.315870269063936
157.481634145715219 -68.685613549032482 -43.424236578135776
161.203902888999977 -72.274775562692838 -33.946065262151080
160.320374593499395 -67.572141301322958 0.883501745371268
160.229035851764223 -66.733637100701714 5.019170680365774
164.166311422037694 -71.952245614718308 13.733264718797312
163.869638247865765 -71.479957986127701 -45.877275947895320
159.931624548368632 -69.729722076550331 -36.622434675569615
161.533012959989492 -69.302016796942638 110.911181641831959
160.975331204193566 -70.773121519886899 115.853743601399245
161.006957018806588 -68.130406012434307 -62.421244455819981
158.226217343920752 -71.890623761778784 9.055127289764526
162.692443399136351 -71.625383407649736 29.900190583756601
163.626554866889506 -70.612407820725949 -66.377526401119837
161.148718979165210 -71.522724276717753 -68.578942168634569
158.116585121315580 -71.320772105897234 -60.064388181838559
163.509313599069742 -69.287811373528072 1.367354769357028
161.635551862654467 -68.473010939071614 0.683840939950626
163.178966576982333 -69.359771625389541 29.080091961564648
162.098534973874592 -68.927880551288936 -65.007784031670198
165.058583971506124 -70.689636379954905 -63.010900055281184
163.320065293505195 -70.884693075681412 7.929232193802578
163.601914271791316 -69.052686744727495 116.717545061445477
161.721505989101274 -70.349193624619474 -32.378835141936506
161.896933868201842 -68.423506036881562 6.388794575120030
160.839106594129618 -69.570040384032026 -63.765034737385150
166.211666938435457 -70.516648053559507 -42.988860728681225
163.244130135913451 -69.835881998607348 -32.059271645394460
165.079850902618773 -68.005871621673819 2.543634546854284
162.919083587943845 -70.832318659854579 22.986033411004183
164.608188422013427 -67.759445887346459 -65.880214068493387
164.260452119924111 -66.775498704748742 -62.937185992845968
163.349964611286197 -69.402634142613380 110.580825049330130
164.763382071564848 -70.382540814151440 -60.022521073482402
165.622307314737014 -71.163314007181029 -40.610423823255452
165.487361494364080 -70.996202651378212 33.339081715623841
163.697541537333422 -71.180456558392876 -29.005715758804641
167.894944831328075 -69.059264854489854 26.342304529143032
163.413308110240592 -66.918306312183688 -33.038417024161582
163.254326982745482 -69.184788600944771 34.014310815470111
166.284041171991078 -68.602232252729408 111.402186841758933
167.219901950027889 -70.503563090419519 -42.556058523949083
166.478276731708945 -67.623387314326393 -41.082699838058517
165.899067110808375 -69.895984096088398 18.616564006242463
168.012573885799355 -69.215628729530565 21.860347653267869
168.080913572066322 -68.958279103720940 28.124241752615649
165.611076458758106 -71.680244316667213 -29.019409130042256
163.246425957898651 -69.857112096143865 114.823086559963414
169.303092033722407 -68.568378306887226 -30.994371912475668
168.790902381864697 -71.608112800800569 -32.216524835462359
166.972950805906748 -73.274313263229317 24.187051355999088
170.462118933596884 -70.148464828602528 -39.528167106663219
169.738982250240412 -69.283397584936608 27.378698868775185
168.146972039852329 -68.776373696962580 115.535568935266738
168.358111750432215 -69.565057427827028 -37.581504529949051
167.038032359172206 -70.651767097666948 -31.578305230851520
171.104538323546990 -70.835195222664751 31.770344756595055
168.898360351793514 -68.859405660281979 -41.822785531571583
168.846064611668936 -69.524066199180808 -24.954594561131955
169.271345239050191 -71.197030879029583 110.342414568121271
168.063848501337930 -72.874197255243544 18.849601704567835
169.792939854562576 -68.188158143466779 -29.248150292300057
170.629364389401587 -68.763875759895100 29.973253403665183
170.816712956974953 -68.562132809584554 107.039377625751413
173.450554450419077 -72.185489704982999 -39.940677748600670
169.671399951449843 -69.187011979410585 -28.210661927627172
173.558769720071155 -70.566854423233139 -24.584834735864277
173.692721121070406 -70.592374524124338 108.322291641096555
169.953778405098262 -71.691248889648364 115.782460112576231
172.389882367471955 -69.519443858406930 113.717286704014910
169.616104411512765 -64.187265728868269 -37.241212503935742
171.647274637360567 -72.283237638696747 19.369611301963477
174.049199869509096 -70.188537719494477 112.883128932028953
173.076248230537288 -67.692928382534433 -36.778853435248998
172.348323754087573 -70.450726938156734 26.299275002504768
172.938102517652283 -68.494360244817798 110.823151453330368
174.058452154607664 -70.373058103495666 -36.454700118210155
174.602581728838459 -70.019223909844939 -28.357216144541944
173.918816070021478 -68.365872671701737 28.590437765316448
174.370275143621484 -69.780793050709264 -35.421475775877653
171.759719961485075 -71.963758905985998 19.457363130833215
174.270770536756885 -69.550426241467719 27.748081418562840
175.727587818480231 -68.617791659623819 114.118294621800331
176.477907053792109 -70.306546825581080 -146.895790410956209
176.428552803276403 -70.818174383227642 -24.728799533378080
176.737749827793152 -69.065916751337824 -142.330289802060491
172.275173339809555 -70.659972615589837 -35.027259868490567
175.071849737259384 -69.653198611497217 -29.438114885907297
176.200972911535104 -72.415821277411041 16.372163898880672
174.459843967303073 -70.195826100516953 26.633835359457414
176.145551930164146 -69.955719773627777 -148.697155797485948
175.058648945636776 -71.470603800569791 27.558099778405374
179.558200977426253 -70.544797995977788 114.616814422162250
175.480692635824028 -72.189549282317913 -142.338554366912973
176.153447317899662 -69.157068844281582 -35.408241966274694
176.586890924220143 -70.227038166419931 -150.928460671127084
173.745612113942457 -69.496471849998329 -24.524596864153459
177.353060621382099 -70.835282351753079 29.214648933659195
173.166225809386987 -70.750751434943297 106.776473277942387
177.262351966589705 -69.528071120994710 -141.764161982321781
177.005827963288425 -69.924976387038456 114.380546074182803
177.945039337708749 -70.736280544833974 -22.873174702537945
178.372200201682688 -68.360785934649641 -22.704107550645290
179.550528966311049 -73.255636372484616 -141.361582541901441
177.836348236908947 -71.244373253381909 16.222721439182607
177.167836645082645 -67.555375746835026 -26.997621866806419
179.522823484665139 -71.352087186090529 19.481858424808671
177.931135948886265 -69.342978457733793 27.408728485087551
175.779734219996243 -71.828796320738505 108.046846696969837
177.140545602193555 -70.576472997568800 -150.550890496691636
177.753863088380058 -71.145497296052440 -36.297843795386129
181.516967103314357 -69.882622713486498 -25.188669700943073
179.223031410045110 -71.684886452254787 19.422903094839068
182.216830389005594 -69.932894501052061 -30.180720508381903
179.288394198716929 -70.977641505068632 -32.405492769705745
180.326980594956524 -68.339649905681867 -141.421264155274912
181.678864573978615 -68.257878984527537 25.945268217707937
180.734481046834958 -70.248413191420227 105.074371045413201
180.302608014104351 -70.698752583942465 -148.594971782963995
183.895374036423732 -69.777102723580626 16.378205839604718
179.585552179555009 -68.636193191347402 110.085280377764832
183.061196164795973 -72.061218280254963 -144.453846870420648
182.613575655353401 -68.216921967859236 -32.831877057971646
181.544688529232673 -71.775224121492514 -31.558418211049613
182.549453035107746 -71.641191679099990 -18.822929719333594
181.788045514506052 -68.588474951774074 104.961334640617366
185.061980814930536 -70.983191751039413 110.998546669736299
180.681310601975952 -70.199039671991315 -142.440400002405767
181.729870424916612 -70.281123106113782 -23.761140876973915
182.838395595613775 -70.665765659045661 -18.750262538074843
183.913218899148433 -67.261854061043579 17.707682769802847
181.329637921909637 -71.258993324369470 19.007733245157027
181.970690597645557 -71.187376492079409 -149.113104803860182
181.699528694552924 -71.152579732733756 -30.992566455951685
182.412703742282559 -71.708316646891021 -32.162343226680811
184.585968579551832 -69.491624121152611 25.737077148884637
185.216599985027557 -70.958832349561206 -22.542230606013447
181.209353384030891 -70.799921078890762 -27.404737549262791
184.216637740937415 -68.342469709171311 -21.636246329831842
183.596620315360582 -71.799430890232969 -17.985231348781500
182.321712029764029 -69.690160176308382 25.927699468170648
184.006203525624130 -70.170905526095979 -142.804623728171379
182.238706992589243 -68.552155972919948 -30.440598605041320
184.778822061692324 -71.246050886582665 -20.857602864158348
180.813233270738323 -71.015804257626925 14.599384168343011
182.962029768412492 -70.323152874719312 102.944791647004976
