# This PCD file was generated using the MATLAB® pcwrite function
# from Computer Vision Toolbox®.
# .PCD v.7 - Point Cloud Data file format
VERSION .7
FIELDS x y z
SIZE 8 8 8
TYPE F F F
COUNT 1 1 1
WIDTH 809
HEIGHT 1
VIEWPOINT 0 0 0 1 0 0 0
POINTS 809
DATA ascii
269.561644178995607 -58.515273137930279 7.325080440330674
267.863820530904547 -59.631712569380596 27.324057938820172
270.942338430033146 -58.713095543887029 26.863056175993627
272.422073500644728 -57.902142725106337 9.382444919502946
273.508109538178928 -56.472003468706092 25.169331000778485
273.278133629725517 -57.244124175771859 9.628107999399640
278.727629350903158 -58.473633779315747 22.785285547685831
279.222920249947947 -58.868701391861379 8.349395416025938
280.052045759663429 -58.814332693116626 22.076025077996533
282.104781568057888 -57.185483099332302 9.099552334973643
283.306018210440470 -59.452310800215336 20.798457882029307
282.614975541287322 -58.773541731305876 19.143881592997790
286.185111948909253 -58.313462276513576 8.027720721304393
287.870839960057140 -59.562683647575000 16.348680631561415
285.955748552669945 -59.683789040695601 6.632640858442558
288.798880840091442 -58.898404293343887 5.988251536578470
291.294909360406280 -57.881425318693459 10.708301914135323
291.459760933677046 -59.000466653562860 12.833848437579302
291.765881437793439 -58.509225607152963 9.968859061589576
12.748790195829862 -60.772172457785999 39.895066859057337
13.694619251130762 -59.726903730480181 30.089270458222671
15.702336035566566 -57.791513693024413 24.662357119556606
16.912323350275656 -56.444471387101423 36.999526604187452
18.050992319194126 -58.611602859877223 25.464329557512073
18.155254782855263 -58.425858247720015 30.480809436470210
19.861303633361423 -55.923045475517753 49.252598314271076
20.551803725379486 -61.183921713305807 22.241087980546471
20.654803775387176 -57.344381900603004 42.884807646653300
22.358854695676033 -57.347214990304153 44.700975919784796
23.638235769237660 -58.413655451569959 51.106387092093478
23.764560343618907 -56.130636408921426 20.516101946886767
22.791849373821542 -55.855726415270865 44.572978305073654
25.564967657217014 -58.227624290526776 21.645510700680681
26.902716109518856 -57.744238510554304 21.586486684624038
27.541524200391933 -57.641085685731383 20.688189203951968
27.404417842965767 -59.088385589862789 51.523622121125534
28.282176994107253 -60.969830788857003 27.004965345524649
31.578331212183993 -58.695509050097982 44.541615330809400
32.535935497131213 -57.986264137483872 22.750689815847206
33.515019295224455 -59.300243120443135 42.891856659991689
33.901758501351395 -61.129103384064351 22.951612592698460
34.549353032479999 -59.334531280441198 41.989310962274523
34.670750160310178 -60.077904910139679 40.601146691550433
36.559857724734449 -61.175891440266184 33.702774731355134
37.678180690986693 -58.206490961462549 45.395072906177184
41.229634253938080 -56.714794354707927 34.191898983544426
40.941201521255145 -57.619664715808092 37.633783542731784
42.782756511456483 -57.406340983442696 -61.061898931974426
42.983895062975172 -56.792042166962119 -64.470268523341971
43.211840178148783 -58.384806633914287 -53.047770727145846
42.878693860899745 -57.740468807236354 -68.046849098470247
43.686920673463085 -55.509963163249196 -68.367855175626815
42.151377336473914 -57.358353499878383 -50.784489410759470
43.810804575153512 -56.879281987683740 -75.018741066864422
43.328305822861594 -58.308462305431597 -70.339774160137978
43.454833226879124 -57.456276823248956 -50.065177467097143
46.503212209577200 -58.738243873336373 -40.598259253789799
46.403671420541698 -57.128632152013630 -37.200867507220515
47.274074352499497 -57.716908891052547 -34.974553001185200
47.400672699534972 -56.578869020646891 -36.949575694993221
47.922841934712416 -57.875852339904064 -32.655687896191715
48.271521914334052 -58.359228953617759 -31.053211803015024
49.233281889256624 -59.171882643044540 -85.036440455743616
49.671344213861452 -56.374482420217745 -19.022220432698521
54.694082273808775 -58.065733439170913 -9.765037353087864
56.114356593548990 -58.049438957929446 -91.824808031224023
57.305836468711647 -57.784841685296563 -92.758962710744200
58.487777940695253 -57.801142889216521 80.558216206310234
57.966547160614084 -57.674546938667689 77.802492331529095
59.670095828316356 -57.944396900255811 -93.480612565017012
60.178328023611698 -57.421275060435839 85.451048152390243
59.463058038278156 -56.780348450006976 89.073372002230641
61.187936749184082 -59.990313449879828 -94.242056105159449
60.523858308976692 -58.654680678210774 -7.833023505974456
60.802868517277943 -57.078460567843649 92.537397791745903
58.949411109124846 -57.902170668490221 75.125287371619791
59.248662625962623 -55.571464365769941 -94.573503465914371
61.029267862667346 -58.944630330097574 72.044679363562921
62.182412583512125 -57.424215985463995 97.410404125093606
62.987676461172398 -57.705579983909459 -7.901590088530886
63.215504309132854 -57.377528672965191 70.659926884402566
63.683773799075006 -57.795842906267517 -17.442766288945307
62.991635268551967 -56.782713482273905 -16.356050016177178
62.936356317338415 -57.085770995885554 -19.649041992629719
64.791013152670558 -58.148636572109830 -95.965208988195755
64.945675843953097 -57.299457651674267 101.967856844277406
65.465187961057921 -57.582860787862494 -96.751142111161499
66.590122781215484 -58.268872338127082 -24.173332051041360
65.884887017681535 -56.614586526185583 -26.681535968435572
67.323988562749491 -56.589395166687567 -96.236752359945257
67.250809369632250 -58.185441367552841 101.856920372807494
65.882587777654862 -56.717525928901459 -28.252925486805516
67.836102488939360 -59.601501564477736 102.241145414400791
67.544496201592139 -58.364692372396455 67.088422128273365
68.189643062612291 -57.080755372016924 103.170035510952630
69.170784149663845 -58.111670708765743 -30.174807037190526
70.985681465595576 -58.607294172120461 -30.541464086231400
72.427265792133937 -57.766655630025724 -98.033454005666229
71.138813519184140 -56.924177242960980 -31.843889247448921
71.609086976467324 -55.941482231546161 -33.214770988647807
73.007746022902722 -58.910931610998681 105.557074757370586
74.550296046969805 -59.332508347368552 -97.427311917517301
73.080004378962727 -57.710021295083678 104.747296390008628
73.107934311020927 -58.433409806208402 -32.511604698510070
74.730187908875664 -57.319435356417387 106.246729222078457
76.210390693586220 -57.384319911248468 105.550311791796091
74.579822065323441 -56.579797195675106 -97.880109400833959
76.805482657245960 -58.013369946710874 105.995179414847243
78.084790872613382 -57.270766377500699 -34.485820517788362
77.400679952544735 -58.205355383522488 -48.344656006653878
78.555737565833326 -57.482286852750974 64.014254002015008
78.637727120072626 -57.264656776242013 -96.754436437602848
78.171618894411992 -57.523180951835165 -51.002667655821440
77.888236672030587 -57.737722972617597 -49.525006373680213
78.172408333957677 -58.976045321131870 -55.257675852556645
79.750984714696088 -57.312315141686902 -47.913121657327196
78.555284263210581 -57.836652879335304 -98.263675648277157
80.018962820559096 -57.877091395882800 -38.570980490346152
79.872864519088012 -57.897687815071855 64.591233382958166
80.696511941698645 -57.006012723503829 -46.551722256518552
79.851736901966092 -58.816543178249873 105.700589587024993
80.841194930838697 -57.464296235657677 -43.981341850121680
82.380255110239133 -57.946730668578908 -57.627363565662094
82.550961043506732 -59.016342421297487 63.097571154371131
81.232188039250460 -56.866954377287684 64.163351983520073
84.197106264394677 -57.605264689627582 -98.190252497638951
82.878457070170697 -56.787630275634108 -58.383978743963247
83.482644790281711 -58.613274256496396 60.631207518860862
83.136823781339004 -57.473652591144713 63.065830923324363
82.694323106820207 -58.564032295963884 63.477262811597932
83.768615045287973 -56.826706123303218 -58.902855152476711
83.412686829412905 -57.457230361001173 60.373139653206394
84.038745742849230 -58.102111998429194 65.073032753445545
85.588774060273025 -57.206161349871216 62.402498261659957
85.987599008731550 -59.209720824881444 62.111668410263540
85.052135591959001 -58.855505174442357 106.722876601398511
86.831254876007634 -56.728974821400648 61.979059709984483
86.206356503293790 -58.175466799330067 -98.649465274034881
86.971322864807831 -58.331595015227833 -61.813540189823534
86.901184374118003 -59.101034182954777 56.294998533803472
86.704218738583563 -56.882629505882150 58.701369090833971
87.593242777503704 -57.872246980962203 60.585847456600213
86.294717972349417 -57.480432179649739 63.962587848077398
88.245993274175262 -58.199558651565290 -62.346991134058925
87.972425465644406 -57.043138690011460 65.072771532795812
88.760352384230075 -56.935842266670797 61.370573890519019
88.302384052314807 -57.615302560727500 58.185305694825537
88.930294715174412 -56.527631107306810 65.436067419546546
88.955116722213589 -57.375853145761234 -63.805335694989807
88.736310883165416 -56.598985609275807 62.195296373090933
88.161551967676985 -59.463778832523666 67.058962182821517
89.465960090744957 -57.354733883791738 65.785368957483811
90.152914412234225 -56.695167905334273 62.455599365670651
89.848991937234246 -57.794624398903601 104.655482852204344
90.831293142508983 -57.786959476801790 57.817755945174667
90.361855595075554 -57.703733436720100 105.909324475194168
91.786345358654927 -59.986077581943725 -65.394697082946436
92.502045186113236 -56.196723167763480 58.756634982080890
91.933902445471873 -58.543196450227036 60.810052472581013
92.757946606552792 -58.376745163584729 60.192471124024436
92.581287682851837 -58.412404624490904 60.557480815242300
92.877313728913180 -58.637008913687055 -66.580328890041940
93.525075541014132 -56.604048027234469 65.719476601470092
94.314513386784952 -57.873831400617775 66.740682304059078
95.171234145283307 -57.901379636492614 -66.896137085509864
96.045711894927621 -57.838609737303472 -66.066069508326180
96.143602174193788 -58.411194355257827 105.752580728558385
96.613346695567714 -57.331238780215031 -68.619534215005046
97.065333899831202 -57.229948401152257 -67.972488752789118
96.647996762172284 -57.836815593169604 -65.790569442546030
94.869601914499043 -58.182392506406075 66.400024172151703
96.878501194768745 -57.239457602432608 66.966860099548555
98.297749654763820 -56.925799763722857 -69.778533357801237
100.114001876406689 -58.825592509671246 67.761014235722456
101.531405806165978 -57.996150628812771 -98.264959533584218
100.343726999691214 -58.494526864579164 -70.905585659252324
100.572741223717301 -57.657944114896011 104.490843224496643
102.451474625436390 -58.358781521270899 70.172083962976956
101.747010112077916 -60.602145924950889 102.780052994598648
101.691406097207476 -60.408364250020320 103.083363631078427
103.380329660567696 -59.874673177770561 101.465416065281303
104.204179598945586 -56.935561907043855 60.177602807588698
102.888832161957282 -56.393370371461849 59.433582156338197
103.819414623748273 -56.712229625500974 -61.800434263212914
104.651023446642100 -56.439322358915170 58.117434742164498
105.127326581814089 -56.521624441207166 80.941385899171834
104.453239958521380 -59.982745763313588 100.463129361225469
106.087122805324270 -56.971233427786025 -66.096747681120917
105.680484587451787 -57.604135873890236 55.044893748533539
105.701643644532524 -58.142636138753403 -74.162229492635277
106.188833557407065 -57.053147547020110 82.262019381218522
105.835001889278288 -56.788852350937148 57.953671040161112
106.842564647217927 -57.407453751869127 80.119080391574272
105.374717268273031 -58.053405534655141 81.590955596345538
106.635996750346720 -59.275671669491693 98.727322844145064
107.815954837698612 -57.348170838896714 -74.593658458699025
106.815142054812341 -57.728014368876728 -68.067530154566199
106.683151877541476 -56.579583309213348 52.960618895087542
106.089979722977048 -56.799133298698877 82.550291255501079
108.074511714844135 -56.774435933371826 -67.219186505236706
108.084592818464955 -57.266851207992083 -63.649375910910152
106.407030874404796 -58.061692324200919 54.820019660002288
106.414771942558090 -56.443938705672458 56.762730817747119
107.341193361507408 -57.840786632488438 82.607143277656789
107.769412135767780 -58.020087461933137 -69.945243005086439
106.503550137712480 -56.358239188662338 -66.096337444809961
107.288537447318163 -59.553975653419222 85.181052323270706
107.046952856908931 -57.665875913381349 98.097405467735740
108.289568437363599 -58.374139327156982 97.056585627573696
107.363732449557162 -57.110593653462786 -76.308407959566139
108.041153092311134 -55.449439927994909 -69.823200632625401
108.364102382565861 -57.134151820012434 -67.647630754822401
107.973262248899118 -58.064086565772449 -65.198034236613736
107.924550121760063 -56.571263210424256 -62.507249378883174
107.080065138369122 -56.115498907346598 53.621261829007551
108.952796304604078 -55.873180275600539 -68.007888935452925
109.176732681513982 -57.499363949142072 51.263010953769161
108.092902120921920 -56.402537751485944 54.521578548532908
109.233285880614503 -57.423280694797946 90.262770656334055
108.336580770739531 -58.816521393699993 94.646236288621765
108.785510306680848 -58.434547684824885 93.474412777194146
110.136673544810847 -56.723026584919339 -62.950901321709217
111.026567296914422 -57.407589913092949 51.150652970245311
108.661138646803678 -58.532487237060984 -97.267927105483565
109.288986602887789 -58.265594568916008 -76.703651969956411
109.550083766366924 -56.166243641591173 -68.898075642625685
110.347539927586467 -57.563609284764645 -59.665495654223093
109.533634823253095 -56.682471922172354 50.599957672965083
109.342281014999116 -58.093781350548468 -66.744874032913685
109.965598831679245 -57.969871337907229 -70.631165751215391
110.637663064261062 -56.837933706877990 -61.377509148060113
109.468847762211908 -58.310311388561693 49.397290354262211
112.550941155014627 -56.323815775604437 -57.745408804135089
110.028262696166493 -58.006808018690002 49.625403011891159
111.821752080833264 -58.263495062507950 -78.573010574591535
112.042053993865011 -58.207892648913443 -66.641856749438332
113.295760296768350 -57.971233712171035 -68.152125287621942
110.913413636863226 -56.869578216975491 47.608760135575601
111.071995439528422 -58.014832705761549 48.322374638239900
110.690282622182053 -56.955404001688230 46.035029293585886
110.887106483337945 -57.611480113538946 51.239504869840296
112.328047464585623 -57.486219777124553 -78.781665113404316
113.285281434147166 -58.024291397545298 -68.109736181959875
111.863911876634319 -57.910983713337750 -60.985120754830660
111.795884949279326 -57.354189525919438 -57.906692260087702
113.340819270214709 -57.095792546803445 46.816009775346117
113.889533047787083 -57.403854188311499 -80.785534971931341
113.574364625519607 -58.480435407856234 -78.500006970424764
112.098896000546645 -57.575296312962578 -70.055328986317619
112.799824792139617 -57.611958493411841 -56.611127383671516
112.694961638197398 -57.810910494402123 -59.849086595489901
113.138504765142727 -56.918908687485910 -68.476958892606234
114.992498752409134 -57.454090309328919 -95.987158979033737
114.754498176295954 -56.869218095381221 43.333791433973353
115.420367276758995 -57.454412379998743 -76.163874376874773
114.423561528809117 -57.597406252180249 -56.168131455648037
115.247121458205882 -57.976040934554590 44.426830253012270
115.665443528941324 -57.290945580626556 -83.410222945696304
116.482406599442129 -56.297333658091041 -56.123140242938291
114.298245272713459 -57.294371342959373 48.833370590106028
116.406348414682327 -57.941602524434415 -84.420927110776560
115.902299824913811 -56.981912738917799 -77.411536610059727
117.581460680538584 -57.049353652402303 47.577950993143666
118.135798306548665 -57.285801570900531 -77.589383011754535
117.213317674556706 -57.844082971032570 42.339410703784651
118.546141368234771 -58.954009154306654 -57.613184322262448
116.829062611259360 -57.684350140860516 46.324668023105396
118.095422633918503 -56.969904313222699 -82.778594622281261
118.015072547063895 -57.449693462186673 -77.176686827930013
118.220372861007448 -56.761311427850828 -81.329237575639098
118.298245999943958 -56.525739750688558 -77.506636790328187
118.616748413884608 -57.354602311939637 44.576646818555631
118.531032316113937 -56.361979661580435 -85.715899246483119
118.800182151674719 -57.549387059745932 -80.488666742764465
119.131755265626978 -57.934029166228910 -79.111407061335598
120.131504313596395 -55.971261631674956 -65.790247991585773
118.920759492154588 -58.435276893555574 -57.359199838301450
118.507288252121228 -57.368415377918943 38.551649849140119
120.185438459163677 -57.832715106885104 -87.376165177271886
120.490013842842387 -56.511598583292965 -80.009015027470952
119.344039060002089 -57.838111774921181 -77.583179335303669
120.953644391491210 -58.428344157688670 -80.313798386719924
121.485000837396584 -57.899883915155463 -78.746425717215189
119.898965996472285 -56.274105633573285 -68.113915022005983
119.732929460478431 -57.403358815891323 -55.525496531283629
120.914843680430749 -57.549796452255158 -65.633039157780942
120.211458558281137 -56.586213029872916 37.755513506345594
121.707345676589597 -57.080408386847729 -87.861263387163405
121.073726850073911 -58.359402943876866 -67.044311583032524
121.993918737715404 -57.939141884735022 -56.010539662355299
121.617924448495273 -57.157716428498546 -54.246017776024964
120.484560582487063 -58.233417772153039 44.590310831047731
121.272879953844622 -57.240530869248559 -88.417253917503004
123.141759783827439 -57.328379343757710 -65.231839463629356
122.493099355955394 -57.704516604012923 -91.050157136126018
122.377848350817814 -58.876112227608395 -55.505857932833180
121.428015303266037 -57.500047701530164 36.823810593572468
123.455199413661646 -58.683162179749147 -91.753164204336102
123.438324494651837 -57.734125831239226 -90.982896101576529
123.831361702555412 -57.241808746832071 -66.496370067667470
122.997112731425034 -58.195988902956927 34.991990319942275
123.731257737082203 -57.350363661200944 -53.575670996143991
123.399697539090795 -57.546171915115075 43.766946772353890
125.596901635773548 -58.760767702017759 -65.751838214089318
124.941318077716332 -56.800052965782157 -55.923294915959502
124.506278558739254 -56.598262364318330 33.511771555496914
125.995993869082795 -56.561856599790936 -64.861850285003214
125.007165865339587 -58.425043951604430 -63.104311175970793
125.177258339526361 -56.630072161792334 33.595526974092749
124.174056938238863 -57.566037195783878 41.369227434408842
125.974544475541450 -57.152587771519507 -65.297501817702255
128.359076425981755 -57.019998759138510 -64.779863816123807
125.198990093384268 -58.344617721144033 -52.953323779993525
126.691999930861982 -57.237735257533103 32.601774547363860
126.896803027408950 -58.446404713951800 -62.202557245174908
125.447459845885604 -57.447318735499273 40.100654080177016
128.030846081875126 -58.213690544368959 -52.746570827644696
128.308039485066047 -57.168951286342825 -57.471994883385740
127.728564154056116 -57.297494556294389 -55.913490115034641
127.700955458081665 -59.048127536794098 30.325204021957745
128.179791812081049 -57.109779437213639 37.913358412179960
129.777289503030602 -57.717320351985890 30.204598581109533
127.855473959942600 -57.164628722667416 -59.707619429154043
129.755504239803145 -58.053524369947091 37.341450438424921
129.728897098822387 -57.291813615125200 -57.272870641264888
130.195115428553009 -57.940098553784281 29.036211616908975
130.528439003674521 -57.831319237686039 -62.111330273259711
131.204237229566246 -57.470684910727861 -58.529600787408988
130.422002705331266 -58.107739533135366 -57.538805762745810
130.424533288243424 -57.736048795726362 -57.140002182944578
130.592566826366607 -58.552215461671665 37.397855424521580
131.435122919696141 -58.499571251202084 37.128291736698202
130.202065056117505 -57.543818195476220 -53.119560919845362
131.927809356619150 -58.357319984210910 -61.105578851230760
130.535518605759620 -57.790658473052346 29.355710416091512
132.064756729972999 -57.836368225503222 -52.912461647178546
131.499494965033620 -58.236505586503021 35.770315289627582
132.525333439110085 -57.195602685887920 -59.484808472187972
132.565605577999918 -56.718813082654187 -53.663140181063937
132.783801767502325 -56.525135028314942 -57.557513519901754
132.865691406308997 -57.026669886858677 28.277060179717051
133.934989622954532 -56.654471447562209 -58.347574648050923
132.616303665076060 -57.398085532231313 -53.999799972072985
132.803477641941583 -58.433162562488512 28.364886810871781
133.714521365512752 -56.818974938874675 34.535672987642485
134.652717399244239 -57.625228074441246 -56.898935118165923
134.760739426186205 -58.134332416385057 -55.571797617035557
133.607701349598443 -56.264485006779736 27.270330745130131
135.620735779804932 -57.850099209888029 26.730265287338057
134.434909156640202 -57.837169906414083 33.088750720838270
135.209429628127793 -56.923768964614567 31.619123630803813
135.131443275672524 -56.055094376233967 28.452962675621482
135.999905775130145 -56.750341587493708 30.604818509357571
136.793919170160251 -56.590323080131746 28.784326697952039
136.163863138173838 -56.722460791840582 30.815868983351955
136.425931496485930 -55.512456171348909 26.996819015694573
136.546916086249013 -56.928075287453382 29.129104279386478
136.908856127730502 -56.363562792572615 26.471682660792105
137.749015671744274 -56.944157959484770 28.112106983367539
238.799109229701287 -56.385189963039338 7.014907142119302
240.402336915253585 -57.120911347126466 6.813215985452805
241.813571767982154 -57.182460546506647 18.036592679122830
242.136911301309965 -58.122376691461312 -0.367906766730404
242.434401126558413 -59.512073570326201 22.722011800264365
243.691115823587921 -56.393550246682366 12.687135101411501
243.129862835907318 -57.470961384563090 5.032825295886711
243.483073820550572 -57.939455395631015 4.495078513000319
244.694629510179055 -57.006158189190344 14.239979005707355
243.568161443276153 -58.588141787939357 23.329369249859926
243.888947864457435 -57.753945735119991 2.960751480476394
243.043512433202665 -56.725780605386035 4.332377531475403
243.955109390709197 -56.951895502896726 8.328829255806989
244.875039835367403 -58.706169697403404 -0.111609725707585
244.342733087443179 -58.026218801757544 4.845266635358096
244.579023262501664 -56.107371685394860 2.569818070688718
244.530872477613769 -58.554091324746430 22.802425626852109
247.437179808206338 -59.428650524012824 23.616202151185881
248.018718078002735 -57.258015422099170 3.009043633501155
249.641046999546973 -57.505184060699996 21.777813475057577
249.429301441261714 -57.230950565030149 2.917607315059697
250.774124532064945 -57.745932194630932 23.108952802833201
250.799152915464731 -57.481181095368363 4.456665429509441
252.467218883978745 -57.688845950882289 23.750938905158154
253.529681209005588 -59.263322732786918 25.289973499200165
253.724829479308454 -57.481925356276662 6.583675501301224
253.904553824123809 -56.094145635294169 23.653433201814469
253.966666733151612 -57.645269941055616 24.808658937429954
256.016147040656620 -57.468957779713406 24.604733475183611
256.253289613283016 -57.642505133054527 7.850841604106098
258.060998037328204 -57.914283741080190 26.987350061821012
258.114220530433158 -57.770207790242502 26.807440924631390
260.175646917947631 -57.490935612669830 29.135942336569322
260.393593443040402 -56.440980761655595 11.918088821066748
261.894952664116545 -57.563960920251937 10.536451897915640
262.782045153057481 -57.159103516042578 28.546100530953954
263.740523864709246 -58.078329641055227 9.393126536821445
265.255504318483815 -57.064333365982876 27.309818325827621
265.558525974968575 -56.895129779449469 -14.485845539019646
267.376768649528231 -57.027969018151992 -14.898052642398081
266.238796441448073 -56.302049073583333 -13.258249169229563
266.233071533323482 -57.375927654953628 10.179020998385765
268.875566776153903 -56.887892204053209 -14.401889902413446
269.483101688466718 -57.172089239833753 -12.985871882366174
271.691469519042187 -57.510678870600060 -13.044835298742752
270.951175608649237 -57.438343793273845 -11.632422522700551
272.257127499712112 -58.798581886909545 25.106714847167048
273.153811263221201 -57.019783982474763 11.790039321443659
272.864254489489099 -56.518310424290583 -11.412312339478063
274.731881614605243 -58.686530425083582 8.401487482608546
276.394966105476328 -58.409408190545733 23.898051809207587
282.112580550791733 -57.049366456665801 19.269616084742680
285.107084905896556 -57.907544159648296 7.759078402216838
286.164143192367931 -57.875794898992964 16.958581806492916
284.284476436480531 -56.589481011845841 9.682355066014457
286.027838983110826 -57.800652832492325 17.760097932777917
288.274392699226041 -56.849317676171196 9.253332990173961
288.572085293935345 -58.024807489127859 7.692977887835038
289.227956554414561 -58.498419678649334 7.421245591214038
289.125335113839640 -56.988134107050691 9.915582566675639
289.841012867097049 -59.017167230827056 13.472638755526493
289.905718135809536 -57.738820323823688 7.919299308692203
11.951789121406913 -58.676630513341138 31.116041416462508
15.491494834924913 -59.894391671064774 26.435225270113722
15.536371491777109 -57.960313730134644 26.079649439168513
16.621343993184045 -58.598940756991709 24.977285643615296
16.701070759934758 -59.658042513488617 46.315864217873489
17.710385619413138 -59.756578951506164 39.179947716705804
19.042286713977386 -58.328808427658856 31.729498752959113
18.616648477457815 -54.347042868004593 40.063323272768827
18.754864101837430 -55.596206548505393 30.246375737229496
19.034102403638034 -56.591346478095787 22.330878797023704
20.159036294125020 -56.167638573029784 22.324635609783485
21.161536993208824 -57.903115767900012 28.879087971354561
21.350636826974615 -58.770743549335648 23.096242087306720
22.863319662779421 -58.210462152935484 27.803995351913322
24.196459522387894 -58.133631603059925 44.410531632235219
24.034481884458174 -57.354453465858320 43.605650043981861
26.943780608543218 -55.853845417582086 51.056378445815881
28.298737598813041 -54.556844256697026 51.934277336096244
28.773940197070687 -57.976446144166651 19.629611197394489
30.214721735214429 -58.080965294184502 50.300556630288803
32.193191698498431 -57.713072465990905 28.028637320302963
31.604131798075418 -57.718563819636550 50.475534051927902
32.419382100171575 -59.036287051751145 27.487496014497204
35.168483984564368 -57.950994262728770 41.214610833228072
35.226149766180512 -57.465264468333302 22.948937017071614
35.302470346067061 -57.173265648553937 32.055319873663308
36.841214517409412 -58.030114820146018 38.172561752781640
37.169374400607190 -54.702812477024096 34.104029826114854
37.008158933281095 -60.642101935560660 36.247805328708949
38.337677257774693 -57.299573250511919 34.247198134314260
38.729783157654168 -55.159102589648057 34.572038844889398
39.508846457174080 -57.769594553088695 35.139799400896578
39.901587396285244 -58.339225478781032 43.648618489480199
40.164649746704292 -57.830428592460997 35.445090319993845
39.986532395408219 -59.605819794768436 31.120187542382567
39.796534402851066 -57.478121216396026 40.413103529733853
41.005339021673919 -58.781530163836742 40.248324517290790
42.845933560303145 -56.834947870745879 -58.137744398424715
42.078563831769479 -57.733450118324207 -55.438455336047994
42.555150874514773 -55.789554495940926 -69.301811535595363
44.141598386827418 -57.723336248372185 -47.939821591940785
44.961623367503591 -55.744553178635236 -76.094346101561356
45.686822856167439 -56.743835477990629 -44.511770000351646
47.226484891780110 -55.169987080891985 -43.491148501163757
45.991930343290690 -58.077988913429159 -42.475914072778757
46.911829057036414 -56.250296253274144 -82.581124658631850
49.375726462987245 -57.234257050563656 -84.477827041186757
48.067162242274385 -56.855284285536946 -29.261034799760154
48.411106827926744 -58.026867234793386 -25.986279208493944
49.467067922725228 -57.174112143137719 -25.120936576080815
49.287346891695513 -56.955271278157319 -22.538241272917674
50.826281628759745 -58.083684494715051 -86.381027768108623
49.616547573102466 -59.039736782212110 -20.909119159378164
51.012730762712678 -57.260689417181624 -87.005022170501007
52.470182835352922 -57.725423803762041 -88.042319113951223
51.972091914815316 -57.468522248323310 -89.057350887183972
51.520898767108449 -54.646089597228482 -12.235143080437512
53.816506815318668 -56.786484492298889 -89.105329317537453
52.533870063717693 -57.087121231275589 -11.683544491698292
53.271131996294592 -56.375667635120323 -10.621011480924318
53.885452519329903 -57.364723416406306 -9.331334083563423
54.237948071689146 -56.745011335319340 -90.866072964980290
55.367957074415237 -55.507953968630645 -92.138976859558838
56.506063508903473 -57.816867558984761 -91.333811796063031
56.910683725733826 -56.784785319139793 -7.034492720917443
55.854979185740049 -57.126555560757666 -7.679943473724721
57.758046944301704 -58.284798043880357 -7.283161660122380
58.356665032827472 -55.917035268646472 -94.548172397725295
57.846472784448387 -55.732668711108232 -6.490928768018908
57.453475830936917 -55.624936090606660 79.333381503292728
59.542790085910980 -53.922676552399068 -94.079277406454054
60.387915971339304 -54.825922060500886 -94.961449424261787
60.779061812945905 -57.006146309594513 96.175557688972134
61.036983895347937 -54.471136996377432 -7.513021024745047
60.906369987696799 -56.924497448089276 72.707345767019092
61.120522123779018 -57.942065734343444 -8.222613927449611
62.614740570176714 -57.050347519791387 -8.827110618360839
62.638431113256466 -57.468140504965923 71.587584069398730
62.646650610558069 -54.641613101100894 -19.634439182039419
62.793343962739250 -57.103385549362045 -16.432817905278124
63.246177202975460 -55.721079558485847 70.829882237501124
63.995198823380875 -57.079795619003825 -95.362878880339707
63.768715650805589 -55.818923281323798 -20.624801675682654
64.333253991240483 -57.063835884875033 99.798278424627398
63.815783455117625 -57.539113302606864 68.830494962438593
64.844563667930615 -57.751468388170224 -25.253463261298538
64.880270730496008 -58.416396378790594 68.744104860567859
65.738002839956465 -58.937067556467333 101.197526075558230
65.729918403044522 -56.886221277416794 67.869553074001516
67.498205338374504 -55.836845720427974 103.147485347014296
68.560292834773364 -57.154718142769383 -97.775441200634688
67.450755800495529 -56.054364422475643 -30.469229720319031
68.492501625278734 -56.180308652818340 66.957264146954358
69.770309987309346 -56.585763872019804 -97.488847374533975
69.639328206461997 -57.814891930143446 66.830437946800032
70.940705046367142 -58.671058933230043 103.069052772186055
72.461949879784555 -55.799314281050712 64.821294627735085
75.522149253260451 -58.728626236637744 -33.041380412172444
75.830497628224407 -57.214914168330274 64.592250663061662
76.441295063039462 -58.418244043002105 64.690827627520221
77.460741709971956 -54.439311975560940 -36.291052148632865
77.891521243257387 -57.085818275661467 -49.281807653558417
78.256036449332854 -56.903530777727930 -98.648576738897859
77.089711567181993 -55.846298163483006 105.438204741370598
79.844644377742526 -56.698641882156885 -51.990922605468079
78.932203537751320 -58.113978699673474 -35.568613109342756
79.480761704635725 -56.291449962418959 -47.572549378166322
80.290237751681403 -55.382886450545570 -38.223890415712376
79.856999025648150 -55.875202537338112 -37.184636770490584
78.254469140110416 -56.781591494693103 107.864237709354910
80.293216499926700 -57.280721758816895 64.601984333163955
79.860833792982405 -56.458010718855746 -54.880357195663620
80.201781340405276 -56.234554719534593 -45.297745663704895
81.221522211695060 -56.240763995484471 -57.734631974447183
82.708840695744414 -56.882942528884321 63.151388799992077
81.331033149694889 -58.626512686590445 106.403152858715302
82.369039223515642 -57.800649942419611 62.402637564325687
83.625931108959790 -58.647914390861573 106.110975254108624
83.755683365335216 -56.747393609896136 63.518689407291419
85.513672793088503 -57.439273311028401 -59.544642623280929
85.422740577909465 -58.024855328614315 106.393494843229050
85.670429011987366 -56.454458862085140 58.551326613753758
85.018361642964024 -55.591374034803891 63.952815588382599
86.276941875728710 -59.078256819755040 -98.762470897844224
84.635763456815909 -56.367386627924645 63.448522858186948
86.203818414087195 -55.534507066738314 63.853146320166857
88.437926993020454 -55.937324284091552 107.229586000188135
86.883430151112563 -56.644431847103974 63.123993244114132
88.199467192322274 -56.333262746459773 63.735744291378303
86.953434702535887 -56.478595812580998 59.338457705616761
88.242980393492132 -55.450073552861255 59.941908067781945
88.998056011796464 -57.851329776715119 -62.398712952786276
89.527087662292729 -56.887710560702764 -63.770485820596832
90.743215180322039 -55.897856085532105 -64.928762899498508
89.978346257847377 -57.523100886321160 59.826363543814757
90.416424362868710 -56.320471921937369 61.075840210122166
90.197777417741165 -55.740309958550952 60.792506655881610
91.685393420509712 -57.537296536340861 62.105127500043530
90.967048124518328 -55.651768809699611 62.117708757307582
91.632974183940604 -57.694697813293146 65.450882432333046
90.974116859643203 -56.104889002260869 65.513643513811473
90.185077846867443 -59.340435282674868 -98.674209306495740
91.251015693614775 -57.456864479341021 65.907801336086038
93.747508759535137 -56.908205881131366 -98.250668618208252
94.347687791157696 -59.715308947849309 -67.781317824923534
95.180575890296751 -57.984437619604662 -98.317026927181203
95.496689508516639 -57.131083850724579 105.734052186174651
96.222450407571571 -56.351214969092581 -68.162058288474171
95.511531588856428 -58.452417643903523 -97.623107418679055
97.469504907963781 -56.881298408607051 104.746426487115457
98.511141783170075 -56.025493299681557 76.861028912806432
98.893626033253483 -56.472789046960678 104.504652325970014
99.590098013470012 -57.802254503420649 -70.431059084379513
99.226951097409824 -55.383297075212887 80.013302535271478
99.818950274012110 -56.896412239677908 82.761426374563584
100.014678171481748 -57.113737409418093 -99.275324233984293
98.861903484112133 -57.064188450323414 67.078516441449551
99.365212574947932 -55.843429630630084 64.217967837803428
100.613394928222135 -56.691143714680315 67.726697917138267
99.030819814067797 -55.474170277315473 76.282524932046798
100.056297477461939 -55.149440890189730 81.818678886567142
100.201499563639501 -56.884994302234276 63.531825121430835
100.988596821152157 -56.689184884173457 79.227133210492113
98.854212582800017 -55.607497530708308 79.209518485857970
99.356011777261728 -57.470021566000192 64.948026282805770
101.086832631146180 -55.735327265807385 68.152234644539391
101.247367941697632 -57.992442477539221 68.464704045400026
100.762675583658805 -57.077526112896116 104.670333822280512
101.630502342183647 -55.950133987904742 63.845744705287295
101.294812780356324 -57.074355456107654 70.158048984231144
102.155946153948221 -55.679043973483346 60.100339954973627
101.438275369354898 -56.213806845801749 66.559105043247612
101.818018557946559 -55.349728034752118 82.686740975100506
102.014954424482852 -57.112836770744494 71.101988343588104
101.722013918504999 -55.176452434284691 86.397135273505853
100.739485011097216 -55.846461198962857 62.593098191440248
101.812978332490616 -57.125485817175871 103.679690780528247
102.833412491668412 -56.452062630485102 62.497926073688994
103.094259222259012 -57.645373880249494 71.685974622236145
103.275977167431591 -56.245717223635879 83.724922793076445
103.725267557193092 -56.560716161051310 57.688420747294778
103.514462095411645 -56.118467220352898 72.964890717903586
102.788305028066588 -56.658874167543750 80.029875030900556
104.039283363211851 -56.690198719350320 80.237507705059159
103.426701765795016 -56.211633094319346 82.935485342944773
103.764274336879794 -55.802597422858270 84.858314368547624
103.416281479725939 -55.363660172334285 102.172769385033746
104.556945369582465 -55.294870904717335 -97.478505864092966
104.742544149013895 -56.400964477945365 -72.128319632180023
104.327052290249142 -57.304204534988948 79.561955033918835
105.364144467340438 -55.873231701889971 -62.027229825109075
104.088649567493093 -55.942226512452322 60.993935556675986
104.738272017185693 -56.439027090710887 81.834012332826688
105.111733200673598 -55.667756306936923 -74.281786210815881
104.539060810677228 -56.529125839712570 54.761384675037128
105.137229830846437 -55.383020012609329 74.252250764561765
105.737836210561241 -56.803572727666577 -65.031237356754247
105.301337054970688 -56.753677117947404 56.623891035294427
105.007167488919364 -55.804410622643502 60.787630052253746
105.312860659153884 -55.361581194956081 75.671018172733739
105.336528889198391 -55.437752739090953 76.193177419443344
106.846261740252189 -57.137979200517726 77.711742029431221
106.750507946370476 -56.301577011095169 52.874802969693931
106.251403202101528 -56.221890968315051 74.632169987318264
105.058638660216090 -56.877744306879933 77.980782912306381
106.598142264126480 -56.678632755822896 -66.737496120001779
105.490756220141805 -57.038244990275409 -61.287682286468986
106.272204660661387 -56.293876131398044 59.205100445557697
107.565417407586907 -58.858740934376897 -97.290877242064568
106.530616092120397 -57.094401615477750 -60.722869342101752
105.737783465430425 -56.088942896678333 82.594441232695218
107.753405957264519 -56.813475364270531 -65.360364557785545
107.669459532119149 -56.684192422794062 -62.714810459708517
106.479509844362212 -56.193441862680992 52.991946809056230
106.617415467333117 -56.282867045505981 84.272738810814602
106.845799146589627 -57.207840235565300 -96.909929516402130
107.749628052878762 -57.150582723400426 83.848653912314660
108.843854279169037 -57.039056912057227 -75.322367500113941
106.751682331322598 -54.904294264296688 50.865941472071718
107.775803018735942 -57.682132409363597 83.849111436003113
107.067189220062588 -56.238130058749121 84.720944484265942
108.897779999881919 -55.343109936344923 56.732554623484724
108.658578146768477 -56.876018805126812 86.353312066668408
108.029581524449910 -56.801272393615960 55.820709166010730
108.591193565829784 -56.182582939534591 90.421252813207872
108.888741978045985 -58.201819594782144 91.684099403851278
108.736269294122977 -56.534698820979209 -70.950731198146087
108.551227452165833 -56.165366920846047 -61.278841905808804
110.695417815841992 -56.056792805576265 -71.665883262749489
109.878165034613872 -56.588394725735647 -70.985370318883028
110.385917872020357 -56.415120295468576 -69.236753612174738
110.048207623498186 -56.364729408362571 -60.759281304812525
109.358628654691088 -57.569310400072759 53.421119026560390
110.630443028425177 -56.463275876024476 -96.229113493970019
110.433469107719176 -56.377404749415618 -68.913533957882251
110.555443395095210 -55.422744584124196 -57.499349624481127
110.339190187457206 -56.248989386304856 49.113499383485681
110.438351586531283 -55.965076577327480 -71.575034323340304
110.970223953089217 -56.247405044798377 53.134234975668846
110.644002545045609 -57.220879111377755 -77.251560808095022
111.929408806935484 -55.412397518795736 -69.342086261350417
112.117069164728761 -56.549283839689998 -60.112384622278434
113.012324335212526 -56.202422230152322 -78.737369893962025
112.608428915781772 -57.582973995645524 51.180957959450481
112.409408039804248 -56.929817775023196 -69.149843337613390
113.447290279222898 -56.683817654090589 44.234292190419595
113.202286496304964 -57.215514865458999 50.603467065689266
115.516079577713185 -57.030402152662326 -96.327762992613700
115.382296122759143 -57.728389829768417 -69.394834816748045
114.370963345381085 -56.419982370949334 50.073433562552395
115.733580279246922 -56.465536321418881 42.824656325598134
116.192340713033502 -56.953058728043708 -95.747694818365332
115.798602875738510 -56.431370269627543 -82.967362158686711
116.714428877344005 -56.458466096576643 -77.475816904145788
117.020106602958094 -55.776264611817233 -78.614565677277099
117.325189663252687 -58.416592279549285 -57.949959844061539
117.805829032380856 -56.505891352436912 -55.769521403915277
116.501109302467157 -56.749634976599843 41.052016325653206
116.011648299998143 -56.178902845901817 48.358049659903344
117.213765782396635 -56.556300146813555 -81.468816858205329
117.484841549952236 -55.688014350660531 -80.641418589770396
115.797601423477360 -57.244738120292432 -69.767730637576364
118.213601491845139 -57.642862333893191 -66.202017966231139
117.789630289328116 -56.382619496480558 40.524144419163825
117.344857532259638 -56.510435420845511 47.975498845099956
117.411099819253977 -56.945653734547498 -84.044210682247581
118.259312866402794 -55.626192953158167 -79.950073251202483
118.035865417776620 -55.885975353224907 47.050053930921187
118.507220760379681 -57.480737864003920 -95.418391289347241
118.857081767343487 -57.612848901154393 -80.307410235418430
118.104463835590778 -56.946845946686665 39.942062064679781
118.513583195467518 -57.611724320587193 46.371434446221841
119.573367053853502 -57.397870265778295 -85.641234135177015
118.679941206108239 -56.957098386458661 -66.553684893439680
118.893142680406925 -57.239687078147107 -54.671303526796258
120.237540177140474 -56.301694365645339 44.964186361929777
121.081906869939885 -57.503496987359085 -57.307303842380662
120.157345149551361 -55.822480898317217 37.518951718436398
120.938377805140277 -56.762945502859992 -87.165904559334138
120.762986625562959 -56.998291287411149 -87.853771892599426
121.151349664413019 -57.327102627147362 -95.200955348428934
119.470583773954957 -56.900402683157488 37.432027068445166
121.583330682186897 -56.196968551947869 -94.150334118515985
121.552104853545160 -56.928216636756133 -67.382724178513200
121.532707341124265 -56.677867012488640 36.630396740202556
122.456425012378631 -57.902713883258265 -94.326763323314339
123.402946474512788 -58.854123169600321 -93.199088079340484
122.938350173973816 -57.443152532348734 -67.167096103725726
122.391251010436577 -54.787390697001754 -91.679644903992795
122.357461162003830 -56.527532259703918 -57.366955573429671
123.730806532914244 -55.251782775647584 -57.404286864179021
124.223840414340017 -55.987735541574501 41.780071481786031
124.500744916404159 -57.653844243900274 34.581782834004834
124.549905326598548 -56.327797604752490 -66.039803423314396
123.845456503491661 -56.781457237262657 -63.910709035814179
125.600917557668780 -55.887592500553076 -56.508430169750866
125.431223598326355 -56.735839828913882 34.113675243355502
125.596060451851088 -55.735344140564202 -53.861727112084651
125.705306761205435 -56.023904352817766 -62.398742093098271
126.413098799682842 -56.184805911792587 -58.821221033886303
125.774445714061358 -57.627753623200384 -55.983940508949047
125.932397109334616 -56.816517428817257 -63.900759625493180
126.873312750685741 -57.140974352987953 -61.158098308872695
127.666341873082530 -57.335104495106400 -60.839465172958256
127.402304659123686 -56.117640924075594 -59.205096807308813
126.442177712442302 -56.806557986265716 32.954527324368577
126.779521662315858 -56.115396599800881 -57.371531925945135
127.747975812788255 -56.589827647445375 31.440209234645536
127.235282845572797 -56.904814663270720 -60.015323784481858
127.614046361460112 -56.746092550823455 38.384998236742277
129.248728852516336 -56.882212240358150 -61.458150290015652
129.147264106621236 -55.536616095370832 -58.997464196236884
129.634365408757333 -55.453643067526187 -60.986406317553076
128.143843293478511 -56.506563754764031 -52.972847105072539
129.001392202771058 -56.230021859847596 37.982846655077630
129.260570515267602 -57.181687724216665 31.415772887596784
129.865852336636550 -57.575635861757881 29.609775678286244
130.131273746799877 -55.597228695650678 37.890921301416455
130.241221740546280 -55.583524300077109 -54.919432656901847
132.437401057401075 -56.989353797400597 -58.965643430736307
132.400690713276560 -56.068354749561259 -59.277285931273212
131.739724245230889 -55.745816645402840 -55.319723567206729
131.586463757201784 -56.365692173467835 -54.877069868964007
131.652076849902613 -56.759199100507672 30.041266526450052
131.023225093917603 -55.327609189120260 36.010747932198399
133.386049439933203 -55.699679995545893 33.512673492536372
133.448231404361252 -55.817252619216823 30.135525616831725
134.024373338079869 -56.824579610538848 32.020713705157078
133.851293271959833 -57.018871468422489 27.936223430357433
135.331953169460917 -56.502423987052360 28.465644840828407
135.274311039748852 -56.989842674607381 29.612328440052035
237.027920372053046 -56.968914324364619 4.744019880201000
238.144220352774909 -58.880529862544144 5.574225534990393
238.457843235203711 -54.888101898802148 8.729093218944540
240.552054015391008 -58.574653703039210 -2.027842890678774
239.165639950180548 -56.823038226102710 8.210703481951352
241.312834850936213 -55.555876482814107 0.392027321941744
240.018069210957094 -58.057626679259904 19.696285018386856
241.285093009689888 -57.555454474358470 -0.285872616319570
240.474715107576259 -55.032921160403681 19.350113421850615
241.386617685547947 -57.540736375307922 20.367683146814915
241.644849011560382 -55.514673442096729 0.552711709233888
241.391338638793428 -57.584890611428882 6.897543447932282
241.251293377030748 -58.875399606783610 16.964906053123840
241.997786672393971 -56.145072057449681 5.282137327175727
242.782540952385148 -58.090254375753567 14.706617371096948
245.080196493780278 -55.745182443584255 10.992376298648026
244.873102384356628 -56.475101113726446 9.337639440573472
245.370690644346695 -56.246952887856892 5.161371372314605
246.176959866241333 -56.096544559205057 3.121233468961386
244.422497194930799 -54.899508706928195 5.010407818403575
245.056288859045054 -56.163119724769153 8.002120641764730
245.672680184133412 -55.868867199044239 1.267170910079415
246.782787805294532 -56.219092375187344 23.450740156179119
247.674162883721948 -55.951778858450872 1.764067396111179
248.146040998839595 -55.978876756171033 1.627842235139567
247.876173240439215 -55.855713931784088 22.391224205794042
248.711462458249656 -56.687458397002629 22.661384843844129
250.664674210513795 -56.205381738495213 4.235090097581715
250.932308916160366 -55.241101605709197 6.830379215581408
251.860191950381051 -57.989790200834335 5.055460319898145
251.970931764580740 -56.073071370675706 24.212415425926970
252.322326794105834 -57.475085293183085 23.543035129945640
253.438740637528667 -55.731064484828707 6.931710800217125
252.635788850956715 -56.480372693021870 7.476538316654451
257.049007314903008 -55.873174373501925 9.719462889807780
258.776775369691165 -55.593300178338950 27.846236454694690
259.589774915640362 -55.963254005046984 12.133889621372125
259.929663200217419 -55.382607020374245 26.899667703728664
258.975210023363275 -56.641993184940063 11.354746630668851
261.341736661344157 -56.587466339920447 -15.402578747948628
260.736131148111042 -57.110524241661487 28.744599308878986
262.578992288668985 -56.017836859659219 -13.537066453084522
262.846741797812740 -55.634213003408135 -16.411480869587908
263.324550316723105 -56.019696772893710 -14.167626592126116
262.204236967407724 -55.547653716575233 13.383560473608533
264.845599022205874 -56.619162256603943 -12.373833106356930
265.710022177299948 -56.437244537343560 -16.711058719361674
266.876895763402899 -57.316766470984540 -16.343953477258609
268.740012866357631 -56.607893847017920 -16.629164479610449
267.333902214105251 -56.800847788197295 -12.266675862062048
269.097475845009455 -57.967456912391867 27.510478715034676
268.392500738416629 -55.813591411796089 -15.659838124309537
269.195367010648454 -55.584590953476770 12.765750858374755
269.072094552910528 -56.732145814563431 27.114228179911457
269.468587029765899 -56.830362889123812 -11.687228858061827
270.105735110268313 -58.875341892135545 26.626339474462824
271.396340241164239 -56.630315255736591 -15.871764397351793
