# This PCD file was generated using the MATLAB® pcwrite function
# from Computer Vision Toolbox®.
# .PCD v.7 - Point Cloud Data file format
VERSION .7
FIELDS x y z
SIZE 8 8 8
TYPE F F F
COUNT 1 1 1
WIDTH 800
HEIGHT 1
VIEWPOINT 0 0 0 1 0 0 0
POINTS 800
DATA ascii
71.655213014822451 -70.351632628554285 74.556445027740935
76.532588463642952 -71.573777412184086 73.880588542844663
72.647978209466956 -70.581690220006166 74.186109098397196
76.785275549257179 -71.488714895543808 -91.464691636867826
73.965509468135053 -71.617012925341186 73.891023580994954
75.617525246162003 -71.755744233092045 77.320916570371651
76.574380475300359 -71.883840992795044 -23.693467114929629
74.430532747658091 -70.184417058201333 98.256648664197854
75.618854914269789 -68.761954708504049 97.908866275632462
76.415635447633392 -71.288379178109793 -36.063204546805899
77.877009745579770 -71.822116666636759 -32.388309726400273
76.372859981930603 -69.232956537271619 -32.754295356747747
76.703597029193901 -69.173591498357638 71.879211422669030
76.465933023491985 -71.275026190882443 -37.278002616676659
79.644116989577981 -69.180731239825178 -31.102498667562834
78.198140136233391 -74.113719591771584 96.892852723954547
77.069600440482802 -70.639011391400501 97.795770084572794
77.674156762091428 -71.447197135392386 -38.148650779682654
77.837723960531747 -72.667779137246029 -91.313599829192810
83.268225088554829 -70.944294865937422 -92.485870616133056
78.309017914551319 -71.021005795553549 98.831454114436227
81.063318629963987 -70.723173395703057 71.669488840090480
81.699919622588325 -70.654029515311095 -40.281296393120769
80.975500230466579 -70.063270207595451 71.227520791800160
83.030890288665574 -72.279142099129359 -42.592479343466238
83.365225394951764 -70.304434025002763 -42.265525777297213
84.167370558984075 -72.495338965662668 -91.568577991916570
84.672621439301224 -69.289378931691573 100.391269565960997
82.815155473575743 -70.299008570231408 99.438677862654927
83.969989344024384 -71.572987071671662 -44.473612956207525
84.197029259512263 -71.423155028178613 100.541148716446330
87.379694649142706 -72.401175411246342 -88.924465237189963
87.728957105467998 -70.978253783089073 -48.901058386484820
88.215544947602439 -69.034427083016880 -95.440248279699603
85.855740192640212 -72.372992094216400 71.453275124043955
88.745740599692084 -71.379470132052646 -51.507423447001393
86.870505306769047 -69.955474702421199 98.950226415322419
88.876017581761204 -69.881569659458847 100.751138067574615
89.024024701259592 -70.726018791033042 56.933943203594431
87.255779450033060 -70.878504087757705 61.165529405950124
90.313342895513969 -69.468302658530220 61.359452229019894
89.751488073074768 -70.379923917258282 59.969975155353040
90.804405517461106 -70.912178954324844 71.380161118683148
89.025655845331272 -72.484865265600490 -53.083211925198242
88.511386018109008 -68.958345459995670 55.662532544760374
92.520245214361140 -70.296026837804263 -91.209889928382069
91.629445361953799 -70.844846583969129 -56.011200229576254
89.584411464913288 -70.673775240272278 59.240540108737385
90.317973652798301 -70.982233828293758 100.347297410206821
89.101613334420520 -72.348036399856554 53.591388666044494
88.468710924623309 -70.350086101002915 61.837036414805489
88.021162365128859 -70.200735085053196 72.188221643479139
90.378312541927642 -65.751403351213767 -62.247514483082306
94.284883580613553 -72.004044092323710 -56.000640455716336
91.954110985676280 -68.651188305439234 51.825519158116052
92.982989105720691 -70.149114405877611 61.503443789027934
92.443759690375899 -72.419623484740171 -57.897600919732390
93.122855677477489 -71.005344406638457 56.044705810383853
92.322198032934878 -69.702024179790200 -62.136506941694073
93.661803756667254 -72.704912218387193 55.368929748385504
92.169873829136279 -71.676622950507920 58.471253461700108
91.534118695580517 -72.014781248175865 72.597456709281118
91.555881576596349 -72.023740850899856 -63.859980586173478
91.518501974422222 -70.633391745007870 50.363543750026878
92.930249333304161 -71.700155937205366 55.947061538015639
95.638948195595887 -70.479957450456197 56.749834612135110
94.632004506961735 -71.213951440394666 60.642528681085395
94.621881301683842 -69.952734804177851 50.541456798216117
93.408367859102768 -69.883471965600307 97.287368175049366
93.679915588439940 -70.091271343822285 -95.430055308721833
95.261734813296258 -70.772777597059260 58.723622182402821
96.385011943891996 -71.834893300327479 61.446620467909014
95.118941816267267 -70.672554626717087 51.595332483214911
96.035712367246475 -71.333122571109129 54.274266828023002
93.823887880519820 -70.664447394138350 73.538485892203070
93.382539528115302 -71.211536077080538 47.684554448894161
95.379332905076794 -71.013972127507245 97.058214320803316
97.149715922967744 -70.028795773182040 -91.110076615186514
97.901040683988896 -71.496309916345496 106.503857490196538
97.032822635480684 -69.442224013585587 49.924759313730945
97.871831237068264 -70.116884953915033 57.189267016111692
96.640412495607379 -68.525584239598729 59.598129428069988
97.140030759321192 -70.693001920189971 104.596476815440823
97.507617113427486 -69.066189901822185 98.164149114495530
98.033008990910574 -69.181999774017811 60.012303631941904
97.338973908394962 -70.660619852588681 102.132310319978629
98.524593652546542 -69.620977089905608 98.417478251524500
98.702246442454012 -69.937405104832266 -67.078089106198590
98.704305456932445 -70.252403562684250 -66.269158061639885
98.344936192286255 -71.459140833048821 56.648452073408144
101.706298344211945 -68.172046127128681 59.975822915338419
97.689061570847954 -70.521497013617576 96.241666993471043
99.545324884994926 -72.300175625924254 -76.642348213667489
101.205149830582968 -72.032714155309691 -77.941739071937533
100.397710621989106 -70.788151071990754 46.246919847960463
100.374437023405704 -70.272929503090552 -74.338501066185302
98.725842629215947 -70.721443134237987 77.978021957381941
100.684591793197498 -70.666819882195725 85.225207288477307
99.887729632688192 -71.034816725005385 103.787342305136406
102.975510292369009 -71.705742764536041 -79.639356986105753
99.860221038221965 -74.069278927025195 -66.570290242447257
102.887108295121081 -69.625141180078060 45.944555987993809
99.063547724171372 -70.144217171875113 57.196473586438728
99.586711111837886 -70.964464758192761 85.055558582368235
102.569495960083074 -70.942809966233938 109.317726666312552
103.382849019351625 -72.528711797958479 -68.395463906275737
100.524391553437340 -70.647307559058490 43.635295221386009
100.315815242692082 -71.409602391451415 85.988767355399716
98.999709713025325 -70.951896508049899 93.639517447994166
98.544426070646381 -70.912276921959773 96.368332407301494
100.313648234978402 -70.556889504042061 58.558062131594191
100.213393428941686 -69.382809078215487 85.524111078287561
101.811468095767523 -70.272618395876677 83.311914517518119
102.590684317358878 -69.052211766656512 92.661811914299321
102.050269407507827 -69.610592773317762 43.314003572982010
100.728145283407670 -71.125725457328329 78.662559944005153
103.074221362059376 -71.851126221868114 90.204412893396778
103.181497043997197 -70.761231281872497 89.579428178859075
102.877994982286651 -71.077410704236243 106.608113098347147
103.854735951441796 -71.206859631864418 110.691555121755471
103.505566100903849 -68.231904761604284 -81.872229101162048
102.518325113873885 -72.570073512859835 55.470655021234492
103.822849558952257 -70.050464279624848 -80.037584785122164
103.659736554830616 -72.894777452730480 43.411313634939184
105.502591208294490 -71.199796293316609 43.512424478312759
103.043433863576965 -69.869205410079644 104.939468489873903
105.684579480709999 -71.364294949136237 -81.681049316891887
105.868904023359448 -70.203435839122633 42.649466976967481
106.409722950996127 -70.830463879072880 105.638345841363517
103.722363432914761 -69.926960931570434 109.923184869912546
105.124039039800394 -71.907763302489187 55.350357878858588
106.667421452194986 -71.556149959168565 53.510252819712406
104.428529078320281 -71.831234706303633 54.491357660378981
105.255658111491357 -71.667292413489079 40.669213504548807
108.851244223232314 -71.336700599836874 39.376596447998764
106.971962837100790 -70.598055021449142 51.399224805168345
109.221286677159810 -71.972250289650731 111.911986072783819
106.727639944978236 -69.684746052691594 -93.154062036969307
109.727925633312893 -71.459185797523631 -83.805732132310240
107.887386940541290 -70.543579999161736 40.003181097561090
107.034311678276737 -73.683610318822105 50.756151167922695
106.344425374674884 -70.501495500141047 105.824530977993675
109.064581932206295 -71.066204668242420 41.606426100082523
109.523030848277998 -70.351406521047167 52.007318425252279
108.310707205736676 -69.933576357224339 110.403867198606392
108.350175601330733 -70.093434419728894 41.596394369694195
108.387939075144999 -68.001681061164888 112.394916055734640
112.606831849327605 -70.992628221686275 -91.983066603147435
108.281548069069771 -71.838325245795716 48.813964650829114
110.304451155428438 -72.220012790992598 107.751809497319911
110.829605428388376 -70.824458634812288 112.711973361007736
110.775085887482163 -71.697952763228798 -85.784903185360648
112.595459205584504 -73.286836698243292 106.180367870377907
114.315305711866984 -70.408629595716718 110.363665689226039
110.805229921464687 -68.481331769460411 39.262408441753514
114.687613169279516 -73.550244190426440 51.433970871190617
111.636291619442972 -71.129415705266140 108.522479915619954
112.506955356233107 -72.573143227367765 37.357795162884621
114.532041443062738 -72.975822734633510 50.046121562925528
112.699702333992917 -70.807513183514985 48.173018977124556
115.668647664415076 -72.718894500596761 -84.830267936798208
114.231714067392190 -69.040410283852253 36.981977174964953
112.512648480649020 -71.117450996676936 39.381722559206843
113.249830367707787 -70.745981076176619 112.393772300452426
115.436769414275730 -70.335359985387853 48.499106210539878
113.172055592805947 -71.834014796506878 111.100449806049227
113.581037062189793 -70.914257688841190 -90.221042597704539
116.716806193545040 -69.609643568880188 111.231029690292971
115.356797397793230 -71.100819161846957 34.714239097637261
113.813086295815793 -73.589023712191803 38.458106597287973
111.616844600813891 -72.771165699997525 107.662467625535498
114.052974122000961 -71.588864005229539 113.860501109247963
116.797282133338811 -71.671660139125336 -93.387371268860335
119.353948985308634 -72.898613405967822 -89.600461910545377
115.761676720659594 -69.929489165114177 107.008022166556799
114.890687667885075 -71.703581867528527 114.887966763843522
117.945100080955399 -70.864330378557852 -89.891598195877862
117.579686477475533 -70.580088018101833 108.666067363957751
116.258710053484890 -73.242541807816636 115.309371272305597
118.499074951671645 -70.806783539092507 -91.094158532218316
119.262143842965273 -70.729049190139577 -91.084793111272944
118.307219145803614 -71.096760320361284 35.485688198925388
116.506790393770785 -69.553512918995835 46.977715771604288
117.243418697062836 -70.349090839476773 47.764061737218356
119.225301038941524 -70.971607490957823 35.462903190419304
118.737459355869291 -69.211495991272486 111.942840535345184
119.514684275670831 -71.457344654506670 107.906002104312634
118.986176196610003 -72.653332995005371 111.521926342743953
120.934187635649579 -69.173572220499992 112.331245179304887
121.874408721910470 -71.343940836113603 36.911647733630211
121.476898471872971 -70.172990908162006 110.571201452136634
121.877928339678732 -69.704285749615750 115.760741674550616
120.978202382202980 -71.899157943407090 32.954810765224067
122.834499869561355 -73.071062486514805 34.040714550190934
123.140156047805277 -69.557312189747520 37.473562300129778
122.743409623815921 -72.726114895033518 45.052985533030302
119.663064473327637 -71.228887018530429 110.746011258516546
123.129070512158705 -73.363027649811571 44.154815102098652
124.736242968392872 -71.354405766931762 111.021829602971494
124.073456861095991 -70.657633544912684 41.493910497282876
122.278802010620723 -69.044823851526317 114.184579952557044
123.429774348884351 -72.160890293037596 31.242108135468069
124.805595112524003 -72.735340665479413 34.666401058171047
124.017534498521172 -72.221553944239190 111.721934991303570
123.149976644592826 -72.170664504283238 117.307032389191534
124.064050586163631 -70.563603990191893 113.404115027054459
124.852356175373615 -72.003415287917065 33.259054015996192
126.022594064940591 -70.780264893045569 42.720919186968878
124.928783135814641 -71.816600565703865 108.549567671947599
126.178297207444416 -72.931933943682182 113.582514122770164
124.763234492763431 -72.015658184546510 111.854383944926127
126.367590055200239 -71.004657204092354 29.491862513447920
128.327251614071201 -71.196404468707740 31.658158895659980
126.169495266554961 -71.932812186689205 34.697893524732443
127.689232642345218 -72.488501643490778 40.999097159934905
129.909010738595043 -70.999567873006598 38.471582621148436
126.168010062909488 -70.959765259286598 43.472094449924519
127.257489910000913 -69.524781605214287 113.929513294100730
126.017545752531831 -70.591482862080326 116.537887236828894
129.170445496575809 -66.492004520053200 41.270737018328909
127.349179613782852 -70.952325768934116 31.446470835735195
127.793603127490286 -71.336608137698789 115.913497726360347
128.306830052077913 -71.678056426707698 -56.729192224036339
127.805118298651522 -70.967256715240595 40.817227088049869
130.342875933444333 -71.271941520084624 30.613748719573088
127.964482549575465 -71.427047979553549 108.617256125086797
130.818212612409781 -71.177423596398882 -53.773109599020501
131.984726645116808 -70.263093072999894 115.467929774208045
131.951002499917365 -70.973915989851633 -56.196581274455156
129.508263981505706 -70.860292738013726 31.768490964389951
130.189305443968095 -69.851117227299170 42.051535504565422
133.290460565396188 -71.175862806288237 -52.173827055294502
132.907080624692185 -70.737455893508582 -51.199993819601829
132.537366410269811 -69.690967951520591 41.323961353960414
133.836743951051886 -69.839231321909736 -54.589698493163922
127.699505508692056 -71.035306972591329 111.753207140470877
134.875389316544016 -70.318855580586714 30.352888805706268
133.218764151257886 -70.924807123936873 -49.935982400442875
132.443599522249684 -68.747844711104534 27.430210635205039
129.671322197243484 -70.224914013692839 111.229964502707787
134.613539670735037 -70.967340989157123 -49.501376766090580
133.695507065266042 -71.973280538073666 -56.895593707713047
134.251827568670052 -71.847401685495072 117.476386814488578
135.265558326239756 -71.303320105740539 -73.143997202826540
135.102231151797270 -70.053909970978296 -58.140693582125138
133.902800844406016 -71.051130149296995 -47.413433669361162
136.079431010754689 -71.120119001839527 28.393937396265510
134.375625191125835 -70.934645549603445 38.600551918276011
134.174511016432319 -71.729492289410928 40.361067636996701
133.353142675447316 -70.056627751745268 -75.249214780883221
137.485703581221799 -72.447084718666829 -57.898544451063117
134.576477883079974 -69.669849446074565 32.248921883955916
133.747224714547741 -70.974423429108199 118.608131110964450
137.130466382336323 -70.604991649000880 -59.364197181499797
135.910270790790491 -70.057016341858045 -54.820333995303479
137.683187515828280 -72.906385289149384 -52.914546950170191
134.891398348156343 -68.626844933898525 -52.543967308190865
135.759278133492330 -69.934011029697260 115.403811716889393
135.456606949921223 -70.799324061011689 -72.609091012325806
138.915729221928274 -72.289711002568836 -50.270970332691398
136.241969151682667 -70.426557559291908 28.309774956612209
136.128901173656203 -71.709980599235493 114.689255000577035
134.044040593328248 -70.442369869200292 -75.949469373757921
136.523712483858276 -70.591692443825949 -73.283864119363258
136.119311354421228 -70.466458900662445 26.395208037385895
137.211760052598720 -70.638461232030409 -48.061126606975307
138.095017007347138 -72.110315694402786 -54.379356837975578
135.383772700843224 -72.204666353827463 112.281427246090473
136.632941155475407 -71.857783667979675 37.324554985241555
138.532375661713957 -71.445089194844570 37.138587954578803
139.217400324798433 -72.691572684477762 118.990176841893316
140.642029524837625 -73.214549851924232 -73.510199732616542
137.224738461658006 -71.810119252579582 30.014398663766272
136.634467845350656 -69.409220354526468 111.089605446456275
138.168149140722562 -72.150205881583489 114.661944707501846
139.306563073493521 -72.855520285433784 29.118953646381485
136.858808479756618 -72.192966264617269 -72.051932862285241
140.652562626052173 -70.230623262573431 -56.283383886346961
138.378321602655546 -71.999824641411564 110.248756941020829
139.862483934984994 -71.095065544074714 -55.703050027412225
138.865318104394333 -70.408836618232527 26.745090095793739
140.143924110397762 -72.583026324258398 -69.522498473613510
136.768552022215715 -71.653349299768422 38.893003543298647
142.383281304222237 -73.199538300479006 -70.173648147894667
140.970554806827380 -69.209253517150813 -45.645787816671387
141.052217301903966 -69.327827164188548 -44.486194553240111
139.212219383329142 -69.310093588159788 28.543520924713093
141.765901444453988 -71.753972770206033 38.778293766316217
140.918574476423004 -71.162101370998371 111.215115068726334
140.296231471730636 -70.740275055890208 -75.862850435627536
138.804089463360526 -72.211459855446435 -56.588748420969360
142.613443671018274 -72.127124193140858 -52.959729013915805
140.716742328108779 -68.749548098302895 -47.130114833192444
141.460911302861376 -70.637062299118512 -43.913387454720585
139.580161209786326 -72.539448023294995 28.040228904556415
141.716800780204295 -70.279302994633937 115.177204896515235
138.258523773855870 -69.298871718184714 36.723676513624554
142.128988230900234 -72.491712739864326 -69.383669443187401
140.935520838232179 -71.183125966522994 24.691445412773469
142.036767599473336 -71.619764336558617 114.951475538709190
142.306515111918486 -71.289647075589173 -43.111124857096812
141.269294620185860 -72.007424416582651 36.276961611925195
145.867606242251611 -69.188389632693330 -71.586923081929086
145.367118786206731 -70.102667930858885 -68.499030256702881
141.926374225740545 -70.442427379631027 116.277957082417885
142.082026788689262 -71.615724425343075 118.797789389827088
141.626856815443233 -71.018175060175849 -58.568033290321829
141.453471506543565 -69.616189277046246 -40.882870241056438
141.147215911720110 -71.553222854690617 27.882946422880011
143.199780852611553 -70.445965598308973 25.755943561113110
144.543391395938102 -71.649715407136398 37.267273196336788
143.151104604581064 -70.680874945784225 109.458306777464486
144.993649176897804 -71.335228531027226 -69.919962434433103
143.565899437914254 -70.609371922923685 -67.462899768949228
143.865890153785671 -71.638089479526442 -57.008588700936635
143.053448046014239 -69.810216103605725 -52.353131177311177
143.594201650738995 -73.046700027482800 -43.629657224865419
145.039610726788595 -70.604780541448079 -41.050062232040830
146.976960799132740 -70.639183242424849 -71.086571494472992
146.498577282402181 -70.334746918715823 -55.609946624225245
146.919381217882744 -70.689173041580347 -43.472650069875748
146.796198348080964 -70.702273526193508 25.782341958697423
146.203804475588584 -71.634713977552607 -67.094961964545732
147.555491598773756 -71.294056302585659 -40.431383170273612
145.555915146861395 -70.274483102471578 36.690699146100954
143.537341645986714 -69.171255551142082 114.054345458876909
145.939697827231583 -69.243043885140651 -73.107493337475404
146.841980443799258 -69.147823885370968 -69.020622382779251
144.702646868956606 -70.504549263088023 -40.484644127231341
147.727921594073791 -69.501675416847590 24.400418853411612
148.325053408691844 -71.706686429730780 35.677627977343626
143.665166145450513 -71.311779781733534 113.623197724472362
145.752689995026770 -71.000149810636714 114.089453231205709
146.742265659740980 -70.153779203749082 -66.566284840563114
148.062607674629248 -71.685475467160714 -53.344816347378718
149.517542084802528 -71.062449967137567 -73.659179404394749
148.894866917651740 -70.547401159945764 -71.075272092266573
148.811997526869135 -70.668804889333131 -64.869055904604565
148.851826214432577 -72.686940458791454 -42.640067374055185
147.306165016221826 -70.877723814225760 -68.854781994740065
148.977474894106507 -70.618171021325978 -53.287797754938737
149.527115963157883 -70.878074596498806 24.447673731285267
149.635450516558365 -71.113480454684151 113.545729315764163
145.260466583875200 -71.164159709223142 119.309224615926865
150.241225776044189 -70.250708390190979 -51.318412688287822
148.930607302679903 -71.506102362289795 -68.687460193475033
148.052572711215674 -69.510517979959403 -68.628440634635680
149.938895685921239 -71.947153416268975 -52.908527555540076
150.223420641149005 -71.486140777778516 34.275303986288911
147.473284121862918 -71.905084120556694 111.410448858167427
145.817146685806762 -70.460330499670590 114.187748664664824
151.407610075619942 -69.590839537772325 118.473915548225321
148.777989863552079 -69.388918075255560 -67.622756397812111
149.959545406682111 -71.933324601580296 -64.895747602161364
149.548165699195437 -71.124145580684782 -38.517571129376783
152.509828361539121 -70.924378340925472 113.323213409166357
152.519289068872553 -70.090308149925647 -51.477330516090817
151.615491916747942 -74.278351359534511 -50.562952063860173
150.680556714537886 -71.996315984835903 -41.754485814506893
149.915372217054909 -69.663472114600324 28.369367300392625
151.807953573797874 -69.704161862448316 35.773457083255536
150.693235706647556 -68.678875950071870 112.808922847509805
150.270815257240542 -68.584737004248154 -71.969264045357207
151.263347293903053 -69.182138416218152 -70.646976868152777
150.794290629767914 -70.345998937151833 -64.110106255063471
150.877212127917744 -70.389372782160052 13.184163974771417
150.819522873810172 -70.176520426184481 109.136380907742534
152.619860553615894 -71.520024968618685 -67.017766200218603
152.594001826605705 -70.318487569723857 -66.399544559751490
153.094588346247320 -69.501562196182689 15.216389214628162
152.140140244424174 -70.597731989004899 116.126834392394670
152.689604688210352 -70.106576463868379 -67.080711041280651
152.519218464322392 -70.476716168486490 -68.345878022525099
151.373181878733448 -73.234595666790952 -37.201549216070752
152.152386638127581 -71.895098449369087 -38.116809529749659
153.268710374576870 -73.196669323999444 11.360903159392834
154.634708498144164 -69.552140328605631 34.929886714687491
149.536460226111075 -71.423898906339986 115.168085857896259
153.506511565838849 -70.050333784742662 -38.794134220791797
151.242688488155352 -72.590476323474221 -36.706904394576704
153.400932123796110 -71.448510865554496 13.075946181621395
151.534069746012790 -73.238087925596218 24.290562437773328
153.569347491882837 -71.525684715876380 10.084852242848799
153.805876286146344 -69.456677835655185 114.756820143787266
154.028214323159403 -72.240089293771078 -69.891985332719770
153.876368889377034 -71.478877899210630 -46.766287554904117
153.538875897945672 -70.075688727927144 114.269824066698320
155.454872376175416 -70.496402838518975 -66.718127648431960
153.675244753097104 -71.709025858880196 -62.644500733829091
153.714715675402573 -70.274132640078889 -50.739495301892077
154.769945463899205 -73.479244347223343 7.001181856548139
154.589625412546468 -72.376026018324708 22.277488287941619
154.272273645269905 -70.558977599706708 -38.572166703419825
154.406933636177513 -72.134056522040339 14.318713482269652
156.053388878098417 -72.531231597573523 113.186360457418601
155.089573094366784 -73.536288638330561 119.190983130890160
157.177921473994729 -71.419918891792989 -70.352804094940794
155.153254221473048 -70.955474786801688 -35.479544703204205
155.294375738518113 -70.511664511051336 -66.489435725940254
154.696441710180835 -71.117108152946244 -65.043455898693153
154.654666361878782 -70.751489451075315 7.344224279506719
154.446186732994278 -68.934732520740624 15.511384108905931
155.007282482542678 -68.887561226052100 -66.019844424870016
156.049770596544278 -70.614973986453862 21.897166925859477
155.246282960520148 -72.819532948863980 -72.324111315773663
157.703321080633685 -71.324138146808309 -48.266289676360977
157.052761154009630 -72.609410915744036 17.015612776524701
157.073241787124857 -69.538189418520446 31.323375960467938
155.231435501276735 -72.492944305115586 35.796325570413273
157.643711647486867 -70.733391113099913 -36.349444632155482
157.611512148613912 -67.839537409807775 14.803831418058556
155.141194965912263 -72.601154633395566 31.952264166578420
153.189756997871370 -70.201525223614752 108.732494100680498
155.594855090841065 -68.106624356174038 -61.446466827473728
156.848319602616584 -70.474804607942133 5.815452717502876
156.644131962325559 -70.349158397842800 16.046474257034298
157.648992217939480 -70.101103775624082 -43.718620352608262
158.040429345824833 -71.883580422560058 -33.628988734715406
157.035650678905625 -72.319372991430257 13.968324997857435
156.060769958628157 -70.264880860490152 115.176234843476038
156.779141632093683 -71.038970755197553 -35.219053798354203
158.361768130246304 -71.981163267429778 4.457534335560064
158.145560298839428 -70.410759270318579 17.787698668861161
156.291432784797138 -69.059387798399641 110.479539774269895
155.972716602661791 -71.348838527550697 117.068415290214219
160.628420186428258 -69.602930361780551 11.042699725764368
156.598451265119991 -70.769733415285771 115.557349091662218
158.224463351310447 -71.227215742693303 15.857218509220397
158.610543094027321 -72.006337520039651 20.223159722911511
159.442624874423814 -70.057685904139106 32.543857285348288
160.347649594117286 -72.365231916443960 -47.121943645437810
157.856083035007970 -69.977604526444821 112.970428543137487
158.113131628080907 -71.656712339092252 -32.146823784829571
160.449255754880966 -71.983105946504509 3.597130594671350
159.183978480882558 -71.404649446312661 10.901089917716263
160.153442341085253 -69.989151632760638 114.545310793391153
158.667098273933988 -71.582936824747975 118.835182914583015
159.997833877042609 -70.153168642832313 23.200417157414122
160.158478122950044 -70.026798877975310 -62.600092843079146
161.626339245321645 -70.550510121532980 2.843977817223384
158.613099111051412 -70.846804573130299 30.104026369463476
162.095835467056247 -71.652328805961034 -66.241564192629468
161.528265186407083 -73.832147493094467 -33.483732574401913
163.159282909588143 -71.191387370760253 -32.988292600754875
160.208929829055450 -72.362520734777732 9.588054451921227
163.014427222424530 -70.835414111084873 31.374273233607813
158.520355957916593 -71.705602924044740 116.513458412688209
162.577502206674751 -71.102463658229937 -45.204364223645463
160.527446862815680 -71.693440445177572 9.657143976947239
162.442957252815432 -72.408186204635015 113.447971747618766
161.740607373536193 -70.616244174221436 -41.850219257735411
159.345807876289399 -71.476425333968990 -31.111224624414206
160.487549756319908 -69.668834118908890 24.203636528936201
162.338356726643553 -70.635491027278547 -47.130335542537097
163.079353967144641 -71.759735564234518 7.415776479192931
162.595372594244736 -70.018503952018293 19.189738837175813
161.968124627602464 -69.125167179874779 -42.287692837748502
162.366693186940040 -71.702159948270818 1.198264090161749
160.074993101731593 -71.407866783019728 108.124007219571993
162.240569668512705 -70.520880626436693 118.173987049555151
163.501748619060237 -71.482731909918130 6.773866458704653
163.092833148684605 -72.963572651525226 29.685077547435952
165.183755184764294 -71.429572245649226 112.239369758933904
161.038824620304126 -70.878750715714332 114.397642507179995
163.208070386053407 -70.264611646672137 -62.314791301193026
164.095794463461516 -71.481232513658924 -59.523613031930623
165.089876576219211 -71.165477694603268 -42.906807183227315
161.452366364685332 -68.774798802557811 1.398052432700956
161.773989257917094 -68.309357450638558 111.761667328216404
164.324176241534389 -70.415848402258632 -44.067534836612808
161.888328697669607 -69.818982959493141 4.373030436324110
163.943304489619720 -70.410997043312278 20.263600574681391
166.385618552054382 -69.885971344718513 30.860492182275369
166.783460307113074 -70.166249807106354 -64.874713296060406
163.588703709620603 -70.717462456172811 -31.637397466873651
164.124838356642556 -72.241800863293733 2.166176776838879
163.144979959617785 -71.801340924512601 1.481854774245438
165.228584719143981 -69.867756679146837 -61.036599135309601
165.277314128833098 -70.498689171150502 -33.530247253026815
165.320828722428615 -70.337991518274649 21.999188970367708
165.625234959231477 -71.201553101586512 -42.133015262831975
164.915102573903880 -71.423630762478936 -29.348023399728834
163.254621074994049 -71.578199172747148 -0.036940285962122
164.817473498533502 -69.907646515896161 3.302244560587073
164.827548841631398 -70.139217172655393 115.476049975872755
164.593061242662344 -71.562102023983456 -64.189770680861287
164.095784865594482 -70.937258764426701 19.187155881068794
166.006114910006261 -70.445954434641934 -63.080701714865114
164.901544901284751 -69.144892076761224 -60.279226357812341
164.238970245515361 -70.881486292547294 -43.129201179229504
163.301427211029619 -71.190169756922188 -33.745622182691285
167.041440149232329 -70.305695641613553 -28.003626185671180
165.572285086129199 -71.415283260054977 30.166863115680119
164.458164367571840 -69.812367678843188 111.714382856147324
165.880852439418305 -71.115233409316787 -63.794567005014272
166.540994485259461 -70.873555596874596 -28.215494303483954
168.000437287348376 -72.836984429746295 32.778496891049926
166.928904849811715 -71.881252276894742 -39.622994136268950
167.744465991751127 -72.515733007580636 -28.230486230240757
165.345630189989777 -72.045533335343308 109.180377548433640
166.127598437713800 -69.080685324379729 -62.976410078285696
168.544256395539350 -70.946123847913881 -39.533142107797197
167.059387090048176 -72.144899587905059 -31.380902427783866
165.856775561060715 -70.709716790068612 111.185903211190364
165.918434487436116 -70.734324917585070 -61.897187040142242
167.377099804427758 -69.446214343176621 112.551220726010158
168.515101774806908 -71.315690246194364 -43.185159121429201
169.252605926184486 -70.184472020139751 -29.948729618562297
167.749784078990302 -69.527418397955032 110.597017230189607
168.586238007141077 -70.770155431007765 -56.317109745656573
169.649481278191644 -70.015467104303355 -26.953353384500723
167.887158613670778 -71.539832549810811 19.583059337181080
166.070727340050297 -72.381010527653316 118.596347724300742
166.378205195605801 -68.805827449420576 -62.640488931246402
166.250139957548441 -70.460334723302466 -59.750917247495117
169.171924011785961 -71.453794376350970 -40.417726742400603
170.136630727015898 -71.272194694580079 30.416682109807045
170.297681249197609 -70.442469459842073 31.055430294121656
167.963479838783172 -70.644981011402294 108.512681982575600
170.094717862050771 -71.417544750706611 -59.935490226934370
169.611579415270938 -70.938048281835108 -56.805462167417609
169.870059798680018 -69.444503824895392 111.241738921559929
170.809067471383713 -69.167778289291903 -61.370341223223562
170.211668565285663 -71.319719652510628 -37.552949132637565
168.783222913283311 -69.546177857508042 -38.383159162698206
170.810547925839813 -70.005665119142421 112.500262990975074
169.330318036441753 -69.170288491300497 -56.853998269524411
172.201351621699274 -73.004420114686894 28.049905789189435
172.496106405187390 -71.207580440173345 112.062049207076072
170.253196981186107 -70.315258889068673 -30.446715044349418
169.841593855773709 -71.770163772051447 -27.080519061639230
170.696180705974712 -71.845643154872292 -38.645572858519763
170.345158975893071 -71.537815578029509 -25.919318032270102
171.690545626832346 -73.239553976690203 31.971553174700144
171.721905266657245 -69.606800063779076 109.967764556284649
173.344711332071881 -69.785737743776764 -39.572845976612186
171.598351994899843 -71.448299881910955 -38.555779027892946
170.588560294854489 -70.664005585325384 106.957623986995856
172.369357831725580 -72.687501548932119 -27.871217252212528
171.958801110060335 -69.432017839676860 -26.413676781367023
172.336474536500106 -72.959711839719091 114.508175416733437
171.932393256667609 -71.375417357513669 22.238200862975326
174.754080308630563 -71.537736200089313 115.959831198307228
172.425507777534392 -71.885435531862939 -36.131473045163091
175.203891699131873 -71.143884644369990 -28.185470579934876
173.844214718135305 -71.081533873285565 28.254264975591784
172.482372030625527 -70.384372129198127 106.985393336645373
173.677549385178622 -70.247813714644124 111.581192197717016
174.425616420053558 -69.520234977003312 -36.628914337943016
175.159260989796422 -72.497530878618477 111.797568113004516
175.290831434834161 -72.603356158279126 -37.512778110682497
174.089271733847482 -70.690826601399337 -24.768841553400364
175.384547413704354 -71.705889341027785 -24.576195049171719
178.584301445907045 -70.621394251425457 -145.591133028047352
175.271162484604389 -71.234730003243044 107.066846136170582
177.007638496593984 -70.213301555517958 -141.065481439565048
175.093416758756234 -71.443015198431425 17.510598181758343
176.196744806398641 -69.882442276866371 -148.630523307811444
175.882307497181046 -70.473771837120765 -22.648506615522653
174.682292557568786 -71.371226489145315 109.391818547889955
176.975727952782080 -72.203658263819634 -36.738822509582413
177.706114632807697 -70.199111856265588 -23.930841645507936
175.311661995174120 -70.275234392068853 105.929267609191996
175.944350096284325 -71.434651995132370 113.805903658548175
178.045485205620594 -69.874062250748736 106.963740211105673
179.307174276370318 -70.907425222815036 -37.043491422767907
177.093477921948676 -70.101320133845149 -35.581206590705818
175.046457263296958 -70.896780279584547 19.187068257974580
179.078425644793072 -71.146348054011511 -34.875180571334568
178.551851641561257 -69.133157935648100 -32.671462117338947
178.611200901680093 -70.535258507208695 -22.285048958269474
177.060444026094672 -72.868829399950073 109.599267856219825
178.744733794382000 -69.038186748434526 -21.407795279398400
178.015620182625355 -70.808529732245063 28.396083561150171
177.039940374870525 -72.715738597614873 106.796825503916779
181.146398987981740 -72.975342173691672 113.878690705326406
179.605305931184375 -69.379188895294376 110.807731976310890
180.289748241597096 -70.575297870355911 112.867886130604987
178.403104858877185 -69.653853774909606 -148.324933378482058
179.902748012477730 -70.885592280499253 16.593312320045108
179.808618809404066 -71.721685595534154 29.134926476550614
179.995162241739308 -70.788812979031434 104.783270328057966
179.135367033464746 -69.321347266417064 110.009633931056143
178.404050196618584 -70.910844328309651 -23.707727919338588
179.763938503828996 -69.856644242549024 28.425822703469656
180.678130117642581 -69.010363633159656 -148.326011880895891
183.773444713817611 -71.583298642739308 -147.174040217505052
180.446286902583353 -72.656931076774043 -21.978091002141966
179.070299302306978 -73.405215951745717 -21.616461549170928
179.675075274217988 -70.552184505270304 -32.367018758254325
181.961453932984369 -69.803550026881155 -22.968216786792286
177.754673632927108 -69.210293185252539 28.497094005747794
182.344884129047642 -71.619513307097563 26.188590000905513
179.180841301140703 -70.195858838152347 113.803515386247994
182.356041556448361 -70.695159031018107 -32.291803372961958
182.000792007022653 -71.142947113743176 17.877472782551983
182.334739964352195 -71.311458459310785 28.779657682500734
182.434223329887402 -70.933089843385005 107.325718315113093
180.978866813844576 -71.377113260560591 -21.921949338067119
181.126254133042750 -70.373786094866077 26.470056398444413
179.601004132124245 -69.739588036708000 26.402685104762348
180.958725462215540 -71.727615170761737 110.185300153237691
180.613313796123123 -71.743545559137715 112.365083670986394
181.222757051527481 -71.059607197612323 17.975978849021992
183.514248560207335 -70.720244955060920 27.846764130857515
181.809286198710055 -69.987622379970631 106.993113803084782
180.821137936949299 -72.024014100934650 113.487804650815434
182.004083548916498 -71.609041127822891 -148.719308246271083
185.190851566394798 -71.641971253587727 -142.084995448196111
184.102273732907548 -69.883322935034442 -32.636998512687782
181.050613272406650 -71.713912666044081 -20.815405627406541
182.912845617050522 -72.951783443767852 -21.347376077125443
182.973925191389384 -70.954566341508269 108.788866128023272
185.105990185474639 -70.215358772569132 -148.122376399218552
186.074650638240882 -70.320394813129496 -29.848723634125317
184.163384274686649 -72.836776400634761 -20.211471190395635
186.112591887854023 -69.493546688949820 28.415995364075847
182.411001365728566 -71.238242809078230 103.694395606759912
186.048683123989520 -70.810914005662994 -18.824678569719104
184.054999498931011 -70.600253651027387 111.491884942184143
185.126347578149506 -70.102548961369479 -31.109660337271478
186.899415660160884 -71.560355505704905 106.789153550380945
185.848728651786956 -70.389158975804193 -148.773924147825710
184.968893251707300 -71.359127145001537 -28.890120922033709
183.911198168352939 -72.805899557502158 -20.393113962888112
183.106063200759991 -71.054928592625160 101.191599690725141
186.209368619173716 -70.741568137197788 105.848091809284597
186.009620588145708 -71.143887358386934 110.695239579275395
188.204591042057899 -69.502891329561521 109.254793226114202
184.503965527202013 -71.681668801989645 109.182277500740312
186.844623179430727 -72.640035831325591 -29.247910734445679
185.603107560479714 -71.274902179426746 -20.859637027643842
187.953205826257459 -73.932981586265782 103.115668388036980
187.218712859901245 -71.536079198180616 -142.455530287856334
186.808785329358386 -73.039172806221529 -18.100371509961107
186.260873799710510 -71.512834480962553 -17.291794295729865
188.587040949217339 -71.736394388181665 111.775427546520859
187.657957443779537 -70.567619870870033 -145.044174980827421
187.134537379122747 -70.875359935170508 -27.842494933396612
187.245562465794080 -71.585463831869120 -31.337150486351895
187.638384310563055 -70.815948123421620 103.578179945224832
189.104370847102757 -70.338046417543822 105.692191577509192
186.681551318771881 -70.748602055425607 106.528961751659125
187.924943795823367 -72.555262362955531 17.362309079002383
189.372320711486680 -71.953368536067359 -147.300587321523125
189.960076322278326 -71.078728186010409 -18.988701208815773
187.962998998413212 -71.436363256890132 -16.877732700641168
189.573343774752544 -73.951600789054879 16.275255619773205
188.919828337366539 -70.613196034032171 -146.699676261802125
187.891445178191759 -72.211640605345025 104.727130110270878
190.064721350542584 -71.562133631501624 -144.743820232965334
191.760709236015998 -69.935479165486029 105.297041766609581
192.299701478017909 -71.261234087297879 106.019959099291654
190.101167757516521 -72.853231640066298 -30.537313347839333
189.122826894562508 -70.905218962221184 -16.822357041409859
189.821704079808256 -70.687492686044692 23.070071405967340
189.461219761651307 -71.658785334134762 101.710528394963831
191.745980508116787 -69.521538426045467 107.452999711822727
187.453635645999043 -68.182491890337829 -143.512229925518938
192.277318728155421 -73.741905911961425 -24.975846499849645
191.256759164941343 -69.486212570681602 -16.366818434911746
193.421343538863255 -70.639734920553281 -27.360555600898145
191.771497694634434 -72.445933965115458 -14.949179214546325
190.921362085456451 -71.847177079971672 15.358785068991935
192.511294532436125 -69.427946007366771 -144.114289518343611
189.137923458534885 -73.688204557943251 -25.154600684917899
191.908560605749869 -70.338256692989901 -17.033110998761607
192.273111947909399 -70.326108223243168 12.116249398204172
191.487130520326360 -70.446054608204705 99.555441425304892
190.900155189500452 -70.215205178127022 -145.250580039951160
191.570676950890004 -70.988127125014231 25.845412282379058
191.283476046119745 -70.027227317997045 103.170922780251047
194.391977832665532 -67.869802864230053 -146.092055394486550
192.578805213903365 -71.193050612201759 -143.630196154571166
193.659902575343807 -73.320629433103520 -15.890851710839755
192.180490981270083 -72.370646973219053 15.052722043104078
193.576722416253887 -68.827697190958460 105.445674402123501
192.670738183319969 -71.453400469705500 104.112681997646263
194.140284035543658 -71.067415049732261 -150.498762241240740
192.566001877155003 -70.994023198183655 -25.260119289241199
193.961943739764678 -70.097411794567947 23.074501837016090
194.081922681662434 -72.274195848838090 107.983739657016073
194.180256456179990 -69.321209781353716 -13.263045936358980
193.422789607254771 -71.015151945893194 98.718907424681603
193.822678142497637 -71.325216312126784 102.057859595164132
196.211954236950589 -71.195770992087986 -23.634394259675506
195.287169678005711 -71.118995186072070 11.148051677421106
194.080320587820836 -72.097147018803184 -26.061162654566523
195.615598121200463 -73.640056872414092 -151.554810741615000
193.421297515100491 -68.792265348114981 -14.959355814447603
196.310294262215820 -73.435738126642903 25.237126626696565
194.851370020308821 -70.927359789326005 100.821518313263738
195.028120149887883 -70.939091018544772 106.057637319698699
194.923628327218410 -69.392584604553718 -24.403546287829133
194.461831293981390 -71.152216356314881 -12.040561750952403
195.294295672240708 -72.223066443663456 107.628681999256656
195.830279517074729 -71.432930726968024 -124.927004363901887
193.722858537995165 -69.544327599492505 -27.343243496056409
195.538101520389830 -72.087556211643317 -13.661095146214327
194.556808419002181 -71.941638238366977 21.363381550407855
194.698962477453392 -71.627258708135571 98.410959571369943
197.316405051317389 -70.700670475262243 -138.313563300437266
197.195171444692903 -69.995093875709273 -129.831551085586966
197.584866539357051 -70.220745710094349 -125.200769104443594
197.082463142723753 -71.656449775353337 22.730952427413399
194.913651872705202 -71.706951062968884 101.074067022785371
198.230931834782439 -72.325951215250470 -130.987979474181827
198.894567851734934 -71.320871592133273 -124.167966459353309
196.256008277082401 -70.495969362063221 -22.792734517707096
194.523890998835981 -71.006291960336171 24.178784923314208
196.494923351151726 -69.865133481570339 -139.857555647277110
194.948268399345295 -70.506553912016187 -123.715039290957407
196.223330365763815 -70.835209257200106 -22.804662567429162
198.308655725064995 -71.839092533318208 -13.114251913926458
196.732424011215613 -68.754093624943792 103.084515519371507
196.311312051029802 -70.876929865792761 106.789982442422186
198.500150766444847 -72.038522949643450 -147.105642666645196
197.937751171491954 -70.973800384433829 -131.856251330608018
196.919091543152092 -70.931540086285665 98.030252150675622
198.748468269813941 -69.830327649976482 -147.990006366329055
198.016667863974106 -71.770891113542802 -137.358580336394169
198.543693668763780 -71.005447414973517 -132.590558282973916
198.224561281228034 -69.775329922062127 -133.289856802525748
197.561109341686034 -72.869476871150624 -130.988624267581486
198.224343422831907 -71.224520164922268 -120.069017220774569
198.294652837302692 -71.111777559896623 -26.303507193909333
199.720927182441983 -69.488859137052088 97.204583204676496
198.609998166969149 -69.528554057294215 102.164001219230997
197.534855168072852 -72.078779884704190 13.172743170632932
197.371050042127877 -70.055269018598096 21.721831114623264
198.639566331868735 -70.707688478018042 -130.551126811919147
199.910873133819280 -71.845248284170736 -24.558203933684911
200.801409834139776 -70.091428797671199 -14.140047657781876
198.451661102643243 -72.251092378614118 -12.093225665578458
199.650662741082670 -71.172972939268092 102.161282490374759
197.895588317623009 -70.906804108717765 -146.906795844264963
198.292830456074711 -69.639253126713498 -139.313916925983676
198.701820285151769 -70.969684565680339 -136.516372990724420
200.072527728490371 -70.845421361607507 -131.934182213062741
197.171059632330156 -71.508825916662957 -21.407007763535880
199.717287899083487 -70.478422966312877 21.297290535870992
198.376271323819338 -70.078220314522255 -152.911918836159600
200.756849023049966 -72.139280199495033 -133.106008795757162
199.549467673463056 -70.829869606138843 -9.574498844821177
199.937722625165122 -69.645642463032303 104.392702313370293
200.149679864834297 -70.545701127316562 -153.319317384971072
199.160888595684014 -70.862753509931395 -119.956505814886427
200.588178993962714 -72.248621390150205 20.236936688196522
200.004496559065416 -71.969332719499491 -144.331446127281765
200.526205562113006 -69.885421765935959 -138.375352164179105
200.936137396868247 -70.827128198854282 95.221044415416472
200.336758282345414 -71.574608829237164 99.669512201745718
201.389246828814635 -70.403225157845895 -146.669828482222044
201.334992257668489 -71.399660965130479 -139.247752712677851
200.904876950499784 -70.238258381908224 -137.715891448047500
201.650228336136109 -71.281348953338295 -131.392260219569977
200.410292350116634 -69.672506888325728 -132.875878054678083
200.538090312883838 -70.690433617235513 95.231871102841012
201.591774682944077 -71.187061858758639 100.204716192384481
202.283017701664846 -69.015211841731571 21.955240649901405
203.164642073221074 -71.199324857218301 99.693840463774563
201.403272174860177 -69.801995703034237 103.825971710122545
203.041435493547766 -71.012155901599328 -131.036867349638129
201.061310767489090 -70.145970625638697 -122.676623022163085
201.341910236729603 -70.313462648520741 9.237032866625347
201.092845175897082 -71.705073915262759 21.547137337167900
201.719768366025590 -74.099030483412449 -150.336025988016019
201.944818891516462 -69.568224100459744 -141.247499240232003
203.379056390318482 -69.865344652738585 -131.077150209445676
202.587814978489746 -72.567052706821414 -11.504314501897856
202.301930709821733 -70.074777486733836 95.560432793441734
203.018862507052290 -69.793219264884129 -127.211368658381417
204.789371043211759 -70.233678318113306 -8.967408551545329
201.256967377360525 -71.720323068557207 12.570328182271385
201.653816871394497 -73.456082620921435 99.506478176772788
203.699126425571876 -71.827079443585760 -129.011993717614132
204.187761214402798 -69.915800898411732 -18.299907363866897
204.512952264818438 -68.572920375349057 -10.404314893838054
201.951627649964848 -73.101830828034991 -141.127537425321549
204.265477916988004 -71.138610829236384 -127.824047852263675
202.975144088009586 -70.985036652544522 -123.576003396611910
202.076940212935767 -71.270867892155920 -122.191082752321861
201.972801511279499 -70.658797482764697 -21.380527225571864
203.689130661167070 -69.478476703541091 -10.465308166988182
204.055411495482844 -71.809688739717373 100.150751795541154
203.740739090548601 -70.289704079232209 103.980455391692431
204.078851569354100 -71.967953769368151 104.382963047117300
203.950657091682842 -67.328226072839414 -123.354121190313478
203.105131998299470 -71.399977576731089 23.831736171249933
203.946857049163413 -71.274553268049999 20.838472947899565
204.126585459942163 -72.618174906310557 95.247821596910867
204.478326026350061 -72.344571382224970 -149.444056435680892
203.839377369075663 -71.859770331861654 -139.445887334389880
203.146296707721376 -73.615299980722241 -19.062478882940468
202.857849170878893 -70.886636015414027 11.471300209012277
205.092548131301783 -70.808507983864303 97.425073280424684
203.091612363411116 -70.192878426815241 99.617050819585728
204.311286020173014 -70.151684883939453 -162.168783969033171
205.123211267872165 -71.304351581397640 -10.739440666633790
205.901070677936161 -71.287639598245391 94.508141594974532
