# This PCD file was generated using the MATLAB® pcwrite function
# from Computer Vision Toolbox®.
# .PCD v.7 - Point Cloud Data file format
VERSION .7
FIELDS x y z
SIZE 8 8 8
TYPE F F F
COUNT 1 1 1
WIDTH 816
HEIGHT 1
VIEWPOINT 0 0 0 1 0 0 0
POINTS 816
DATA ascii
109.415908571615176 -45.967701718596729 68.990406920960723
109.483852003340886 -46.320895834340135 81.988775097989176
109.447357603741878 -45.661628555929809 82.621666390848972
110.200151255876435 -44.268637893456386 88.600382897925840
109.501780085479211 -45.759328292193437 92.296398730029225
107.530969508782562 -44.376999140958219 93.273671421685179
109.957289174658840 -45.879740614729229 88.666566289609491
111.586007738577152 -45.020177638780929 -82.401585660090802
111.285980273327382 -44.245314301485827 82.631111021960407
108.143775730749098 -44.531601894457317 84.430933355558849
109.906300362164927 -45.585029980562695 86.623859013602157
109.650396737435059 -44.337333662999413 89.969802245663999
109.315668183408988 -42.760431643622034 95.479653917818936
109.272089716109690 -45.416723015812593 75.478632990023939
110.927073536831116 -47.541584322468289 89.288885197055492
109.446627804217457 -44.651045947507967 93.673424524807771
110.353760950423663 -44.013738893393338 72.787008945371142
110.586482726680003 -44.723920452465713 73.641416726056946
110.630685161026975 -46.068394257984124 89.491384919299421
110.717178836178277 -44.862889638458398 -95.861727783012952
111.034648680729603 -45.315200090400474 -82.053115652509263
112.004667938200697 -43.893644449236625 73.825448907360681
111.499737847234812 -46.702960562780476 79.932084232796186
110.528182148847932 -43.761846485334793 81.287834182289956
111.168859347373782 -45.327081709225595 83.052356045702069
111.576912521942091 -42.864819587391708 83.512724910052427
113.100078181084712 -45.363069817373557 86.642226285880284
111.284705705445603 -47.682470736817180 87.343949370155045
110.989745653991946 -45.274215293507062 93.512234426843804
111.163286778246530 -46.366169032686713 -81.061936488348422
112.793533391581263 -43.689627033084605 82.991583949375084
112.075319357839632 -45.895366076816927 85.301575072166372
112.221775869365118 -47.764972932974153 91.728873405126819
112.818094492763549 -46.735349731003367 93.221946511986062
111.229354487092110 -44.417683051551684 93.471044718770059
113.432077529399194 -44.783042522428850 -83.214077600083158
114.693567236508599 -46.002011622776664 -94.358418767018591
114.560695087624950 -47.207374257610979 -94.268349141797415
115.000512583786929 -44.699831803508204 -94.632865664183782
116.184499307973425 -46.304083189827686 -84.337365464421296
116.211469036673492 -46.167996645217251 -88.078522292750606
118.915191609434757 -45.577264613065040 -91.358284150557040
117.882838263270600 -44.759299152454822 -91.364263083192910
118.340976381286083 -45.353681479386594 -92.391765398913535
43.835684667499116 -44.390565676988018 -73.649476264698762
44.307730732431807 -44.805225125838327 -72.891887597714671
44.813608784948990 -42.018210035283253 -70.510696724995583
45.452258549193779 -43.384887643238507 -76.335414811273083
45.217607288694580 -46.287954698003503 -76.323553944539270
47.047047213420548 -43.056910150262610 -62.140862380912729
47.288130385290025 -45.156179640512093 -80.014151407129276
47.491648146034748 -42.750926601230603 -83.526623177682367
47.346354702431945 -46.416125079287113 -56.127193400333866
47.147283984077283 -44.777881763770381 -52.460620107832611
49.320243064143590 -44.130319491137570 -61.440775945910175
48.699367479089631 -43.669945568448981 -54.982569748789835
49.341959484795019 -42.279608353615096 -85.657349154384775
46.568606093689560 -44.007341879457741 -56.414070468411765
48.797447935957251 -44.216535582085143 -50.607780728359408
45.486437995705494 -46.366787193222414 -50.425504428292179
50.609005007665424 -46.082254515183308 -60.074065333991456
49.921063164185512 -43.996677625975124 -48.997930022916499
49.812872288978454 -45.798007503821296 -42.970442501619580
50.448014842001662 -45.432115695166367 -88.342263944709828
49.472687846396738 -42.995101473328539 -62.487317084721745
52.412042987303749 -43.926542611124198 -43.725866324442677
52.208325022863782 -44.699050050662130 -59.743142260296338
52.623760511276124 -43.915725544369252 -62.360763482032802
51.931634860195409 -43.546972515427420 -57.607383011589675
50.322206250038050 -42.777051800401793 -59.183694641332913
52.743315475239982 -43.582073311140825 -60.704879324951200
52.501449665266477 -42.390962737547191 -33.974344253440975
51.651610012107056 -41.638452283350333 -58.330712307833068
53.275864409446797 -43.118554542426622 -32.462413597383154
54.509638605946350 -44.750356719265390 -29.692848280500463
56.177443025192545 -44.469246388314588 -62.333424497480635
54.876598811123415 -44.045720024037792 -15.429493332799630
54.498390575314303 -44.832447776005161 -61.438557611739874
54.446287612982921 -43.827956629849254 76.851503352790672
54.197564210542282 -44.298784466579093 -59.215395802622588
56.318063775310385 -45.258272244262372 77.632056327507996
55.092165531086849 -44.085139196156291 79.172698558468795
54.296384163137134 -45.349807245731519 82.099584188026327
53.756765657217535 -44.739657081253938 -60.852735516892857
57.467336685291649 -44.357429670388491 -59.032092802970446
54.862918591769599 -44.207235657372088 75.814616837553856
56.179340112862981 -44.760578288050951 84.334263479277453
55.903507559464572 -42.638405591266881 -60.323590542853943
56.646735631780750 -45.256401016766247 79.459864753800801
57.772623372713582 -44.709993486431458 -93.599484105899577
55.370740379848058 -44.984974819281895 77.610039160311516
59.129242141063486 -46.055775773552462 82.639028460181791
58.527259558219569 -44.017296974381580 -95.144426967683614
56.711300566440954 -46.305535091841769 -8.787189455840586
56.736602135208734 -45.052651541062822 84.733458924353428
56.196219503084706 -43.616662895229531 72.281350881661851
58.366012641430835 -43.323855045001132 93.510448653974706
57.876533863919136 -43.297665406437453 75.011162722014802
58.266268490992573 -44.593813182249079 72.253003378463077
57.835424963136191 -44.010983637932384 73.703651359312559
59.249492048637343 -44.075248148477428 85.674717183453069
55.027398614572277 -43.058972101829760 91.236410356035606
58.760158441662718 -46.984209164573322 99.315172755745536
59.140628488143477 -46.385850337772105 -95.620021381780447
57.959067759426901 -44.093946158332500 69.206292805075947
58.142388371574853 -45.383492015234488 80.581002267768127
58.460122822165417 -44.856766692066856 83.733644734248998
59.573171011451599 -42.030368184792152 87.680228459910538
58.980328451437124 -45.174867161342235 89.104589738018745
59.024029574334932 -44.038029623805535 94.567189494919532
59.978040861875002 -45.875419132296599 -12.008332809127415
57.252978816221997 -42.055565029385946 -10.218230620433591
59.069367708963000 -44.781920519966896 72.330552834856192
57.695364864757558 -42.374231504983214 71.813448447140757
60.411844477680667 -43.960351572828110 73.217067032071910
60.456848000212965 -43.475095820032379 79.919354697369329
57.593905843954659 -45.331984540701612 81.174441213543886
59.329237297001406 -43.458982349177838 71.090255843852020
58.423033199218573 -44.965224680755860 82.180328610400693
59.574238612357782 -43.439507257643825 80.553701378551850
57.459071580394820 -44.073259136512597 92.351004724429529
58.345464967563125 -45.728012045337302 94.951078156755074
58.968060499089098 -42.538591675072283 71.360341261188680
58.293948158901564 -45.052772758645567 82.389877219429110
60.701387920013545 -42.613216940814759 85.563666543436696
59.203242386579362 -43.998918077247097 91.384046201750266
60.118350573551055 -44.332512848035279 92.595728791966522
58.668263431672287 -43.447617437400737 71.754971182677465
57.325101168321886 -43.993919561711472 86.216456888916710
58.968376652038572 -43.592259894275628 83.666749143847170
59.613239766022616 -42.618119955353002 94.001199641005812
60.850056720868629 -44.299255386575098 69.717121075448318
60.210923546092985 -46.012825656644836 75.337034336638396
59.418570643142736 -45.449045630693668 77.920117778353799
61.181464675094155 -43.831986639267704 81.587481312698600
61.191613923940594 -45.271824156344906 -21.105291000144835
59.595781723292774 -43.398931405629817 68.383470991141365
60.555778819068323 -44.351550248912652 70.744043208381967
60.022386765286129 -42.213326108519624 78.542748124956944
61.140258280658770 -44.667740108950177 84.175413063593396
59.105036698784758 -43.272356611202824 89.880419134301974
59.933660829310455 -46.388067367225545 -23.163350157622435
62.099207476133955 -43.034664261513420 70.295100865175456
62.059355406371488 -43.664852422419976 76.126241890399726
60.564387974999633 -42.542762010826408 81.202897904289372
61.799495282113142 -43.625394791139911 85.667588505522303
63.467683301821019 -44.281683715184521 87.725392051321208
60.347894714272606 -42.632755562133482 103.212203323031432
62.330729972751485 -44.291055223964634 -29.811519010614063
61.135949935504328 -47.784654600541948 -29.056660634949438
61.494580920684328 -45.681415063409084 -26.106454636449374
61.486296400309371 -45.074549448153277 67.670767047115859
61.501370189093166 -44.216731932249232 74.125316973231079
60.475268156542754 -46.001715760494804 77.630387035466924
62.829327858445410 -44.101724603091611 100.856411421634519
61.881609936387051 -44.532444592611718 -31.768956043893688
63.312701081951957 -43.465295028056303 69.247217782258247
62.361714717323451 -44.271631768136992 72.627226059991500
61.736553085173448 -43.198929123108847 72.600121864970163
61.303639796452799 -43.606449377666294 95.931962367683084
61.789078241561342 -43.519124676681528 95.328405509957122
61.108564430410972 -44.118684678312881 95.867747108847738
61.067723917042706 -43.201925373009317 74.504300372472940
61.242762982136391 -41.825657386545622 73.811083029476450
62.856687203342752 -43.132339838840231 83.675591886459699
62.921293965636849 -44.097399470682014 92.140173796665152
62.118728563904433 -44.615637155668509 97.104129122591161
62.207328413283854 -46.585363064055763 -99.450474550397814
62.885828474718991 -42.798051732267048 67.750188639862770
61.600621244425326 -44.810292614006414 75.165087969791855
60.784378082469999 -44.998937233686604 75.874170994126857
61.430589180649996 -42.950106988922599 80.305656313705811
63.689283456185777 -42.892921065185469 91.226786218070217
61.040951572211505 -43.938989432102950 97.912514981031180
61.367886690930035 -43.445955627458453 102.524325576103237
64.115834535989421 -43.891797650214507 70.709332197056526
62.436888271849590 -42.056886926405369 94.479713473230206
62.911814135017984 -43.057571747864401 99.041389865619877
60.719558924669677 -41.940483620329715 103.088483128412165
62.397853285002967 -42.155577119064269 68.582987669286680
64.092778838994363 -44.261427983134332 72.481763517398747
63.678608934473829 -44.971208226776206 74.560921846889173
62.713203624477103 -43.656892524324284 91.248556513419871
62.533698282132967 -45.916039519330077 93.333712123461396
63.355831804302547 -44.556780861787892 99.725848504806592
65.764051751225026 -44.675938143861259 69.491687829722153
64.808884827823888 -44.865325612171574 76.836807107674844
64.182065990184029 -44.239591192347049 95.208236211559935
62.731047411779223 -45.328443372097055 99.137029820263024
65.824681890049973 -44.332823760952216 78.397651983380356
65.693765193012467 -43.415331382825428 93.601915672710433
63.440189158454153 -43.123713131081281 101.437847375902948
61.790296708817053 -45.981077960379459 104.826777966734298
64.597928655782454 -44.213559056658767 95.891043606091429
65.163490999446040 -41.106321264234069 94.793526816692008
65.711706469309021 -43.980457054303812 70.400748917200886
66.701246824188360 -42.484554543011292 97.290189859120630
63.523472827607904 -45.128433136266032 97.992921512355480
64.004077981998677 -44.795506042608807 101.590256038564732
64.686628576395847 -42.942837196996166 72.378306533439343
66.329254606488320 -44.426692099606662 73.944976707457542
65.502231186119559 -43.798105329162759 95.545615928996739
66.937334072896689 -45.863062374258533 100.450668712085758
66.271506782021092 -43.513496636825231 100.963858638925643
64.749555083701296 -44.163215227038492 103.072356870667221
67.532743413031668 -43.860046312425588 67.303585600250145
65.712434981528574 -44.242976383984185 76.212029351147578
65.589202138446794 -43.364627964516430 95.722199151902245
66.986163854182195 -45.618914784927114 101.416605248199232
67.900074451376852 -42.738530396109248 -36.060490286365336
66.462565913735872 -45.201681061188644 102.065225515604027
68.967289807776126 -42.278158429068490 99.069482363165562
68.729739984820526 -45.531369916462147 99.348987762416570
68.979039852903483 -45.881342087924246 100.516890128519051
66.218473740060617 -44.753071848261555 103.463636054712850
67.689865216202350 -43.212409026829704 72.397283261122055
67.659912954427483 -43.804742102875537 83.792876158201025
71.250592671628254 -45.861628158888813 78.923723435483708
70.819103478456569 -46.279984048777081 -98.696761219039132
70.158481014028354 -46.060315203802290 74.309745753892059
68.445845976527224 -42.803981401348643 102.986351045828528
66.589448487335076 -44.144571368442385 105.593654330514539
68.241728925399769 -43.964667695279431 75.534478671483981
69.677222129823292 -43.482493642432182 80.161568647359957
70.125368905454579 -42.815114274659052 -99.054368692625175
70.459845435413229 -44.188801005386374 69.355219291654947
69.639063648606793 -42.934427698937746 67.798328671492641
69.917035743228610 -44.758548198098794 68.448777306109506
70.150552563270821 -44.448182931980540 81.777525866759788
71.569017848925512 -45.859247969658867 68.915561561514295
68.863290471191632 -45.237799498066330 71.082909918541091
68.659193164650787 -43.899786409109304 80.466537822469292
70.635169882089841 -44.821743955659208 105.064494299965077
71.190288363433154 -45.636804473193791 104.712358330006353
69.050319498960121 -43.585941707439346 105.813584720864540
69.495445299588340 -43.763250823863800 75.290089001164830
71.979949866831745 -43.112144427018933 75.912546275625019
73.326779030613793 -45.154214032380693 79.022774237024393
72.141246746921837 -42.466958365851013 82.095874763422358
74.021634168504775 -44.577533632895324 106.243802694825476
72.166876731021233 -42.751555554633342 70.766614013182561
72.038890407614034 -44.925196718364077 82.791186259253450
70.481956948059803 -42.996298508622743 84.871175449492455
75.432233952232806 -44.561541830640621 -39.336277363732762
73.282513927345775 -44.127858319212230 68.476434987895587
74.233835303709057 -44.639290321106522 71.383071477422092
74.000405152125211 -42.406235173633881 80.232365059901625
73.578956849767025 -43.162238796963102 106.386945318019087
71.424098597608676 -42.377294476308421 107.543082238052406
72.520022707918272 -44.571611383841265 77.551616313606090
75.954785684718232 -43.701794586415140 84.037980844061664
75.358913388570670 -42.697282284581320 74.246642031312930
75.467643422260338 -42.322775592393938 79.575127391543163
75.877602358307271 -42.705091057157766 -39.338616248907485
76.360426858000892 -43.982974422789596 85.267293422602705
76.696252179964304 -43.497186849536114 73.167646292492847
76.194887025506148 -43.895470893675729 76.056083591747395
76.653649626869139 -44.596921186252054 78.411273153673406
75.420771125401643 -44.189568844823320 67.520829481255532
74.900495226628806 -43.486207176374457 82.354159117941606
75.518386992592156 -42.524567219257698 84.768014636967223
73.852615912977640 -45.656933199601887 107.645247552202378
79.486677029518688 -43.658565277905424 68.837461141499816
77.936804201192359 -45.469859635738331 -98.613952899701985
76.478042277289418 -42.973031390720351 105.930222169256695
76.864266062054313 -43.624843864414053 79.254658300671935
78.355319508778649 -43.419630484635661 76.733128048372578
77.728672746079056 -45.188385708432136 83.688620338299742
77.519981948994896 -43.237576945652606 85.741058880202772
80.444736526384290 -44.829614462874254 68.239770752116698
78.968672227150478 -42.301640840337477 72.271912960598883
77.844434866761375 -44.160407289394776 78.255542918970932
79.428098955617600 -44.511136934134051 -100.125227796962946
80.115156896552179 -45.175391528604557 71.153133340232870
78.805882109525314 -42.970886904563919 71.167417567869080
77.458035342497212 -43.464262971111559 80.535624690337926
79.098766514827432 -43.107237981002392 82.678416609697209
78.109391608257525 -43.072943926805387 106.298516859381635
80.233401349816376 -43.300503075800997 73.664071926683434
80.214499947319212 -44.653078936776467 -45.224685196361378
80.580805483850625 -43.487353080960673 80.482876931612267
80.519708305320648 -43.629491601856756 79.087026486882408
82.347910324913812 -43.259336553436526 -48.012823943144198
80.620115871985803 -44.020077843794219 73.374045692633629
82.374519042736054 -42.353759051897818 -52.093268959081549
81.618279986514906 -43.587537078335934 -48.604093596464701
80.912208732944777 -43.518403231475240 84.942973185055763
81.190545999370855 -43.608257876380129 107.290063994674682
83.295586177991211 -43.821963107483377 106.990502963023872
80.753713136325601 -43.269408043351227 68.812462341885080
82.304153916540798 -43.425203757281444 73.998299865118526
83.968595069921946 -43.536330600788219 79.278419527948728
83.803404311798900 -45.490265235680489 70.786026925719398
83.481566834425919 -44.468865268850486 85.365365263321763
84.706860822139916 -44.305297473895386 70.369574290646000
83.934770395409004 -46.744148194968723 79.075879759487478
85.709035478632075 -43.356917115064277 104.809390491395590
83.504145428612333 -42.881687357966456 82.224304918122158
83.609565586369058 -42.401714956338580 -56.412400779691943
86.950076892587589 -45.067084510153322 74.209069386292384
83.719490444348850 -44.538874806499166 87.486239951853008
84.855968662142274 -43.595850441024538 110.485155635688898
87.596315410303731 -44.895532471791007 85.923094342767811
85.685246330522617 -43.925869976263776 89.472924854827355
86.634402737163938 -43.483952099683478 106.944961371089263
87.164850113360899 -45.469236134152474 -99.002526447737111
84.521357557716996 -45.007247464655229 86.126708283249883
87.281276503318963 -45.521662910886313 -57.578962249761361
86.939178624376083 -43.686832275238693 83.278469366091457
86.774788792219823 -43.513686228303015 88.241104248777589
84.862983981432592 -43.420595427139681 71.842037626524345
86.843888921107549 -43.339028349979841 72.776652711731771
88.520248973775296 -42.375495153328274 90.221821040489061
88.020758284198564 -44.561797295022593 68.009976666757197
86.992675267883158 -43.426518918674070 80.628557586831576
87.622558337883689 -45.547853175782699 91.184804291788510
89.511197429746574 -43.063192215930719 70.082600396813973
88.680353669398443 -42.750335725982119 72.123400570064604
89.941417104831103 -43.867971481452592 76.995877468835275
86.570248197756342 -43.149944259223119 84.675562035287854
89.343307149860550 -43.289682856968298 104.657653278705723
88.549146550789189 -42.632601734618717 85.188544081714753
91.453041399899618 -44.053073705687595 76.532020933130568
89.988684434175596 -43.274171004956379 76.230777785643312
88.113510894118164 -44.295619728065823 85.090263776132844
87.327625921357992 -42.605115460227516 90.641758805876023
89.136286411660194 -44.382169532550321 70.308155879189158
90.035384609950881 -43.856292890846603 70.641042905091993
89.013980094387733 -43.037244041994740 86.102261150075861
93.208861382427870 -45.046187037765272 83.390118186628499
91.877721044471954 -44.682286536484696 72.192616748412362
90.640477924544655 -45.560680808850016 84.021203380938047
90.537751318960431 -43.093503953530487 70.744987469271194
89.734665632432069 -44.524451017000032 77.844001888458052
92.425541185160654 -44.947910490358765 102.831321252602734
90.975760302131334 -44.161419532983999 70.934019488688278
92.288697119762048 -42.877703949359237 76.786514060852355
89.705680351813356 -42.429482047477201 89.527348362279284
90.469148316479348 -44.562205438805222 106.939930503929688
92.724349750295886 -43.309926272297950 84.692513513970795
91.841484417566036 -44.541759366654496 89.045380608664615
93.441775614551304 -44.209544697446766 82.564052337200224
92.436121592139898 -44.250400497988252 -65.370812488286219
96.768427331555642 -43.859126136308767 -65.297156694865791
92.308113454937526 -43.656212494816607 68.591044201679949
92.365992837228092 -42.708140879550612 85.274257067120857
94.836042543934511 -44.601320172564328 89.571104867579407
92.229216718066056 -44.519463829911778 108.529187866779964
93.612184199381403 -45.305599087861992 68.837983026704961
94.133656910766931 -41.870194779378110 77.447454100671095
93.710583302140833 -43.371945260752341 83.225477161453654
93.518217582099084 -43.755250289549409 87.403698828858396
92.448546526502199 -44.295402373968749 75.674127487207329
94.356077217167382 -42.942627250498155 75.427280294540026
92.648182978637522 -41.280527628523394 79.426285846501813
93.648466381872296 -45.156307384191429 88.416121663704516
95.126709989178494 -43.234980286437953 85.807886032884610
93.172799744034862 -43.983324811374295 91.305688690682487
93.033160276842679 -43.763639616889826 68.688532154249415
93.238579878574100 -44.330269287615032 74.183264796886192
95.714004923168915 -41.824517909578951 77.338545200852479
97.144336396965201 -45.048285238910800 85.995612177477767
94.459716490670687 -44.062153637795916 84.666290294561733
94.555222423000103 -44.501642840106513 106.402673813388475
95.340800593959216 -43.662204246954794 -67.448701468239889
94.649489138656122 -45.744795969352190 104.096938193614847
98.028589041394582 -43.766122506521626 -97.078331844594331
94.984241991832562 -43.850289418828410 71.316052928456784
95.738318288087825 -43.501487900806794 89.211271023683878
96.266489266345957 -44.787921608341307 103.215286752712871
96.048289546183724 -43.150627977776978 76.162883927558624
95.670316244920343 -43.525705456121123 87.048937435379131
97.899443387398264 -45.126405074028483 89.928854387451210
97.205308119806631 -43.627020806935363 73.416222586061664
96.524189806172615 -44.589633229271634 85.222867567197042
95.855210435840760 -44.359430256219326 87.441397005481846
95.384015485978594 -44.641283340366698 -68.456064710225633
97.297161467560855 -44.728089008218284 70.470344113417568
96.206753639829699 -44.969542881341674 75.874514187093894
97.993033548453084 -44.279190402228046 72.832633507647103
97.364665137478625 -45.892210164657399 79.702954857523011
96.716034150313689 -43.206964781866382 105.339688505952040
98.878827933887692 -42.692281045763949 85.995269586805961
97.995923641646840 -44.917341846186112 103.659754494665819
99.913082307001801 -42.221208807214424 72.674285670883080
99.034323777552018 -43.119635136845467 77.019872049878330
99.051254690486672 -42.590908036022341 80.706446610564782
99.887444379990640 -44.114812473269374 77.179427063773375
100.131554309244763 -43.375146089832313 84.187927532276063
99.589813052698418 -45.199039374766834 88.319828241669413
99.348227420264934 -44.141431400559313 73.652977061813672
99.009240939387013 -43.945893748125627 91.054311664093120
97.398194467894797 -45.645464279481047 103.515503478092157
103.913530795153207 -43.536379585516485 -98.000462157433788
98.996570242315784 -42.473059116388654 80.491757748660604
99.164614489829532 -43.705768380925626 86.885769455577375
100.407213798471545 -44.161075713834236 91.996156727294647
102.193935562095277 -43.058493684861205 -70.485823496024466
98.887032962340925 -41.841742513579767 79.675626408173514
101.647560228023124 -43.627832619596880 102.610518416735871
101.580209426268311 -45.020516676431534 78.225977450482503
102.850722850519304 -44.590092338389418 72.240045672788170
99.634106423559842 -44.509354839674202 75.961490065453447
98.530734254447253 -44.411441268404040 88.112142451173867
101.941458797685655 -43.274708444078982 102.430303531079801
101.674737326532679 -43.792203943591403 80.969473555033417
101.093934959327626 -42.708123070779571 93.007391738268154
101.004133072337765 -43.472797909257309 86.166390039386030
102.280347440010246 -42.663960793158225 103.610109127728052
103.388018377553962 -44.881040020094396 79.186252739818130
100.392056146342767 -42.838890228003052 99.939840276582828
101.616276724040745 -42.598111465781528 101.531494681458454
102.782598534627041 -44.017387176072759 77.784364949878452
103.159875941364660 -45.911358311372595 73.123593110079639
103.896790914373739 -43.686339840144534 89.582838328268608
103.099662521287257 -42.441687268795718 97.100586816767617
105.211256622625172 -44.210224485817349 -97.979889941010882
104.758870652554634 -42.624499064027788 77.724131511417369
104.416836082268276 -42.909613920707514 93.074135047413193
105.147363878130975 -44.591953084753548 99.229214789937402
102.491132734330193 -44.280218516663254 101.237909920878337
103.924721037472196 -45.449147953048303 74.243629197029094
106.138747644647935 -42.631001255323525 81.097773581155849
104.948798738706287 -45.611238768989622 84.543705801659002
103.433025657771992 -45.052492313630609 81.697340355680140
104.524948461329046 -43.516936330163226 86.589834940862303
105.596400129109711 -43.581855283821625 96.997164836058516
103.972699400352440 -43.913300434505032 99.619681511441470
104.655740552666444 -43.867579290046926 74.521873951936882
106.003168420201831 -43.891165773121038 100.155306866282231
104.506651139096334 -41.758593787930003 85.250697450118480
108.043067936216474 -42.201524188587591 95.300558707199500
106.697631093294390 -45.039141749229636 86.055722907773998
104.682910788420841 -42.691648616120595 92.010513073549944
106.096509195188631 -43.005613776317738 93.941631292185804
107.205025952047777 -44.644517319141663 97.969123234882119
105.643903367854492 -44.110235600661362 84.038401024677938
105.975609059810708 -44.290680478002372 82.835700500021005
104.951087680444502 -42.771408545325464 85.381030896439015
107.169065493527057 -43.783249981453331 89.316683868246287
106.583906367113116 -43.937302461611303 88.406257505650814
107.309158604843589 -45.590356931671060 98.562438083256197
107.671253938050754 -41.163050419760332 98.734489560622620
108.122502601278399 -43.327520405760531 -77.841870778642829
108.077739420304027 -44.428713947685537 97.294742023290979
107.015911789857910 -45.402072299646107 89.390081351666367
105.355485992188065 -44.716770910741133 90.978813443372985
107.460990728995753 -42.492827030990100 93.184685884077240
107.210508913631585 -44.599926513931422 96.101040640858855
108.347350968791375 -44.142497159191130 91.732325991771205
106.146910593385144 -42.148836650133497 100.441413462599328
109.575412031886444 -44.024570951488741 87.382316046881598
109.740235674237056 -43.715166843754780 93.152983090108037
107.766741361505026 -45.919404157301841 96.729085097904786
107.846523394737204 -40.671683923304357 -82.338417261010250
109.029244845114235 -43.167041561660433 87.208670205092176
109.797540422958917 -44.264034981037184 89.957607426744033
108.777278707313911 -43.428823679564964 96.970795968243507
111.334926235370901 -46.201387417504627 -82.640956092317694
110.538856556221177 -44.281960302525761 97.787447346040679
110.547276426378133 -44.947874556000663 72.516548794880066
108.919696899425091 -44.607688524272206 79.739651000550523
110.392013561835014 -43.890720201837986 84.382949640685723
111.498937905741755 -44.120519495152060 75.950959311313611
112.611230281519937 -43.211533064100813 76.091197731140454
110.898011286744222 -43.554056867179298 79.765522576297769
112.250877303917207 -42.832219467866018 81.197086258609417
110.578846418901108 -44.136235431256246 85.105853708424561
110.696364158835721 -46.367545473993289 93.815540719031418
112.691899169544158 -43.162658948476292 -83.757388971525032
111.304617311911059 -43.584861035988986 76.570638799036757
110.559106323118272 -43.738424422332599 78.871683841334132
110.990609444494453 -46.335749211180008 91.227711347606572
110.977291838186233 -44.136694912704563 96.012371510628228
112.977023430527453 -45.671652414878515 80.129048130518669
112.750055974950257 -41.651235793876637 92.052336283170831
112.054148498943775 -42.427302529145393 88.189812508704662
112.242674402146520 -44.030671238427139 -85.769411681665730
116.034841299764992 -44.857910962445104 -95.265609172709475
114.192749012569209 -45.361078759481330 -94.057808001015133
115.205668953756373 -44.305674336748048 -94.570253080558189
116.201921980285064 -43.206582897332297 -90.871901999839878
117.883513252532509 -43.286963386998416 -89.720042070977840
116.657869906502555 -43.137244124334813 -90.487065464676846
45.313604273867490 -43.886933862606874 -69.869623189944377
45.085260421924829 -42.772251522054937 -67.576879160482761
46.898261824900750 -44.499874309107746 -65.342979491974546
45.085999397415563 -43.895579474938053 -78.566568949544987
44.559488771827581 -43.356735679251713 -75.827208466867134
46.323990986702661 -43.413609930047699 -62.563055693749142
45.600347592778164 -43.696020055626356 -59.108878941713087
46.869621388816647 -42.609293952983421 -61.047101603137790
48.594943312054632 -43.498495025020077 -54.691968047117712
49.036685259128689 -41.475899847132510 -54.583139300136047
48.070304608679926 -43.855191885665270 -58.363288324238070
49.170382662106121 -42.312780752231475 -57.472308034475823
50.109334149866712 -44.033872766867020 -48.638426804807352
48.694666382919600 -42.955708217954651 -52.710218966607421
49.307825430539395 -42.958033427476586 -44.637420740258790
50.243500232607936 -43.055342022781552 -59.926976497369274
53.440326723269692 -45.270674999111513 -90.952574297796474
52.792761018864468 -44.325749597045728 -57.979864209292785
53.700747644524355 -41.953093855108733 -41.405755747441042
53.330441763179920 -44.256554963679015 -89.751215174390708
52.515102447087010 -42.327850147472027 -60.139639962407500
54.710369712724663 -44.002067704417698 -39.489746437874025
52.288243060470052 -42.888753871381944 -38.494677687540580
52.094590212106887 -43.644283145578541 -60.868959758562198
55.124983101070079 -44.174593601634690 -92.602980689959722
52.597192113647495 -43.151118774305374 -38.284597160116093
53.622029007129022 -42.675589348140072 -35.516714594614818
54.392964615771028 -43.517854366334717 -31.641768718485693
55.149729181454802 -44.705337366012124 -24.738809774400824
55.598975374623407 -43.760435876547376 -19.967004272377281
54.800295683625002 -41.308131398281830 -17.972373341518509
53.881507487528708 -43.706788559117832 79.639675089947815
54.834717596180177 -44.331735823602990 81.325061804241301
53.670817529629907 -45.304955707652326 -91.537596133414553
55.047283322363292 -43.529793285163862 -26.194098113461060
55.508115272073304 -42.500635808016320 -12.051313168855367
54.604196242739640 -42.089054639878150 77.485747030026744
55.400644493013836 -41.907655959554511 86.318016134965205
54.000099020226187 -42.171555262689900 78.263252056586637
54.959154651600869 -43.303736317327903 81.079812314532930
55.270451693733754 -42.795791315769847 83.782235382441030
56.345196573653148 -42.589969439034149 78.447904332440430
55.049662879043005 -43.656201720699706 80.863308959647114
54.077890335698676 -44.228330086960270 84.061914833009993
53.821406393548223 -44.627943608066154 83.225536289446836
53.763521115988119 -43.231133280265588 -8.865167097067257
55.548861416444147 -42.016059504365771 75.776109903142654
57.635411347215296 -42.117802828117121 75.128474244790866
57.502753703649347 -44.190431085258297 -10.035423205560349
56.476318582818863 -43.002136859267928 76.594724255533677
55.483921760344714 -42.174613090148377 85.952017525653531
54.551941566698311 -41.631848804175704 88.117301278326863
57.308717217590690 -42.349207165909355 86.066985965932446
55.138732641796580 -41.754762908233360 87.662610484615499
57.349025472067353 -41.078696386596683 91.922333748587661
55.950640242834645 -43.880028332588907 73.641315775432815
55.743283300121618 -43.397536119722993 74.547816120994781
58.913391642811391 -42.437556712921740 75.195365693314130
55.771644885058990 -43.373474864970923 86.923539093853648
57.033665512509245 -42.485829458104625 87.948815067698362
58.541385687188601 -43.321369591247475 90.329128417051280
57.003499599981588 -42.608205878525972 94.267669991567232
57.637988413870623 -44.266448198203250 86.411109932878617
58.655162910694550 -44.712528727514574 88.367900989643573
56.372154968554028 -43.648753195697225 97.033063782209680
59.109367559977223 -45.439153443932213 73.449854885849064
56.634203273090336 -44.025437018672378 86.184135754617301
59.026919160114446 -44.700012252806737 86.023294396143271
58.395131374075447 -43.618042288127825 90.754587646650677
57.431611202620189 -42.572620669589071 90.627567382244393
57.772512953204028 -43.134294123510877 96.540288579577691
58.875279349731187 -45.341851237455593 -8.840311275932955
58.205239817799168 -42.681114394559266 71.391287751704752
58.697857866837452 -43.655316200526407 86.818852000867423
58.516564681556758 -43.189911336118477 86.435239406046492
57.973332368135978 -42.317630325075491 86.190803694944250
57.159272785239004 -43.957427492947510 92.318656703678300
57.979673714060006 -43.418469016142545 85.708738653871265
57.184250631827311 -40.587497168189159 92.186677031639860
56.484644140249785 -43.724270919673948 97.024584046573068
58.699809277382883 -42.363327372434945 86.369412384675655
59.571278107582330 -42.163662433426396 89.903537302284079
59.456037006030463 -43.279576461910246 87.986409340227468
60.356756793239576 -43.884019216145518 -13.400181041663721
58.608571128136965 -44.242624090922973 78.719661444379881
60.683027716127945 -41.635660416956057 98.257600216556028
57.503523293068824 -41.993971365667576 96.689224262316060
58.666274065936797 -41.631450740186388 99.609442836430503
59.465358615259035 -43.056870585278723 101.225527221090786
58.791822519560000 -44.916120941590407 -95.282901882031950
59.093934899974990 -42.321020539197590 76.100993532559457
58.496692410678271 -43.124925863451587 77.779438802684211
59.797307903807088 -46.359902352509515 82.183393040455925
61.019304035193507 -44.657930409786232 -94.760603047361187
60.198960097781821 -44.308874422413183 -19.984539874551327
60.688792031844280 -43.240672190928017 -16.862121237067026
60.966563747042230 -44.876702431099737 89.350047379567258
59.467770878462098 -42.862128755492158 -95.553415001817839
60.832395873435232 -43.077906460147609 80.795181734230866
59.793381654974041 -42.809957241557655 84.082367547513300
60.672628692434166 -43.547110960566627 95.789823651941632
60.478281611374321 -44.193132681569310 98.222730393514141
58.732154489873587 -43.649598549106614 102.009995972792296
59.865960929640707 -44.392559085935943 74.904359134576652
60.605530356668957 -41.878774014553386 77.642833892192357
60.641345323335635 -43.529119893608282 78.460822370496643
62.926260186823441 -42.444313815279706 99.033360305568877
61.672224053863694 -43.475485670734493 83.120345671006632
60.981255716029921 -42.665283097971241 90.564667680987839
61.173946417010953 -44.431942019502799 94.203424169876726
62.377020168992331 -42.450409323032730 -24.124302887046092
60.829767181465705 -42.327240809211318 87.914917192736596
62.206207181981540 -42.671746636734177 88.010548327473870
63.228482775603638 -42.442960743230749 96.576927414510692
61.667625429505101 -43.801224265514342 98.532154995193324
60.825302627290235 -43.361134673821581 75.044328360432218
62.818998344012613 -41.966916630191854 78.881715482759788
60.148246200816004 -43.632169466712739 84.086849976417255
62.595024550633440 -43.224216092286362 91.057744671665844
62.313048858763082 -42.817120025801358 75.638849145661027
61.886984815960375 -42.518283979737141 85.145349388841765
63.333642056056206 -43.377711208638601 88.303734090407275
62.064399760810041 -43.057650776970561 82.729636567580599
61.138420872391023 -42.238163664613644 84.334416783850486
62.914191548124087 -45.681786931757422 88.870186795026569
64.390747296183491 -41.476191618568215 101.393476830987694
62.688993411940515 -42.386463875555172 77.887472643326916
63.879900161479156 -43.802577567383715 80.922409582910561
62.372449809997327 -43.108972667200746 88.091639446225926
62.937059969910401 -42.245863529575651 100.139903589412341
63.779082517098409 -45.904446538551611 -33.563646622554742
66.553374203989506 -42.301337700692962 104.373145513324815
64.818836308090397 -41.829899697516105 74.842154888680128
63.684116620191936 -41.814821264388222 76.603685706367543
64.781908489291922 -45.363861134336808 -33.357381233109379
64.521999336155289 -44.833636925164221 81.054517039293955
64.616986989815075 -44.162097983955917 85.845148813750882
62.656813426229853 -43.081259803991202 86.556258800983613
63.438003243498272 -44.820948057067433 98.317418266444747
64.894118726620064 -43.683534331118253 73.688563988481889
65.698904313044494 -42.982498145605689 77.286196787667222
65.143914599964063 -43.708042854440151 98.353425055003143
63.600584246713652 -43.956054466603582 -98.071912023778538
63.683042738130695 -43.994549926178550 -35.429434760817571
63.661904033194048 -41.457682906257460 79.815743625305927
64.594497543591075 -42.670075711736672 103.391357128066232
65.849272135083766 -42.688544306526822 106.129937565722244
65.153553207429908 -43.728815369286330 74.128311622643807
66.484041336565639 -44.320808994705416 -37.000016398374925
65.624470804545993 -40.849842007082344 81.130895949863188
64.640842409072292 -43.382827293041110 89.460371258724891
65.755362690915405 -45.232751537736547 101.864073725812005
67.861492043513678 -45.145026263439725 -97.526666536540588
66.833943072347367 -42.103492152868306 74.854606467150163
66.803261408574116 -42.129574552183520 79.632458909498880
67.077652800049165 -43.047772405353079 78.313487285337317
67.959718528434180 -42.142348526286199 89.270627172130119
67.519971747325997 -44.142428812640411 77.645070946320686
67.738868511561463 -43.094529496903753 72.928078097389871
67.223168423575856 -44.032355201941407 84.145744366045264
66.216676778495881 -41.544781538580800 104.543180208414881
68.425959104201766 -46.142447855721713 -99.913130611173372
68.251203142258859 -43.022360494790981 -36.032906269087505
67.267491123094899 -44.051968308644611 104.128732213009073
68.432726122924208 -42.372445308249837 104.514693495404785
69.716855572770143 -43.532619854705423 77.851049728462201
68.067464133089629 -41.964939235584644 89.166169973837768
69.747301958243796 -42.670554531540994 74.372995626240169
68.015518463295621 -44.285786782960315 84.053739048502990
68.748064873855782 -40.906943027043354 73.803787940180342
68.568372312804229 -41.911086733207505 104.769095503969822
70.179926732329506 -44.162184689460240 77.668601682524155
70.275782778394543 -43.087146966302221 82.497472881390436
71.894465992861129 -42.923436533532879 -38.545644839305893
68.694453188497818 -41.234393596543242 104.713677172627641
71.507104315467416 -43.223482696033777 73.524559554087205
68.269012836595536 -41.690670236967343 77.535329546274895
71.347790716981649 -43.684921300685097 83.171833075384782
69.741758970618889 -42.389803106630552 88.466976740927677
69.347764772799181 -41.617688711200543 -37.502436697861221
71.212552754976656 -44.388621995092038 103.732306462384997
70.359350443870042 -42.070287856416527 107.367114820421378
71.542172323944101 -41.341630171894693 84.737268668618626
74.762829024240190 -41.727479467963157 93.830895143383245
73.458508402968988 -44.336221536944016 75.431943445179641
74.811836760661933 -43.067953630310392 103.695778284442014
74.335451209220651 -42.234520547736665 71.767902002157768
71.664799176470765 -43.365870408661614 106.352960052453284
73.914684779946825 -42.658118692782679 89.084639678975719
72.741047684083142 -43.522796522175206 89.986844122521447
72.558926354533497 -44.262156489935919 92.918930542981755
76.112916026866372 -41.125151964276363 76.701077232750222
76.900562015272314 -42.470121337128788 75.288905331958105
74.502546997597889 -41.205264724034905 81.097738244992158
75.385421927727975 -42.217386641369039 -40.052852012060377
74.961111564811716 -41.909005216755318 92.553055405306850
76.309598734705858 -40.938103346273770 103.073201666888579
74.221640484278879 -42.416043029238928 103.496955023951401
73.341816573062729 -42.453151586546646 106.878484410286646
75.647731264690790 -43.694616208396120 -100.056268396619885
76.258150807838959 -42.530672925358559 87.065879517204976
76.592811199825618 -43.410850123901049 88.973437623622274
76.140288940853310 -43.074568616960107 73.758328742524697
76.398933594399338 -42.387753982030702 107.196773129657501
74.836055418791162 -42.524084843097157 79.258184636695717
76.148002696235494 -42.537991422249881 87.468485151862524
77.397839239927748 -44.626925935585120 -39.589717697477717
77.166346136088450 -43.032669927165379 72.382215176475327
77.123388022412897 -42.358052294544450 93.194656729164706
75.311801517520067 -42.112716817830780 74.279368174363867
76.790329811102652 -43.226387423251879 78.377844300365638
80.473175701692426 -43.837651614812756 83.515871521952363
76.667676049168890 -43.990797715540722 71.061584710351042
78.525670309257336 -41.770927130134815 74.237539709196028
78.343325591547426 -41.931314628873238 81.082253258781620
77.128254069506511 -42.708104658905754 89.309912859752117
78.422537062966200 -42.739926418685641 -45.002541520097616
78.956999808134697 -43.300866915985253 76.811611039501742
77.197352269616289 -42.155716714031712 80.932006746365943
79.310375148567402 -42.925021588834042 81.385812761841777
78.142998567898800 -44.081121473351359 87.169853116736647
77.904011419095923 -39.906386004275262 89.325124265612203
80.269988244695384 -45.175600791349076 -101.160633529939346
78.659091370556723 -43.806748442102752 88.929263274144034
79.313176712819015 -42.130085630600391 86.243848671409623
78.874694942864551 -43.593595818243699 92.957193899601307
79.144325021106226 -42.575069914276781 102.335758334295889
80.453054345995071 -43.147170961998015 -52.055189222986428
79.325579032611927 -43.607735330765053 93.425647556772716
82.173714069163012 -44.403732102319452 105.092048296673724
79.510410443541289 -43.624109881922578 -45.796975741392977
80.998132082795379 -40.726829360181547 76.708332295837479
79.295983399270099 -42.609064480768268 82.136170283523271
79.934261218154020 -43.555997309885250 96.180367457189064
81.700598200251633 -42.190758735044128 -53.267673039923771
80.631565874285229 -43.540153028619834 -52.168892249743635
81.642546058378699 -44.141707837918830 -48.258264557194636
81.381726950940433 -41.425772547016784 77.875616755082888
80.454890707625808 -44.334636928354520 90.101890313649690
79.778693452172803 -42.874599613318274 108.454060401920131
80.549285813430060 -41.470305798037209 78.896712693830906
82.081457486348015 -43.781380197956622 -54.507125373775899
82.657532790959877 -41.316053987387392 73.319375910768457
79.896197826972198 -43.546100318458784 81.842730072044361
81.191552759353726 -44.567913286013848 86.565554443665647
81.857839551015246 -43.465189667898031 -99.576152269840833
81.466966283598779 -43.060249154477184 72.988656945111188
80.853080291380039 -42.539516071977665 89.588474667931777
84.079617302598507 -43.798734533554807 -53.394891673706375
82.479290011455248 -41.683700915521328 86.432006327908411
84.976460709588920 -41.599212061692285 90.205839981285578
81.869780350394706 -41.914225145699170 77.266488751140415
83.925178043178093 -43.445906591760540 92.043242200151468
81.504501256025108 -43.907858515655406 91.346459900512897
84.936519130631908 -42.636034647733773 105.358486884461314
83.681373182204396 -43.277940981294549 107.360238614564850
83.616625437501881 -42.615939638079261 83.859433965731313
83.456875812855159 -41.775576702866815 87.296901638772226
81.232217417380340 -42.414403751924468 75.698610984647715
83.159093540521368 -42.262635240780178 77.015622150367321
83.949943519579676 -43.267125862231453 92.595831769819455
84.194174742132475 -43.517161312527136 106.640499440081626
83.481037803082074 -43.433482729061822 107.565834194503125
83.381258311128832 -42.635944724598154 103.093727807233449
86.043582787574351 -41.906528033951531 80.344282177385324
83.895787224594429 -43.410163067824286 83.436796607648986
85.360330044110327 -43.470183512539784 86.265493310733646
86.264964573011611 -43.342478735132985 91.698626125835361
84.165266729129627 -43.346460817459636 91.152081789155417
85.145214863598923 -45.422800032000403 104.794857837787674
86.493141918824563 -42.494247182813098 106.467377707974705
85.487649884474777 -43.175801378873764 73.871223826617623
87.287695757626196 -42.575981452284118 77.912460969313955
87.129492779008089 -42.715157035668128 85.733088669819736
84.948878674881598 -43.832925627021325 95.654918624046488
86.452589634684244 -44.901049027772416 -56.086753163294162
88.637337325411465 -43.425155175261366 78.054477428292316
87.108852945594620 -44.403551760482827 75.720632985954666
88.147280612542104 -42.990464120739802 81.678703761833148
88.893640387341208 -44.651397323117948 96.449641502160915
89.482719384492597 -41.345684578406981 80.477913858434533
86.747489265037899 -44.589192388829076 89.212509250889198
87.324861216439672 -41.928240862315320 91.698497988919229
86.574198051522615 -42.469830188546517 103.133374586483669
86.399556285864207 -41.227698007498688 107.967993646911196
88.319813150946018 -40.599871422500073 -57.876514141124566
88.720421693497670 -44.008599159810544 95.719480138806063
89.120477326027242 -41.819609824342280 77.968126200856943
87.645871957153489 -41.833162043017595 87.628870582393745
90.024961581209084 -43.012622634234198 97.934658152941225
91.522120982304003 -43.884623049353117 106.029050561469404
90.250034769062168 -42.880248377125099 80.430799633654303
88.084390275744155 -42.513544162309827 83.599150245511794
89.894941002251258 -43.191818127280676 95.035284042484520
89.292182011357482 -44.279053349578902 91.495297439036847
89.219166843790745 -42.201345445460674 104.801832957425162
89.542544804255513 -47.095113419648186 -59.800102858747003
90.112228199542315 -44.295766824754693 84.565516155233283
90.498121243895255 -43.653852462195140 -59.213607958307954
90.934230093350990 -43.361486068770446 78.650579476665854
90.319149608162689 -43.085968237270315 93.711203217253271
88.097825647649202 -43.600922792084006 95.930536360125160
91.592987850045787 -44.370544775804781 91.622374692398068
91.438326808510737 -43.894191008636135 108.362109095869627
90.125143555796001 -42.444531407066336 85.754810715057801
90.831849718567867 -44.170157639425724 86.296983617188332
91.200519103638001 -43.876965533635143 90.841205026214013
91.043225171284817 -41.334428348614892 94.695438496248912
94.476642398444326 -43.280678255892859 108.229685646760331
90.517389529558756 -44.169731773241431 92.751200062499166
91.231138116181498 -44.540268687205689 -60.181954638453945
89.571037735969753 -43.109472372406962 86.526262130706968
90.882639705914741 -42.988288224066302 -99.819818195527191
91.091299091486334 -43.257484166154633 80.312245794716134
92.110325425328696 -42.403408592338529 103.079053461929917
93.707387121741888 -42.559672754159621 80.969561334037337
93.324419279474569 -42.920822470557511 85.184642457277732
92.848532873472891 -43.196466236303650 93.976377842643714
92.119996787340654 -42.503807246202832 96.726506617103766
95.062363977510614 -45.064074892267527 103.941594990992726
94.846380380396781 -43.884152316512861 92.329326762451387
94.825067940843809 -43.593991717335825 105.483420330680659
91.135561453020003 -43.217468361866096 79.174852253183190
92.119745230672862 -42.821572287119196 89.111949271158437
92.666513403875754 -44.521867225779275 95.442274581375656
94.825515896269067 -40.822558630575514 84.848128781381234
93.735876989309659 -43.854794366336705 89.821048958878450
94.454823868960872 -41.251060908919136 91.953492187636584
94.082410805730206 -42.317057033799081 93.151079264909413
95.341118240061490 -43.674114119999217 103.410861118155026
93.285109493018524 -44.718552268456747 -66.915947798204968
92.835402747849315 -42.983064698406338 83.458023026375457
