# This PCD file was generated using the MATLAB® pcwrite function
# from Computer Vision Toolbox®.
# .PCD v.7 - Point Cloud Data file format
VERSION .7
FIELDS x y z
SIZE 4 4 4
TYPE F F F
COUNT 1 1 1
WIDTH 1425
HEIGHT 1
VIEWPOINT 0 0 0 1 0 0 0
POINTS 1425
DATA ascii
36.969662 -77.759987 -134.406067
-146.328857 -73.892372 -187.467239
20.954390 -67.725960 -184.948349
20.973312 -50.698402 -267.238831
-46.635460 -80.093323 -68.112488
-81.392654 -69.603043 -290.623749
-142.198318 -72.984978 -187.741104
-95.029617 -71.930054 -91.348053
-112.700920 -70.745949 -197.588257
19.625244 -71.487679 -251.941528
99.662102 -43.822369 -99.903419
101.417595 -46.337311 -68.695618
-84.206924 -72.097404 -251.953384
-49.046158 -78.373543 -186.170090
-110.502487 -68.233093 -256.799225
8.957661 -81.079208 -219.028671
-43.715126 -68.306854 -153.133804
100.945198 -45.672836 -70.623886
-77.560638 -67.450714 -115.982590
-30.158119 -79.312019 -211.956100
-63.748547 -79.215034 -156.617172
45.686646 -54.793388 -17.074574
-142.511978 -82.068047 -229.663513
-89.887955 -58.242702 -122.675209
16.773045 -76.607033 -223.853683
72.789978 -47.645943 -89.388611
-93.575569 -69.050316 -147.224762
18.931395 -55.708405 -30.894218
16.947157 -75.820320 -291.102386
-55.510441 -61.093536 -120.063240
-10.850794 -52.619843 -240.436691
102.365303 -67.166832 -92.142433
-20.851645 -71.839447 -187.540344
-72.878677 -66.988007 -104.932465
7.149177 -76.221870 -213.768646
-60.571743 -47.371758 -57.139736
-61.805370 -80.754425 -68.941284
88.809258 -76.752472 -79.689262
85.817169 -75.887131 -224.570114
-108.906502 -70.037567 -173.052475
-63.611462 -76.650352 -250.965820
-17.602243 -67.576965 -195.091248
-53.480209 -72.792282 -138.455978
-6.116923 -68.485382 -218.137390
19.115400 -65.928932 -243.873505
-143.684433 -58.143654 -196.985168
-98.806229 -46.945057 -63.003998
-48.885437 -88.225334 -82.587646
38.083534 -56.382195 -117.405037
-47.773937 -70.010841 -162.479813
30.401981 -60.399879 -132.527405
26.173775 -66.981216 -264.978363
-78.151337 -29.567579 -105.588638
-42.145054 -67.860542 -79.137680
-28.771986 -70.805908 -54.161022
18.138964 -49.522964 -241.729599
11.539762 -72.830727 -156.923691
-61.159000 -59.623314 -133.444458
-59.833900 -69.963913 -142.208755
-21.520281 -73.517784 -219.437897
68.088089 -55.708149 -96.208862
-41.088017 -72.185509 -288.294952
-68.977303 -74.281197 -146.320923
48.293228 -66.547302 -248.639160
-151.022491 -67.670609 -188.400970
-78.859901 -64.079140 -116.859283
113.133492 -72.430611 -110.539459
-100.277031 -51.217018 -96.168129
26.866280 -67.383575 -259.999634
-144.610901 -62.465015 -218.782654
-61.193119 -57.442593 -88.651093
-42.213898 -40.783157 -61.905930
13.086734 -52.057987 -288.518341
67.995407 -47.491325 -65.595169
68.987930 -54.710358 -94.118958
-152.351242 -62.119991 -286.037506
-43.163391 -70.215508 -161.289032
27.994799 -79.107597 -160.650009
33.743652 -62.379890 -36.850815
-3.335435 -64.130608 -268.543671
-14.820507 -78.799515 -182.239151
99.297913 -74.552376 -197.211411
-150.230286 -88.772987 -278.827362
-147.261505 -61.191700 -265.379700
112.405945 -73.571014 -161.885849
-1.898810 -72.218437 -242.647125
-50.614914 -85.225540 -80.821754
-22.987665 -72.224792 -216.173004
-142.334824 -61.374813 -230.024551
79.009430 -70.830116 -68.068489
-38.896954 -44.623253 -68.955498
-143.923233 -63.166050 -188.250122
-82.939995 -76.005936 -291.263519
-65.590050 -72.069580 -147.163254
0.567554 -69.696449 -239.606018
-149.994202 -65.549385 -254.413010
-35.716496 -80.238792 -200.764359
-120.784660 -72.431953 -195.767517
-54.030304 -78.351158 -180.085602
12.698713 -55.994656 -286.737610
67.093239 -48.743904 -101.931389
-19.487654 -79.280533 -287.900177
96.404785 -43.179939 -64.679672
68.442795 -68.259293 -75.150459
29.951908 -52.736847 -272.501282
-11.932120 -68.779884 -227.328491
69.216843 -45.507233 -70.870491
111.817055 -70.577477 -115.681381
35.377350 -73.031380 -37.865650
-67.090248 -73.484467 -285.250977
-23.204674 -70.471634 -174.519882
-165.585663 -68.318008 -240.621521
-19.201418 -54.461853 -267.938568
-149.541595 -85.192856 -285.575684
-75.298943 -65.803047 -126.436546
11.662697 -68.564484 -153.866547
-19.057865 -68.182320 -205.856354
31.619175 -77.427101 -143.451447
-80.131554 -60.444016 -111.162132
81.650978 -71.946960 -103.985870
-123.814377 -70.301865 -202.862808
-85.125237 -24.024452 -95.867340
29.890839 -82.739212 -131.837372
87.590202 -55.669094 -84.776657
-141.222702 -65.393776 -175.547028
-91.497124 -66.493301 -136.138275
14.814365 -68.445915 -203.545792
-40.253456 -69.269325 -170.894714
68.628143 -76.535973 -234.904633
-80.027885 -70.204216 -288.442505
-97.004234 -39.958611 -60.945145
-150.528580 -83.804550 -232.354416
15.103657 -81.939056 -226.120499
-43.363857 -76.520790 -290.192871
88.913429 -47.371437 -106.848000
-166.225555 -68.313522 -246.950043
-33.775639 -83.603226 -192.200821
74.870033 -47.942333 -61.806313
-45.936073 -56.175621 -47.147797
11.535837 -53.017296 -241.942444
16.614601 -50.193207 -246.040405
69.332214 -66.459312 -69.081764
89.056061 -47.117188 -113.857285
-89.332497 -79.369446 -110.334877
18.010256 -77.275497 -200.736389
70.887405 -46.225666 -82.146355
13.778659 -69.110153 -219.424316
-54.397167 -68.921799 -147.990417
-142.198959 -84.334549 -259.264160
-66.222672 -63.348694 -94.722900
35.925495 -73.803192 -110.252296
-161.017731 -67.762985 -265.345764
-122.435181 -72.999748 -226.040466
-141.380661 -72.718140 -223.143356
96.817886 -49.699406 -111.283981
49.551727 -59.023354 -22.505398
-128.733414 -69.987823 -223.774948
-15.414446 -68.686974 -250.437195
-65.272324 -73.776009 -158.421967
-80.981934 -55.966400 -115.950310
-64.743675 -76.397041 -58.616943
37.314011 -64.055641 -36.269691
-83.732300 -71.469269 -107.833771
62.209579 -62.962280 -90.183723
65.889114 -53.873814 -75.582680
-160.174469 -67.471558 -224.392059
-102.069763 -66.315224 -168.321030
-70.337685 -54.685646 -97.831902
-41.010330 -80.960342 -152.782074
-4.924023 -54.261242 -239.775452
10.405346 -56.733852 -247.695419
-63.160149 -26.606544 -91.453255
-146.046585 -72.014053 -296.009949
-34.374279 -82.946480 -193.920837
-101.692421 -32.242420 -80.385918
-80.489563 -59.608288 -44.134716
-148.046448 -74.178337 -234.786209
1.969210 -75.011269 -160.765549
-137.537430 -85.205994 -286.243805
-79.872726 -86.305252 -103.594719
-49.493134 -73.723198 -133.081375
-97.451607 -59.001339 -84.235382
-2.751459 -67.294548 -231.148254
-17.971684 -56.122509 -257.943542
58.034466 -71.445808 -91.973396
-7.481349 -61.580452 -246.012970
26.502859 -64.263802 -39.703308
49.630974 -59.965191 -104.799088
8.433313 -54.461880 -245.500031
4.731045 -49.239582 -257.639130
-151.183121 -84.312401 -262.420563
-117.452461 -68.125320 -237.918991
29.445850 -63.947556 -41.406246
-8.046132 -54.804527 -280.212097
-64.592262 -82.347816 -206.523361
11.527069 -56.299679 -243.996094
-20.039371 -74.687233 -66.023575
-56.716915 -63.483738 -82.585045
55.674042 -69.335083 -88.590607
19.291569 -76.022408 -188.361710
-63.840816 -71.384209 -249.258057
-45.922127 -69.174454 -144.035446
-62.188385 -64.681969 -131.416931
20.057013 -66.369217 -145.562744
47.914650 -62.976898 -98.341278
7.849930 -69.590881 -221.876068
-1.122293 -73.926346 -167.870483
-67.995575 -26.076031 -60.104980
-19.787657 -58.683167 -260.428406
-90.163605 -43.558338 -114.364639
-53.426556 -76.549995 -182.858246
-27.612040 -80.592422 -184.731796
-61.007496 -26.719385 -57.376324
24.848701 -55.674755 -252.541046
-25.721422 -72.752701 -240.498489
-69.165710 -58.753380 -118.471024
106.361626 -70.454437 -107.104614
-43.955524 -80.002922 -196.243454
21.535080 -62.456951 -19.090296
88.157921 -74.413658 -212.917221
-153.431763 -83.650146 -285.332855
-62.811012 -22.531712 -69.596680
63.909794 -54.440411 -87.480850
-135.902725 -67.132988 -225.470901
105.055244 -75.020676 -108.458984
-92.305138 -70.821625 -119.552048
-101.291656 -41.769119 -85.273956
-131.005005 -77.269089 -227.313385
-1.559869 -49.387249 -270.386871
-145.125748 -59.478748 -224.987839
31.747574 -59.096073 -38.319714
-53.655457 -77.869202 -175.360931
85.970352 -78.501091 -91.309555
24.635124 -78.859421 -162.773651
71.679527 -73.674324 -230.212997
98.415771 -66.758133 -65.669533
1.076415 -54.167065 -290.445160
-27.436466 -81.850533 -188.579483
4.919471 -81.112869 -276.452362
91.663017 -69.929848 -102.007004
-27.754864 -82.994461 -183.968201
-105.431122 -72.844238 -259.177002
111.243073 -73.456604 -151.327225
-90.332085 -70.039139 -214.744141
-39.510796 -77.540413 -207.254852
42.044525 -77.281929 -113.762321
68.429344 -69.672630 -235.492462
-30.400059 -70.452019 -172.463379
-44.676960 -73.628975 -163.216721
-146.309906 -78.913445 -204.778046
-48.876007 -74.509331 -54.446850
-142.612411 -59.914421 -227.490479
-22.367537 -74.192635 -209.931625
20.934187 -67.090210 -198.256744
17.233065 -50.130493 -288.771149
-42.927711 -40.276478 -70.324127
67.559380 -66.555534 -88.587044
-108.548660 -69.317192 -261.930786
19.915121 -72.294846 -276.574402
7.370142 -69.611839 -198.252701
1.969692 -78.128487 -238.269440
-129.903427 -80.699173 -198.644379
-7.464186 -53.890247 -239.644547
-57.704502 -24.758554 -74.172684
-151.268997 -65.354637 -291.405182
-99.571915 -68.085785 -259.624451
-62.048649 -68.301605 -129.654724
107.186340 -69.960297 -171.437225
-69.048309 -56.954590 -105.056862
-38.348221 -74.338364 -154.429276
-77.441353 -85.116005 -101.429405
-86.859657 -48.847229 -118.751259
17.640745 -77.669052 -170.944397
20.450022 -78.458717 -270.735931
95.295494 -68.645630 -102.911316
52.532230 -77.095535 -99.034073
-136.427811 -72.592796 -200.617920
17.439175 -51.248806 -276.087524
73.141846 -66.972549 -234.060806
-25.548956 -67.790253 -189.040527
-23.171398 -83.476822 -188.691299
-7.797053 -53.666916 -236.413223
-126.125381 -68.900307 -286.997437
-59.313408 -44.635090 -49.974403
29.524939 -70.294769 -159.086060
7.555889 -82.940735 -272.852600
28.023586 -75.236259 -168.585663
-162.108490 -72.732231 -227.949158
-163.514847 -67.003456 -266.740692
35.270584 -78.748817 -119.040535
-52.687943 -83.362961 -204.765991
-37.158817 -61.561485 -45.409103
10.171838 -74.585510 -222.632141
-151.970276 -79.300812 -197.022614
-6.894659 -66.416138 -241.531143
94.736160 -49.254303 -58.849968
35.506413 -78.149078 -132.230042
99.025803 -74.456802 -88.333916
48.179279 -55.928764 -113.587585
68.004135 -47.558731 -58.788898
-64.342308 -86.412735 -210.000320
-151.002289 -63.224892 -224.078201
-128.680313 -67.097855 -293.022766
-11.207183 -56.176407 -281.203796
41.593979 -63.532776 -14.940177
-59.724369 -57.029305 -114.146904
-148.554703 -78.653618 -233.622009
-76.840118 -67.634712 -135.272888
0.694846 -54.347687 -241.695557
-35.191742 -39.862411 -62.334480
51.846329 -66.320763 -246.230972
-89.338257 -27.465225 -100.449615
-88.726227 -44.470253 -114.687790
43.034405 -52.071507 -15.694479
90.067322 -75.835258 -92.847290
28.200773 -54.013145 -248.250610
-143.603226 -70.638313 -284.096924
18.981417 -71.810310 -245.479599
-140.817490 -87.786415 -288.459808
105.870590 -42.246201 -76.318489
47.411964 -71.449020 -118.283295
29.811323 -51.206833 -254.656036
74.698502 -55.914944 -99.441788
15.514695 -69.871437 -200.810532
40.466938 -66.667366 -250.488174
57.023575 -60.342079 -92.362816
-61.574924 -73.301010 -168.223114
-153.293747 -80.789703 -297.920624
81.942467 -45.501247 -63.824768
92.392624 -76.342911 -212.171661
-1.639853 -52.331821 -281.723175
17.971334 -76.810646 -233.692001
44.035484 -63.430161 -32.235737
-167.693420 -70.167168 -275.873688
105.286240 -66.993279 -97.871635
23.242918 -70.738800 -139.482468
29.855780 -57.974869 -134.018723
-73.528313 -78.783020 -69.321251
-26.663727 -76.537056 -211.035477
23.824575 -52.965160 -255.313766
101.222115 -59.078037 -100.021301
81.989914 -47.917622 -55.399521
-0.789147 -84.859406 -270.052795
-1.971884 -72.584496 -213.786438
-79.542145 -79.854286 -67.737251
-97.319298 -47.044121 -108.514404
23.347012 -54.018749 -260.846680
-113.505058 -70.344795 -258.800995
-56.971054 -72.980522 -176.866150
-33.054276 -79.833763 -182.221039
3.164515 -68.103806 -238.035477
70.072449 -75.441216 -97.010231
-33.742386 -79.176628 -242.090698
23.169327 -67.604790 -158.356522
-132.939377 -73.494789 -233.915649
-81.446281 -19.051815 -85.009071
-138.347977 -84.735146 -289.656189
-109.559608 -65.222282 -224.139175
52.444500 -59.817501 -109.721077
60.895397 -61.452225 -78.593040
-146.434341 -76.589523 -310.561768
-167.671478 -69.490570 -240.070297
73.235352 -72.658455 -236.072617
12.572416 -71.870239 -195.935165
-68.079132 -80.788773 -73.878532
-147.666656 -76.266563 -295.743439
-95.522957 -61.729641 -62.508083
-7.827040 -56.696457 -279.848724
-88.135094 -47.410244 -117.197044
29.392620 -51.238235 -251.606842
-70.066772 -79.807434 -67.937004
102.579353 -54.310719 -98.833237
67.171257 -66.639336 -83.627792
-40.308411 -78.277519 -192.976944
74.222633 -49.028950 -58.511108
-49.883175 -42.900684 -51.821751
97.381554 -51.516785 -65.919289
-71.428207 -78.857948 -67.506706
48.806580 -68.744614 -98.002663
-42.116714 -41.212715 -75.037277
68.296104 -46.087952 -103.362946
89.897423 -65.235138 -62.631500
-143.698776 -77.215202 -234.540100
-98.236893 -48.446655 -97.664734
103.370644 -62.118793 -74.137108
-14.308730 -72.560555 -238.840851
-95.991257 -72.544197 -85.941956
47.242554 -78.735222 -99.791794
-54.636112 -75.755997 -92.086609
-12.025619 -77.469864 -217.387283
-59.103851 -43.224751 -48.697498
81.044853 -46.587009 -57.625641
-58.909569 -26.915537 -61.706867
36.669590 -72.721848 -253.853043
42.912186 -75.678841 -109.911331
100.260887 -57.735203 -63.822704
-145.923218 -64.269608 -200.553619
-97.608551 -62.369488 -161.245804
-80.460289 -69.533005 -127.140762
-30.026512 -82.898277 -190.588150
-49.982292 -70.370316 -149.058182
-71.257408 -18.895121 -68.170799
-153.262085 -71.239754 -263.840637
5.534289 -75.125572 -157.363983
-11.165609 -53.064644 -283.493713
-39.634926 -80.488823 -202.543488
-11.814042 -75.416870 -201.471512
-20.866079 -49.004070 -61.462364
84.312210 -77.814766 -95.647644
-61.454361 -44.162281 -89.424110
93.962311 -42.215019 -81.909462
-70.953316 -75.234459 -145.201370
42.938427 -79.128204 -115.491310
-55.572224 -71.719414 -48.244911
86.334816 -56.693100 -98.039276
9.300739 -85.825981 -258.052734
-60.086765 -79.272247 -206.661270
-63.136749 -81.573326 -208.382248
101.628967 -48.533939 -72.348206
-83.551147 -74.109749 -290.141785
-144.236069 -62.704842 -236.390640
-75.772987 -79.889153 -75.846581
-10.953697 -69.621269 -229.661865
-104.734047 -70.599213 -223.460999
-87.198639 -68.117126 -105.203667
16.437817 -81.674187 -249.859314
-20.954168 -76.317780 -218.258255
-59.572041 -60.286297 -81.556320
-46.233051 -76.985748 -158.506546
-67.696465 -54.051067 -118.276123
-145.125305 -75.511742 -311.979279
-52.474743 -40.767860 -73.381287
-5.381662 -67.175545 -268.262726
-67.224884 -76.030746 -158.149429
113.169800 -72.240395 -124.294807
-3.429804 -64.841789 -244.272369
39.660820 -69.968399 -106.747314
42.207043 -73.291763 -12.935234
-24.305082 -42.304363 -56.277126
-11.683786 -53.425404 -250.928116
8.373711 -54.885876 -293.892853
-35.989494 -57.164707 -72.933250
-60.326859 -74.155594 -167.594437
-151.378616 -61.458946 -255.456131
13.522271 -76.605965 -230.313171
102.060234 -73.915359 -196.017609
29.437260 -57.099361 -131.116150
-153.881149 -69.475479 -197.529144
66.834457 -66.956825 -94.832825
-62.885017 -50.825871 -54.294571
-132.496735 -67.073174 -289.847076
-92.317917 -51.555450 -121.165482
25.819368 -52.376686 -282.522430
-97.761032 -37.215698 -89.235481
-47.469978 -55.252659 -78.589600
93.407387 -66.257484 -107.320465
66.176437 -51.555122 -97.455101
101.236549 -44.897068 -70.752029
-143.826614 -65.327438 -186.879410
-26.692963 -75.138367 -62.829704
-82.395348 -60.875542 -47.407970
27.968391 -64.717644 -138.464005
8.682413 -49.380692 -259.183441
109.648308 -69.408539 -164.266083
-9.698723 -51.417282 -50.891949
-155.688187 -70.578217 -228.245728
69.151245 -63.785095 -102.377365
-133.348953 -74.194717 -202.232117
17.589520 -49.497543 -255.728287
-33.508549 -74.783905 -285.969055
43.496681 -67.004456 -33.088779
-12.025880 -76.423027 -205.534241
12.268893 -75.113899 -243.209381
97.495178 -75.431633 -85.216423
-133.640335 -74.570633 -256.225342
12.278422 -72.697350 -228.991119
-99.179459 -68.885422 -288.222015
-54.834698 -59.641430 -134.905716
23.556561 -68.635368 -258.071533
-70.027931 -70.742134 -51.122272
72.885956 -55.993755 -57.978703
109.617218 -75.822563 -169.837769
-38.685871 -51.107018 -78.068390
-61.222443 -64.133942 -130.635086
24.945782 -64.471664 -141.553360
-142.758331 -76.080368 -204.662399
-154.669266 -64.162407 -291.893799
8.225264 -58.814762 -293.407990
-44.204052 -78.702110 -65.619980
43.954533 -55.537403 -29.780857
-34.979576 -77.442131 -238.765488
12.083898 -80.347473 -249.103745
43.360989 -82.955727 -114.294479
7.789338 -82.641151 -248.442108
-104.198074 -71.119225 -255.857666
-75.192680 -71.924500 -142.766006
-60.403099 -45.828053 -52.748058
16.551224 -55.375164 -280.756836
-67.771729 -64.239998 -45.247990
-0.834293 -81.461296 -220.537003
-85.910797 -68.593689 -253.849075
33.246731 -53.306553 -41.585281
-7.941061 -55.338989 -279.764557
-62.617817 -24.650965 -63.181648
-54.994019 -64.286476 -127.077248
-23.357363 -57.681095 -62.695404
-10.295021 -55.328835 -282.153046
-9.411270 -71.389732 -222.598557
-19.227993 -58.318317 -258.208313
66.249756 -52.961441 -77.564568
-27.719175 -71.061234 -289.630676
-64.435974 -74.570396 -291.273651
-66.488335 -23.883036 -84.514687
-153.399933 -77.086739 -307.523132
-128.148361 -75.435493 -260.944458
-15.708138 -83.214043 -176.916473
-155.639252 -67.630508 -193.660217
-71.235214 -70.290833 -250.714798
86.438423 -46.483917 -112.181480
-75.820755 -65.611008 -48.680996
-141.842422 -72.197990 -180.664886
-80.974930 -76.314957 -210.795761
47.651718 -77.990158 -105.241005
-21.560715 -75.067070 -180.778503
-123.850128 -63.717949 -228.510666
-75.665543 -71.134499 -98.236725
-38.594345 -39.572987 -67.372261
95.688103 -56.109550 -98.740479
8.309528 -69.390045 -242.650665
-91.522293 -72.607491 -116.284233
-72.586227 -79.539268 -102.043953
-150.821106 -79.397614 -193.449692
34.370842 -69.125015 -42.767208
23.111897 -51.351856 -242.032730
-60.000385 -80.021500 -62.474846
105.295441 -46.512894 -82.765137
-123.967377 -65.806091 -195.201950
-129.032669 -76.073769 -283.375366
-143.851334 -68.513878 -273.280457
-83.005585 -50.859184 -115.807892
39.215893 -76.552994 -115.868706
-85.430099 -31.901443 -52.605656
-95.684708 -67.406792 -160.597916
33.528263 -79.878571 -130.467102
-27.552502 -78.288277 -180.468811
-67.300629 -61.659039 -115.954529
-2.133926 -77.141968 -217.396408
-160.670212 -72.428619 -288.468903
-17.658358 -79.356606 -205.057953
-69.580910 -34.815796 -51.277500
16.066980 -71.313530 -156.521866
16.208008 -68.895996 -236.819153
97.467735 -73.630844 -90.013329
-56.218784 -45.371250 -77.281212
41.643108 -62.040291 -19.373449
-2.034081 -75.698151 -245.651184
102.474335 -73.158363 -96.494034
-2.212736 -76.680016 -290.964142
56.187153 -64.895851 -99.323021
83.119789 -58.862938 -104.732536
-36.546646 -71.842308 -181.582214
-9.003858 -73.414673 -209.419266
-13.570496 -72.426880 -269.693817
-48.113258 -40.671070 -57.131607
85.121338 -47.110348 -111.144043
101.933121 -71.109085 -82.011139
-14.590023 -71.136215 -215.183823
-80.974350 -69.279312 -129.051849
89.821297 -75.627350 -73.289726
30.796463 -70.354195 -151.558121
-55.055717 -77.319763 -148.891327
-5.669084 -70.061272 -234.721558
-11.833396 -48.319042 -245.751251
6.123975 -61.502041 -244.899658
73.875130 -49.777905 -107.231133
-151.202835 -67.452385 -262.074554
-150.642487 -72.350883 -313.214020
-112.886864 -71.140991 -230.866547
-53.651306 -46.908192 -81.386589
-124.738701 -66.723480 -224.914001
-160.986923 -67.308273 -286.553162
-125.196793 -69.453453 -285.643402
96.606415 -48.236755 -61.603992
59.996204 -48.418507 -95.968376
-10.480129 -78.758415 -213.361206
-147.499695 -70.220406 -297.858398
-16.504288 -55.988621 -260.099335
-75.579727 -69.841728 -251.895813
-122.493881 -74.408882 -230.588501
-143.696869 -72.947342 -235.224228
12.924541 -51.637028 -281.389069
8.259428 -71.016586 -242.434357
-29.410004 -57.206085 -64.168373
-8.543304 -57.570408 -277.016632
38.178761 -77.674789 -116.704857
91.848900 -47.502102 -69.132957
-0.240805 -53.863953 -292.419525
-125.997185 -65.106850 -230.184464
-77.258263 -76.597183 -64.390755
-152.839020 -71.770721 -216.604858
-146.553909 -77.798935 -270.426575
-95.741043 -72.925163 -257.103668
-70.014435 -47.843964 -95.527534
35.486038 -78.856300 -122.126442
-125.424164 -65.177711 -253.992645
-92.161308 -48.431519 -55.508846
12.209283 -78.041039 -198.265884
27.871572 -71.236267 -169.914398
101.350494 -66.554108 -84.407127
-57.021427 -64.161270 -138.014236
-19.040655 -55.850098 -260.331512
-96.065750 -57.213177 -120.182961
10.228823 -66.930107 -158.657227
19.840433 -53.434219 -31.820797
-18.913248 -80.057785 -186.577698
9.042742 -53.233929 -291.244019
-53.499886 -57.909309 -122.899986
-89.788734 -47.654003 -50.539738
111.708191 -73.956734 -151.970566
-152.500351 -70.807121 -266.482422
53.058514 -71.825256 -90.229156
-51.753532 -72.419678 -150.544968
-110.098991 -70.685692 -223.322906
-126.412628 -76.670517 -258.603699
-79.120514 -70.838181 -250.172363
-76.718452 -18.694500 -69.946053
-35.917866 -54.048988 -49.189178
90.909988 -73.493385 -101.773567
-43.842110 -77.437599 -198.714630
-76.273140 -43.248173 -47.025806
-154.119766 -64.097710 -234.689804
107.358131 -71.975578 -138.058670
-1.501070 -49.183411 -240.307098
-15.141025 -53.475475 -238.598434
102.251221 -45.623428 -82.810516
-88.398750 -24.178690 -63.682495
11.519450 -75.428680 -195.328293
-148.462402 -68.390068 -222.056992
22.374821 -57.331806 -33.330036
19.088232 -76.752655 -183.035538
-10.718301 -56.177326 -55.220383
-122.275024 -70.274345 -200.234619
-47.229458 -76.254089 -185.690994
20.572596 -76.500267 -245.396896
-101.248810 -60.591129 -160.389114
-59.412781 -63.715942 -134.872849
-152.667984 -71.969650 -198.831940
20.397890 -73.836349 -157.930908
-136.812073 -83.161774 -228.843658
84.005936 -54.236389 -57.123981
86.314163 -46.409035 -61.633564
-61.668781 -69.983879 -129.414490
-3.729809 -65.935104 -238.869583
-146.016174 -60.826473 -201.348770
30.115444 -51.752060 -252.344650
-18.980644 -77.527992 -74.212143
18.044161 -77.424286 -232.686066
-74.760117 -83.710938 -94.337563
-4.687388 -52.251434 -242.694550
84.902534 -44.444149 -59.532139
10.912473 -81.128952 -250.920074
-144.391602 -82.120026 -217.759323
94.719627 -44.884274 -86.524582
-85.379044 -77.262886 -83.244698
-91.516106 -27.980076 -85.783867
-78.967628 -76.636620 -290.618744
18.692499 -50.826832 -243.425949
-91.998672 -62.316566 -118.748131
-66.967514 -70.987686 -43.899113
13.784345 -67.114113 -243.252197
28.633677 -53.740963 -258.918304
-133.074982 -64.051697 -255.573349
-150.352142 -62.830406 -234.004471
-0.660460 -65.589561 -265.153107
-33.666630 -83.594582 -187.558670
13.855996 -59.027168 -245.955124
-146.072281 -73.179428 -299.344086
-72.282837 -79.175949 -74.857674
26.838470 -76.981956 -193.938568
104.440300 -73.758858 -182.869766
-75.320282 -65.552933 -111.769211
-135.714584 -74.132500 -286.655029
28.026979 -72.165131 -148.696503
-9.835039 -61.839333 -60.120510
-114.821503 -70.819519 -287.416290
-75.922287 -61.130707 -124.223244
12.315204 -72.148598 -197.927277
14.980547 -72.728386 -223.547638
45.362209 -51.332756 -27.960615
86.433792 -47.078747 -112.615845
37.924225 -69.410629 -258.547394
-48.096718 -84.592720 -197.723846
-54.838516 -80.535019 -249.022690
-73.507553 -60.457390 -100.837692
-127.153648 -71.668991 -227.663849
-154.861816 -80.409714 -260.393341
-37.462559 -76.535240 -197.356049
19.452049 -52.026855 -239.456665
107.510963 -73.650238 -171.689514
100.975349 -42.239002 -67.322212
-35.798107 -77.711739 -204.488464
8.906398 -72.747887 -242.080704
48.221287 -75.721237 -111.025291
-92.690125 -63.580502 -144.862473
-149.941696 -81.520157 -260.557281
-147.681763 -86.509323 -303.717285
-108.427620 -66.127342 -262.323334
24.316465 -54.519402 -247.293213
-66.530472 -59.569054 -43.798904
80.532043 -57.274677 -58.095798
99.704788 -72.072845 -202.190704
-39.065868 -73.439812 -198.682571
-99.099113 -55.706676 -101.224060
-91.213692 -66.068535 -255.519592
-150.172302 -76.155212 -298.001038
66.075798 -64.778732 -82.477829
-53.868729 -76.178528 -173.735184
22.215710 -75.686211 -268.366272
-148.987762 -60.684509 -210.423416
-146.634689 -66.074905 -174.270447
65.916267 -51.923103 -95.471344
-151.048447 -63.832325 -255.273407
-7.284797 -54.317127 -279.621948
-52.531075 -75.393539 -184.961685
-37.364223 -77.607262 -170.480133
-20.748098 -85.082207 -182.900055
16.452383 -51.810898 -244.056900
-96.879341 -64.828407 -140.316589
-133.089737 -69.554024 -225.217926
81.049034 -64.369659 -58.431461
11.338422 -50.736679 -295.920105
-144.689270 -75.915405 -212.667084
104.871765 -77.467255 -189.026505
110.300049 -68.969803 -103.928902
-103.666557 -65.925331 -174.009659
96.424271 -52.495823 -80.286819
-134.647491 -65.025932 -260.950073
10.837222 -83.875755 -262.995178
-58.109890 -76.779968 -137.306900
30.290829 -63.129662 -254.364243
-19.811863 -57.471401 -262.255585
-15.307913 -56.539875 -269.442535
-16.959244 -76.193481 -210.312515
10.695485 -66.379303 -291.486694
-44.883160 -75.104134 -50.286709
-52.723335 -70.937286 -154.191422
-10.482365 -75.545113 -202.280441
-100.039177 -65.175819 -160.755188
-0.784266 -60.377331 -243.209366
-100.792694 -73.715141 -287.063629
-154.892990 -69.950867 -289.022156
99.632828 -41.355232 -101.981750
34.800133 -53.227528 -36.180771
-2.520909 -74.506042 -241.149277
-62.118092 -64.997993 -128.404251
-40.130802 -76.440079 -245.975143
-78.459587 -66.729759 -107.706909
-48.013718 -73.716789 -238.781464
46.307487 -72.798500 -30.080254
-154.221680 -71.263580 -196.987122
-86.675339 -63.461620 -130.828033
30.725653 -52.974129 -40.919731
14.647229 -55.386215 -258.831451
-119.045448 -65.912376 -263.104614
6.764786 -86.015213 -257.142365
-8.661971 -76.406296 -252.054184
-10.982368 -71.490845 -219.350082
-52.195496 -79.377090 -244.658707
-79.509422 -71.367096 -134.931305
-109.625168 -65.704735 -166.383636
-96.920364 -69.371674 -217.200363
5.967370 -77.902908 -242.232239
100.160866 -54.478180 -102.942078
-0.377221 -55.128822 -237.817139
-59.849701 -66.002289 -134.006836
18.435041 -55.351501 -282.363495
88.268105 -44.225986 -64.605515
-7.388054 -66.293228 -235.329514
21.077051 -73.315659 -165.032562
66.518852 -66.683151 -93.289940
63.486832 -48.910278 -70.998535
46.698898 -68.374519 -245.744995
43.810497 -78.497780 -110.077286
-23.636524 -75.632988 -195.390305
80.318176 -79.712173 -92.817101
-145.979065 -71.231491 -276.255219
72.852005 -73.712036 -92.688660
-41.462032 -77.369339 -149.099609
-145.266129 -76.409073 -251.539932
-11.665919 -41.275440 -56.935654
-34.348576 -50.143795 -52.102554
0.326340 -81.899689 -255.037186
34.495388 -50.765594 -37.214794
-41.440617 -55.684151 -46.814831
47.233986 -61.293491 -30.899454
-155.427002 -80.150261 -271.709351
22.089397 -50.472385 -241.918533
41.686630 -63.219246 -39.744595
-144.644257 -70.189491 -202.600739
-68.338699 -22.142992 -63.251095
-65.929504 -51.398373 -116.893120
-140.689651 -75.533493 -258.481293
105.836914 -43.081882 -71.128571
-48.117794 -42.991920 -73.829849
-11.655468 -42.243271 -56.804726
-151.707199 -64.418747 -275.133514
1.308908 -70.500717 -223.683838
-100.006378 -44.153629 -104.474319
110.032112 -76.673332 -164.783142
-49.893684 -72.078178 -84.974350
-65.570114 -68.983292 -99.356239
-58.623718 -34.710442 -64.696510
-156.424637 -75.279854 -262.169098
-56.341045 -86.795990 -203.190369
-51.617550 -80.874779 -183.674240
-60.306137 -83.437256 -206.329651
-17.463974 -71.277733 -72.241714
20.802624 -59.932602 -250.801437
-141.536301 -76.909302 -304.612335
-60.017365 -77.554214 -178.165405
-69.835068 -63.717285 -99.355347
102.309029 -69.589348 -87.091759
-150.668961 -84.954079 -240.823669
-56.900192 -41.955269 -85.281342
-80.612450 -17.157122 -69.221519
-81.187408 -73.670700 -215.792114
104.978996 -77.410454 -182.151321
-17.303188 -56.295059 -61.891029
16.300232 -76.257607 -191.837433
46.040577 -62.089447 -38.064877
-95.905403 -67.421173 -108.750458
87.759071 -72.215614 -211.488144
18.867634 -47.112720 -248.666946
91.510513 -75.008781 -213.392838
-61.698978 -66.198853 -129.443146
63.927231 -45.703236 -104.889404
-149.262207 -85.142540 -240.186340
-63.398548 -47.538467 -55.828621
-18.743519 -72.322289 -220.935440
13.753094 -72.626381 -222.625000
-149.810776 -74.644165 -245.343628
-21.196281 -79.900414 -201.342529
-21.457293 -73.099136 -225.488708
-149.613937 -74.597260 -291.002625
-31.368179 -61.491764 -71.354836
-48.139305 -82.375000 -201.308014
-49.011570 -80.341347 -71.399002
109.994690 -70.441574 -121.202629
-97.646187 -30.236580 -82.242912
-71.061127 -77.341820 -209.305511
-56.871460 -72.814972 -130.365692
0.627880 -56.391148 -289.284882
53.907845 -72.268990 -107.358467
-146.838806 -86.055351 -255.128036
-56.089405 -77.945473 -175.562759
-45.150307 -71.361633 -139.692703
-133.788467 -73.763374 -260.429169
-99.017456 -64.913940 -118.337502
-12.070664 -72.898788 -225.321518
29.140575 -51.792091 -263.923676
-113.878693 -70.795227 -202.234360
-64.629387 -73.782883 -154.777405
-131.613739 -64.706001 -201.317139
-19.403770 -77.718407 -289.340179
91.307236 -73.265793 -211.375366
24.596554 -52.620747 -244.657288
-167.447739 -69.691307 -228.352600
98.865845 -48.915302 -67.911652
-62.200745 -43.736389 -52.658649
-64.872200 -48.474880 -58.805054
-100.301666 -68.812668 -220.537964
-52.654377 -66.108612 -137.586548
-153.901108 -61.176121 -226.631790
91.762917 -70.319084 -218.719055
-38.937847 -51.976780 -74.116608
-155.195465 -68.953651 -251.522675
-130.655136 -73.048599 -264.611542
-154.300613 -70.493492 -307.003296
86.065239 -44.876724 -62.664810
60.928078 -47.586811 -79.644516
63.192013 -59.669483 -89.197563
33.557526 -56.768490 -38.014488
-75.384468 -75.576363 -251.149811
-11.013408 -76.106911 -256.916992
28.161804 -73.376396 -30.322601
54.012875 -63.146465 -94.909233
66.757515 -52.227722 -96.362701
99.642059 -63.629021 -71.650864
-13.162706 -53.701710 -50.045742
16.494503 -75.477715 -233.541061
-101.744011 -66.601097 -172.540787
-4.598765 -79.888336 -272.752594
-95.654037 -71.401756 -291.155029
-76.801048 -34.205647 -102.782417
10.441888 -55.193344 -245.114075
94.302811 -72.893143 -211.813766
41.615875 -73.159622 -132.944656
56.973248 -72.907501 -243.898331
-36.122211 -69.201492 -174.767563
-158.607758 -68.488770 -194.182571
-101.143959 -67.969238 -256.623779
-3.585494 -53.729443 -285.964966
26.883430 -59.426823 -137.568130
-59.121063 -68.592377 -121.470757
22.212662 -50.260834 -244.737610
-144.664246 -79.097893 -249.291061
-53.717083 -74.304543 -149.652771
16.140343 -72.010284 -152.558655
24.778065 -71.405479 -159.861038
-115.293228 -70.738937 -229.059875
53.028229 -74.504761 -91.175224
-54.005562 -73.777702 -286.439606
103.029175 -67.954254 -99.405876
-52.426411 -68.056389 -148.516190
64.909843 -56.046345 -82.692261
-143.057358 -64.190361 -255.625916
28.529768 -63.766590 -134.106094
-163.255829 -69.272949 -249.695023
-167.450073 -74.015030 -284.720276
-18.810480 -69.387581 -193.010406
111.118408 -74.546791 -134.485260
10.802925 -64.543358 -239.176544
-146.564301 -73.750412 -229.316315
105.718513 -43.288280 -89.692162
26.804285 -62.454639 -270.777161
36.209949 -68.330872 -35.308334
42.386616 -77.941116 -115.764694
-141.054718 -84.909233 -259.916473
-121.328690 -64.691254 -228.897766
36.228638 -54.937843 -125.275017
26.384396 -54.766037 -14.978563
-39.973286 -69.892876 -287.483307
-110.836708 -73.522537 -224.067459
-141.536926 -75.076225 -261.945740
-116.446091 -65.924095 -229.394669
-76.495277 -44.793816 -104.247711
-35.813984 -80.731918 -77.315201
-54.232307 -62.259594 -124.765213
50.451366 -64.175369 -91.625977
-65.802551 -62.509396 -125.744492
42.127075 -65.715477 -258.612122
-5.465678 -55.760128 -238.381592
7.710344 -72.406944 -162.111389
75.243553 -47.889900 -107.916283
37.026459 -70.351280 -40.831055
-101.130699 -44.636612 -79.767242
-45.262154 -73.874550 -165.118637
75.821159 -69.590866 -102.665588
5.924082 -56.474739 -247.977646
-0.370651 -60.262157 -237.331894
-73.586983 -70.927147 -140.094955
-36.321560 -70.128059 -162.593475
-72.095383 -72.066078 -156.841064
9.739994 -58.149544 -258.045959
-162.004196 -73.948219 -254.570786
68.978355 -52.046913 -74.712357
-64.096733 -76.060257 -155.498535
102.282799 -65.342911 -101.675140
-54.409935 -82.391525 -206.946960
78.344429 -75.409531 -226.797791
3.027777 -80.939438 -248.054703
-6.161845 -52.650463 -279.237183
14.783820 -69.957237 -213.545715
-72.446228 -85.218498 -98.599678
52.567482 -67.170410 -252.539490
83.525520 -50.055584 -108.751778
-55.393089 -61.622894 -82.346336
15.590316 -51.435848 -277.044250
-148.334671 -72.274727 -259.554504
-22.904432 -78.307114 -292.232849
17.052382 -78.569916 -198.798035
-8.001738 -71.251343 -281.618591
99.473671 -43.388844 -60.594337
12.031803 -49.874916 -244.031204
-69.571358 -74.031570 -153.344345
-119.337334 -64.204666 -232.821075
-16.282909 -73.682533 -226.148468
100.963150 -41.956139 -67.234070
69.828232 -70.918762 -98.193794
-38.055672 -78.512268 -167.081284
-126.515976 -71.341354 -285.620209
61.488102 -67.987434 -247.864670
82.382126 -75.661034 -222.407852
-123.321861 -67.724350 -205.310944
-51.814064 -76.323051 -157.157486
-96.715614 -40.103390 -104.883247
-11.643714 -53.222282 -54.266029
27.807373 -76.291168 -170.948486
-44.960033 -86.351601 -199.107956
-35.760204 -79.350006 -201.635590
64.878433 -65.167145 -78.937584
23.756947 -77.832535 -153.158142
14.027113 -78.593414 -196.820862
-148.851257 -82.109451 -226.560928
-89.767242 -71.507095 -131.233063
-124.458221 -73.323639 -224.438660
-154.524277 -70.513809 -262.048035
-102.268547 -73.216415 -224.096603
-102.116379 -45.971748 -74.083038
-59.177921 -77.780899 -57.890900
43.390713 -70.905754 -22.339449
-88.007591 -69.067757 -128.762939
8.644004 -51.592602 -293.384918
-3.543825 -70.028351 -235.141617
-27.506618 -70.487045 -77.426308
6.663738 -58.628792 -243.012131
99.742310 -68.832352 -71.871826
-134.669647 -66.101227 -290.502258
76.706345 -48.682632 -109.351059
-158.289490 -68.142853 -272.125122
16.174814 -56.433529 -288.446045
-80.171684 -82.221687 -92.883141
-13.709215 -54.487087 -251.313995
110.459717 -75.753593 -163.327011
-143.945160 -72.775284 -218.194214
19.541605 -67.871475 -190.578339
-144.712601 -68.402176 -265.019165
-67.266190 -52.647018 -59.974995
38.320347 -55.344715 -119.170677
-60.985802 -77.578789 -171.144836
-63.798325 -72.888161 -168.276962
-73.637535 -72.283867 -146.342606
-8.062374 -75.637970 -233.573929
-60.479660 -68.719055 -143.856216
-74.704140 -75.378098 -137.417175
-20.850813 -74.390297 -181.082596
-10.539679 -82.315140 -172.302170
1.663493 -64.487206 -240.430328
61.738579 -68.792725 -236.013718
13.243488 -70.219482 -242.305542
-82.344208 -72.430656 -214.739960
-55.654316 -53.332054 -83.333237
82.612282 -57.379040 -90.367661
-145.109161 -81.918839 -290.331543
-148.012985 -70.308128 -313.034973
-47.549946 -81.892227 -201.953201
23.944124 -50.213684 -242.897400
-140.308884 -82.691750 -230.372513
-47.034096 -70.683876 -145.826813
44.809563 -58.640774 -32.017212
-121.591621 -71.455338 -256.147095
-45.548306 -75.218201 -139.306030
-148.280273 -85.378693 -245.686691
-132.768677 -65.059410 -197.844513
-78.993454 -73.815010 -210.269318
12.136878 -75.781410 -245.393829
-135.158463 -88.270393 -287.587341
-163.220749 -68.912735 -221.892731
23.185192 -63.013706 -250.980499
-157.222916 -67.449760 -224.197800
25.552019 -63.594524 -261.392914
-39.319592 -64.506523 -76.585808
-84.075157 -84.752403 -104.699982
91.493851 -77.811119 -92.881599
26.607187 -66.944229 -21.173660
18.680250 -71.014397 -281.723419
-68.246185 -57.344051 -106.577164
-61.522026 -81.569984 -171.548035
103.693054 -77.630165 -187.764862
4.660723 -51.085495 -290.405762
19.625732 -60.304810 -140.383301
-16.319368 -55.453186 -265.923584
22.541691 -49.910206 -241.320099
-43.592556 -81.860260 -83.606117
-99.182892 -74.412918 -257.976563
-148.509308 -80.783325 -232.348373
-74.361618 -51.573624 -106.757744
-100.777451 -44.934910 -74.188263
47.914970 -52.122536 -19.141687
89.793518 -64.239296 -108.793983
-150.571854 -77.465164 -300.943207
-113.081741 -68.530670 -290.247620
114.471474 -73.486313 -140.650085
-73.091110 -55.832699 -42.399624
-77.716789 -80.205635 -213.697601
-143.998001 -60.774029 -192.357101
-1.746859 -50.814457 -245.917465
-150.665924 -75.638161 -276.870239
40.827744 -69.484032 -14.851282
-161.503204 -68.986618 -265.339325
-66.933998 -64.208527 -94.421112
-1.845384 -67.085075 -224.261963
104.207108 -63.505848 -86.653900
64.001152 -54.517578 -73.557365
-163.985031 -76.221092 -285.249176
68.685715 -49.330864 -70.766098
28.978451 -48.381054 -15.821448
25.976133 -77.759628 -179.861389
115.632919 -71.230652 -131.483978
-125.645187 -70.778557 -261.142700
60.507160 -72.285011 -86.793312
-101.541756 -71.308632 -260.712677
85.669975 -43.436371 -96.063057
-95.216408 -27.261389 -70.936653
74.631683 -48.106602 -65.166237
61.364326 -58.366360 -98.637611
-81.716454 -66.887810 -112.502823
-41.397991 -77.632393 -195.515915
77.734734 -73.099701 -224.632690
38.575626 -52.312134 -41.481766
6.615378 -75.538956 -243.393066
106.127892 -47.621029 -89.088455
-26.653385 -74.263741 -239.105392
-95.522835 -56.164070 -119.536087
100.825630 -72.198013 -203.756409
75.885498 -75.809982 -86.826744
-67.408501 -81.052483 -70.301506
10.119442 -77.653091 -207.767883
16.907883 -83.101677 -255.136047
-74.943893 -67.381081 -144.248245
65.964493 -50.873268 -72.899544
-54.223328 -61.165672 -77.045700
-164.491348 -73.745560 -225.026733
-56.505985 -76.724976 -288.485321
57.378353 -71.336113 -102.876350
79.805260 -44.386375 -72.116432
-139.497696 -69.955688 -201.587570
-74.070244 -81.767311 -210.580902
-74.464989 -79.451553 -103.297226
-131.088593 -65.236641 -229.698746
-146.441940 -80.087692 -226.282639
-11.783053 -49.412205 -250.980682
84.744270 -55.792397 -92.975563
65.893738 -46.859947 -78.798424
113.387184 -77.129036 -157.167374
-25.126816 -71.530876 -224.442978
27.276491 -52.739315 -277.932709
19.232307 -48.999874 -289.136658
-3.279646 -64.111298 -255.740967
-7.894913 -51.406761 -245.576767
95.081497 -54.397808 -103.546860
31.791851 -61.049770 -37.835609
-97.396721 -62.260773 -113.628105
-82.381699 -26.071737 -102.784981
-12.640532 -69.162636 -217.862259
-153.964493 -65.272614 -256.842651
-60.150803 -79.391907 -62.161449
46.382915 -61.007511 -36.475231
-63.628460 -31.965467 -94.631134
2.061971 -75.215981 -237.803589
66.195236 -69.534691 -243.503143
-63.028469 -62.547840 -127.247238
-94.757462 -66.410522 -143.941772
-15.229870 -59.741009 -52.852154
110.019684 -70.308632 -169.889313
-27.361023 -69.475227 -183.972107
80.623795 -46.717728 -83.591248
-148.511871 -62.090340 -251.462494
33.993126 -61.810226 -133.718964
-1.525309 -52.122173 -297.899750
-66.649300 -69.818832 -157.491409
-96.096985 -67.132347 -76.525421
74.969711 -45.529499 -62.877323
-31.659613 -74.933952 -209.429611
0.962650 -55.621964 -241.335571
10.128240 -49.977699 -292.759979
-102.934990 -55.791813 -89.312897
-96.066208 -61.678936 -108.433525
-6.330881 -51.829216 -274.064026
-48.002975 -80.560471 -245.205978
-79.067696 -62.559620 -45.159683
-125.220276 -73.848701 -254.929031
-55.593983 -56.005726 -83.758575
10.381221 -79.996613 -246.232651
94.545692 -44.244453 -103.467842
16.163593 -74.538498 -182.335190
-101.013428 -66.863327 -174.841599
-73.396133 -47.259357 -104.394135
92.101265 -63.599667 -107.873840
-150.678238 -86.560265 -297.589050
12.800138 -67.702591 -151.183151
66.962814 -51.977882 -69.371109
-61.734825 -60.675106 -44.367672
110.070305 -76.873734 -119.339600
87.749840 -44.794373 -64.205467
-8.072814 -66.964729 -232.054489
-39.872047 -88.106087 -194.699203
89.970695 -49.902409 -110.488297
40.425072 -74.179245 -17.764753
-150.066299 -71.575020 -222.993912
-102.559082 -73.246933 -291.631866
-60.945694 -35.831982 -87.508446
21.487885 -70.850586 -200.873383
110.345474 -74.311768 -119.936035
-17.038055 -77.358269 -239.356018
-70.607796 -88.684456 -89.878189
-73.768867 -29.054806 -104.625862
-76.236176 -62.096813 -117.003792
-70.082558 -77.407982 -160.003159
-159.566406 -73.659706 -262.086914
-161.056000 -74.449699 -234.193497
-54.122475 -75.343132 -248.575638
15.746194 -68.515846 -195.872986
23.778109 -72.362877 -262.620514
-155.449646 -76.780251 -231.289505
91.116699 -47.282444 -58.408222
-135.888138 -70.583458 -293.562286
-22.112995 -76.012466 -225.360550
17.777760 -53.069820 -238.734497
-14.024467 -55.159149 -256.729401
-129.570282 -64.669296 -288.088013
100.271530 -73.679718 -191.933746
-47.070015 -52.766983 -77.122864
42.696819 -62.179588 -256.657196
-74.198357 -73.117874 -255.424728
-73.627701 -65.743263 -126.430435
54.389084 -66.121376 -87.025040
-38.674568 -70.441772 -76.626694
-90.173088 -19.904352 -71.941292
28.811142 -67.955330 -148.161072
10.457806 -66.275414 -222.190826
-146.941818 -85.035110 -223.041199
15.749725 -49.789764 -259.623413
27.989834 -51.075775 -16.945053
35.887108 -65.830482 -257.224365
-33.350536 -77.201706 -166.975708
-48.505642 -79.479942 -177.591217
-35.841248 -57.016254 -73.087494
-152.332642 -70.503357 -174.797440
-149.306046 -66.894905 -197.679535
18.748676 -74.120338 -175.073013
-30.623165 -79.560005 -73.773125
12.736988 -68.137329 -148.994537
-86.265747 -65.242241 -135.739441
-48.957317 -72.651749 -241.917633
-87.093025 -43.713036 -117.191696
-63.002693 -58.118607 -130.509476
5.987855 -76.179871 -293.275238
20.421549 -71.301865 -199.860535
27.191950 -65.677635 -162.876007
107.890587 -67.568733 -105.988968
-56.950634 -68.479416 -50.278332
-132.379471 -75.818466 -222.594315
17.518438 -73.803909 -212.858353
-151.008102 -79.153900 -248.777588
93.411644 -55.384289 -95.236969
-48.507935 -72.415237 -137.350479
-146.206345 -76.398468 -293.187439
-133.711639 -68.045746 -223.126343
-78.976402 -55.797119 -116.121208
-8.968025 -69.181808 -213.900909
-96.109337 -43.591267 -60.098183
16.161356 -52.286343 -241.190628
111.574219 -70.544472 -169.814621
-23.889664 -72.938293 -197.507156
68.026237 -68.321411 -88.164566
48.546555 -63.918182 -21.261133
-140.704666 -78.497849 -229.766968
4.815739 -78.387299 -235.785889
15.500928 -77.210373 -292.238190
-52.137810 -48.673054 -83.656898
-149.548553 -63.774181 -265.323883
23.482117 -55.679466 -280.041260
-58.359947 -29.991383 -66.124733
19.895821 -67.286781 -200.723328
80.251419 -71.383133 -235.712677
-97.876717 -38.622082 -69.715408
-154.818741 -65.571114 -254.456421
-149.666367 -87.212921 -262.299408
12.501244 -79.399300 -201.171265
-12.024202 -50.971710 -53.939507
18.556992 -73.020683 -226.203049
-4.291188 -62.141273 -249.445511
26.712648 -67.945114 -138.015152
20.789637 -57.539097 -248.139923
-86.780014 -71.940262 -58.065342
-157.935577 -69.346863 -263.280243
23.245909 -60.774002 -33.984074
-27.069954 -80.484070 -209.308243
-35.753597 -70.326439 -75.116264
90.284424 -48.139568 -65.951797
-90.044823 -73.244698 -253.535370
56.654842 -59.181515 -99.694153
-93.885948 -73.870171 -289.777863
-65.392456 -65.371452 -119.908463
-63.112900 -58.144093 -105.729156
1.647386 -72.603233 -239.287003
17.327990 -76.937645 -215.452713
-40.835129 -79.275757 -66.812447
41.788956 -66.793343 -107.349327
88.144089 -43.409718 -78.518044
45.965000 -51.461426 -32.438480
52.602478 -73.370583 -246.937286
13.708580 -58.917118 -235.623871
-28.747198 -78.769249 -186.286240
-148.530975 -62.301540 -193.496216
14.857956 -78.698586 -216.298950
-149.079239 -75.249962 -231.394516
66.109695 -64.568886 -100.194244
-57.406693 -55.774025 -42.666893
47.742302 -68.578629 -253.398346
-139.201630 -76.090515 -200.141464
98.294380 -65.131462 -68.187134
78.552856 -51.329121 -73.347610
-150.085281 -84.646057 -247.760132
-0.822760 -68.547630 -231.377808
-85.395950 -67.160240 -114.242317
87.474388 -44.785984 -56.584454
-70.543808 -72.482384 -284.567810
-81.644524 -66.856308 -133.860352
-12.670889 -68.418144 -227.156891
28.239595 -66.169640 -19.189968
24.524622 -69.241997 -151.893646
7.285356 -52.768028 -239.280182
-3.832459 -78.995338 -170.777664
-151.543747 -72.033455 -274.856415
-12.875907 -70.951820 -272.728027
-79.963554 -81.511147 -81.878319
-28.827436 -74.278366 -78.102982
91.441185 -44.215469 -106.615196
-81.654968 -68.676155 -290.712067
-100.270714 -74.332382 -224.455765
7.100419 -73.168655 -216.393204
-86.755875 -68.543289 -111.086960
-42.560780 -39.897240 -67.638931
-24.036079 -48.341606 -54.430183
100.262161 -52.840740 -80.960373
-76.581161 -70.842957 -134.394424
-141.433060 -79.638664 -289.591156
-57.159412 -72.504051 -143.235535
-149.984833 -80.370003 -281.410950
63.614670 -50.264824 -73.788910
74.776924 -53.134880 -76.975479
10.157531 -70.403069 -226.568878
112.219009 -70.301277 -158.285400
-154.812332 -83.716034 -230.651459
-98.602386 -68.600441 -223.034134
57.583782 -60.021244 -103.085182
99.176544 -67.547646 -102.246758
102.910843 -51.697651 -68.950897
-101.581444 -57.542522 -96.802826
28.146000 -60.146954 -39.010780
21.930597 -60.805691 -244.981079
70.984711 -74.502846 -83.070030
-66.646202 -60.256588 -123.140556
41.732735 -72.258995 -31.594732
-23.196735 -77.147942 -240.503845
-14.813207 -55.351158 -240.023727
-55.458652 -70.984581 -127.966553
-124.604225 -64.458191 -264.265869
75.752480 -56.448208 -59.919140
35.385754 -69.266525 -134.976547
-73.555740 -78.102066 -213.671509
-11.635726 -78.536201 -271.136475
26.306133 -74.930595 -160.320313
-34.337620 -73.143486 -207.386292
-169.143570 -71.266029 -254.450562
24.898369 -55.002655 -253.392212
-51.972832 -67.640495 -138.634323
-136.559982 -74.293114 -293.356628
-130.948563 -63.502628 -196.748352
93.646637 -62.791779 -58.771767
-65.268478 -53.941948 -71.034927
-0.084020 -67.944611 -231.376099
-82.337082 -65.028801 -46.463165
43.489109 -68.000221 -25.390440
-150.713699 -81.739616 -289.186615
26.697958 -78.985451 -168.523300
79.171776 -76.500175 -223.850632
64.638092 -51.782356 -68.741119
-117.716232 -65.840141 -261.387604
21.625814 -67.397484 -277.351685
-68.914223 -69.479286 -151.131409
-1.528652 -85.757843 -266.981659
35.625072 -68.004265 -258.912384
93.246956 -68.006210 -212.133377
30.449608 -72.495766 -17.072136
80.917877 -44.834362 -55.545738
-142.238022 -83.572998 -231.460068
96.806458 -57.118546 -62.379692
20.187899 -64.852432 -37.012020
-150.534225 -66.058159 -180.633743
-15.374228 -78.905754 -204.086868
-160.277634 -75.469955 -290.467865
-13.090221 -69.967293 -268.947144
-24.573822 -77.290184 -174.871353
15.376280 -70.403473 -207.476257
-47.439404 -73.002998 -164.158005
44.211441 -70.036789 -24.357267
-85.806023 -26.628370 -59.256798
19.525940 -70.799156 -173.740997
-48.166996 -70.585587 -131.810425
-44.034328 -65.768753 -142.810593
-48.289063 -72.077286 -157.055710
15.675468 -81.650177 -208.155884
34.064262 -71.791595 -14.150839
41.497833 -48.260033 -34.056229
12.542353 -74.504341 -184.605225
87.524918 -42.372860 -64.636269
113.585670 -74.484512 -174.848022
-65.851372 -56.168877 -106.342613
-124.387222 -76.249680 -227.416458
-14.389067 -53.094345 -247.385178
-12.843343 -72.285873 -246.688904
30.960302 -80.008583 -163.920059
-136.720428 -76.795616 -286.545197
-125.504555 -71.538055 -234.511734
38.583195 -55.843376 -115.841118
-19.317959 -56.626369 -269.415558
-13.406500 -67.938889 -247.395569
-35.246223 -78.775513 -201.110001
25.446840 -70.302841 -264.782745
101.547684 -67.955330 -100.538979
25.327435 -68.264931 -149.640259
71.917145 -69.272003 -69.807495
-164.445343 -69.703758 -247.897644
22.070049 -53.589725 -255.005630
-23.917311 -68.934784 -184.064255
-38.026363 -76.700439 -170.552002
-96.178772 -63.633034 -155.758224
66.618767 -54.114525 -89.261200
13.022568 -54.732986 -295.656372
-133.100784 -66.434334 -233.137192
13.839433 -72.477814 -238.795898
-71.122482 -78.261223 -213.078781
-81.176842 -63.185719 -126.624138
-100.663094 -70.332970 -152.454697
86.898972 -43.789425 -69.048126
-4.009377 -60.444546 -283.767670
-104.230637 -72.519958 -261.263580
-70.281441 -72.649529 -245.604691
-19.837538 -84.303520 -177.646194
-62.468349 -78.798279 -163.794250
14.970798 -80.948372 -264.048401
23.097620 -59.206482 -35.974716
