# This PCD file was generated using the MATLAB® pcwrite function
# from Computer Vision Toolbox®.
# .PCD v.7 - Point Cloud Data file format
VERSION .7
FIELDS x y z
SIZE 8 8 8
TYPE F F F
COUNT 1 1 1
WIDTH 785
HEIGHT 1
VIEWPOINT 0 0 0 1 0 0 0
POINTS 785
DATA ascii
56.233959110032657 -76.943024553669318 -97.736484069946812
-69.450874409870991 -74.709812457193934 -104.629672941101660
-73.284321506172063 -71.024457382904615 -104.709725565584591
51.067790684875646 -77.456863041111632 -104.671031439603865
-87.937694588897998 -76.416719777084566 -107.141682341771343
47.727929021110832 -74.359640431549195 -118.045005814655866
112.103726231130537 -75.787671020738955 -118.053073045643160
114.375359018043355 -78.065185666283938 -129.828211325705723
25.153544326812177 -74.727706005602144 -138.666586484159581
111.957986633998530 -77.548174090965915 -125.590348940354204
29.772972068396733 -74.721986671929116 -134.765418706381809
115.047351493596523 -72.858603971863047 -129.834400641885395
39.618870951810138 -74.968877528607706 -135.236636148394638
-52.178242890240718 -75.959625024367341 -144.669030721430261
37.734655524333732 -78.032807375636608 -144.501677506809386
111.086627847343749 -75.024118354502136 -135.090277811947828
-45.707446387745939 -74.671649581687618 -146.879442952119433
34.337351324345327 -75.727935117465250 -150.051051067440113
-54.357063343506603 -71.836555304424962 -143.368198706891150
-54.518429165780447 -75.937516906705213 -148.737679811368054
-49.435530858095042 -77.841456788361384 -152.599330079886130
-62.211581769409058 -77.797578237302019 -159.039855312832742
115.333766936129933 -79.464080325711251 -146.605872251744302
-47.742253627313040 -79.951256987509453 -157.995542603274089
24.848652766266827 -79.548037514237734 -156.659391251605513
111.117934428319757 -77.569199893470753 -159.016592205588438
-63.586526457647594 -75.298310414318451 -158.611568518286816
-42.771746054558406 -76.823079245561473 -159.298682225127038
11.061487441747529 -74.107275271994666 -156.033764700194695
-65.402997424367484 -75.599752030179317 -160.083280368398448
-60.371031460529423 -77.382004651032986 -162.774566379633143
2.241702793057023 -76.393982020003179 -163.773284820020734
-40.178680213541121 -73.907177282810011 -170.136124437991839
32.427164113114010 -74.731859265059484 -166.948967942073295
-59.998146423376014 -73.483436425773121 -170.217613946279130
-53.881381637565632 -77.212832267273384 -170.203766175406997
19.346610716741647 -78.337256496300569 -161.525354868746490
-27.954045950082989 -75.614169940268596 -171.134407146084754
-26.706155510852252 -78.164459385816059 -169.078878995204064
18.692005941110882 -77.483944744800027 -175.744516554508721
-39.422213588559046 -78.140542798852920 -175.411713278399048
-8.363973954558537 -77.092390548336709 -174.399468065037524
-60.557603701152900 -73.615081212624318 -175.051557287822021
-3.702542911177590 -74.236503196696731 -174.580787847918003
-19.351314657873846 -76.694552532392336 -181.763669793822487
26.022991329578193 -74.805854389520050 -183.760169580944904
-36.132792915921257 -76.884690636415399 -174.651706419214406
22.770984199409320 -73.869678048735750 -177.860134697309178
-19.752932518825045 -73.225915419888793 -186.679052378904146
-29.264849345652674 -78.015851220659926 -181.772333119688568
-144.530655590882674 -73.971121069147301 -194.820291372770896
-16.515602476706299 -79.319173003958937 -186.768409044203338
-138.954271259420892 -74.570781292610917 -193.837547026347664
-148.969107988664007 -75.258916613612470 -192.369803729995112
-45.523935577459405 -74.835739065901734 -190.517889776808573
101.635148628635307 -76.872390939924145 -193.871776529421965
-141.503895947759020 -76.424508338421347 -196.542975719553681
-145.613687651482394 -74.851989866048712 -201.176241768727351
25.337295137848326 -75.784647418675192 -197.990675019460184
-133.913890189204693 -75.431210390880480 -201.664272972911220
19.193635243432311 -74.272905967007588 -199.887026183724799
-135.776884099559510 -76.923072704198731 -203.647818472403827
16.500735498909439 -74.248233637594467 -198.367476555377181
-130.514846309145327 -73.256593784803229 -202.781826570404434
9.735208943002190 -74.873699334363195 -205.610038804428598
-147.243753915785476 -75.480075148088375 -209.104447254197112
98.023643951067356 -77.337975438696603 -204.600304693173626
-12.432496788312628 -78.585328099441625 -207.679110163917414
-26.743138049231671 -75.732703675672795 -210.189351982839042
-7.553579927771524 -73.894243417509870 -207.300094791984321
-143.308036312336867 -78.501780329997700 -216.136896906879940
-31.884822843220515 -76.475845142940713 -206.744014463995228
-79.382665823035040 -77.986803523501379 -209.809193103529935
-23.143630902424825 -77.762656844499020 -211.142490490153705
19.959567502329037 -77.183017991800426 -212.991010992759811
-143.184395976393404 -74.730230327785748 -219.168953608375830
-86.092498614662233 -77.341223499188942 -220.674955260814642
-25.686693191414253 -75.581691425244202 -218.986675394600468
-22.669542477015234 -76.129650589149705 -221.772424505507900
-7.146078817118729 -77.876860785451768 -212.787025638176090
-23.708631909515670 -75.889496918864296 -212.089031934658493
-78.875213282296045 -76.342221462338230 -222.951113389501984
-84.459159394672611 -79.720788897435369 -222.379991953364879
-19.419949797910501 -76.376582823111136 -222.660658600063186
1.940483993927553 -81.853581685117021 -224.930618096395818
-149.516600561323457 -76.893031139289064 -222.279537250800701
1.522256691727913 -78.346581680726544 -221.727434810367470
90.358082218702535 -80.368108404164175 -225.223916152883760
-136.670008587548381 -78.124119185706874 -228.655201769607032
-2.354574103156910 -77.715865478036321 -223.938687598552946
-136.167962995917321 -77.288141432330065 -230.895786337836739
-143.051443600943827 -83.332939973062111 -230.821511209368623
-2.076624511297433 -75.841584775235702 -230.596878721709430
23.136185594742717 -77.485486028657718 -218.502948478381938
-135.629772329579851 -74.828524767165376 -234.190253431076286
-12.723380998449315 -77.842348529681104 -230.292541947579906
78.670748112216756 -78.216089404612362 -225.970351047019903
79.939077006420831 -77.606235323798074 -232.455784438661823
13.705264482629341 -78.411268246923385 -231.774325495344556
-26.681790382007286 -78.261751286112940 -238.902119313470678
-17.142993460424801 -82.314913763467885 -243.353598599700774
8.498629699349395 -75.808321386719655 -244.559042489021635
-42.724333285616112 -73.910710077836583 -245.486031320945671
-17.418536526298475 -75.888205621559692 -244.892234942696462
13.768026382114350 -75.389097557440266 -242.090529827889583
-58.766413032615134 -77.129317112350805 -248.404958222300735
-29.536120135907808 -79.858238023889541 -246.002977880667714
-35.818705144446866 -75.478017970069629 -247.697084857555581
-144.240838676055915 -74.910925093738953 -251.049086937533872
-41.146727450641720 -79.153748836716176 -250.321846089101342
-48.373259080018279 -72.559560812858933 -250.478739017214224
-61.538586816960304 -76.868692870200846 -252.633388464724959
-6.075592418076194 -79.818261107918417 -249.698393714902494
-75.083408871400607 -77.471971130437097 -257.382921269602605
-151.112118723470900 -81.177156756218579 -259.825857353453557
-136.304645424851174 -76.174801323277023 -259.658858999349377
-118.162755285113789 -77.566488689944933 -264.034173008639073
-151.518434111237156 -73.273972469817579 -265.888209410034960
24.927269965315165 -82.039934174598898 -266.054247459250689
-8.608360989553882 -79.235711600714964 -270.274453890693110
-147.875311077031569 -78.905330188436480 -278.057053118376132
-146.533222547643902 -81.569091648871691 -283.074242232502627
-139.612301872424723 -79.813337444331665 -290.022281626380277
-52.752400201280970 -73.965568697526948 -285.088671685656607
-33.001191066784415 -74.347311471602069 -288.251498968180840
-15.726452877798113 -75.546218853031817 -290.210054126457067
-5.135847082295929 -75.305517494858364 -283.768645945687922
-60.259808906082910 -79.311275737051474 -288.931110463931930
-74.626782520081150 -79.458214309298612 -289.759045441350111
2.765073280430723 -78.588841927512320 -286.071641245476485
10.872388603180287 -78.805663195947588 -291.816876306973484
-132.492888904918146 -75.806007844789193 -292.511011922081821
-73.807383452145729 -75.160265945130604 -290.565992312099524
-141.569124048710052 -76.152922347789811 -292.911806371835780
-88.751449956680375 -82.089100561011747 -290.365653490198270
-72.917780293600288 -76.719332942969842 -290.487628751988439
-79.204287528042599 -75.137624280549787 -297.203208145645760
-55.996906061208804 -76.945273265436015 -294.188880472265623
-22.998308882822258 -73.365365544500648 -295.999825176349475
-0.777227475814055 -77.318894050226277 -292.766799056690502
-146.145511371987340 -72.119783366513488 -302.375490681701478
-144.010394228396422 -75.459883925742716 -305.405010160876259
-138.683212474549748 -76.601136034724888 -308.398825517544708
-150.482765873563267 -76.646419176611545 -310.941712004582996
-56.814917289436686 -71.520642748295316 -58.508345943079547
-47.091272080471228 -72.719227473239670 -55.645070920156726
-39.216352066738700 -74.348330755495951 -56.881975485193678
-76.474981999969629 -75.221281955153117 -64.235482269945578
-28.752000689564884 -72.956778934446731 -65.897723142054858
-32.346454713421245 -73.803028707236919 -81.787152316247600
75.559831271562217 -77.561442233080285 -81.390559434686963
75.909203366438305 -75.757152038574972 -80.066358480020142
74.289591978067435 -73.855397812375600 -83.460874204335937
99.408466579256185 -72.933749553357515 -89.142335928958346
71.203836873524949 -76.790606265470387 -89.069540130542705
51.105833917871649 -76.566339643605090 -90.741227077506579
51.210390621114357 -79.199686656614176 -100.703901547920069
-65.749775757460299 -73.388622316354599 -104.202010218020490
-72.002200131751081 -68.936334641114385 -105.339984015708467
46.124227230029398 -76.113070594862975 -103.563582704447384
-80.916679586834704 -78.586497533044863 -112.801559231895894
-91.807091947387278 -72.531587085342437 -115.006717946866729
52.314684906596980 -74.898890464708415 -107.500843342011592
108.862519286699836 -74.648343437382039 -112.219538162649656
34.417652998236633 -76.996855417529332 -123.821964848003773
45.486711442389577 -76.291748872756159 -119.080942938621632
42.771133065654070 -74.952455191291037 -124.587236926097376
31.521217715737841 -76.465092607224989 -124.183678737674256
110.618237698582462 -75.675004202428070 -118.954767432693700
41.134788491096621 -77.204342244613443 -130.670093112587608
34.622986788176043 -72.408642763088167 -132.320095163474690
-43.342872240603945 -74.292622749493233 -145.587974369229073
-68.915826966421136 -76.578511343982555 -147.477317240629873
-51.482711413591595 -73.676230598705018 -149.657795398292308
-70.840435026101147 -77.365622048341194 -149.179834687907174
-37.594559166575728 -74.116354768560740 -149.846314280442385
109.596094345929714 -75.700674311684153 -152.767694976563945
-69.354829635037220 -76.363555173742000 -158.943817595814465
25.945008564609285 -78.424159932354982 -148.485270463156922
32.763161506475228 -77.547134254039548 -151.736948840765194
115.174619521361805 -78.473380571638913 -159.732821220218597
11.853335492903987 -77.306469686605965 -160.438976208613241
34.852791571019353 -73.960283639556252 -156.055568830377069
-61.382127872505031 -76.185054959964432 -162.119559712199873
-38.962354668570953 -76.757348289176619 -173.903682994007227
22.968231980229117 -74.943139379252500 -164.186461847270749
-62.115656176605086 -73.957703185393584 -162.625811534437560
-66.634004140450173 -75.270457599770765 -168.485775802964213
114.052794750570570 -77.731409508883544 -164.741556532529415
-5.185636150764926 -76.232774714339271 -168.158325100320923
-61.108491393983826 -74.449201021899540 -176.791955162937484
-29.394034215701421 -76.577613077640862 -170.637174684738085
-52.020530598239361 -74.113129499263522 -175.371130478927483
32.203711050805389 -75.479637487938092 -173.252430778340113
113.582665746419764 -74.702639198160455 -171.514398658453274
105.519127546960704 -75.732566218005559 -182.369293628796186
108.983268479439175 -76.582099638135730 -188.062552718193075
109.820869354788414 -74.697855546501174 -175.749819231078249
-49.023979615541805 -74.666562542480790 -192.917331898095000
-46.260322134237718 -72.827655656287504 -185.492131505023366
29.689145444137054 -76.298498373685504 -184.068696096266876
-45.667822394540899 -74.076532938537397 -189.558095842549079
-17.395318283901194 -76.163335746677149 -186.089802046311320
-47.682080358925162 -77.379792576362235 -194.091684175573931
-147.867586595958386 -74.331220464243231 -197.958077073695335
104.543362298179389 -77.898854988323848 -191.733730657162312
-41.393911628351511 -73.326078394597957 -196.392899754101705
-11.022917423192855 -77.317458358046707 -200.074909044163689
-136.740533351165737 -75.276986380078384 -199.276421548086063
-39.808372420166464 -73.591122806451224 -200.110019079467492
105.401508655381562 -76.037152323613057 -195.922538332626971
110.024991581950488 -75.108526408564430 -184.402543437886891
-41.099475109799847 -75.487997949047539 -198.817424305775603
-19.817150468927370 -80.844509700905647 -199.810706187305101
-144.533393974042099 -79.022881890903847 -204.753274643466142
-21.698171908296693 -76.230484659240417 -198.796470720152598
-154.040485593413564 -75.843232647860646 -203.098592437523422
-149.253919887112744 -80.536441403849011 -209.032065068364261
-139.745116034961939 -77.048515549366286 -206.652788695419758
-35.024404235299365 -76.264452688694064 -202.084442542969811
104.610857038830829 -77.285332999545147 -200.522812914167474
-37.580635179497321 -73.923194683497570 -202.056779592941098
-139.742131084881578 -78.516865720037444 -209.730512730110121
-34.272269710613458 -72.752972622126862 -208.036688405971944
-17.129060186243937 -79.892018709158265 -211.689088479934242
100.518505401269749 -78.351058368988603 -204.141263398082316
94.989166100692557 -77.670782371212965 -212.340933687245268
-30.601518569698968 -74.590234815187131 -219.312799201085795
-83.802216001333761 -76.557829719834032 -214.428496654520529
-72.000259311594576 -76.232655502088662 -214.871561695827467
-14.944109957026001 -76.195682445993768 -215.522030161744908
-146.280701286473516 -76.076351539238146 -210.846238796098589
93.891327882101422 -76.750652539349844 -212.576584969423919
92.744043724807440 -75.070520295875141 -217.379823810613772
94.040024987799470 -76.844267975845625 -219.195891588362770
-98.385519860415087 -75.595823848524901 -224.055886681016176
-149.115081338661611 -77.744856129304964 -227.043241381996410
-16.073799834014107 -75.008971431686064 -224.454067795642061
83.913853533887178 -74.599586512716598 -225.420752129922079
-145.659230398599817 -78.713375102945307 -228.924404176875441
-24.201488959586744 -77.159827352211238 -220.966534339299869
-129.323256218141040 -74.184897258791963 -235.907765820371594
-7.755410814428369 -78.596894459751823 -231.566767025570357
21.466405749695124 -75.823282349020488 -226.938690204321404
23.811785954668199 -77.422201328302336 -233.537884377644076
-150.610387829203461 -78.583461963260277 -239.322307996817671
-121.688361469836906 -72.604686910775811 -237.212630710102417
-4.005374522008555 -75.731809152196732 -236.744125929596635
4.315673562062078 -75.807414308797419 -238.546285506613913
73.322813110482116 -76.575163504039679 -232.537294655514387
74.909990539436478 -74.348960420675482 -237.588902885738719
3.939627822335501 -75.170687158960817 -241.608927790043310
20.708032612005482 -73.313887892502621 -240.666609536138054
-25.829983826223085 -70.721546129462169 -242.731524376592432
-29.387220895063447 -81.778667600937368 -243.549449282501996
-42.590796072870177 -75.612264657683042 -241.181765111296045
-34.925504714700409 -74.366305458107760 -243.255303821156019
-13.101924498240004 -77.610020192090161 -244.463490539416654
-48.028306451025131 -74.592843931447035 -246.471684327212415
6.274258666580514 -76.809190878217649 -246.362043522538954
-63.784784233948606 -76.722912431363611 -247.152494709987764
25.148519957666842 -77.436343491159349 -247.904927209768545
-139.694589041508436 -77.801441390161401 -249.914958900653318
-68.098046512406597 -78.391976349522352 -254.743173410318008
19.813514173219978 -78.170714317396516 -250.090970738834841
-156.789987313511716 -74.546217129000041 -254.747983687324705
19.636788388671228 -79.872110121995618 -253.683333558492308
-75.396848738744126 -72.367324602830649 -254.098872991700460
-70.636863379711670 -76.702966740566183 -254.005066514155743
24.253452588930728 -78.151822920899178 -255.851126944004278
-84.601221359872696 -75.360310059243403 -255.748574766389964
-121.025137673147057 -73.368589984391036 -259.583406184736077
-128.801554623445185 -78.058392934155577 -264.107704409722601
-130.433066899349939 -78.026134098859472 -259.384476808347472
-142.315741444008609 -76.398377012412453 -265.846118216012940
-139.678192218791622 -73.456300091182499 -260.015326402306130
-130.030916184527598 -74.316685382248849 -266.416651953402152
-156.877885645929467 -73.187426154565983 -266.118155126799707
-122.124897002198708 -75.085175334030694 -270.651586669969845
-130.504331272218309 -72.464990019921686 -267.303030368494944
-158.758836457510370 -73.280435494441292 -272.778906917571533
-151.858298388363494 -73.440217331184229 -269.361988609469847
-144.441711346423148 -74.236049598889267 -270.553746739750011
-143.152653965697311 -76.136522035688117 -270.607842794611031
21.836212935751558 -79.437531501377620 -279.400731285047470
-161.196538453798951 -75.483923621723520 -272.500508964400524
-146.836480427446617 -76.566975838999099 -278.511354929027220
-0.764684395842190 -83.562365035420996 -274.400743440448139
-152.212435107784017 -73.830136472414679 -277.787988137522632
17.400986857201296 -80.559737028223608 -282.887736177161003
-147.011166306129297 -75.514915315835296 -286.924588697719230
-159.110112721373127 -76.680159805262107 -293.106832347428110
-149.665970173679597 -77.567606511780824 -285.388130613010787
-159.698040946093471 -74.334582941185559 -293.149525154355729
6.696866684528480 -79.402982838618314 -288.662665304272764
12.555583298159441 -81.130945093149563 -284.072583706628222
-96.545816152124814 -74.846973407358973 -294.679132083487900
-148.574068415995015 -79.901975500748790 -292.739668530201925
-142.934081052057451 -74.184698484275401 -290.916662211207779
-101.865562165599343 -75.282202063440110 -294.640489128655133
-146.743628037307815 -77.956609665589980 -296.900563289455761
-143.055552791617146 -78.639909682380775 -294.293369326007507
-66.668219001003834 -78.749062332000705 -295.561653881444272
-160.361817003292572 -77.471204085794824 -294.846571259513780
-117.641522931186927 -73.516982105863121 -295.797642223456307
-37.832736301875997 -79.903728999741602 -290.214656717749790
-147.977030363132371 -75.658076887962935 -293.584689523223176
-127.615702714649501 -72.105131535410649 -298.116879219507609
-13.113783939877033 -74.990622850388093 -295.597330080204301
-122.488391469746873 -73.613169389578943 -297.914625795219536
11.329571680882262 -77.936664451250280 -295.488777105531483
20.829887843297513 -75.250225551396312 -293.491468941382209
-128.089740535700088 -73.525940091332501 -296.406089726409277
-140.071559068436358 -77.291934124216127 -302.049299134778153
-150.179660069786820 -78.096447946182707 -318.984695625363315
-72.147264372659336 -68.707742642932246 -55.688765861852914
-22.038239215707463 -68.551461496875234 -65.947325411014489
-20.055310853138678 -75.060290727838989 -67.027920973780326
73.075484439783324 -72.166600173992421 -76.716811247465301
91.432049055948482 -73.846445768655272 -74.958440562617653
-36.473704973180823 -72.893227679183383 -81.381957875731231
75.796488598771461 -73.525246821150574 -79.105861260850844
90.046649345568184 -77.418181130156668 -81.433843837527121
68.550996141776281 -74.000894302836542 -83.282153518960541
73.409628700289517 -73.437224051499442 -88.445916824720484
-49.085878771846126 -74.610818855573356 -89.013440242973360
-91.075403034573910 -75.054571668329714 -92.134899604963934
59.551265939214488 -75.993285741140994 -93.827603777645948
51.058396186946872 -75.570144153170190 -99.212332181972656
94.732627250085685 -72.117820694596887 -98.380566201912103
-91.108729510727812 -69.365490036663203 -105.596462116088659
82.901186566800178 -71.375769305521885 -98.695164202689227
74.065554821307401 -74.683363917254880 -99.705748527224287
92.608634589361841 -76.010242170907233 -97.497796710925741
84.136384682959857 -73.991286254206045 -97.439208304395450
83.929598007495400 -76.915843428347756 -97.953121657678054
-84.282016156072473 -74.884984266264183 -106.036893975335104
43.634646936876514 -72.887594775041208 -107.254401746428613
106.683436109465248 -75.515441627548910 -109.664876421783319
109.306705378629772 -75.153517463029786 -109.619809214507256
49.547589159086307 -76.671425665713784 -119.055036353781489
112.610815616301835 -76.977956276748657 -119.837988168557871
118.421603829938903 -77.641848119719512 -133.551702137434916
-49.671125509493962 -71.927839343129847 -134.117561049220740
29.158545316264387 -74.039418024487816 -135.365728902833126
42.372973889926612 -76.911512321119943 -134.070320956992902
27.114057206384032 -72.085577356258895 -143.701117219891671
114.827653070285791 -77.583677830807929 -137.127071229195366
113.486643476817235 -75.747491693755293 -130.610364891265533
-71.459691945353057 -73.861507402038185 -151.645491551659404
-41.935123888117353 -73.406369219069319 -145.535202538172655
-68.997796105395111 -72.199213764192990 -154.690811047426109
21.868007437393167 -73.283775459459690 -150.774204140126187
114.672806480796794 -73.331114261259032 -148.296200138761435
-51.439840973101830 -75.168264618448717 -153.830295402285714
-69.037820160167456 -72.647973236497052 -154.391042590938042
-36.704026803297531 -77.153393635664031 -154.965984116053789
34.626086813295245 -70.227792604715887 -154.064732855064392
112.207033962900709 -72.578566584501871 -150.154324986054860
117.769605495341921 -74.458989660406274 -159.382963172402611
-65.921647802649844 -71.073920628388308 -158.401290104406996
-70.219375643148993 -75.515532014465165 -164.520943362727593
24.193056508029922 -77.891095673754748 -164.309895111846288
-57.503086282284158 -72.164226140847717 -169.970176018776243
-30.321484190255784 -72.997526211005734 -164.912320448044142
10.345254107916347 -75.717052674490773 -164.823438437963205
111.183271769558587 -73.526981429884358 -160.692189647470286
10.394792519580587 -77.314231809012298 -168.316814380122793
-30.290283679710623 -74.634394814105050 -168.075431915929727
0.636144273638786 -70.838753814522377 -167.472097974029708
110.194397858392549 -72.678104632880462 -167.138409703964697
-38.831784987373062 -71.852677873886492 -168.254323908108120
31.905689357819362 -72.296439186391055 -173.133874503228697
115.658777785795081 -78.249426464273810 -171.268855767593067
-54.415005141438783 -71.496212693598437 -179.269409518122700
-25.450902270782343 -76.768625525257576 -176.915187256504453
105.701354434506484 -75.496163051515055 -173.261335198453168
31.763237900536197 -73.078338272696143 -170.623428021483676
110.342525177002955 -77.152784009395646 -174.173616383682344
-34.033854102697951 -71.478280852575850 -180.736362491122151
111.238803403941645 -77.896209928690823 -179.661709705943224
-59.023820009228160 -71.959458934098407 -180.790329094013345
-22.675370596940628 -78.071427110759103 -181.041921040847114
-143.364423264131119 -69.219399025092187 -188.880246356016499
-51.226586397304168 -73.441064035244466 -183.690861166525167
-144.031880760453021 -73.969620326869034 -191.505603200312834
-31.033884290542755 -72.557857417830803 -187.521407390295451
29.791919425901192 -78.374651046905043 -182.672730780226459
109.427074988694628 -76.087118645668880 -182.345809446790980
-31.029251643504342 -74.652722489954755 -186.345096987573953
14.151399084633193 -75.486620230632141 -192.142900021391284
20.789912184308655 -74.732018984554529 -204.763482264337398
-144.986062124945647 -74.229219695302405 -194.999936938359298
108.310867338676005 -77.622307962547865 -194.615474138236408
-18.077752645743583 -72.452941177206100 -195.369396130612245
104.424118967367420 -76.381942932011086 -187.429940819006788
16.039082634385007 -72.641089492771243 -190.805931957419432
-133.363533216750426 -73.588705946792757 -208.701224409839739
-135.361594642834802 -73.536970244436944 -204.930454943826476
103.671934623342892 -78.102477305761312 -200.510440383051559
-8.503986077895428 -78.358760144809381 -202.285600437647162
-12.868821003344296 -75.703306995401348 -204.981122594368600
14.137870076678492 -76.981983984511899 -208.704889439646990
-146.405567027010591 -72.248808333173812 -211.236944332675080
-142.597701866684304 -75.164755045935308 -213.267433028453752
103.618652185995998 -71.767505400829108 -203.891587666153612
-78.539321158514056 -73.943757203814883 -211.817528715180742
-32.576793207391546 -75.222014035227019 -204.154495592289749
22.545283056215144 -77.713851395193302 -214.471740360019368
-21.494566379462114 -75.319564614817921 -213.354912397102993
-72.882968104032713 -72.839120388613310 -211.390654402643207
94.645488937901547 -75.767362533485780 -209.122275054330970
-76.648071767080737 -72.155116271705538 -215.999388745127050
-143.426335929509435 -74.349448220493827 -223.858910773905393
-76.179160275953805 -73.228420336960340 -216.847103486426192
-9.534779077086826 -70.496716858808185 -211.894464468315419
-16.741186226909551 -72.629770504955331 -221.067704460196666
22.254181089654342 -75.110719203275664 -214.467929123907311
-1.582735176790466 -76.455183059075239 -221.254089660326173
-84.369240875450643 -77.518650466998551 -222.580339194691987
96.368819591344604 -75.026660628546239 -213.011527356957174
-94.537471779397237 -73.404320344573534 -219.702202800704754
-148.161556286528651 -73.286403935719264 -229.443652584978963
-21.154929710029261 -74.028074416829881 -225.910041616613569
21.583125547039920 -75.703505510940900 -217.217389851008335
-98.075527177110047 -74.452567575466063 -224.116579737493481
11.315565581259539 -72.245961106822094 -220.339960833249307
-21.844063820358336 -74.945865532985380 -217.856479226477433
86.883632286308682 -74.264704446311441 -223.834652479123719
-141.362748703518264 -73.273918909487392 -224.353357649589014
14.403095586827275 -74.002354508179920 -227.168854238631070
-5.437206963012406 -78.014629175870212 -227.512221766360881
21.522913007448793 -69.666939933244677 -223.776428837108313
87.576973395519673 -76.604281741174574 -221.867248511531983
-9.477253868320073 -77.293632417301566 -230.443870600107402
-126.440464604976313 -75.275485691607116 -231.347928227580013
-9.807012741484337 -75.243165490951284 -226.414981718286981
20.937411251001816 -75.792169725191016 -232.328400247702604
-122.594224872059357 -76.194895052544211 -231.923451655369007
-147.383260662142931 -70.999840108372595 -234.934922250220467
-138.209217508054707 -73.097104310157704 -234.019081927452362
-126.729706070737777 -72.370835354901971 -232.747532939707554
-9.077928577550004 -73.101531325671701 -227.190937818902285
75.950353045106098 -75.418130265963541 -228.060421780755007
-138.911590645976759 -70.806930496849077 -241.455398470591859
74.892424256984199 -76.802526604067126 -228.639899149490503
-16.317615139478356 -78.154869633982187 -231.704813808703932
-138.104091524491110 -77.236583925271631 -234.381988197425301
81.400207943444045 -80.417817938887623 -228.521908555425625
13.917495045724761 -79.024818755909351 -234.789754290072466
-137.315550283307800 -78.174972986751413 -240.292505769943659
-145.761647156674940 -73.115508777636919 -239.187666657007895
21.058915992629739 -72.225855907898236 -232.718894792446292
1.624584534285070 -77.565514884475007 -239.324849045382393
-23.351999138763937 -74.518884170646118 -239.493165548807326
2.723696254783663 -71.441945754898356 -239.313776894618030
-156.418411544503982 -75.981350346819156 -243.235902150764502
12.430709701676323 -74.345148266786012 -244.968769542373252
-160.316963833858040 -74.459623567347521 -244.397656559435489
-8.470195505404231 -76.286412891534155 -239.585996401001921
65.878297946597058 -76.537203032258645 -239.292646370775316
-8.731450797767224 -74.269076557368507 -240.057353842375505
-20.385616414498010 -74.384187869408350 -246.596882462711619
-20.570771095588395 -74.604331523495702 -243.997508101441952
-8.454463116189666 -77.331361927593449 -242.756828217268946
-142.111896015045176 -74.284048953555882 -236.206587164066121
12.530200569194882 -74.699298733997381 -243.747174422505708
68.706965268277770 -75.364577797875910 -243.722297621948798
19.225070064771476 -73.391182809415511 -246.409033099509173
-161.495579718348836 -72.352081372047849 -247.290784066267861
-46.065041728650620 -73.827511295018994 -243.659436848510524
8.485511361579967 -81.994039883778527 -249.534436047295316
21.483102494386831 -75.490971340977879 -245.430643102050908
-49.627096270270343 -74.171548654202951 -250.151344562069568
1.785037621507246 -71.530333188105431 -250.019109623724233
25.471795858506923 -80.204818465491726 -248.960319115431702
-164.474655057023000 -72.186626464913502 -254.569332080700264
-62.990501888838082 -77.880594655397118 -251.377723760077771
-46.982356215772207 -73.758286224645786 -250.302852376030927
-76.415641077333348 -73.735425414600968 -254.955257737377707
-156.416759105960608 -74.805274592116788 -252.531296893050438
-146.050549089390984 -68.366473892152115 -254.976829824357907
-55.479386111445663 -76.524612360299557 -252.732841590795346
-64.112849492195551 -74.555656236141033 -253.271120010289479
-148.868743850774791 -72.181355036028350 -258.148419719641140
-147.301941296783070 -74.757332795439424 -257.669493586204567
-71.078734535970469 -71.669580080417163 -257.956482561266512
-88.636834193792538 -72.166034904833893 -259.218848035338794
-159.628124634267323 -69.459393728027962 -258.009984723685932
-151.918348335326272 -74.261752958966596 -265.237605277927855
-129.950248216205011 -75.639321675585080 -263.216896403250928
-78.453052087505228 -74.533428002970069 -255.057800409039800
-157.402488807713354 -71.204884468366387 -258.641341544342538
-137.001522705594027 -72.411343087277146 -262.070012687027599
-80.634455934442371 -73.668943025242200 -255.039780054576084
-91.778904323057276 -72.397718282248846 -264.433920811462599
-140.258955115549327 -74.910211251443172 -261.215901959918540
-88.688223030538737 -74.182502627239685 -260.093505638057479
-147.767834887425693 -72.457595851463878 -261.482794355495685
-97.529065648351207 -73.931363279347437 -259.794875451883229
-163.785718506207814 -73.215450449118194 -264.700797327919418
-156.499164563336109 -75.372287745370755 -269.053044778626770
-121.617580040785086 -76.941442230591733 -261.340192096161218
-146.789001802798538 -74.160682065686686 -264.860507350582111
-106.882815913388129 -71.758281493710811 -266.433674259872305
-9.417929050742144 -74.086487320223924 -263.957967850597356
-136.650098304292698 -73.852695850130800 -266.208735161812911
-120.937191103729262 -73.607959232368756 -264.931329464442172
-149.193234001706458 -72.512202590734219 -268.196132742354052
28.684686995469182 -76.564768706451147 -271.896826478741730
-143.304934289703738 -76.510814202705205 -283.977119561413701
-162.996616528734904 -74.479699385137678 -285.968008929051337
-2.835831530750292 -75.742950596751143 -281.332969405627011
-140.437460778400776 -74.313956784735950 -285.811513408953488
-4.076675933450415 -74.276025609691146 -285.134664718047304
18.341065815373245 -76.303892984074608 -287.461491795900542
-131.073407913152749 -73.122917584340499 -291.081326761989772
-62.739023438028596 -76.892800284919218 -290.304318020105086
-27.757365355978497 -77.739249796195807 -290.540191859044342
-107.369810119330580 -74.603434735386656 -288.911682411435208
-89.678358301995146 -78.514931615984764 -294.234365339992110
-83.934410788212119 -75.320787501030949 -295.328369332641671
-44.134943806350229 -76.744919894587781 -294.804127599544756
-110.357760653163652 -78.692925036088468 -293.096404938665842
-108.051331712463806 -75.976031103775895 -294.774097379922068
-27.440765830437407 -73.257094787770441 -291.766116403828676
-109.593199338553362 -75.287002602168883 -297.575863132702182
-121.373837988728539 -70.736928512822345 -295.149626715924455
-138.655965554357408 -76.494092084841483 -298.831863256635415
12.813862052755949 -75.788264041656277 -293.051950117086960
22.321161249559715 -77.821940430568887 -294.575879856489394
-154.156782883964809 -74.388470204791943 -298.508102189633917
-152.399690272376091 -78.059194584568090 -306.238085999133489
-140.809262157697816 -76.161031450352851 -315.811575204036046
-145.772366081522904 -73.663297021653392 -316.333283700225422
-146.317168249278581 -76.361687245171225 -319.011642596652848
27.988351360259767 -74.203798451109336 -15.963107828453133
30.043139705141257 -69.602773353823281 -19.356405306504183
20.817201152167474 -71.635253310855120 -25.553165298646277
28.706007068293154 -69.712679471150153 -40.392863430696885
-58.084290115343762 -70.133772883912073 -52.986409511263034
-65.172359554714987 -70.579931097788958 -53.586384141833392
-38.846721775363086 -74.048082464655309 -53.006258099720498
-84.057004416524379 -67.362493460435431 -66.875497744421281
81.744560598316568 -75.830521749877263 -73.960590486951091
-14.919120762249522 -70.162869793299251 -73.266096087442804
89.470120111993822 -73.845514926702094 -65.992803137386801
99.966522438579105 -72.998164991036759 -76.356627082873587
-91.907398133442626 -69.430576519724170 -80.442017221502169
68.347739946499246 -72.924278725791368 -80.579133871104986
-40.221546003953591 -75.682320536923086 -88.362622428270839
101.654306851770286 -72.429029954623374 -81.444083673644016
-54.672621685568750 -70.611251200169448 -91.822595907134868
51.980541125455751 -73.425831858044404 -91.117300557339007
71.845343846118212 -78.332921872460304 -90.740103819907659
56.583806793737438 -72.406752706698867 -96.768634346065099
53.943751172727296 -74.925045115818264 -99.055329021996670
75.448720052101550 -76.447252967657576 -95.607651235949632
47.786010269092060 -73.080106542587558 -105.895454540383980
101.587113717565131 -74.409576852796533 -100.127401646692434
107.174003280778848 -77.779076549636144 -105.588759278951599
81.256498367286468 -70.963896905251417 -103.337731205954270
93.043993394566996 -74.950383815902939 -103.007874807548291
101.904775279148211 -73.911956508475171 -94.487566158449354
110.746362843052196 -74.482779812504617 -102.837601387984265
40.897301836744923 -73.267527421961120 -106.966741763525448
114.151132850688043 -71.672789678575654 -117.729941954778127
115.374038771915082 -75.533487962893417 -117.866625579660464
33.079244323763682 -72.091322365299476 -124.582764034818382
46.360320778704185 -74.771267448205037 -119.551125690932565
117.147003780917416 -74.905017128849821 -129.153630990073225
38.062450303745628 -73.179923389670932 -127.560411544854276
116.856895434150601 -77.930718038842542 -126.639835157094865
110.451624583397773 -75.249198173244437 -121.547932520798668
28.469274482320927 -74.469013843387870 -136.680184920176885
-45.908955642942011 -73.285775760819618 -137.049578950663800
-50.030393936196667 -71.286245583656068 -138.200188011983812
113.375919253592045 -73.921762308987667 -134.042271519825562
-67.026979587418793 -76.398623652516036 -143.894539888246470
-70.605517231523876 -73.438544268364225 -143.904758768723042
-56.707237858675157 -73.466847576922561 -144.408573825836868
34.200838795394958 -73.903587758842860 -144.603769592262950
118.479097153315777 -76.519866592741366 -144.792642671115317
-66.976759116394916 -69.864357762907602 -150.642694543390974
-45.694085353374028 -72.789330524571128 -145.547575310088519
35.872839059451408 -74.651867043682770 -152.158316716697215
-65.698947069532210 -74.084492522175069 -151.255176706051145
116.221837258292993 -73.729982013468643 -140.296974612251546
114.498783391746642 -73.173484477593263 -156.591263800337458
118.818542331496772 -76.033830935007899 -151.838613892252027
-35.845699325409626 -75.792181197858341 -155.728133048268887
-61.875626385370637 -73.337844132218393 -167.672723911858242
-66.473885754646219 -70.071253063028394 -160.684658381487196
32.532092078592306 -74.973348630179956 -147.375773406725102
0.682140979066209 -75.786068335805169 -163.846723901639479
111.902974631193871 -74.580072209048780 -160.685202360165079
114.363778812142812 -73.200777258526728 -152.049983677345921
114.906546546146586 -77.158505121995418 -157.330431837401733
-60.943308238173344 -70.565481901783059 -163.435676153380655
-42.463306558446753 -75.386771377998684 -168.052751961700892
0.565768763119480 -73.142299315470851 -166.859410169957386
-26.112611388446926 -74.003507552496714 -177.350587062957828
108.886791674305925 -74.188494654278131 -166.374602506097432
-31.617118127179594 -76.428690678593284 -162.584488291390642
112.362305568338428 -73.587335576791261 -167.430197330611634
-38.663941905681611 -74.172164457516061 -176.371446942121793
111.610260567195823 -72.958992766385791 -167.728511090098493
-148.177058162664338 -73.591049045709568 -185.456558981854869
-23.702960277750712 -70.159953741982775 -179.220554342378591
-16.950622484588060 -74.075796934402291 -185.558695759229408
28.043215312381680 -77.332399440795754 -178.174072699913751
18.400135960409795 -73.999189179790918 -184.505325769793671
30.967487874808761 -74.846935531943785 -184.069786734641724
107.557923371777918 -78.994771488619804 -182.805143085308885
-148.358680551815240 -69.875063275189660 -190.364635218196923
-16.354188609447075 -76.223230265544103 -187.002986498408660
105.384980782815276 -75.999306950763071 -177.774713814324997
106.677634615052170 -72.245154590537695 -188.904405804529148
111.360593927667935 -76.290634124709783 -176.832007938025356
102.612033930003861 -77.005652098140601 -192.972788060232432
-147.622796702810518 -73.333851806926489 -201.929767034252279
103.857926694310933 -76.315903641763853 -204.715990324650875
-24.536176303553138 -71.985011969285807 -199.584668614908367
101.142632052958604 -75.090213333409707 -195.083108361382926
-117.645320785408146 -76.255284648995854 -204.735420029451831
-26.305670184400434 -78.357574083807023 -192.476942633495923
-138.163098241759201 -68.974066945458361 -203.547983041979478
99.000620000303485 -75.467314280047958 -197.958487972554337
12.333165418714028 -75.219850882159363 -200.535045303954831
27.417640696096417 -73.273437560982273 -193.697203794115893
-144.269421678175348 -73.301379753809769 -208.240967354842951
-135.129796062561553 -72.223667856742708 -207.178849800239760
-6.167218126485640 -74.011928728387119 -208.647537672119256
-120.544516216671951 -72.954857568793344 -208.517476961270376
-140.169421508331652 -75.234078750970028 -204.907183431828628
7.647567936855479 -74.696436974440346 -201.168590844591080
-20.518057833587459 -76.294589259299585 -203.332824697293944
24.407860400308188 -77.405150200143709 -203.433755045172859
10.605738012217252 -75.926749664656825 -213.313650263574317
89.344427158375325 -72.992919536036140 -208.175374013629948
-14.381571083949527 -71.878733776331003 -214.094437034444411
95.237082799207371 -73.313159344813570 -208.426951321109499
100.885667925662830 -77.299870726978142 -206.269355567293928
-144.870766777549846 -74.029257530844106 -219.880168582577767
99.431675432487481 -77.205817728550969 -210.874025904995193
8.881103685610995 -73.653301084699876 -208.867969864655606
7.607815748965189 -76.737991540125066 -215.958211068348817
-29.090579403363900 -73.759031451035526 -209.470482870424803
-85.380662714616832 -73.044284409848487 -217.014291274157813
-22.279396508971857 -75.657030190969749 -213.138878831279271
89.211374239448631 -74.760451827299008 -216.482116805306873
93.373490295787477 -74.634790513176739 -216.493241340678253
-27.838492437874883 -73.448352324888745 -214.697262983050081
-80.208198968352434 -70.822736774937653 -222.201105300763089
3.073289612605477 -76.624494678573612 -220.360989348454297
86.054901525449509 -71.968284868405334 -212.858023386704673
-147.697791940625507 -76.749616373533058 -227.267961721257194
-161.710912432089088 -71.234758389660854 -220.153740991127592
-157.729173244124098 -75.369888855900257 -227.947672728773938
-17.070482854562538 -75.420369149073622 -229.035689930486768
-149.640806417661508 -75.888233031487999 -228.234311508833827
-1.465467943208830 -75.801955561125240 -226.246207738308016
10.681801330015180 -75.722565032546342 -219.864173902120882
-162.801236862531255 -72.790561161167076 -231.419445671509749
-154.412869707526511 -73.390807555905312 -233.045410188546157
83.663689023763354 -78.718684531512778 -231.045921580706676
4.606326510299421 -73.620383097702543 -228.307340096886264
-153.130499033799737 -68.458360020745999 -231.878836781335508
-138.189626493808220 -74.729524608502302 -229.616033926691017
-14.914093674491848 -73.559102264607631 -226.067490094877655
3.797783529097350 -78.819065626818059 -224.045731249249997
84.369409412947419 -73.152576567235528 -225.303403648229420
-156.836918195112617 -71.381799864706196 -233.652216083805740
-139.493490375360921 -70.976919159015083 -236.220347567985613
-120.620670800686611 -71.857210364369891 -235.774267453337075
83.096144973146806 -76.922163333568733 -226.320025491844746
-111.196487334886598 -73.410134761128845 -233.775287836995943
-141.958346016588024 -73.112158495576608 -234.675617768715256
-145.997280238668537 -71.849967623408716 -236.936920817111428
-144.527539527301514 -73.909635693534014 -236.780905443749418
-151.384953495617793 -73.588424243177144 -234.723728650747944
-160.635198901757747 -73.418267032712251 -234.882800926413381
-129.109959851718372 -73.553067943607317 -240.411860122091980
-128.743345484693009 -74.501880455515590 -238.183189221361829
-148.674960904120951 -76.767312416767382 -238.403674766581474
-140.712051052189764 -69.854922728851193 -242.268056318454654
-147.013303915888798 -73.681356968581554 -240.844581888969969
79.393910046808287 -77.533329279531074 -232.154072968084392
71.975792852934916 -70.796100684292099 -236.008768433406203
-152.376449697861432 -71.750434716053221 -241.079210530759951
76.301282763737234 -71.211710487589187 -233.183242762974146
-15.131257512985627 -73.250882143289545 -238.836661258476767
16.045160426643644 -76.170611634785672 -238.435155042185016
11.540088669397544 -75.684176193049908 -237.488945284076436
-149.689345052808562 -73.404325046106180 -248.271669172792485
19.338789927926165 -74.491177347263957 -242.398458337593894
65.624405887158787 -74.284076705382290 -238.114256887194159
18.105601142143893 -72.580968383974124 -239.306932754071909
10.118487296820811 -75.416383995423246 -243.088945090917520
-1.751934125673019 -72.775294103258275 -242.218966591407792
-16.328619273475063 -73.297099685462868 -245.074598896503602
3.055603124923782 -74.808194016644379 -243.681913552048940
8.653393730301577 -77.618427576281661 -246.520064912778736
62.165623866405220 -76.467044791125119 -241.768414835541336
-50.613717449309114 -77.686535742905733 -247.794953425268432
24.511309544522284 -74.138358728138925 -248.537277338364675
-54.779772527971630 -75.229214401962153 -244.995230647663931
-4.954351333620261 -75.049997829443228 -249.819279133440915
-61.068379466798447 -71.034386780665855 -253.716219597845537
-80.977167874591871 -72.625314881007967 -257.054673976061281
-77.594196334388172 -75.136286294655235 -255.919466404791905
-4.763519100505550 -74.341499488823430 -256.737608623567269
-118.674310409170999 -73.718268488506382 -263.917434541524415
-9.087875382814904 -75.785520797759517 -255.017678440535889
-111.874626399297142 -73.944494136375781 -260.399306924485188
-111.300641528158536 -72.673158293750816 -263.340849570913690
-98.425922425931603 -73.890083638616417 -260.893982637312035
-138.609760696742285 -72.806177737092540 -267.239132434643636
-139.627181625847783 -73.290298109552836 -272.661721483835379
-163.354589846753072 -73.573129795633037 -269.628820438808987
25.003274751267359 -79.041100606746369 -281.409202561660891
-52.227515660301350 -73.068591438290142 -288.601679928556791
-61.464876558401130 -73.815124341630977 -287.137223519611382
-36.406563794793399 -76.757144445450407 -286.625427500939168
-22.248125782072428 -76.172418083224386 -288.874203442484031
-90.451520495879578 -76.472867248872149 -293.362294586860685
-25.034382437941357 -73.295170308604682 -288.237036788898877
1.677870267761537 -75.493804357994605 -287.980215534137074
-161.477366009116196 -73.951406417055068 -295.299549030662376
-10.110760198229697 -77.405065190081146 -287.955978173338053
12.167688024533046 -76.758814185969356 -289.457466487296358
19.800831780888672 -79.913994958267821 -284.873423758779836
-51.159888257061318 -77.252841885778210 -290.739900195967607
-27.322746251473422 -75.685833064372346 -294.019314388705027
20.147525396508069 -73.879987693219448 -294.437270514538341
-64.958986354738357 -73.547425694942419 -296.460613693133837
-34.389489382213213 -72.658558138676995 -291.920204793228379
-11.987592558601296 -73.404223960025448 -292.179370099517485
20.901103935575762 -77.919051483881731 -292.293945154930725
-5.626965261578102 -77.145532981952201 -296.180732871791008
9.893395374313281 -74.489494623884227 -295.417173569954741
20.097134093777456 -77.643500736140936 -291.890881549750475
-128.898523806590816 -73.328004812549324 -299.504740869868215
-138.878936933960745 -76.592865874303996 -304.505877885133827
-144.568467708907377 -74.846875968629703 -318.747380150836193
42.394719510655335 -70.674073080494708 -14.439744972877801
29.450076912733689 -70.950261620752045 -12.862873554124754
38.683567451336529 -71.363572110653934 -16.222057176561098
21.493506452001085 -68.003870193940060 -20.019749464130509
44.533906441314805 -69.391438644057573 -23.075057126562253
25.167244005465911 -69.452297438589852 -25.156130907292898
23.443737149514913 -71.554752056126915 -28.689256274167043
24.734306933487996 -72.282382178861752 -39.430758456422382
39.286654523039587 -73.521045984916753 -31.559571221366710
26.154177818788682 -74.884500952351644 -37.394882160354726
42.997930687754206 -70.349874887815730 -38.393316779794489
31.817345806421294 -72.065068110503731 -40.393444235844356
38.641205660442388 -72.891751445026415 -36.722136911050001
30.930330431640272 -70.691946137255101 -40.972446139885975
43.597300749577435 -71.648742489409997 -41.863467118867241
33.670571681150705 -71.058115909297513 -39.938480966126434
-40.772502353105480 -69.248605237673573 -51.088031615070413
-29.819654440054947 -66.222553239426873 -53.268567403375691
-89.041531574459995 -69.054165580938943 -58.797177711999325
-88.486054596682763 -71.571208608292892 -69.510860324178438
78.448391434188480 -74.743530854764273 -66.358285384729768
85.013544676439707 -72.218216748601307 -72.055746052372740
-18.889785112490706 -69.546963854320794 -75.811833890955526
-87.520362361626908 -70.898820178016976 -75.660301583948510
-24.353912745217439 -70.789404783815357 -79.104631275513441
-48.662227245450204 -72.381273557005315 -87.885919981902532
66.968973602554286 -68.775416553207165 -86.277489073217552
53.906125363601731 -71.442895938921879 -93.548788569309124
100.648018253275495 -71.053289668240353 -90.554235121450517
70.698249830216767 -74.118637129968874 -96.417117894370648
-67.070997953228499 -72.618247778874036 -94.415184360099047
-60.852078782516578 -69.549176065392146 -101.156696427562125
46.105851301273766 -72.847096599961716 -97.876295724144327
78.767854719595846 -71.313154425101246 -99.521737282667672
55.894021634178976 -79.538131946512337 -105.102618216557062
102.534573209107378 -72.496146653334378 -95.632210757545096
-93.665508167778555 -72.784939202180396 -111.283526705184599
41.458994628039633 -72.788750440080818 -111.237584814217726
108.577433829874309 -73.910133542106252 -107.536861288608335
50.114956263384030 -72.484237891302087 -111.596136578837942
