-150.216461181641 -83.884422302246 -246.958847045898 0.810270011425
12.695964813232 -83.000411987305 -246.429855346680 0.219689682126
-3.378902912140 -84.792228698730 -252.866760253906 2.257774353027
-140.332794189453 -82.621780395508 -262.963439941406 3.452619552612
-3.974529981613 -81.134819030762 -270.869781494141 2.043373823166
12.495823860168 -85.930297851563 -264.720794677734 2.281538486481
-5.336339950562 -84.594734191895 -264.299621582031 1.516545891762
-146.192687988281 -81.227806091309 -270.428924560547 1.345776677132
-144.006790161133 -80.927749633789 -287.116912841797 1.570091009140
-142.411117553711 -83.681579589844 -293.595092773438 3.041533470154
-146.644042968750 -81.692680358887 -293.645965576172 0.694311261177
-150.997024536133 -82.843879699707 -299.894958496094 1.861402630806
-69.430984497070 -83.517425537109 -74.207679748535 2.375277042389
-62.394111633301 -83.371627807617 -74.437530517578 1.786970973015
-45.812576293945 -85.143089294434 -76.138801574707 2.992277145386
-38.666736602783 -83.913391113281 -79.219276428223 1.662853240967
-73.461593627930 -83.143196105957 -77.611221313477 1.521612763405
-49.189060211182 -83.885162353516 -87.100868225098 1.431233167648
-55.672370910645 -84.978065490723 -92.674377441406 1.422963142395
-69.497886657715 -83.003219604492 -101.288269042969 2.773879766464
-12.386761665344 -82.840385437012 -176.197082519531 1.554201006889
-19.475357055664 -83.700042724609 -183.349594116211 0.990205883980
-50.964179992676 -81.835449218750 -186.645126342773 1.323405981064
-146.706741333008 -83.264488220215 -191.439102172852 1.117844462395
-44.709156036377 -81.769989013672 -194.123275756836 1.299601793289
-148.222183227539 -82.051345825195 -195.627243041992 1.062927365303
-137.749496459961 -83.888763427734 -199.186599731445 1.548782825470
-38.425350189209 -82.869895935059 -198.108627319336 1.656523346901
-145.292663574219 -81.346946716309 -200.742263793945 1.150470852852
-143.757080078125 -80.573486328125 -201.803955078125 1.508259177208
-54.268611907959 -82.408699035645 -200.931091308594 0.815388917923
-152.185958862305 -80.946846008301 -199.313919067383 1.123483538628
-59.182281494141 -83.904289245605 -204.628860473633 1.622226834297
-148.061508178711 -81.355812072754 -204.984695434570 1.765437960625
-63.321796417236 -81.460334777832 -211.903900146484 1.912874460220
15.645828247070 -82.870994567871 -237.627243041992 2.184783458710
11.930859565735 -83.956779479980 -236.258712768555 2.117649078369
-148.938842773438 -81.526977539063 -236.075454711914 3.336332082748
18.785911560059 -81.748855590820 -247.225097656250 1.155457973480
15.294164657593 -85.644760131836 -247.961944580078 2.684420347214
11.180847167969 -83.938636779785 -254.767501831055 0.939436733723
12.436092376709 -82.264236450195 -255.126068115234 1.300503015518
-152.981506347656 -82.535499572754 -257.788391113281 1.934514403343
-136.537200927734 -82.706474304199 -262.347991943359 1.889054298401
13.865481376648 -82.392166137695 -265.573242187500 2.170426368713
-149.196136474609 -83.687965393066 -275.353271484375 1.600875496864
-144.607589721680 -83.839324951172 -278.219451904297 1.649028658867
6.953024864197 -80.893730163574 -276.179107666016 2.695971250534
-145.528625488281 -82.532714843750 -277.552490234375 1.776352524757
-138.461242675781 -84.159477233887 -286.373229980469 1.310534000397
-148.155258178711 -82.462387084961 -290.483947753906 1.609168529510
-150.621627807617 -82.320114135742 -289.893646240234 0.857987582684
-154.647216796875 -78.987007141113 -291.949096679688 1.830516099930
-137.637008666992 -81.441497802734 -292.472137451172 1.985925436020
-153.485488891602 -83.668029785156 -292.913146972656 1.065666198730
-60.057800292969 -81.982360839844 -71.111450195313 0.616070270538
-56.503189086914 -80.963714599609 -73.084114074707 3.912807464600
-42.036972045898 -81.960845947266 -74.781875610352 1.518172979355
-80.026573181152 -81.807228088379 -83.864509582520 1.330782294273
-39.480880737305 -82.301368713379 -82.872383117676 0.251456171274
-42.968269348145 -83.646011352539 -84.348487854004 1.770920991898
-83.873069763184 -85.642890930176 -101.936416625977 1.905205607414
-73.119491577148 -78.584892272949 -102.735549926758 1.040069222450
33.167354583740 -83.290512084961 -125.220932006836 3.385193824768
29.938861846924 -81.874275207520 -144.300323486328 2.314719200134
-12.654097557068 -82.867012023926 -178.521697998047 1.023366451263
-18.352346420288 -81.884864807129 -182.598937988281 0.896399199963
-28.170536041260 -79.985679626465 -184.643295288086 1.079178333282
-37.568569183350 -82.332069396973 -189.859939575195 0.915232956409
-53.541675567627 -81.497138977051 -186.903701782227 1.503068923950
-30.215490341187 -80.379623413086 -193.154205322266 2.612979650497
-143.792526245117 -80.911911010742 -188.006591796875 0.748722553253
-149.637634277344 -80.683784484863 -196.142166137695 1.525278568268
-152.646804809570 -80.725181579590 -200.375427246094 1.498456716537
-149.898056030273 -79.535301208496 -204.334228515625 0.414523035288
-69.205177307129 -83.679489135742 -209.744064331055 1.471012711525
-61.134075164795 -79.994895935059 -210.336425781250 1.377030730247
-147.328277587891 -81.904060363770 -212.724548339844 1.967168807983
-73.055122375488 -81.957191467285 -211.736160278320 0.496455669403
-69.886383056641 -83.673416137695 -213.631713867188 2.882950544357
-78.224052429199 -81.918357849121 -215.134628295898 1.992952346802
-142.932785034180 -82.314613342285 -227.661056518555 1.415073752403
-141.888397216797 -81.785011291504 -231.657608032227 1.038896560669
-149.937347412109 -81.716453552246 -247.863754272461 0.896591544151
14.390249252319 -80.788246154785 -248.337432861328 1.945043325424
7.931465148926 -82.771720886230 -248.731872558594 1.683958888054
-135.782897949219 -84.084968566895 -257.356048583984 0.465841829777
14.897622108459 -82.192008972168 -258.039642333984 1.675862550735
12.340930938721 -84.219787597656 -261.668029785156 1.752457261086
-150.151809692383 -82.845436096191 -263.711639404297 1.110983848572
-151.911529541016 -82.727844238281 -277.548797607422 1.705684065819
-0.531942009926 -83.073295593262 -273.784790039063 0.263775497675
9.705623626709 -79.237594604492 -277.400543212891 2.124875783920
-153.847839355469 -83.984169006348 -285.754821777344 1.336665511131
-144.251983642578 -81.934463500977 -284.780700683594 1.532196283340
-149.460815429688 -85.798088073730 -303.035217285156 1.908950090408
-48.173259735107 -83.356544494629 -74.042579650879 1.953770518303
-70.217124938965 -82.019287109375 -68.085319519043 2.338345766068
-43.979927062988 -80.822334289551 -67.910110473633 2.025104761124
-34.808570861816 -81.800888061523 -76.357902526855 0.889371514320
-76.268455505371 -77.915527343750 -69.795570373535 1.645399332047
-30.593423843384 -83.284866333008 -78.287590026855 2.951421737671
-47.797878265381 -80.881317138672 -84.299598693848 1.927772164345
-57.365345001221 -80.001876831055 -93.931678771973 1.381163835526
-61.239517211914 -85.465698242188 -95.737693786621 1.659429073334
-64.639404296875 -82.412948608398 -100.775939941406 2.154748916626
-88.180534362793 -80.733093261719 -107.306472778320 1.719340801239
42.076473236084 -81.778755187988 -118.124107360840 2.100739002228
37.246654510498 -81.916893005371 -127.416870117188 1.840799093246
-42.861923217773 -80.206039428711 -163.052642822266 0.997642934322
-39.120590209961 -82.560592651367 -161.720611572266 2.884329795837
-8.040038108826 -80.861183166504 -170.870452880859 1.537384271622
-61.253635406494 -80.466934204102 -172.177276611328 2.191304206848
-57.633838653564 -81.343856811523 -178.396255493164 2.868084192276
-59.228866577148 -80.951080322266 -175.096511840820 1.143051624298
-32.771495819092 -80.143791198730 -171.771331787109 1.141568422318
-53.164066314697 -80.122703552246 -183.262573242188 1.891159534454
-26.317800521851 -80.300354003906 -182.662963867188 0.553337514400
-147.463882446289 -82.940734863281 -187.037139892578 1.785403966904
-50.289260864258 -80.293869018555 -181.763015747070 0.825794875622
-45.364597320557 -81.563423156738 -193.468917846680 1.000136375427
-32.548316955566 -79.040260314941 -185.958053588867 1.900507569313
-33.024414062500 -79.273078918457 -189.513015747070 1.226275205612
-32.405448913574 -79.603073120117 -192.210296630859 2.433516740799
-24.400209426880 -81.122970581055 -189.595504760742 1.641760706902
-45.656482696533 -82.186393737793 -196.175064086914 1.048798322678
-144.478103637695 -80.823875427246 -196.054473876953 1.794439911842
-39.276634216309 -81.277954101563 -196.693664550781 0.808641552925
-41.650527954102 -82.178207397461 -201.236846923828 1.163582205772
-43.181537628174 -79.900535583496 -200.447372436523 1.141009807587
-43.924510955811 -80.196281433105 -199.474502563477 1.087309360504
-133.553649902344 -79.997222900391 -202.434951782227 2.470763683319
-136.226074218750 -78.742462158203 -202.547714233398 1.808948636055
-48.007083892822 -82.700561523438 -202.577041625977 1.095757842064
-59.602859497070 -81.150985717773 -204.492187500000 1.729938268661
-37.681011199951 -80.411231994629 -204.744506835938 0.791531682014
-144.309005737305 -80.551757812500 -206.363830566406 2.017207622528
-69.211997985840 -79.138969421387 -208.266616821289 1.580321073532
-34.138847351074 -81.367301940918 -208.490768432617 1.537968158722
15.906441688538 -80.645057678223 -203.859024047852 2.222923040390
-76.118606567383 -79.018051147461 -211.960937500000 2.647141456604
-28.317106246948 -78.078582763672 -212.933502197266 1.581196784973
12.387861251831 -81.176155090332 -218.898635864258 0.643050014973
-149.320983886719 -81.275054931641 -219.481307983398 1.853597998619
9.741740226746 -81.896858215332 -226.898391723633 2.252267360687
13.372150421143 -81.912597656250 -221.966369628906 1.170028448105
15.338467597961 -81.641906738281 -229.335617065430 1.679488897324
-134.628997802734 -83.400756835938 -228.568588256836 0.850882887840
-147.618118286133 -80.721672058105 -231.018508911133 1.328780770302
10.322244644165 -81.995849609375 -235.649078369141 1.537634372711
15.228590011597 -80.517608642578 -237.226806640625 1.361551403999
12.517576217651 -79.442573547363 -236.441543579102 1.630727887154
-149.634017944336 -83.017082214355 -240.795150756836 0.142245829105
-144.899978637695 -82.939193725586 -241.275482177734 1.417497515678
16.034107208252 -80.410278320313 -238.260299682617 1.152150511742
-34.137443542480 -79.189231872559 -245.205947875977 1.993029952049
17.804025650024 -81.248786926270 -247.076309204102 0.897218823433
-40.120746612549 -80.929748535156 -245.618392944336 1.371800184250
-146.577041625977 -84.010673522949 -254.948638916016 0.765554785728
13.767324447632 -81.140373229980 -253.831375122070 1.708988547325
-142.463745117188 -81.232826232910 -259.848480224609 1.572597980499
-150.681884765625 -81.472167968750 -255.078872680664 1.501477122307
18.398439407349 -81.059112548828 -258.736206054688 2.111679077148
-7.661312103271 -78.184616088867 -252.340057373047 1.273498058319
-7.132417201996 -81.333740234375 -263.161224365234 2.184705495834
-146.033096313477 -81.458114624023 -258.305419921875 1.200066566467
-153.583969116211 -77.433624267578 -261.371551513672 2.813948392868
-144.861755371094 -82.057266235352 -264.360992431641 1.101643919945
-150.939437866211 -77.477584838867 -264.677185058594 0.848982751369
-151.484054565430 -81.147132873535 -270.450561523438 1.509880661964
-9.676433563232 -80.530662536621 -268.127685546875 1.675154566765
-1.363123059273 -79.921203613281 -271.794952392578 2.517588853836
11.657052993774 -84.018585205078 -268.191223144531 1.178190588951
8.952645301819 -79.883224487305 -281.405517578125 2.101462602615
4.018391132355 -81.188583374023 -280.861541748047 1.800065279007
-135.851959228516 -77.785316467285 -292.776123046875 2.730270862579
-142.486968994141 -81.608963012695 -291.513305664063 1.162189602852
-61.869541168213 -79.612991333008 -65.983741760254 1.301610469818
-42.731647491455 -79.600158691406 -64.529724121094 1.410396456718
-54.949703216553 -80.826637268066 -66.592208862305 2.210227489471
-47.121997833252 -79.831092834473 -67.034988403320 0.659310281277
-71.956619262695 -80.711540222168 -65.308959960938 1.725710511208
-82.592704772949 -80.617271423340 -74.057968139648 3.614498138428
-32.044605255127 -79.053657531738 -81.349967956543 2.049703598022
-42.024547576904 -80.556350708008 -86.564888000488 2.395542621613
-48.916549682617 -80.653030395508 -86.484832763672 1.425271391869
-86.789047241211 -79.416702270508 -87.585609436035 2.217121124268
-77.812057495117 -80.070716857910 -104.282302856445 0.637661993504
41.628692626953 -81.806953430176 -109.034095764160 2.360046148300
-85.526077270508 -81.273635864258 -111.397354125977 2.503715991974
39.751045227051 -81.911331176758 -118.587753295898 1.251416444778
40.713703155518 -82.406585693359 -127.145820617676 2.736826419830
34.735698699951 -80.002204895020 -121.068450927734 0.736424148083
32.333740234375 -81.902999877930 -126.077133178711 3.604337215424
34.846012115479 -80.234031677246 -138.057586669922 0.228616684675
24.855123519897 -78.294929504395 -145.581253051758 1.087561011314
-45.998970031738 -81.527908325195 -150.940124511719 2.016923189163
29.560531616211 -80.003494262695 -147.402603149414 0.954724073410
23.765365600586 -80.262557983398 -157.094680786133 2.200714349747
-47.025001525879 -80.193740844727 -156.627609252930 2.531789064407
27.600801467896 -81.541442871094 -154.068450927734 2.053044795990
-44.225524902344 -78.797424316406 -163.833816528320 0.735194504261
26.291431427002 -80.014160156250 -166.800796508789 0.905769884586
-60.339813232422 -80.746604919434 -170.097991943359 1.097214221954
-9.296486854553 -82.738105773926 -176.222671508789 1.646117329597
-35.858139038086 -77.230964660645 -173.959472656250 2.000250816345
-16.703725814819 -80.600646972656 -175.219390869141 1.541158080101
-54.778167724609 -78.933166503906 -175.979782104492 1.689814329147
22.177764892578 -79.498550415039 -172.085494995117 0.786453425884
-15.946846961975 -80.549438476563 -181.824417114258 0.737000823021
-22.889606475830 -81.900634765625 -186.812286376953 0.671201884747
-57.180473327637 -79.640602111816 -186.010574340820 3.822245836258
-28.067394256592 -79.740692138672 -184.328140258789 1.344800591469
18.766284942627 -78.927505493164 -187.397659301758 1.136339902878
-150.879257202148 -78.428916931152 -187.085037231445 2.250027418137
-27.746442794800 -79.076179504395 -189.107345581055 1.177669167519
-48.981765747070 -78.631072998047 -191.529891967773 1.664794802666
-150.436340332031 -81.955947875977 -196.060211181641 0.885041713715
-143.049697875977 -81.439628601074 -199.890380859375 1.559621095657
-20.208702087402 -79.811096191406 -196.024276733398 1.099383950233
-17.911350250244 -80.804779052734 -198.992218017578 2.005710601807
-49.067916870117 -80.263702392578 -197.225387573242 2.689693450928
-22.459957122803 -77.749923706055 -199.320846557617 1.877424955368
-50.504718780518 -79.764808654785 -204.107742309570 1.846958279610
-44.703968048096 -80.911132812500 -202.310989379883 2.480803012848
-56.396160125732 -81.417991638184 -202.462570190430 1.581525206566
-18.280841827393 -78.474472045898 -206.779586791992 2.220725059509
-149.878402709961 -81.593307495117 -210.641921997070 1.028997778893
-58.218257904053 -78.725090026855 -205.047897338867 1.806458711624
-56.154258728027 -79.586936950684 -207.508728027344 1.155909895897
-31.513504028320 -79.057441711426 -203.765899658203 1.490667104721
-15.480471611023 -81.068679809570 -203.108505249023 1.500900864601
-38.133708953857 -80.016120910645 -206.946380615234 0.587546885014
-77.898002624512 -82.021728515625 -213.280746459961 1.424039125443
-144.408523559570 -81.786979675293 -213.099349975586 2.453763961792
-33.070770263672 -80.935028076172 -205.826004028320 1.384750485420
8.030712127686 -79.641212463379 -210.408584594727 1.986355304718
-60.953857421875 -80.004287719727 -211.828155517578 2.550676584244
-70.340904235840 -79.222198486328 -214.372985839844 1.913618564606
-26.015985488892 -77.992988586426 -217.195938110352 2.339151144028
-10.966240882874 -79.731979370117 -212.879501342773 2.099277257919
-24.384794235229 -79.639656066895 -221.176910400391 1.551688909531
14.597417831421 -79.740577697754 -216.381744384766 0.893741786480
-150.760223388672 -79.476539611816 -225.453750610352 2.373165845871
-9.383453369141 -79.132705688477 -217.772140502930 1.590508103371
-151.543533325195 -80.860969543457 -230.338806152344 1.953164577484
8.157515525818 -82.451042175293 -231.329467773438 2.856082916260
13.685257911682 -81.277893066406 -226.132629394531 1.993007779121
-4.343522071838 -80.837318420410 -224.858947753906 0.763879179955
17.194555282593 -78.787834167480 -226.720611572266 0.361829698086
-136.250778198242 -81.158439636230 -231.670989990234 1.413757801056
9.718352317810 -80.687705993652 -224.599105834961 1.442854046822
-153.040023803711 -78.899810791016 -233.265274047852 0.518771946430
-146.780303955078 -82.078155517578 -234.865036010742 2.187048912048
-2.701581954956 -79.482078552246 -223.027603149414 0.897694051266
18.214706420898 -78.883140563965 -235.756195068359 2.123013019562
-32.087745666504 -81.220756530762 -241.736618041992 2.087332487106
-144.695190429688 -77.393020629883 -240.757171630859 1.605844497681
-40.328903198242 -79.197723388672 -240.943572998047 1.673026800156
-45.607719421387 -80.097068786621 -243.589126586914 0.570476472378
-28.050727844238 -80.505996704102 -243.678222656250 1.922908186913
18.213249206543 -80.292427062988 -243.395172119141 2.949536085129
-47.943115234375 -80.336494445801 -244.832717895508 0.718821942806
14.846660614014 -81.392333984375 -245.291290283203 1.566140651703
9.434215545654 -78.444221496582 -239.093292236328 2.538285732269
10.465277671814 -82.069999694824 -246.007369995117 1.187013864517
-43.863304138184 -78.496551513672 -247.442474365234 2.479644536972
20.737205505371 -81.130905151367 -247.227615356445 1.236025929451
-143.465759277344 -79.501808166504 -250.051269531250 2.483693122864
21.411014556885 -79.670989990234 -247.975402832031 0.988829493523
2.387204885483 -82.640846252441 -248.741424560547 1.744250178337
10.669327735901 -79.636291503906 -250.531387329102 1.560355544090
-150.814407348633 -77.739440917969 -256.274963378906 2.479912519455
-148.478225708008 -80.642692565918 -261.794464111328 2.991035461426
-142.940673828125 -80.855224609375 -263.450378417969 1.852002739906
-153.894119262695 -77.734550476074 -263.415649414063 2.256805896759
17.491506576538 -79.625205993652 -268.319335937500 1.274998068810
-151.945770263672 -76.872611999512 -273.649841308594 1.520759820938
-5.073101043701 -79.829978942871 -277.152923583984 1.807932019234
-150.834640502930 -75.302581787109 -275.851806640625 0.847788512707
-145.204360961914 -78.546531677246 -276.701477050781 1.925065279007
-151.339920043945 -78.198928833008 -278.346588134766 1.447434186935
-154.247833251953 -77.710777282715 -287.116577148438 1.872354626656
-134.885452270508 -77.154800415039 -289.129821777344 1.576557517052
-149.961715698242 -80.602638244629 -290.306610107422 1.148462057114
-148.875259399414 -84.708618164063 -291.355987548828 1.148733615875
-147.350616455078 -79.621513366699 -297.423095703125 2.169509410858
-152.249847412109 -77.968643188477 -295.835235595703 1.830816507339
-147.192230224609 -75.411140441895 -296.149932861328 1.883676052094
-150.906616210938 -78.380249023438 -301.874237060547 1.506202220917
-146.816955566406 -78.597129821777 -302.175079345703 1.830010890961
-148.348907470703 -77.520683288574 -302.791351318359 2.220465898514
-56.390045166016 -79.489257812500 -58.544033050537 2.257884025574
-61.696178436279 -80.333023071289 -60.851169586182 2.801437377930
-48.979721069336 -79.547409057617 -62.805969238281 2.430561065674
-30.060340881348 -81.751289367676 -73.291435241699 2.293830871582
-54.634136199951 -80.483787536621 -91.122367858887 2.284792661667
-87.517974853516 -83.360977172852 -102.305557250977 1.683147907257
48.437274932861 -82.298782348633 -106.435264587402 3.228629112244
-80.964843750000 -82.630020141602 -105.884246826172 0.827792882919
38.490978240967 -80.927970886230 -112.296356201172 2.281057119370
37.835002899170 -80.499519348145 -120.326370239258 2.035374403000
36.444690704346 -79.716064453125 -124.307792663574 1.029575467110
37.259231567383 -78.810043334961 -135.394592285156 1.676429033279
30.779426574707 -79.536628723145 -136.936004638672 2.379709720612
33.529850006104 -80.374938964844 -135.096862792969 1.575130105019
28.604915618896 -79.640075683594 -149.417037963867 1.411172628403
-44.134506225586 -79.952156066895 -148.230438232422 1.717466235161
27.266742706299 -79.688133239746 -142.028518676758 0.862209022045
-65.484596252441 -78.316505432129 -154.497924804688 2.209593772888
-40.339405059814 -81.499122619629 -154.832366943359 1.731687068939
-61.647068023682 -80.292068481445 -166.248947143555 0.853191971779
-42.776420593262 -79.577262878418 -160.142272949219 2.261417150497
29.456640243530 -80.432861328125 -155.446456909180 0.475157886744
-35.925697326660 -81.687889099121 -164.932556152344 2.058194160461
-4.221086025238 -79.348869323730 -167.912139892578 1.065992236137
30.236186981201 -80.005081176758 -159.543350219727 1.335466265678
-11.055585861206 -80.836692810059 -168.197631835938 2.773721933365
-62.605686187744 -78.082405090332 -165.262802124023 1.792078733444
-36.629650115967 -79.654151916504 -168.765472412109 1.937304258347
-28.856880187988 -77.570610046387 -174.298110961914 1.490352153778
26.607282638550 -80.385383605957 -174.126403808594 1.852140665054
-55.836418151855 -79.367271423340 -179.114669799805 1.711504459381
-31.259664535522 -77.605644226074 -177.106811523438 2.370160579681
22.960308074951 -80.690734863281 -180.382476806641 1.890352487564
-51.184562683105 -78.720497131348 -185.576492309570 1.069494605064
-26.071907043457 -77.795066833496 -187.747909545898 1.802053809166
-54.205909729004 -78.443939208984 -182.641723632813 0.880766153336
-39.412006378174 -80.582595825195 -196.329956054688 0.760130047798
-30.274612426758 -80.932312011719 -189.192367553711 1.796437859535
-42.448047637939 -79.643424987793 -195.839706420898 0.969945728779
-24.725902557373 -78.323516845703 -192.222381591797 1.858918309212
-134.886672973633 -79.340454101563 -199.480819702148 1.948813199997
16.916252136230 -79.562072753906 -200.315139770508 2.061147212982
-135.897735595703 -74.920967102051 -199.460586547852 1.611613154411
-23.834644317627 -77.775215148926 -198.165145874023 1.622219085693
-18.661750793457 -76.712799072266 -197.762191772461 1.513658523560
-41.089458465576 -77.376976013184 -196.296859741211 1.927604198456
15.445091247559 -80.199462890625 -191.424713134766 3.865085601807
-16.342973709106 -79.142837524414 -199.405456542969 2.374582052231
-61.523227691650 -78.436248779297 -207.139480590820 1.664544343948
-36.556884765625 -77.285758972168 -204.556930541992 1.639429569244
-66.221549987793 -77.217071533203 -208.110076904297 1.175861239433
-70.180999755859 -76.816810607910 -209.864379882813 0.714473724365
18.786811828613 -79.265670776367 -210.856170654297 2.739043474197
-85.545181274414 -79.794067382813 -214.263702392578 1.595291852951
-29.926517486572 -79.183258056641 -217.671203613281 1.527042746544
-81.186203002930 -80.020668029785 -215.238296508789 1.543042421341
-145.935440063477 -81.142372131348 -219.413955688477 2.318393230438
-8.730404853821 -78.496597290039 -215.311920166016 1.612226247787
-11.738915443420 -77.954071044922 -219.594360351563 1.478864431381
13.273772239685 -78.787063598633 -213.327926635742 1.834228038788
13.488237380981 -80.382743835449 -221.305374145508 0.985453248024
-3.401376008987 -78.752822875977 -231.707138061523 0.862899303436
-133.685424804688 -77.499961853027 -228.000488281250 0.880374789238
-147.630615234375 -81.068664550781 -230.987609863281 1.674361586571
-147.394119262695 -75.520118713379 -232.809326171875 3.268160820007
9.947776794434 -79.154296875000 -233.066101074219 2.053120851517
1.242655038834 -79.035797119141 -235.621841430664 0.555781066418
-24.570598602295 -77.816581726074 -237.384017944336 1.574707269669
-149.711074829102 -77.722946166992 -239.521697998047 1.146426200867
10.476072311401 -77.476486206055 -245.427764892578 1.247302293777
-24.655513763428 -78.679763793945 -244.004013061523 1.893144607544
18.668268203735 -76.924774169922 -237.846130371094 1.521779775620
-55.459171295166 -78.599937438965 -245.815292358398 1.278861284256
-51.113269805908 -76.591712951660 -248.051086425781 2.162669897079
-145.371139526367 -80.678405761719 -246.932617187500 1.557379364967
-62.889614105225 -77.757400512695 -247.647506713867 0.620827913284
-4.415062904358 -74.758628845215 -249.526870727539 3.237778186798
-9.768777847290 -79.605606079102 -257.155548095703 1.038376331329
-148.181762695313 -80.846122741699 -258.354309082031 2.331894636154
-134.501770019531 -77.453582763672 -259.409698486328 2.059996366501
-135.949310302734 -76.342773437500 -262.715118408203 2.769854307175
19.006542205811 -77.060661315918 -262.043701171875 2.293715953827
-145.432312011719 -79.949874877930 -272.504150390625 2.181013107300
18.165733337402 -81.513069152832 -269.993255615234 2.093177318573
-149.356842041016 -76.081367492676 -271.446960449219 2.227659463882
3.785104036331 -83.508872985840 -277.674194335938 2.559279441833
-146.532501220703 -77.796348571777 -284.125183105469 2.013479709625
3.802042961121 -77.093666076660 -284.260345458984 1.806436657906
-153.075485229492 -79.598403930664 -284.063934326172 0.665137410164
-141.504531860352 -77.082778930664 -289.743560791016 1.431545495987
-137.151702880859 -77.432037353516 -286.162872314453 2.121823787689
-148.587219238281 -82.562011718750 -292.583282470703 2.537687301636
-18.053958892822 -78.226676940918 -290.219482421875 1.317904233932
-154.085968017578 -77.974761962891 -293.416870117188 2.202995538712
-149.841796875000 -77.617790222168 -295.677856445313 1.506731033325
-148.647735595703 -75.602355957031 -312.394989013672 1.050017356873
-58.063457489014 -77.945037841797 -59.104660034180 0.404171347618
-40.017204284668 -79.706848144531 -62.483970642090 1.801841378212
-74.740020751953 -79.516502380371 -63.053806304932 1.831956386566
-29.300594329834 -78.488090515137 -70.036048889160 1.208242416382
-27.817804336548 -81.156562805176 -74.118858337402 2.583348751068
-86.420776367188 -79.199226379395 -84.499603271484 1.282945632935
86.683448791504 -78.233604431152 -83.790092468262 2.015078783035
-38.634910583496 -78.159255981445 -82.588844299316 2.835165500641
80.593612670898 -81.265708923340 -83.619277954102 4.002692699432
75.038558959961 -78.712776184082 -87.368316650391 2.509252071381
85.008903503418 -77.316368103027 -91.175880432129 0.918465912342
80.369354248047 -78.512847900391 -91.482269287109 1.654180645943
91.834136962891 -78.910636901855 -91.008506774902 1.867382049561
-91.008361816406 -75.633110046387 -96.232727050781 2.734484672546
51.749271392822 -78.101058959961 -105.308792114258 0.913940966129
-92.149002075195 -76.293998718262 -117.128639221191 2.458720684052
38.342044830322 -79.564628601074 -112.043937683105 1.379573345184
48.884304046631 -78.778221130371 -113.136520385742 2.692670583725
40.755725860596 -79.851432800293 -116.516830444336 1.897401094437
30.108890533447 -79.358032226563 -131.827346801758 1.647407770157
25.725336074829 -80.303405761719 -140.719192504883 2.176703453064
25.079153060913 -76.725257873535 -144.827407836914 1.523915886879
31.986141204834 -78.382369995117 -147.308486938477 1.859786510468
-50.127708435059 -79.474159240723 -153.577392578125 1.693919658661
-45.916160583496 -79.247863769531 -152.124603271484 1.121484756470
-42.020660400391 -79.716201782227 -155.244323730469 0.983755648136
26.546472549438 -80.679702758789 -149.412185668945 1.386821389198
22.978107452393 -78.079490661621 -168.498672485352 0.928344309330
-36.114368438721 -78.493240356445 -164.345474243164 2.137754917145
-34.982337951660 -77.930236816406 -158.987960815430 1.386875152588
-47.016227722168 -77.081169128418 -156.310043334961 2.142880678177
1.676663994789 -78.725997924805 -165.919219970703 1.952157855034
24.216878890991 -78.929107666016 -156.852188110352 2.213138818741
30.262626647949 -75.826957702637 -160.545700073242 2.114677906036
26.528991699219 -78.467674255371 -168.309890747070 1.600701212883
-10.075727462769 -78.046195983887 -170.008605957031 1.270022153854
-1.061925053596 -77.992614746094 -170.036514282227 1.330199599266
-56.143016815186 -77.491828918457 -172.543457031250 1.473610997200
-61.261650085449 -78.124382019043 -168.814041137695 1.367406487465
-38.912525177002 -79.367835998535 -173.542297363281 1.438269734383
-39.072498321533 -77.512901306152 -167.376663208008 0.461939811707
22.833822250366 -78.582847595215 -173.621429443359 2.018289327621
-21.106472015381 -80.864288330078 -178.413208007813 0.781225442886
-35.592041015625 -81.125297546387 -180.962356567383 3.053994178772
-60.382408142090 -79.719238281250 -179.608047485352 1.678565740585
104.694206237793 -79.617904663086 -179.850570678711 2.889379262924
19.705244064331 -78.818290710449 -170.741348266602 2.078762292862
-26.215721130371 -77.610145568848 -179.866744995117 1.979006648064
-49.944503784180 -76.425666809082 -181.784088134766 1.229339361191
-17.048242568970 -76.758575439453 -179.266174316406 1.090858459473
108.094497680664 -79.447914123535 -177.937164306641 2.798189878464
-48.727115631104 -78.842384338379 -183.174285888672 1.751595735550
16.344097137451 -79.014587402344 -184.684738159180 1.122398018837
25.454584121704 -78.169479370117 -180.957733154297 0.884811043739
-55.173118591309 -77.988334655762 -181.334152221680 1.625043511391
-23.065628051758 -76.997611999512 -182.218750000000 1.301354765892
-56.582565307617 -79.321563720703 -175.969467163086 1.030952811241
-33.356437683105 -73.822868347168 -181.894897460938 1.703244566917
-27.859590530396 -78.215576171875 -185.941238403320 1.922118782997
22.065797805786 -79.955177307129 -186.883697509766 2.097534894943
-50.718898773193 -78.691513061523 -187.811843872070 0.513193130493
104.109970092773 -79.219177246094 -189.355712890625 1.759467959404
-51.752090454102 -75.485267639160 -191.003952026367 1.404755353928
12.340305328369 -79.578636169434 -200.822402954102 2.692883491516
17.498310089111 -78.129371643066 -201.032562255859 1.786964774132
-46.481761932373 -77.751731872559 -190.327774047852 1.120172858238
-20.305398941040 -77.414459228516 -190.406799316406 0.620593190193
103.197265625000 -79.241668701172 -195.998809814453 2.040383577347
102.949462890625 -79.961349487305 -196.212463378906 2.796420097351
-46.409191131592 -75.448486328125 -190.647277832031 1.739237666130
-148.537658691406 -79.882606506348 -196.468124389648 1.855445146561
-48.281311035156 -76.637283325195 -199.834503173828 3.016173839569
-145.847595214844 -77.737731933594 -200.498184204102 2.362714290619
-136.315841674805 -75.963241577148 -202.979537963867 1.807085633278
-42.775272369385 -76.031600952148 -198.717666625977 2.050378799438
11.882632255554 -78.419425964355 -208.751373291016 0.839508175850
-17.666746139526 -77.415412902832 -202.733688354492 1.492449998856
15.441705703735 -79.556800842285 -203.926284790039 1.887627482414
90.673721313477 -79.716880798340 -209.211212158203 2.961156845093
-38.679523468018 -76.825958251953 -200.213180541992 0.510151028633
-10.933194160461 -79.299224853516 -207.083786010742 2.283708810806
-10.890704154968 -78.504699707031 -210.618560791016 0.832765996456
-37.953605651855 -78.126037597656 -209.521545410156 1.470190048218
9.838445663452 -79.953308105469 -206.596252441406 1.929059982300
-75.309806823730 -75.562500000000 -210.997451782227 0.940727829933
14.240930557251 -79.155082702637 -213.344802856445 1.962831020355
-36.295612335205 -77.177574157715 -209.443634033203 0.973651409149
-143.743759155273 -76.634513854980 -209.590286254883 1.483600497246
-145.678817749023 -75.820556640625 -213.498596191406 1.924988865852
-85.986267089844 -77.326637268066 -213.951553344727 1.197817325592
-34.827308654785 -77.044197082520 -211.223892211914 2.700121641159
-24.609718322754 -78.253196716309 -214.291900634766 0.825089514256
-28.740308761597 -78.270187377930 -213.143432617188 1.449319362640
-91.450714111328 -77.368293762207 -218.959640502930 2.078443288803
-87.456245422363 -77.080947875977 -216.084625244141 0.875318288803
9.830685615540 -77.642913818359 -220.166046142578 2.282234907150
-148.966323852539 -75.934951782227 -218.036727905273 1.292990088463
-12.286280632019 -77.353096008301 -213.117004394531 0.687961459160
8.022235870361 -80.630371093750 -218.187881469727 1.399189710617
-143.450759887695 -77.277755737305 -218.485870361328 1.851531028748
-20.495729446411 -79.209144592285 -221.383102416992 1.190664649010
-3.654438018799 -77.934661865234 -223.016098022461 0.688639104366
-2.433259963989 -78.866806030273 -218.667465209961 1.664100408554
-152.434692382813 -76.506477355957 -225.075180053711 1.874672412872
-136.009033203125 -75.159858703613 -227.318008422852 1.195060849190
-6.002528190613 -77.531448364258 -224.822341918945 1.302653551102
-149.116760253906 -80.987777709961 -229.365676879883 1.932007431984
0.884221971035 -77.071800231934 -230.886871337891 1.480377674103
17.088272094727 -76.241233825684 -232.425949096680 0.470296353102
-1.739310979843 -75.970649719238 -235.326660156250 1.677988409996
1.497316956520 -77.399887084961 -235.137451171875 1.028083443642
7.923263072968 -81.093009948730 -233.327575683594 2.203197002411
-150.325286865234 -76.929718017578 -235.611801147461 0.843544006348
-18.630393981934 -77.181770324707 -238.469253540039 0.973117530346
-33.135208129883 -80.312446594238 -240.582260131836 0.584258973598
6.970807075500 -75.251457214355 -231.264816284180 1.515458345413
-0.416797995567 -76.637985229492 -237.701553344727 1.325207948685
4.702721118927 -78.541679382324 -235.473312377930 1.641648769379
-53.365966796875 -76.679779052734 -242.104003906250 1.206122756004
-150.509628295898 -75.622779846191 -247.162048339844 1.280956387520
-151.516052246094 -77.028114318848 -249.789855957031 2.739904880524
10.382751464844 -78.968063354492 -247.387237548828 1.265452027321
21.194189071655 -78.376945495605 -248.007614135742 0.678793251514
-59.239719390869 -76.825233459473 -249.202209472656 1.689794898033
-146.321380615234 -75.932929992676 -254.627349853516 2.993995904922
-153.022857666016 -79.237113952637 -256.035522460938 1.776609539986
-149.071258544922 -80.069549560547 -258.498107910156 3.237588882446
-143.187774658203 -77.637382507324 -260.579589843750 1.293290138245
-136.560470581055 -76.753936767578 -258.055694580078 0.510653853416
-12.285900115967 -77.078628540039 -257.625762939453 1.137941002846
-144.596221923828 -76.595390319824 -266.200286865234 2.756260871887
-11.430992126465 -79.392501831055 -262.217315673828 1.678143858910
-149.013641357422 -76.598587036133 -277.420806884766 2.391421318054
-149.045013427734 -77.606040954590 -283.994445800781 2.750726222992
-151.645034790039 -78.141441345215 -283.198211669922 1.553519725800
-4.120800018311 -74.195121765137 -287.003021240234 0.189000010490
-143.400634765625 -73.784210205078 -287.234405517578 1.827020883560
-33.159832000732 -76.453086853027 -285.193756103516 1.816181063652
-31.814998626709 -74.991073608398 -289.416748046875 2.344692707062
-18.876991271973 -76.771194458008 -287.635192871094 1.828635334969
-9.275340080261 -76.983848571777 -289.589080810547 1.953742623329
15.832985877991 -77.628555297852 -292.327392578125 0.838969111443
-125.271934509277 -75.531364440918 -289.752197265625 0.851698160172
-56.006416320801 -77.458633422852 -288.588256835938 1.571485519409
-38.593601226807 -76.177711486816 -291.426910400391 1.774743795395
-32.871135711670 -77.478950500488 -290.528533935547 0.731122016907
-9.424085617065 -77.203742980957 -289.872955322266 1.624137282372
5.958775997162 -76.330451965332 -288.569335937500 1.077080845833
-141.780487060547 -78.423126220703 -293.691864013672 3.083945512772
8.370012283325 -78.137031555176 -292.300415039063 1.481762170792
-152.703735351563 -77.162818908691 -303.733459472656 2.224148273468
-148.720321655273 -76.076705932617 -302.235382080078 2.818768024445
-151.681594848633 -75.337615966797 -312.281555175781 1.090529203415
-146.412094116211 -75.739875793457 -312.529174804688 1.441530942917
-51.777576446533 -76.929733276367 -54.877025604248 2.805743455887
-55.610721588135 -77.660873413086 -57.193294525146 2.096778392792
-66.661766052246 -77.345573425293 -56.494937896729 2.454205274582
-44.576194763184 -78.243446350098 -58.876113891602 1.360773682594
-39.599079132080 -75.916030883789 -59.691055297852 1.719212055206
-23.830217361450 -76.021850585938 -65.093070983887 1.976391196251
-83.271224975586 -77.854278564453 -68.201797485352 1.264634966850
81.178955078125 -78.463928222656 -79.093902587891 1.847727775574
-90.649307250977 -77.813949584961 -83.321609497070 2.122714757919
83.622367858887 -80.564544677734 -81.512733459473 3.195752143860
85.252754211426 -79.321617126465 -83.012527465820 2.346907615662
92.824241638184 -78.280525207520 -84.588859558105 2.522359848022
-59.762317657471 -82.216934204102 -94.815780639648 2.208800077438
84.070960998535 -79.331161499023 -93.690864562988 3.177766561508
79.413963317871 -77.978858947754 -92.801147460938 1.968509793282
89.139442443848 -80.494735717773 -90.758163452148 3.345495223999
-62.900665283203 -80.914138793945 -98.075202941895 1.002855896950
53.909168243408 -77.925590515137 -97.064590454102 1.771746635437
45.518512725830 -79.075813293457 -105.959106445313 1.276237964630
40.076652526855 -79.005493164063 -106.246917724609 2.847005844116
37.759899139404 -78.209030151367 -109.214576721191 1.376090764999
-92.073791503906 -76.869537353516 -113.931808471680 1.884023308754
35.558628082275 -79.415420532227 -117.873054504395 1.232876062393
-84.543746948242 -78.053955078125 -112.461830139160 1.711599707603
42.299404144287 -79.586273193359 -124.314910888672 0.785733699799
33.422695159912 -78.794342041016 -122.386421203613 1.906239271164
32.808826446533 -78.833206176758 -122.854171752930 1.447271823883
42.084239959717 -78.007484436035 -121.030776977539 1.932540893555
39.363723754883 -80.252510070801 -126.934028625488 1.658433437347
-54.796211242676 -73.529640197754 -138.349945068359 1.086497068405
36.037155151367 -79.358001708984 -135.070693969727 1.351915478706
36.281414031982 -78.109207153320 -141.548873901367 1.595989465714
-50.441577911377 -73.948097229004 -140.020721435547 1.293372511864
-48.595294952393 -78.645088195801 -141.565261840820 2.195517301559
34.385368347168 -79.107475280762 -143.884674072266 1.507563710213
110.215278625488 -77.736816406250 -141.833999633789 2.902161121368
112.323760986328 -78.046989440918 -142.252349853516 2.778348922729
26.799203872681 -79.355400085449 -144.855850219727 1.375294089317
-42.544128417969 -77.355514526367 -148.480682373047 0.784311473370
111.980728149414 -79.913902282715 -156.428939819336 3.244688510895
-42.030204772949 -76.803848266602 -155.340118408203 1.496395707130
-66.349197387695 -78.630607604980 -159.997314453125 2.411569356918
110.735054016113 -78.948188781738 -162.215789794922 1.716050148010
23.797786712646 -78.462692260742 -164.803009033203 1.748978734016
-0.315174013376 -78.629211425781 -164.497085571289 0.851290047169
112.662590026855 -79.546707153320 -155.412506103516 2.665143013000
-63.594577789307 -77.773796081543 -163.406661987305 1.014588356018
-36.362709045410 -78.575210571289 -161.179244995117 1.242106676102
112.180999755859 -77.568611145020 -164.321350097656 2.157312631607
28.107337951660 -76.163139343262 -158.777114868164 2.099241256714
-64.953765869141 -76.257942199707 -168.597595214844 1.216977238655
109.553588867188 -77.786056518555 -168.876968383789 1.062632560730
-64.697189331055 -78.961105346680 -169.457107543945 2.005223274231
-52.416790008545 -78.730567932129 -178.583114624023 1.545499086380
106.044662475586 -77.408622741699 -174.237869262695 2.677589178085
-61.430511474609 -76.348510742188 -169.728500366211 2.094606399536
111.695556640625 -78.123229980469 -173.625518798828 1.357360363007
-59.271839141846 -78.536827087402 -173.729812622070 0.726741433144
-13.666591644287 -77.083061218262 -177.232833862305 0.609774589539
-12.017472267151 -78.360816955566 -179.302749633789 1.096748828888
107.114830017090 -78.856842041016 -171.762527465820 2.403989553452
21.031419754028 -77.441902160645 -170.939682006836 1.646016716957
28.505374908447 -78.666473388672 -170.283584594727 2.108113527298
-55.439586639404 -78.073127746582 -177.744995117188 1.890704035759
18.904386520386 -77.387191772461 -183.858581542969 1.669026613235
-57.525260925293 -77.193977355957 -178.943527221680 1.560542821884
-51.263401031494 -75.470466613770 -188.893371582031 0.876974821091
14.221302032471 -77.578781127930 -182.126113891602 1.688818097115
-59.815082550049 -76.258995056152 -183.452636718750 2.755126714706
108.939300537109 -77.008239746094 -184.788070678711 1.576926469803
22.145338058472 -77.913276672363 -180.619781494141 2.364092588425
-31.666133880615 -77.274597167969 -188.841354370117 0.892582356930
-43.190116882324 -75.429214477539 -194.157470703125 2.375732898712
10.956823348999 -76.413177490234 -195.732589721680 0.653091251850
-20.961339950562 -78.027946472168 -190.498046875000 0.609878182411
-51.570198059082 -77.456939697266 -195.009201049805 3.265181541443
102.538063049316 -79.558509826660 -186.102584838867 4.005794048309
15.536876678467 -76.453468322754 -191.250778198242 0.750046968460
-135.346542358398 -76.460823059082 -197.277526855469 1.003347158432
-41.668914794922 -77.110038757324 -192.752365112305 0.569823205471
99.560684204102 -79.155303955078 -198.020858764648 2.505256175995
-147.835556030273 -79.001190185547 -202.375930786133 2.664282560349
18.204896926880 -77.272499084473 -193.759078979492 2.537498712540
-43.007095336914 -79.556549072266 -205.111404418945 2.895920038223
-32.712532043457 -77.857482910156 -204.477157592773 1.063640952110
-38.180374145508 -75.327293395996 -205.936294555664 1.855355381966
-42.901927947998 -76.993698120117 -195.501113891602 0.824226140976
100.504737854004 -79.502738952637 -201.014770507813 2.473410844803
-18.856849670410 -76.565063476563 -203.106552124023 0.369104832411
-150.711898803711 -74.708778381348 -204.569366455078 2.038683414459
14.861341476440 -76.478294372559 -207.544494628906 2.160440206528
-74.327644348145 -79.108146667480 -207.437057495117 1.617801666260
-148.222702026367 -75.568183898926 -211.022949218750 0.783553421497
97.035736083984 -76.629104614258 -209.263717651367 0.688053131104
-33.327102661133 -76.780052185059 -207.554733276367 1.181999444962
-27.449018478394 -76.311439514160 -215.982009887695 0.967063426971
7.073517799377 -78.435111999512 -211.604110717773 1.761128664017
-71.233177185059 -76.552314758301 -213.294448852539 1.577614307404
-28.497409820557 -76.776130676270 -210.242568969727 1.705441474915
-5.667529106140 -78.285682678223 -215.973464965820 0.789112687111
-76.810249328613 -79.120521545410 -216.207244873047 1.618026971817
-14.047735214233 -78.330230712891 -218.440032958984 1.610538840294
8.934344291687 -76.295997619629 -214.941818237305 1.734388828278
17.570154190063 -80.390701293945 -220.429931640625 3.002161264420
-146.880340576172 -75.980331420898 -217.506942749023 1.041815757751
-5.863732814789 -75.878929138184 -215.796676635742 1.579819321632
-93.148887634277 -73.279174804688 -221.976135253906 1.903828263283
-21.877248764038 -74.826599121094 -220.058776855469 1.165576815605
93.087005615234 -78.651672363281 -211.895843505859 1.445971608162
6.319869041443 -78.042915344238 -228.400970458984 1.056013107300
15.711111068726 -78.119544982910 -216.560180664063 1.537446737289
81.117141723633 -74.776672363281 -221.788650512695 1.939964294434
1.887027025223 -76.100517272949 -226.759979248047 1.662607789040
86.325080871582 -76.986221313477 -219.107971191406 1.993016123772
-16.181995391846 -76.690574645996 -222.780563354492 1.085643649101
14.309204101563 -78.514610290527 -221.810928344727 1.826918244362
-146.634841918945 -77.358566284180 -225.134231567383 2.516842603683
-18.438482284546 -80.476409912109 -225.743057250977 3.132619619370
1.677219986916 -79.797569274902 -227.221618652344 2.635580301285
-153.251541137695 -77.916511535645 -229.247848510742 1.464473724365
-135.031112670898 -75.440765380859 -228.651733398438 1.119730591774
9.415947914124 -76.572494506836 -227.121551513672 1.337767720222
-4.614594936371 -76.967849731445 -236.128280639648 3.183701276779
-136.435974121094 -75.815879821777 -232.466094970703 1.631632089615
-146.403503417969 -78.023963928223 -235.877700805664 1.269481897354
-145.681106567383 -74.534217834473 -238.054595947266 2.786893367767
-30.065380096436 -76.960807800293 -237.666900634766 1.339525341988
-145.527923583984 -74.743606567383 -243.890655517578 1.928648471832
20.412813186646 -76.405654907227 -241.405471801758 1.015377283096
5.804912090302 -77.409950256348 -243.716705322266 0.553846597672
-150.740585327148 -74.337005615234 -236.852890014648 1.873195767403
-149.852203369141 -76.010536193848 -243.496871948242 2.347429990768
-46.616287231445 -76.820091247559 -241.374450683594 1.973471879959
-31.754320144653 -78.744468688965 -244.774826049805 1.449044466019
6.105002880096 -79.153472900391 -248.107589721680 1.558230400085
-37.411239624023 -75.909919738770 -246.579101562500 2.124579668045
23.751434326172 -78.321792602539 -249.306716918945 1.826162576675
-3.646011114120 -78.654159545898 -247.715042114258 1.569209814072
-151.593566894531 -74.806396484375 -253.425140380859 1.424803256989
-6.215809822083 -75.386871337891 -250.071487426758 2.824467182159
-144.363098144531 -76.542701721191 -253.182723999023 2.687468051910
-67.098564147949 -76.782081604004 -250.416580200195 1.925561904907
-151.220275878906 -81.872665405273 -260.260406494141 2.012138128281
-125.637474060059 -76.410507202148 -261.251556396484 0.750627279282
-149.089035034180 -72.095718383789 -261.441497802734 2.044646263123
-12.465202331543 -75.045211791992 -266.501586914063 1.388636946678
-145.705261230469 -77.270210266113 -265.727630615234 1.389221310616
-149.649139404297 -75.892318725586 -265.654357910156 1.859569072723
-9.897098541260 -78.750938415527 -269.560455322266 0.468039214611
-147.430328369141 -76.376274108887 -270.765045166016 1.517091989517
-3.760107040405 -78.380661010742 -281.480560302734 1.922227025032
-45.209796905518 -77.076423645020 -285.161437988281 3.097875833511
-135.220352172852 -76.334732055664 -288.065032958984 1.047768831253
-132.617797851563 -73.615242004395 -284.976043701172 1.030391454697
-125.812538146973 -75.008911132813 -286.380767822266 1.345402836800
-53.732227325439 -75.341865539551 -284.546173095703 2.475810527802
-114.572540283203 -73.853042602539 -289.959899902344 0.785408318043
15.812589645386 -79.130645751953 -289.846313476563 1.564401268959
-60.796161651611 -75.671920776367 -288.536956787109 1.597972393036
-141.383987426758 -73.690361022949 -289.859252929688 2.291048526764
-61.888202667236 -74.195884704590 -289.341217041016 2.269943475723
-142.678161621094 -78.481712341309 -291.627258300781 1.209035873413
-117.992515563965 -74.791206359863 -288.800842285156 1.534875035286
-47.013927459717 -75.500106811523 -291.512054443359 1.560611844063
-36.875164031982 -76.605300903320 -291.229644775391 1.066986441612
-133.595336914063 -75.411834716797 -291.435974121094 1.634861469269
-10.813581466675 -74.807510375977 -292.080749511719 1.279299974442
0.202158004045 -78.057113647461 -292.032867431641 1.199949622154
7.358698844910 -76.702255249023 -291.967376708984 1.141323804855
14.620813369751 -76.749565124512 -293.829010009766 0.893986165524
-148.749572753906 -76.958549499512 -296.560546875000 1.202910780907
-146.825408935547 -74.260459899902 -300.109436035156 1.028630852699
-70.499206542969 -76.654914855957 -61.621788024902 2.613475561142
86.974723815918 -77.918151855469 -76.199920654297 2.415250062943
78.783462524414 -78.564834594727 -76.095214843750 2.693638563156
-26.878221511841 -79.466033935547 -76.433860778809 1.768144607544
