98.750854492188 -77.458061218262 -204.166702270508 1.712270498276
-77.456008911133 -75.183242797852 -210.516204833984 0.461497277021
-37.606063842773 -73.699150085449 -203.391983032227 0.678715944290
17.774433135986 -74.994201660156 -210.970764160156 1.958319425583
-25.716062545776 -76.402961730957 -211.533309936523 1.508893489838
-79.380912780762 -73.520164489746 -213.016418457031 1.449006438255
91.291839599609 -74.953788757324 -209.567276000977 1.592826962471
-82.753334045410 -72.630561828613 -214.473190307617 0.857742190361
-147.292541503906 -75.498184204102 -219.364349365234 2.026917695999
-79.606864929199 -75.672370910645 -216.096466064453 0.720619022846
-16.262313842773 -74.456352233887 -213.628936767578 1.237984299660
-21.885244369507 -75.027221679688 -217.879440307617 1.409453511238
19.901311874390 -73.593040466309 -211.638107299805 1.076202511787
-6.354681968689 -74.884246826172 -214.652084350586 1.581570625305
-85.837829589844 -73.667053222656 -219.667709350586 2.325233697891
91.090278625488 -75.298568725586 -214.064437866211 1.162771224976
-95.707641601563 -75.607772827148 -216.306808471680 1.023252248764
-148.642608642578 -78.019706726074 -224.588180541992 2.358406305313
-17.015724182129 -75.084121704102 -221.144531250000 1.494864344597
15.622011184692 -74.671981811523 -216.681655883789 1.327260851860
-103.105682373047 -73.338516235352 -220.577987670898 1.779067158699
7.755348205566 -76.166076660156 -220.879623413086 1.559392452240
-25.192239761353 -76.511657714844 -217.195556640625 1.364335060120
82.768173217773 -76.116729736328 -224.017990112305 1.851015925407
-146.860687255859 -74.616050720215 -222.303985595703 1.481252312660
5.262186050415 -72.757240295410 -226.334747314453 1.031459689140
-8.640311241150 -76.151855468750 -222.491500854492 1.989606142044
16.552619934082 -72.490020751953 -221.315658569336 1.776641011238
83.508758544922 -74.167587280273 -223.842987060547 0.752822995186
-13.134907722473 -75.078445434570 -227.546218872070 1.021052002907
-130.619201660156 -75.616775512695 -227.824462890625 1.942238688469
-10.703386306763 -77.291984558105 -225.603958129883 1.784643411636
16.445823669434 -75.578460693359 -234.626007080078 1.687053918839
-125.953437805176 -74.194580078125 -226.659805297852 0.719046831131
-149.821899414063 -73.785697937012 -229.364395141602 1.000361919403
-141.111907958984 -74.213806152344 -229.797515869141 1.175505638123
-133.877471923828 -73.720603942871 -230.927459716797 0.681372344494
-14.204974174500 -74.834617614746 -227.577941894531 1.608694434166
71.239212036133 -74.847167968750 -230.085418701172 1.350224971771
-141.859863281250 -74.156219482422 -234.374450683594 1.814797878265
72.971786499023 -75.226905822754 -228.883987426758 1.174013257027
-18.269821166992 -76.703529357910 -227.269378662109 1.814518332481
-142.460464477539 -78.676551818848 -232.568756103516 1.654701232910
77.482513427734 -76.460334777832 -230.463241577148 1.573785185814
10.564652442932 -77.344085693359 -236.579406738281 2.248616933823
-143.722793579102 -75.805480957031 -236.118041992188 2.125115871429
-150.645675659180 -73.982337951660 -236.949615478516 1.825463175774
13.961300849915 -72.467613220215 -234.037139892578 0.535751581192
-3.217091083527 -75.123779296875 -237.326660156250 1.891906738281
-24.734056472778 -73.980232238770 -240.825805664063 1.503840804100
-3.498131036758 -73.438629150391 -240.475616455078 0.821601152420
-161.963409423828 -74.578140258789 -238.307785034180 1.432843446732
10.289382934570 -75.541954040527 -245.632568359375 1.217140436172
-164.616210937500 -73.112472534180 -236.334121704102 1.367060661316
-15.769931793213 -75.056777954102 -236.382644653320 1.604591131210
66.271797180176 -75.918243408203 -239.549819946289 2.626591682434
-11.141976356506 -74.448478698730 -241.375167846680 1.181306004524
-25.589563369751 -74.034194946289 -240.208053588867 1.766490936279
-26.575819015503 -73.361991882324 -242.327209472656 1.460383176804
-16.032257080078 -73.063674926758 -244.165512084961 1.844598054886
-145.584182739258 -73.263244628906 -236.469207763672 1.198912739754
8.399359703064 -76.191848754883 -244.285583496094 0.212555676699
64.263168334961 -76.056510925293 -241.761367797852 2.400276899338
12.172437667847 -75.093109130859 -245.063934326172 0.933391630650
-162.262069702148 -73.113563537598 -240.748062133789 1.006161928177
-48.752494812012 -75.294914245605 -244.819229125977 2.031682968140
3.315709114075 -79.695755004883 -247.901031494141 1.040298819542
16.541231155396 -72.618087768555 -248.008560180664 1.219116926193
-56.612556457520 -73.682617187500 -249.017715454102 2.058679103851
-4.305027008057 -73.892829895020 -244.901504516602 1.649543285370
20.721616744995 -76.278854370117 -248.946670532227 2.208757638931
-165.692565917969 -73.689453125000 -248.426132202148 1.096676945686
-71.793388366699 -76.233924865723 -250.130752563477 1.958536267281
-51.746128082275 -73.751487731934 -247.927062988281 1.584519624710
-79.534156799316 -74.116554260254 -249.381118774414 1.351147770882
-160.913803100586 -73.145523071289 -246.985092163086 0.562746644020
-151.790145874023 -74.188804626465 -252.864807128906 0.656894326210
-59.772079467773 -73.496589660645 -251.752746582031 2.645171165466
-69.313316345215 -76.732597351074 -252.091583251953 1.312809109688
-154.317123413086 -73.004829406738 -254.290939331055 1.298936843872
-152.589996337891 -72.702491760254 -252.389678955078 1.343650937080
-78.131431579590 -74.308753967285 -253.254791259766 0.753180623055
-93.366775512695 -72.346954345703 -253.471420288086 1.346887350082
-165.393539428711 -74.158256530762 -251.758529663086 1.685940742493
-155.869461059570 -73.414436340332 -256.460754394531 0.805174052715
-134.672317504883 -72.574470520020 -257.018981933594 1.366858243942
-82.804367065430 -75.882110595703 -254.172760009766 1.219756126404
-163.610671997070 -72.256385803223 -253.882873535156 1.761592507362
-144.476608276367 -75.733421325684 -257.477966308594 3.086201190948
-88.964668273926 -73.932998657227 -255.804916381836 1.133514404297
-97.744583129883 -70.389442443848 -259.616455078125 1.090089201927
-148.791793823242 -73.272697448730 -258.847534179688 1.460682988167
-96.215225219727 -73.608551025391 -259.712707519531 2.446744441986
-150.781646728516 -73.249084472656 -256.921569824219 1.334394097328
-100.511131286621 -74.512214660645 -257.377227783203 1.101592183113
-166.180664062500 -75.385665893555 -259.209838867188 1.914139628410
-161.592437744141 -75.674621582031 -259.695404052734 1.776919960976
-123.991355895996 -73.080596923828 -257.905456542969 0.826680243015
-150.156539916992 -75.088546752930 -259.961181640625 1.705272555351
-113.008880615234 -73.250305175781 -261.175476074219 0.806980788708
-15.179533004761 -76.860389709473 -261.920288085938 2.233391523361
-143.258453369141 -73.174514770508 -262.617675781250 0.644936621189
-125.286949157715 -73.602622985840 -261.700744628906 1.507942438126
-156.149871826172 -73.360969543457 -263.955749511719 0.871379673481
21.222749710083 -75.389358520508 -268.827728271484 1.083270430565
-149.373275756836 -73.524375915527 -280.508209228516 3.140015363693
-168.032730102539 -72.907135009766 -279.033020019531 1.160278320313
-6.758925914764 -78.014289855957 -280.928924560547 2.240851640701
-148.181823730469 -75.347602844238 -282.381805419922 1.176352977753
-7.641941070557 -73.860305786133 -281.391784667969 1.822353482246
13.371189117432 -74.171875000000 -286.038970947266 1.080808401108
-135.254669189453 -73.472457885742 -287.662078857422 1.937220931053
-71.255699157715 -75.534362792969 -285.382080078125 1.646259307861
-36.064632415771 -74.174369812012 -285.414306640625 2.848171949387
-114.663520812988 -72.548233032227 -288.561431884766 1.928031325340
-92.126289367676 -74.318916320801 -292.657012939453 1.877816081047
-91.262481689453 -73.458984375000 -293.513000488281 1.794800400734
-48.511058807373 -76.282157897949 -290.674377441406 1.147115468979
-115.860832214355 -72.497810363770 -292.455535888672 0.499835014343
-110.073501586914 -74.288925170898 -291.954528808594 1.700419664383
-32.326648712158 -75.228210449219 -292.019378662109 1.656222939491
-114.518859863281 -73.690780639648 -291.721282958984 1.105343937874
-125.586875915527 -74.054718017578 -292.247375488281 0.885266721249
-144.274856567383 -74.784126281738 -294.101135253906 1.880214452744
7.882455825806 -72.989593505859 -291.578765869141 1.247654557228
14.216972351074 -75.988662719727 -294.347778320313 0.786386966705
-157.096878051758 -73.956413269043 -295.204528808594 1.384291768074
-155.064559936523 -74.636375427246 -302.826477050781 1.428601384163
-145.323074340820 -75.062362670898 -312.201477050781 1.203760981560
-150.578735351563 -71.358863830566 -311.598724365234 1.408535599709
-152.434066772461 -76.940055847168 -313.709045410156 1.540751457214
27.548879623413 -74.453521728516 -16.435802459717 2.861510753632
24.179882049561 -73.770851135254 -18.756021499634 2.953968763351
21.719182968140 -74.454627990723 -22.147077560425 2.004694938660
27.351182937622 -74.633239746094 -40.094207763672 2.795223236084
-56.169197082520 -70.821037292480 -51.757705688477 2.299079895020
-66.145385742188 -72.631752014160 -51.293495178223 2.001070499420
-39.613243103027 -73.586570739746 -53.171928405762 1.075832366943
-82.021293640137 -74.944755554199 -59.864524841309 1.996105909348
81.489456176758 -77.852340698242 -74.993362426758 3.030522823334
-19.830732345581 -74.569686889648 -72.610115051270 1.681300759315
88.663383483887 -76.869102478027 -70.336502075195 3.305999994278
96.225761413574 -74.363212585449 -79.490867614746 1.597991228104
-93.785339355469 -73.385276794434 -80.666282653809 1.409533977509
71.261795043945 -73.298583984375 -79.040092468262 1.411085009575
-42.782154083252 -77.564712524414 -84.907630920410 1.431448578835
99.871643066406 -73.559455871582 -84.229423522949 2.465342044830
-54.479175567627 -75.948860168457 -90.311408996582 1.096789956093
51.509040832520 -74.385841369629 -89.893035888672 2.338315248489
71.786018371582 -75.891815185547 -90.411666870117 2.309933900833
56.959403991699 -76.475700378418 -96.604980468750 2.320307254791
50.624229431152 -75.318748474121 -100.371986389160 2.752399921417
70.544227600098 -76.681823730469 -95.106849670410 3.517309904099
45.672309875488 -72.906433105469 -99.792106628418 1.434562921524
102.640426635742 -75.404571533203 -100.464279174805 3.548476219177
108.312828063965 -76.182670593262 -105.579002380371 1.920505046844
80.616096496582 -71.746696472168 -102.184867858887 1.749523997307
88.404670715332 -75.439659118652 -102.477905273438 2.061432123184
101.247337341309 -74.198554992676 -99.048957824707 2.412053346634
107.238220214844 -71.408325195313 -102.187072753906 0.756280601025
38.904102325439 -78.009971618652 -106.441406250000 2.377118110657
109.461959838867 -74.074584960938 -119.767074584961 1.562898397446
112.847808837891 -76.163139343262 -119.269332885742 2.260928869247
32.659214019775 -74.509223937988 -121.098388671875 1.093979120255
42.725521087646 -75.496437072754 -119.942092895508 2.362551212311
112.081253051758 -73.932426452637 -127.952163696289 2.073654413223
38.730712890625 -76.309249877930 -126.766708374023 2.201413154602
112.980155944824 -73.542488098145 -129.519149780273 2.285780429840
109.724540710449 -74.376693725586 -123.966064453125 1.523667931557
24.832294464111 -72.825828552246 -138.205978393555 1.841433763504
-49.445159912109 -75.609565734863 -134.973388671875 1.551605582237
-54.170154571533 -74.105667114258 -138.189514160156 0.575313091278
111.931556701660 -73.638038635254 -133.835601806641 0.945299744606
-73.062889099121 -75.667129516602 -143.249435424805 1.515129804611
-75.443550109863 -74.254547119141 -140.502258300781 1.739485740662
-58.145542144775 -75.707633972168 -143.360031127930 2.816018581390
33.400802612305 -74.081039428711 -140.917144775391 1.967849135399
109.168052673340 -73.945442199707 -145.444015502930 1.839190244675
-67.119499206543 -74.117523193359 -146.443740844727 0.960006237030
-45.868637084961 -71.920448303223 -145.213775634766 1.028136134148
35.951263427734 -77.043022155762 -149.560516357422 1.857375383377
-66.828384399414 -75.558242797852 -150.000366210938 1.822476625443
113.134544372559 -72.429931640625 -144.003021240234 0.977545380592
111.359893798828 -74.999687194824 -156.889541625977 1.266573667526
114.050857543945 -75.969467163086 -149.977310180664 2.168434619904
-38.498397827148 -74.563873291016 -155.354370117188 2.011600732803
-66.188949584961 -74.644180297852 -161.258895874023 1.569437623024
-71.825637817383 -71.590309143066 -155.911407470703 1.950740337372
30.713666915894 -73.777580261230 -150.995574951172 1.953028082848
-1.703328967094 -76.138626098633 -163.398178100586 1.368762850761
107.518844604492 -75.258293151855 -158.750534057617 1.660915613174
110.054054260254 -72.861984252930 -154.686172485352 2.025664329529
112.040794372559 -73.931648254395 -157.126327514648 0.687757968903
-65.256256103516 -74.364624023438 -162.743698120117 0.608638823032
-46.658988952637 -75.569694519043 -162.194641113281 0.380380690098
1.204411983490 -74.645935058594 -167.068862915039 0.693430781364
-26.160497665405 -72.819107055664 -174.777999877930 2.236361026764
106.050048828125 -74.926612854004 -164.848236083984 2.081219434738
-37.067806243896 -73.467285156250 -161.210235595703 1.470919847488
110.143707275391 -75.252128601074 -169.287445068359 1.105892181396
-41.876613616943 -73.884765625000 -172.834533691406 1.144770383835
109.798812866211 -75.292617797852 -167.050659179688 1.422546744347
-149.603652954102 -72.622756958008 -182.792465209961 1.560976743698
-29.953533172607 -72.725181579590 -175.882522583008 2.126414537430
-21.515958786011 -72.432632446289 -181.846221923828 1.544211387634
26.773345947266 -76.644546508789 -177.049179077148 2.552524089813
15.636526107788 -74.701324462891 -181.282028198242 1.094647169113
24.689470291138 -74.896354675293 -183.173019409180 1.695633292198
106.318405151367 -75.761245727539 -184.045928955078 1.190569996834
-151.844177246094 -71.999984741211 -188.166641235352 2.112968444824
-21.203554153442 -75.305381774902 -188.919265747070 2.263547897339
103.885711669922 -73.781242370605 -178.505432128906 1.772387027740
103.142044067383 -73.938110351563 -190.901657104492 1.607276797295
105.664367675781 -74.615219116211 -180.130279541016 1.168901920319
96.477149963379 -76.988189697266 -195.064712524414 2.369125127792
-153.690261840820 -78.966407775879 -196.250167846680 1.690321922302
99.481895446777 -77.074081420898 -203.704025268555 2.072126865387
-30.061302185059 -72.931320190430 -195.545639038086 3.035173654556
98.505645751953 -73.390983581543 -197.147247314453 2.006670475006
-126.128082275391 -73.875457763672 -196.817550659180 2.313758134842
-30.245271682739 -76.755378723145 -192.805053710938 2.705013990402
-141.544372558594 -73.246932983398 -200.740905761719 1.438326716423
92.766426086426 -74.426704406738 -199.760986328125 2.364781141281
8.769124031067 -74.905296325684 -199.526062011719 1.573651552200
22.761508941650 -75.524627685547 -195.137100219727 1.919641613960
-148.217987060547 -72.832221984863 -201.139266967773 1.000280380249
-140.244598388672 -72.047027587891 -204.135375976563 2.017446756363
-12.848660469055 -74.451110839844 -205.024566650391 2.230103492737
-125.249252319336 -76.237968444824 -202.888168334961 3.226856231689
-144.866455078125 -76.697502136230 -204.003524780273 1.187443971634
7.262776851654 -73.311820983887 -200.793426513672 1.514063715935
-23.331022262573 -74.873504638672 -203.720520019531 1.557293772697
19.091457366943 -74.315879821777 -205.420227050781 1.571252346039
7.297032833099 -74.333564758301 -210.236679077148 1.328950643539
88.129104614258 -75.174728393555 -209.555282592773 2.447004795074
-21.678863525391 -70.707283020020 -212.144393920898 3.365767955780
92.677497863770 -73.844070434570 -209.541763305664 1.398292660713
97.021469116211 -74.348945617676 -207.050552368164 2.583598375320
-148.327560424805 -71.586357116699 -217.946441650391 2.834796428680
95.251586914063 -73.008819580078 -211.234207153320 1.532792329788
5.931128025055 -73.365211486816 -209.644638061523 1.959472775459
4.545973777771 -74.746429443359 -213.238388061523 2.332622051239
-34.810695648193 -73.174224853516 -209.747039794922 2.429656267166
-90.674766540527 -71.815315246582 -214.458267211914 0.797128379345
-30.484029769897 -73.596694946289 -213.421585083008 2.147328615189
84.096443176270 -75.294212341309 -215.669540405273 1.253736257553
85.638282775879 -74.713768005371 -218.681152343750 1.120584487915
-34.836639404297 -72.228942871094 -214.534469604492 3.357772111893
-83.352294921875 -70.579460144043 -219.823928833008 4.232159614563
-3.166461944580 -74.677627563477 -217.298965454102 1.249370813370
87.471359252930 -74.537055969238 -216.476211547852 2.056745529175
-150.028778076172 -73.904121398926 -223.158538818359 1.263628363609
-166.962036132813 -73.397712707520 -214.522888183594 3.386613607407
-159.502304077148 -72.414192199707 -223.047821044922 0.528527557850
-20.806613922119 -74.363319396973 -227.787460327148 2.939131975174
-152.755828857422 -73.963233947754 -224.521438598633 2.107164859772
-7.932991981506 -77.500831604004 -226.768630981445 2.429194688797
6.826198101044 -72.944885253906 -218.409606933594 1.802290558815
-163.437118530273 -74.748512268066 -224.403259277344 1.947350740433
-162.748703002930 -73.019065856934 -226.910751342773 1.677246570587
78.991897583008 -74.767913818359 -230.258666992188 0.727036297321
3.359160900116 -73.193565368652 -228.887924194336 1.570485830307
-153.266235351563 -73.388916015625 -225.579605102539 1.197021961212
-142.691131591797 -73.138420104980 -225.549057006836 1.728588104248
-20.700309753418 -75.243148803711 -225.250778198242 1.222684860229
2.356933116913 -76.442222595215 -224.954223632813 0.675577163696
81.277015686035 -74.207351684570 -223.229812622070 1.638575911522
-160.949874877930 -73.576271057129 -229.603668212891 1.785833120346
-147.221542358398 -72.284782409668 -228.960968017578 1.304082393646
-124.852752685547 -71.939437866211 -230.758773803711 1.845309972763
80.411300659180 -75.086212158203 -228.829650878906 2.416082143784
-115.585098266602 -71.397087097168 -230.777481079102 1.062141060829
-148.992965698242 -74.131088256836 -230.086746215820 1.695101857185
-151.078338623047 -74.389022827148 -231.051422119141 2.917200565338
-147.695083618164 -73.231513977051 -230.172927856445 0.841862678528
-154.843978881836 -71.459129333496 -230.420867919922 1.855485320091
-166.092864990234 -71.517868041992 -233.376205444336 1.688893914223
-136.111526489258 -72.109687805176 -234.759552001953 2.520897865295
-134.501403808594 -73.343490600586 -233.695144653320 1.805373907089
-155.522491455078 -72.668441772461 -231.728652954102 1.167500853539
-145.530288696289 -71.530555725098 -234.916244506836 1.322454214096
-152.673233032227 -71.470207214355 -235.250457763672 1.802996397018
72.795097351074 -73.746231079102 -227.131759643555 1.900727272034
67.616256713867 -72.278373718262 -238.419555664063 0.501822471619
-160.426574707031 -72.271141052246 -237.779571533203 1.834059238434
69.511245727539 -73.635742187500 -233.755569458008 2.041125059128
-19.530683517456 -73.806175231934 -237.169845581055 1.740011572838
9.257731437683 -73.810295104980 -236.973327636719 2.309221506119
9.030244827271 -75.888717651367 -236.153228759766 2.091974258423
-149.176620483398 -72.773254394531 -245.291366577148 2.698605060577
13.640507698059 -73.671760559082 -242.004074096680 1.562732934952
64.361038208008 -74.809745788574 -237.164398193359 1.441228747368
12.357530593872 -73.117561340332 -237.113250732422 2.780434370041
5.785152912140 -75.783714294434 -243.197891235352 0.648711383343
-6.975460052490 -72.424156188965 -241.459671020508 1.373577117920
-19.611536026001 -75.082496643066 -244.696395874023 2.244351148605
-0.139874994755 -74.991119384766 -243.724670410156 2.118193387985
2.377134084702 -73.801300048828 -242.872222900391 0.464274108410
56.980895996094 -74.777236938477 -242.173904418945 2.680186748505
-57.590080261230 -73.769172668457 -245.679702758789 1.832199096680
18.293901443481 -73.858131408691 -247.807220458984 1.799960374832
-60.584262847900 -73.784225463867 -245.405319213867 0.852885901928
-8.345586776733 -73.442115783691 -248.700424194336 0.538188338280
-64.660697937012 -71.687538146973 -251.721435546875 1.779283761978
-85.960189819336 -76.373634338379 -252.220626831055 2.247563838959
-82.571296691895 -74.673210144043 -251.144042968750 1.281335353851
-14.188246726990 -73.124320983887 -252.471282958984 1.108465194702
-124.604782104492 -74.326133728027 -258.230834960938 1.212281346321
-14.790814399719 -72.799896240234 -256.002136230469 1.639557361603
-119.239692687988 -73.255928039551 -257.601745605469 1.899896740913
-115.943778991699 -71.710899353027 -259.199890136719 2.323361396790
-103.601074218750 -74.740386962891 -259.476928710938 2.685710430145
-144.197204589844 -72.639198303223 -263.711883544922 0.933456242085
-146.054656982422 -71.752830505371 -266.972229003906 1.810127139091
-167.779373168945 -71.690345764160 -265.632995605469 2.798191785812
15.428982734680 -75.516212463379 -280.763549804688 2.149394989014
-56.744312286377 -74.355262756348 -285.697357177734 2.626215219498
-65.677856445313 -73.460769653320 -285.872528076172 0.882391691208
-43.101734161377 -74.973251342773 -286.143341064453 0.736879169941
-28.887355804443 -75.167747497559 -284.679840087891 0.865270793438
-95.588363647461 -73.196670532227 -290.307403564453 2.104945659637
-29.894960403442 -72.259620666504 -288.311035156250 1.501564979553
-3.772129058838 -72.307701110840 -286.923370361328 1.854446530342
-166.665557861328 -73.230300903320 -290.157928466797 1.502165555954
-13.083869934082 -74.929206848145 -288.530242919922 2.717369318008
7.669075012207 -72.644309997559 -289.188568115234 1.401035666466
14.510540008545 -72.525466918945 -290.108276367188 0.670123338699
-56.411056518555 -73.791816711426 -292.028137207031 1.434074640274
-29.562982559204 -74.308738708496 -289.653717041016 2.345082044601
14.548917770386 -72.128715515137 -291.478973388672 0.710166513920
-69.157302856445 -74.031143188477 -292.945007324219 2.665465593338
-37.374393463135 -72.992408752441 -291.295227050781 1.120623350143
-17.216863632202 -72.482131958008 -291.711853027344 0.945662200451
13.862256050110 -74.236968994141 -291.061737060547 1.991648435593
-11.924663543701 -74.724891662598 -291.357055664063 0.745024263859
4.206976890564 -72.173843383789 -292.689910888672 0.867350935936
13.168384552002 -73.672897338867 -293.483367919922 1.570685625076
-134.642211914063 -73.493667602539 -293.960906982422 1.353299498558
-143.285003662109 -74.548934936523 -302.422576904297 1.938619732857
-148.183242797852 -75.692413330078 -312.976806640625 0.897817254066
38.888942718506 -70.520263671875 -12.949586868286 1.527135133743
29.707683563232 -73.441978454590 -11.233099937439 3.175704240799
37.896568298340 -73.684806823730 -15.980533599854 2.944525003433
19.865930557251 -73.447921752930 -20.795974731445 2.360955715179
42.438037872314 -73.695655822754 -23.053524017334 3.534627199173
22.413999557495 -73.034996032715 -21.694559097290 0.985238969326
23.180208206177 -75.564598083496 -29.878183364868 3.563076257706
21.278770446777 -75.055923461914 -35.305637359619 3.824390649796
41.923915863037 -72.257575988770 -32.096420288086 1.966854929924
26.069105148315 -73.687225341797 -36.282306671143 2.232258796692
40.251857757568 -73.789497375488 -33.938293457031 2.689079284668
31.472545623779 -72.688148498535 -37.358020782471 1.095847725868
33.353084564209 -73.973236083984 -38.525245666504 2.181673049927
30.991277694702 -73.238334655762 -40.790653228760 1.786039710045
41.391227722168 -73.565040588379 -41.624691009521 2.467631101608
34.284049987793 -72.044433593750 -42.949745178223 2.791341781616
-39.362411499023 -69.892555236816 -52.580818176270 2.386005401611
-31.319332122803 -69.671623229980 -49.518760681152 1.959332942963
-89.122695922852 -69.789901733398 -57.159858703613 2.930903196335
-87.958106994629 -74.663383483887 -65.095443725586 2.067850351334
79.115951538086 -74.594177246094 -68.840568542480 2.369489431381
82.677459716797 -75.048843383789 -71.614868164063 1.099048972130
-17.494394302368 -73.543670654297 -73.328460693359 1.920277833939
-88.047409057617 -75.600578308105 -71.938003540039 2.275799036026
-25.652807235718 -73.680877685547 -78.336975097656 1.615056395531
-50.500976562500 -75.304634094238 -87.715065002441 2.230086326599
64.062423706055 -71.501068115234 -85.734634399414 2.011009931564
53.685180664063 -72.434837341309 -91.894477844238 0.392323195934
97.757514953613 -73.899131774902 -89.769683837891 0.530173361301
71.258247375488 -74.550178527832 -95.735015869141 2.285601854324
-65.508918762207 -76.583465576172 -93.934463500977 1.919558644295
-66.238586425781 -73.354095458984 -96.880493164063 0.852890133858
44.222179412842 -75.036117553711 -97.120681762695 2.165546178818
74.691131591797 -76.019393920898 -101.886711120605 3.497150182724
51.649414062500 -77.076644897461 -103.353302001953 1.490503072739
100.296722412109 -75.096298217773 -97.802787780762 3.266901254654
-94.161514282227 -73.005081176758 -107.674682617188 3.109747886658
37.540298461914 -77.099235534668 -111.681991577148 1.958661079407
106.108680725098 -72.989509582520 -107.380767822266 1.689411163330
46.208755493164 -72.101104736328 -110.696807861328 3.104139089584
102.649147033691 -72.741607666016 -107.202568054199 1.411533713341
-86.177665710449 -73.529518127441 -113.949699401855 0.988857090473
35.489318847656 -74.092163085938 -112.759956359863 1.907412409782
106.837486267090 -75.125160217285 -117.372680664063 2.984476804733
102.924484252930 -73.050979614258 -115.387283325195 3.178553104401
107.068382263184 -75.251701354980 -114.661064147949 2.003293037415
109.030799865723 -75.950454711914 -115.284194946289 2.699897527695
35.485157012939 -73.531066894531 -113.957015991211 0.757931113243
31.518104553223 -76.361465454102 -119.410346984863 2.302999734879
43.148021697998 -73.472175598145 -115.261848449707 2.080371141434
108.957504272461 -74.014358520508 -123.130508422852 2.426166772842
38.783920288086 -72.803977966309 -125.289962768555 2.368379354477
108.484222412109 -74.870849609375 -131.393356323242 2.484386205673
112.737754821777 -72.907844543457 -129.673797607422 1.673723340034
32.495063781738 -73.081199645996 -122.687469482422 1.869141817093
-77.850837707520 -73.534706115723 -128.293914794922 3.112573385239
115.874870300293 -75.786979675293 -135.072830200195 0.858840107918
-58.447269439697 -75.717605590820 -138.883804321289 1.927378416061
34.938262939453 -74.759490966797 -136.008087158203 2.497207164764
-73.886260986328 -73.560768127441 -139.271118164063 0.939853012562
28.579168319702 -72.910957336426 -134.724060058594 1.562830448151
-76.438796997070 -74.024986267090 -142.069778442383 2.188204526901
-45.040237426758 -75.780502319336 -144.788452148438 1.420588254929
-72.808700561523 -73.657180786133 -137.323257446289 1.031635522842
110.548744201660 -71.531547546387 -138.014770507813 1.540994882584
113.917129516602 -74.185890197754 -141.150833129883 0.997425079346
118.643859863281 -75.022506713867 -144.742889404297 2.695213317871
-72.895545959473 -72.671813964844 -145.153747558594 1.644145965576
8.898609161377 -71.900779724121 -150.931716918945 1.745797395706
-56.235294342041 -73.022567749023 -153.119125366211 3.175289392471
-48.801429748535 -74.727966308594 -155.508972167969 1.321208715439
107.989990234375 -72.854331970215 -158.950408935547 1.280421137810
-42.014362335205 -74.648918151855 -151.549728393555 1.082603216171
11.581074714661 -72.746055603027 -158.521560668945 0.533092319965
21.666919708252 -73.194770812988 -158.952301025391 1.074335694313
113.845611572266 -75.157089233398 -163.573242187500 1.006765365601
29.615137100220 -72.328002929688 -162.256393432617 1.426805973053
-2.265768051147 -75.612846374512 -161.916671752930 1.678375840187
30.929901123047 -73.860992431641 -162.455856323242 1.649928808212
-69.013259887695 -69.813957214355 -160.012176513672 1.859709858894
-64.240303039551 -71.965850830078 -159.606964111328 0.825536847115
-67.784393310547 -73.036193847656 -164.411727905273 0.869361102581
113.459228515625 -72.747222900391 -160.861221313477 2.601377487183
-45.576068878174 -71.996757507324 -163.703948974609 1.321319580078
18.434957504272 -75.802894592285 -168.339538574219 1.116528391838
-64.176536560059 -74.641426086426 -171.685317993164 2.127664566040
-60.866085052490 -74.454406738281 -172.785995483398 1.732186913490
-40.822914123535 -73.849411010742 -161.011169433594 3.493086814880
-34.229232788086 -70.518455505371 -169.413650512695 2.321729660034
113.083847045898 -72.475814819336 -172.016571044922 1.468463420868
-36.425098419189 -73.520004272461 -176.149871826172 2.205272912979
15.500262260437 -73.840492248535 -173.115112304688 1.799688100815
108.889282226563 -76.625373840332 -184.511856079102 1.204533219337
-150.435134887695 -74.515724182129 -177.273391723633 2.319609165192
-144.906814575195 -73.812072753906 -176.303726196289 0.549855232239
-152.074920654297 -72.082611083984 -178.322586059570 1.567118763924
-143.884399414063 -70.916557312012 -181.449859619141 2.042141914368
-29.610677719116 -72.480644226074 -184.985473632813 1.811702370644
-24.058124542236 -72.605560302734 -185.997085571289 1.926156044006
22.351741790771 -72.056892395020 -189.905242919922 1.289674162865
-142.680130004883 -72.434356689453 -187.895675659180 1.213579416275
-145.966033935547 -72.077331542969 -187.343887329102 0.893206834793
-21.451818466187 -68.750404357910 -188.122024536133 0.960711538792
13.392196655273 -75.985122680664 -182.627716064453 1.998084545135
-145.694107055664 -73.314445495605 -193.276489257813 0.989010572433
-33.544601440430 -76.101341247559 -184.703704833984 0.576891899109
100.594924926758 -74.866767883301 -188.649291992188 1.129503965378
107.178749084473 -73.694503784180 -191.300994873047 0.896198332310
21.666879653931 -72.611167907715 -192.214904785156 1.119619488716
-19.643680572510 -75.820823669434 -189.501205444336 1.028889060020
-26.255912780762 -75.604820251465 -196.175506591797 1.991403937340
-151.889358520508 -70.849433898926 -197.118347167969 2.127801418304
-133.420730590820 -72.599319458008 -198.455810546875 0.899715125561
-124.242477416992 -71.914245605469 -196.038085937500 0.453117787838
-123.374778747559 -72.900207519531 -198.605239868164 1.269214630127
-21.823997497559 -71.525672912598 -197.269439697266 1.655215024948
10.408405303955 -74.637603759766 -193.292724609375 1.475743412971
93.920051574707 -71.788917541504 -200.509506225586 2.142420291901
-147.811920166016 -72.284156799316 -197.551788330078 0.736229002476
-146.714019775391 -71.140609741211 -200.874618530273 0.284140378237
-148.770477294922 -69.537597656250 -199.477493286133 1.849793791771
-155.669158935547 -70.256217956543 -200.771316528320 1.953790545464
-27.554012298584 -73.424888610840 -200.456497192383 2.438766002655
-14.578930854797 -77.059333801270 -195.742919921875 1.388411641121
-147.447280883789 -69.738044738770 -199.957519531250 2.090119123459
-17.406711578369 -74.245773315430 -198.361801147461 2.091592550278
-163.233032226563 -72.503143310547 -199.951141357422 1.920544862747
-133.310974121094 -72.821807861328 -200.393569946289 0.658123850822
14.591513633728 -71.592613220215 -208.433624267578 2.056026220322
-163.721618652344 -71.637748718262 -204.333465576172 0.787799358368
-145.323532104492 -73.207832336426 -205.731140136719 1.158916592598
10.315020561218 -73.963195800781 -200.923248291016 1.819591999054
-154.834823608398 -73.190109252930 -205.318405151367 2.331933498383
-23.630001068115 -74.186759948730 -201.139968872070 1.278495788574
102.290847778320 -73.598487854004 -199.836639404297 2.953421592712
-155.465911865234 -72.234718322754 -216.006469726563 0.452133625746
-164.433547973633 -72.747253417969 -212.108779907227 1.409750819206
-79.344749450684 -71.653633117676 -212.721115112305 1.685370564461
89.249877929688 -73.350372314453 -210.320205688477 1.443187594414
-4.131484031677 -72.393470764160 -215.324722290039 1.049756765366
-152.470840454102 -72.159721374512 -213.124404907227 1.890273094177
-89.050422668457 -70.044319152832 -215.885086059570 1.471350431442
-7.863887786865 -73.540946960449 -211.375137329102 2.115953445435
14.669052124023 -72.624664306641 -222.845611572266 0.863075196743
-145.672332763672 -73.401451110840 -219.478698730469 1.260099887848
-3.226716995239 -74.244041442871 -220.880279541016 1.875159978867
-20.174736022949 -70.276931762695 -221.083312988281 1.417927622795
-16.747648239136 -70.424415588379 -219.286148071289 2.515494823456
87.445327758789 -74.019126892090 -215.575073242188 2.189760208130
-22.423822402954 -71.095458984375 -217.354705810547 1.192049384117
-29.115518569946 -73.105064392090 -217.176971435547 1.036420822144
-106.137893676758 -72.347831726074 -223.343750000000 0.641104936600
-15.621637344360 -72.490486145020 -223.873107910156 2.225200176239
89.461120605469 -72.369735717773 -219.081939697266 1.650354146957
80.986457824707 -73.013267517090 -218.671173095703 1.141357660294
5.544457912445 -75.355941772461 -222.375579833984 1.425884604454
-11.683450698853 -73.329986572266 -226.063674926758 1.427386522293
77.957786560059 -77.180664062500 -222.630416870117 2.549619913101
-125.831253051758 -72.347457885742 -224.978393554688 2.051770448685
-23.908248901367 -73.395195007324 -222.650833129883 1.573595404625
-101.033439636230 -71.257667541504 -225.354553222656 1.691828489304
-106.329017639160 -73.530204772949 -228.038223266602 1.973716020584
-134.958328247070 -72.442169189453 -228.622772216797 1.453930854797
80.172004699707 -73.369125366211 -224.263580322266 1.290833115578
-125.340522766113 -73.082099914551 -228.334106445313 1.725024104118
3.704102993011 -73.216445922852 -229.201171875000 1.553604006767
77.503425598145 -73.155891418457 -224.013687133789 0.611679017544
-15.004613876343 -73.717979431152 -227.739105224609 1.506344318390
-11.350402832031 -73.892387390137 -231.042465209961 1.559399604797
-5.479785919189 -73.098754882813 -231.263854980469 1.588871955872
7.610472202301 -73.565483093262 -228.418121337891 1.618270635605
84.472602844238 -73.913490295410 -225.053314208984 1.190950751305
12.295909881592 -73.159904479980 -232.509719848633 1.493993759155
2.723783969879 -74.460266113281 -230.419372558594 2.218072652817
-8.032982826233 -74.172821044922 -228.927947998047 1.434343695641
-6.804372787476 -72.044776916504 -234.084701538086 0.757616102695
15.979130744934 -72.115600585938 -232.240966796875 1.683718085289
-11.563000679016 -72.001373291016 -234.862396240234 0.986975848675
71.957031250000 -73.519905090332 -237.533737182617 0.901839673519
-8.539051055908 -71.300712585449 -236.869369506836 1.332005143166
19.421606063843 -74.102066040039 -233.738677978516 1.760503530502
-164.999359130859 -71.264869689941 -243.229171752930 2.551402568817
-5.295504093170 -72.802146911621 -240.806076049805 1.493916511536
-10.017544746399 -71.929161071777 -242.094497680664 1.831469416618
-167.930160522461 -71.064773559570 -254.980361938477 2.650170803070
-10.455298423767 -73.644729614258 -245.192398071289 1.025696754456
17.284835815430 -73.756454467773 -245.736633300781 0.530484020710
-147.230117797852 -74.479179382324 -252.775970458984 1.414575338364
-68.561897277832 -71.592864990234 -248.765563964844 1.326120972633
-59.984783172607 -71.630859375000 -248.049118041992 1.855400919914
53.830669403076 -73.033447265625 -247.321792602539 1.307170152664
-77.513839721680 -72.852218627930 -248.078338623047 2.271729469299
16.707464218140 -73.903274536133 -248.101196289063 1.712855100632
-75.096565246582 -72.107627868652 -252.456283569336 0.925624728203
-16.312599182129 -73.531394958496 -250.228546142578 2.454072952271
-147.436981201172 -73.215530395508 -254.662551879883 2.742170333862
48.280162811279 -72.457580566406 -248.872497558594 1.233479261398
-80.504104614258 -70.561546325684 -252.744415283203 1.802862763405
-100.098495483398 -72.278800964355 -255.800018310547 1.316805601120
-97.305221557617 -75.651496887207 -254.960662841797 2.099677324295
-119.898033142090 -73.365951538086 -257.710418701172 2.335877895355
-106.847023010254 -72.158012390137 -257.801055908203 1.722227931023
-107.482398986816 -72.175445556641 -260.386230468750 0.305932134390
20.422431945801 -74.094978332520 -260.123535156250 2.353529691696
-128.298995971680 -70.613250732422 -266.335571289063 2.195326089859
-10.546927452087 -74.598785400391 -277.172668457031 2.143406629562
-146.285568237305 -73.390197753906 -282.990264892578 0.898959815502
-169.077606201172 -71.839332580566 -284.231323242188 1.383594989777
-126.178199768066 -72.803337097168 -287.618469238281 2.223569631577
-115.142417907715 -72.276039123535 -285.416412353516 1.695525884628
-77.086097717285 -69.482818603516 -288.137786865234 1.452899456024
-56.879425048828 -69.851890563965 -288.449005126953 1.331996917725
-43.877574920654 -72.119789123535 -287.173736572266 1.249348521233
-14.623462677002 -72.103416442871 -288.857391357422 0.730077326298
-13.134940147400 -71.526390075684 -289.060058593750 0.717507064342
-37.041275024414 -72.368591308594 -289.772583007813 1.341063618660
-34.612094879150 -71.823303222656 -288.925506591797 2.777073621750
-19.367485046387 -70.950691223145 -290.874206542969 2.393182516098
-70.998275756836 -72.874061584473 -292.166900634766 2.197664260864
-54.421249389648 -71.115692138672 -292.687469482422 3.044564723969
-14.962886810303 -70.320289611816 -291.478057861328 1.159483790398
-14.284700393677 -72.688835144043 -291.547668457031 1.197654843330
-4.546525001526 -71.724105834961 -291.486297607422 1.270488023758
2.427856922150 -70.761611938477 -293.092926025391 1.216964602470
-89.176094055176 -72.097747802734 -290.270965576172 1.487830996513
-144.204437255859 -70.607734680176 -292.031341552734 1.399595618248
-117.959671020508 -72.926849365234 -294.581115722656 2.745825290680
-154.093887329102 -74.503250122070 -299.913238525391 1.327553749084
-155.056457519531 -72.317031860352 -300.343811035156 0.943584263325
-145.281616210938 -72.735137939453 -301.925781250000 2.334627628326
45.113597869873 -74.292350769043 -21.251502990723 3.001426935196
17.940723419189 -73.108467102051 -24.058788299561 3.228367567062
48.197265625000 -74.128555297852 -26.578470230103 2.816276550293
46.690395355225 -74.827453613281 -33.770790100098 3.524829387665
85.525466918945 -71.728881835938 -67.437858581543 1.621596693993
94.894981384277 -72.943534851074 -73.719993591309 1.473183155060
98.502708435059 -71.910942077637 -80.448585510254 2.014643907547
96.465225219727 -73.709129333496 -84.254318237305 1.561704277992
54.517650604248 -73.612083435059 -88.017684936523 1.764462590218
48.308994293213 -74.316459655762 -93.266052246094 1.704635500908
61.364700317383 -71.689163208008 -91.355003356934 1.063861727715
-65.656547546387 -69.028533935547 -92.629966735840 1.931654572487
69.266380310059 -74.524253845215 -89.317901611328 2.016565322876
101.577476501465 -72.148750305176 -95.677352905273 2.355580568314
73.447563171387 -75.606544494629 -99.701919555664 3.052603960037
94.308174133301 -71.840698242188 -99.336868286133 1.967426538467
-81.868881225586 -73.533050537109 -101.658134460449 2.139029026031
43.771194458008 -73.473884582520 -102.751823425293 1.206782937050
-86.332038879395 -73.976600646973 -107.768341064453 3.651574850082
49.452495574951 -74.679069519043 -111.758689880371 1.527566075325
39.738376617432 -71.594131469727 -105.320861816406 0.998718440533
104.111320495605 -74.071952819824 -104.093688964844 0.924945712090
38.061134338379 -71.301277160645 -108.639854431152 1.591492176056
38.972606658936 -73.242134094238 -115.024772644043 2.026150703430
41.686752319336 -70.919075012207 -114.383216857910 1.356637239456
105.422889709473 -70.967544555664 -115.172843933105 2.012098312378
-82.878303527832 -71.673370361328 -121.085174560547 1.045419573784
111.104675292969 -73.615692138672 -124.569099426270 1.558702349663
37.116008758545 -70.529533386230 -121.848304748535 1.015919804573
41.490013122559 -72.250648498535 -119.499534606934 2.689562082291
34.113323211670 -72.935066223145 -121.938583374023 0.751389443874
-57.172107696533 -72.529205322266 -131.020065307617 1.091605782509
29.616893768311 -72.213745117188 -123.507682800293 2.022463083267
-77.812316894531 -73.997802734375 -137.379150390625 1.820133209229
-58.282844543457 -72.159324645996 -134.018081665039 1.834385275841
-79.185760498047 -71.087303161621 -134.208847045898 1.283393979073
32.889617919922 -72.108787536621 -128.228546142578 1.905507087708
-58.813724517822 -71.066955566406 -133.942428588867 1.593367099762
35.580791473389 -72.356750488281 -133.699111938477 2.068995475769
-75.167076110840 -71.930503845215 -139.928573608398 1.043874382973
-59.358013153076 -74.373779296875 -139.611282348633 1.847724795341
28.135942459106 -72.048316955566 -139.439941406250 0.962285578251
109.259857177734 -75.408569335938 -144.372146606445 1.626778006554
116.142898559570 -72.534263610840 -136.842987060547 2.066155672073
31.278755187988 -71.824447631836 -139.970947265625 1.468577027321
-47.075153350830 -70.693725585938 -142.799377441406 2.435176849365
108.729789733887 -72.531791687012 -153.768249511719 3.115259647369
-74.584060668945 -71.912528991699 -146.480545043945 1.754482746124
-56.472213745117 -73.111511230469 -141.846435546875 1.458105564117
31.764423370361 -74.530113220215 -150.780868530273 1.451317548752
-74.794731140137 -72.727302551270 -146.171234130859 1.444830298424
-71.606101989746 -73.457969665527 -149.891769409180 1.895453453064
115.954017639160 -71.700630187988 -148.965774536133 2.013832092285
-65.169136047363 -72.401115417480 -152.809371948242 3.004436016083
-40.375682830811 -71.771522521973 -152.877899169922 1.352348566055
28.125778198242 -69.998703002930 -150.221572875977 1.254260897636
-76.088752746582 -71.746093750000 -149.813873291016 1.434694647789
10.095415115356 -73.975669860840 -154.638168334961 1.140602350235
31.801250457764 -70.856491088867 -155.353027343750 1.278882861137
27.941680908203 -72.522819519043 -149.062026977539 2.378199100494
9.066168785095 -75.432907104492 -155.466003417969 2.631982803345
-49.081043243408 -70.881164550781 -154.241531372070 0.790388584137
25.799106597900 -71.498291015625 -152.928848266602 2.285846948624
-46.619125366211 -72.636566162109 -149.558044433594 3.024082660675
5.920301914215 -73.422637939453 -152.860595703125 2.265498161316
20.926652908325 -72.775344848633 -149.636322021484 2.476119995117
-72.861686706543 -73.811874389648 -155.421035766602 1.453177571297
-46.101654052734 -71.373420715332 -155.017044067383 1.902346849442
-69.550315856934 -70.217124938965 -159.197143554688 2.273248195648
12.557325363159 -69.647415161133 -160.902465820313 2.093301296234
22.228914260864 -72.501594543457 -148.863906860352 1.120484352112
1.317093014717 -71.474113464355 -162.139312744141 1.744304537773
20.146310806274 -72.068382263184 -155.989395141602 1.103132843971
29.309465408325 -73.372695922852 -163.890975952148 0.558436453342
-47.900009155273 -74.095108032227 -162.623489379883 1.487219333649
-34.280948638916 -72.410957336426 -161.432525634766 0.744744062424
-39.384078979492 -71.309791564941 -161.122955322266 0.874914586544
28.076597213745 -72.655143737793 -161.904129028320 1.793096661568
-45.316238403320 -72.519622802734 -167.504379272461 1.384725928307
-42.374568939209 -71.941757202148 -162.929138183594 1.492502212524
19.727743148804 -73.405174255371 -165.330459594727 1.228613018990
-41.774726867676 -72.101646423340 -173.501602172852 1.839132785797
29.440729141235 -71.307022094727 -171.628890991211 1.651238322258
114.347267150879 -71.612701416016 -165.887390136719 1.176740050316
-33.067119598389 -71.519531250000 -172.800079345703 1.569424986839
105.746955871582 -71.164718627930 -171.749038696289 2.025865316391
-34.941707611084 -70.528900146484 -177.493041992188 1.058431029320
-38.046436309814 -72.888664245605 -180.476531982422 1.611972689629
17.302841186523 -74.001121520996 -175.103317260742 1.355191111565
103.175148010254 -71.120407104492 -180.708541870117 2.497296094894
-29.606512069702 -71.541122436523 -184.444915771484 1.197477459908
-33.498962402344 -69.220520019531 -174.455718994141 1.373982071877
-24.122976303101 -72.747680664063 -186.464248657227 2.058800220490
-148.581680297852 -74.078208923340 -188.676696777344 1.684336185455
14.046990394592 -73.460861206055 -183.210067749023 1.307263255119
105.814353942871 -71.542083740234 -190.707077026367 1.197872400284
-157.599105834961 -71.231910705566 -195.183792114258 1.072969436646
-26.979980468750 -72.289840698242 -191.748626708984 1.113405227661
-116.134185791016 -70.822830200195 -196.499359130859 0.973552048206
-133.556900024414 -71.962913513184 -198.179916381836 0.977299571037
-109.813011169434 -70.342338562012 -201.003280639648 1.808651804924
-111.845985412598 -70.195976257324 -200.770828247070 0.749504983425
-15.688429832458 -70.610610961914 -197.902954101563 1.094784379005
19.218580245972 -73.638168334961 -197.200454711914 1.774801731110
-18.579418182373 -68.157814025879 -201.593887329102 1.445738554001
-125.291885375977 -70.777435302734 -204.592102050781 1.337936520576
-24.019529342651 -70.613838195801 -206.945678710938 3.048244953156
-131.618164062500 -73.822532653809 -203.835327148438 1.481441974640
-13.280559539795 -71.051383972168 -202.627624511719 0.956422686577
-144.977279663086 -71.240379333496 -205.326736450195 0.855730891228
90.664688110352 -71.849258422852 -208.115753173828 1.841469645500
-165.847564697266 -71.475860595703 -203.668273925781 0.906086623669
-3.364892005920 -74.275215148926 -213.902496337891 1.561768770218
10.687348365784 -69.502349853516 -210.514389038086 1.757226347923
9.258514404297 -69.853111267090 -216.782424926758 2.200045108795
82.577659606934 -71.930717468262 -218.086456298828 1.031861662865
4.917346954346 -70.663520812988 -214.312850952148 2.531590223312
14.324364662170 -72.099166870117 -214.243865966797 1.229456305504
-15.972376823425 -75.505325317383 -215.416427612305 2.289967060089
-90.525993347168 -71.125991821289 -216.887145996094 1.300094366074
-99.439178466797 -72.454093933105 -217.556655883789 1.804458737373
-4.239952087402 -70.917526245117 -221.276489257813 1.355559110641
-167.911224365234 -71.573860168457 -227.117553710938 1.571023225784
12.063420295715 -70.962638854980 -221.412734985352 1.549538969994
-144.406890869141 -71.762603759766 -224.019500732422 0.516172528267
11.298469543457 -70.705131530762 -225.624389648438 0.983824074268
-134.476638793945 -71.777496337891 -224.289749145508 1.199877500534
-117.008239746094 -71.577285766602 -227.186691284180 1.806014776230
16.685110092163 -69.368392944336 -223.346710205078 2.383686304092
75.059051513672 -71.813575744629 -226.497589111328 2.510048866272
5.515867233276 -70.135986328125 -224.393310546875 2.341524600983
-113.634078979492 -72.667060852051 -227.360931396484 1.594851851463
75.205337524414 -71.791755676270 -227.815261840820 2.102250576019
79.863189697266 -72.943527221680 -230.321609497070 1.733189821243
-123.466461181641 -71.839851379395 -232.227416992188 0.370549559593
-116.877410888672 -72.787422180176 -232.518066406250 1.873162031174
-11.851963996887 -71.535644531250 -231.424606323242 1.434789061546
70.325378417969 -73.777015686035 -228.623596191406 2.011039018631
65.103836059570 -71.800300598145 -235.333663940430 0.436932832003
73.578025817871 -71.532882690430 -232.227600097656 2.016322374344
-133.969070434570 -71.955444335938 -236.747863769531 2.717590808868
70.188972473145 -74.337341308594 -234.882156372070 0.854274630547
65.463195800781 -73.344223022461 -235.812469482422 1.453462600708
-167.519027709961 -72.742118835449 -229.276489257813 1.594545841217
-0.668294012547 -74.354064941406 -240.289184570313 1.843098521233
15.802103042603 -71.757041931152 -242.442764282227 2.144279241562
-5.508168220520 -72.459907531738 -240.920288085938 1.553987145424
13.373673439026 -72.791229248047 -241.311019897461 0.752123355865
65.668922424316 -73.221832275391 -239.591796875000 1.570791482925
