105.446754455566 -73.710441589355 -99.038925170898 1.094250082970
71.036811828613 -72.595962524414 -99.680488586426 2.006127357483
-77.705070495605 -72.540428161621 -101.134071350098 2.062284469604
54.953922271729 -73.485076904297 -105.700447082520 2.534508705139
106.406280517578 -72.826667785645 -106.352088928223 1.172643184662
49.033027648926 -75.333648681641 -112.918693542480 1.420094013214
82.345520019531 -72.191337585449 -104.447944641113 2.018521547318
42.722576141357 -73.646522521973 -109.396423339844 2.868033170700
106.842575073242 -71.081581115723 -103.231803894043 1.056627511978
48.223354339600 -70.642196655273 -108.995353698730 0.782756209373
110.462280273438 -73.724960327148 -112.898757934570 1.354383707047
108.743820190430 -71.906471252441 -115.714279174805 1.293207883835
-78.243644714355 -67.154769897461 -115.726318359375 2.251420974731
-79.895622253418 -70.048912048340 -118.312896728516 1.091568112373
43.879592895508 -72.558700561523 -121.156173706055 1.164737105370
115.146522521973 -70.917678833008 -119.189720153809 1.587075233459
115.210693359375 -70.301040649414 -124.160270690918 0.444517910480
-82.625862121582 -69.877395629883 -128.808959960938 0.782411575317
108.109764099121 -71.572761535645 -123.972610473633 1.373335838318
-61.146511077881 -71.174324035645 -134.688827514648 2.502053022385
-86.796356201172 -68.788955688477 -128.422271728516 1.703835248947
-74.790893554688 -68.777236938477 -130.095550537109 1.540138840675
-57.148311614990 -66.337432861328 -127.647323608398 2.236055612564
33.117141723633 -70.295860290527 -130.903106689453 1.124879240990
40.993915557861 -71.816123962402 -134.700576782227 2.793245077133
-75.175292968750 -70.221824645996 -138.217971801758 1.515490055084
28.874279022217 -70.208404541016 -133.161819458008 1.407600522041
108.488883972168 -72.632835388184 -139.240463256836 1.092928647995
-41.232112884521 -70.022872924805 -148.885940551758 1.668088674545
25.984830856323 -69.176185607910 -148.335815429688 1.025110960007
113.899848937988 -68.762084960938 -146.917526245117 0.861660599709
35.365554809570 -71.560379028320 -145.063125610352 0.953769743443
111.660812377930 -71.668807983398 -144.226806640625 1.407984256744
-53.664035797119 -70.971153259277 -150.089828491211 1.505206108093
-66.983192443848 -70.609542846680 -151.635681152344 0.316423416138
-51.674282073975 -71.317565917969 -156.594207763672 2.888054609299
-42.213535308838 -69.601753234863 -167.988250732422 2.119078397751
5.127571105957 -68.910652160645 -156.584899902344 1.963418364525
111.415077209473 -68.975540161133 -155.474670410156 1.108750104904
109.569961547852 -70.627746582031 -160.106521606445 2.072955846786
9.314216613770 -67.445343017578 -160.516632080078 3.092573404312
4.226803779602 -70.829368591309 -163.207580566406 1.655552268028
16.041353225708 -70.113853454590 -159.467880249023 2.111988544464
23.805856704712 -69.702743530273 -154.578826904297 1.153134584427
113.197959899902 -72.259407043457 -166.948547363281 1.942312121391
107.604698181152 -72.650878906250 -170.976562500000 2.235863447189
25.345142364502 -69.018180847168 -173.681488037109 2.139737129211
27.068964004517 -69.674102783203 -164.110824584961 2.413841009140
114.602737426758 -70.857009887695 -163.008926391602 1.582053899765
-28.624876022339 -68.857727050781 -175.715515136719 2.206448554993
111.213912963867 -70.153900146484 -170.418258666992 0.710677146912
18.833589553833 -68.823989868164 -175.740570068359 1.616107821465
20.296342849731 -71.076911926270 -166.755233764648 1.925663471222
109.642227172852 -70.199905395508 -176.209701538086 1.349326372147
25.272232055664 -70.119483947754 -172.067291259766 1.203836441040
110.555236816406 -70.223999023438 -182.470245361328 1.567016124725
-38.187301635742 -68.213691711426 -177.202590942383 2.507492065430
27.567440032959 -68.355659484863 -174.504928588867 2.379281520844
107.931388854980 -70.365386962891 -184.789993286133 1.721152305603
24.581140518188 -69.506729125977 -180.920745849609 1.104788661003
-152.419952392578 -66.588554382324 -186.837768554688 0.916058957577
-29.524440765381 -68.629135131836 -189.829086303711 1.920288443565
25.766120910645 -70.604400634766 -186.306732177734 1.807470083237
-111.085014343262 -68.397384643555 -194.444519042969 2.539637804031
-110.059822082520 -68.873817443848 -191.180114746094 2.553928852081
22.306890487671 -68.547500610352 -192.257308959961 2.630419731140
13.325521469116 -70.718200683594 -187.478118896484 1.688480496407
-26.003553390503 -70.542991638184 -192.165161132813 0.942025899887
-29.293718338013 -70.205589294434 -189.809204101563 1.762293934822
-25.517799377441 -70.123336791992 -187.129653930664 0.277394086123
19.535835266113 -71.060836791992 -180.782546997070 3.119807958603
-151.239395141602 -67.946479797363 -195.533660888672 2.319180011749
-144.168075561523 -69.204078674316 -198.236236572266 3.044046640396
-140.631423950195 -68.260765075684 -197.248031616211 1.713431835175
-19.887086868286 -67.730415344238 -192.983673095703 2.350195407867
14.202390670776 -69.482482910156 -200.582824707031 0.649275898933
99.869056701660 -71.386093139648 -196.399139404297 1.944291591644
-114.112335205078 -68.280036926270 -202.031555175781 1.852199196815
20.337350845337 -69.125503540039 -201.781539916992 1.436496853828
-16.721454620361 -68.729919433594 -197.768188476563 1.690786242485
-17.977363586426 -68.063705444336 -199.325973510742 1.940781712532
99.324073791504 -70.237762451172 -200.759658813477 1.961903095245
9.408514022827 -70.411682128906 -201.659439086914 0.599420130253
-22.977319717407 -68.311180114746 -197.076858520508 1.298510909081
-121.643302917480 -69.785430908203 -203.643539428711 0.760767459869
-133.388839721680 -67.171005249023 -204.002502441406 0.779555678368
-111.580131530762 -66.890953063965 -206.739486694336 3.619118690491
-142.969604492188 -68.428421020508 -205.960006713867 1.546350121498
20.125038146973 -70.088150024414 -198.910751342773 1.627903103828
96.298011779785 -71.184036254883 -207.227157592773 2.324379920959
-166.126419067383 -66.432136535645 -206.671676635742 1.835177659988
100.936683654785 -70.995475769043 -204.495666503906 1.388172745705
-17.222948074341 -69.297805786133 -210.130523681641 1.737408876419
93.833679199219 -73.250556945801 -214.504699707031 2.700326681137
89.615676879883 -68.888771057129 -217.318267822266 1.357681870461
13.857562065125 -68.776588439941 -212.268630981445 1.207952976227
17.588045120239 -70.141426086426 -211.987503051758 1.797456979752
11.770889282227 -69.298767089844 -210.583663940430 1.407070159912
-9.616521835327 -69.083091735840 -221.374206542969 2.286887168884
-96.012153625488 -67.647926330566 -219.431701660156 1.708617687225
-6.813494205475 -70.288879394531 -217.809158325195 1.912106156349
91.769142150879 -69.383369445801 -215.570190429688 1.885420799255
-91.568069458008 -69.371253967285 -222.218917846680 3.316158056259
-102.133216857910 -69.506332397461 -222.284423828125 2.702035188675
-92.370361328125 -69.308616638184 -221.942123413086 2.584346055984
88.180778503418 -71.243064880371 -222.699859619141 0.771215975285
-133.857696533203 -68.675994873047 -227.876312255859 2.100902557373
-133.215454101563 -64.226982116699 -229.533859252930 1.054542541504
-117.431373596191 -67.247909545898 -227.998748779297 2.731333017349
-112.137062072754 -66.157455444336 -227.759338378906 0.854949414730
-132.977279663086 -67.133789062500 -226.226959228516 1.750181436539
-107.750679016113 -72.072807312012 -228.708023071289 0.905958235264
-113.299919128418 -67.325752258301 -229.858245849609 2.014776468277
-7.936031818390 -68.321067810059 -226.850616455078 2.050264596939
-17.817525863647 -70.022048950195 -226.068908691406 0.935283482075
-0.533519983292 -69.335830688477 -233.673980712891 1.691134691238
-9.195807456970 -67.903282165527 -229.677124023438 0.929671466351
15.790390968323 -70.070518493652 -233.948150634766 1.454414486885
-16.669801712036 -69.364753723145 -229.800277709961 1.252072095871
-164.127151489258 -67.093498229980 -226.602661132813 0.611259937286
-1.520601987839 -67.818870544434 -233.595748901367 1.328913807869
81.724136352539 -70.168907165527 -230.648605346680 1.377340674400
9.370133399963 -68.926651000977 -236.848632812500 1.873252987862
-7.388679027557 -68.319595336914 -233.389816284180 1.635096073151
-155.282913208008 -64.937309265137 -237.942535400391 4.533452510834
-139.173370361328 -68.165794372559 -235.659591674805 3.316095352173
67.444053649902 -67.442871093750 -236.771316528320 0.849518835545
-5.848089218140 -69.262306213379 -236.539840698242 1.223675727844
5.325273990631 -69.172645568848 -235.595703125000 1.787088871002
71.347076416016 -69.635459899902 -237.873947143555 1.238832712173
77.822776794434 -71.276687622070 -236.175186157227 2.184548854828
69.358650207520 -71.440811157227 -239.825195312500 1.085538387299
-1.094187021255 -68.234390258789 -238.346176147461 1.481690049171
56.849327087402 -69.732604980469 -240.861862182617 0.632059335709
-16.875978469849 -68.961738586426 -240.538360595703 1.694742679596
-15.676199913025 -68.237350463867 -242.582595825195 2.475784540176
9.623321533203 -69.364471435547 -241.759902954102 1.293364524841
66.781669616699 -70.024902343750 -243.507690429688 1.530285120010
61.828262329102 -69.761764526367 -240.785537719727 1.565258264542
52.622898101807 -67.804718017578 -248.376358032227 0.896512687206
62.235019683838 -71.366554260254 -245.007705688477 1.158143758774
-15.666498184204 -67.859725952148 -250.902084350586 1.977846145630
-82.809280395508 -66.854263305664 -251.122085571289 2.331547021866
-76.316665649414 -65.882888793945 -254.251495361328 4.822480678558
44.233596801758 -69.715644836426 -251.229049682617 0.965699076653
-143.481124877930 -65.639793395996 -252.992935180664 2.799277067184
39.052383422852 -69.916656494141 -257.854980468750 2.237538576126
-88.558784484863 -68.059272766113 -253.904205322266 1.464543700218
-153.695617675781 -66.916419982910 -258.136566162109 3.277320861816
-141.431198120117 -66.626014709473 -257.635620117188 0.622738420963
48.859474182129 -70.473693847656 -253.846359252930 1.295925498009
-124.572128295898 -65.256713867188 -257.129760742188 1.255938053131
-115.661392211914 -66.514335632324 -258.513732910156 0.537943124771
-93.694709777832 -66.549766540527 -258.310089111328 2.424982786179
-15.060832977295 -70.860084533691 -256.144836425781 0.376939266920
32.399211883545 -69.449211120605 -260.702056884766 1.129522800446
24.253608703613 -69.921722412109 -262.382659912109 1.638890624046
-155.908905029297 -66.561042785645 -260.095489501953 1.932191967964
-113.728004455566 -68.561805725098 -265.167633056641 3.712832450867
-13.105523109436 -68.691040039063 -262.332611083984 1.394219636917
-133.668792724609 -67.014404296875 -267.186553955078 3.198086023331
-12.307319641113 -67.303787231445 -272.929077148438 2.887005567551
-164.567749023438 -66.089157104492 -278.465179443359 4.498689174652
-8.758421897888 -67.360351562500 -281.089935302734 1.680062770844
-161.925811767578 -65.264404296875 -291.243072509766 4.678563117981
-159.943466186523 -65.848083496094 -279.604522705078 4.551004409790
-145.102035522461 -65.834579467773 -287.634124755859 2.551930427551
-167.652221679688 -66.477279663086 -286.663970947266 4.001531124115
16.309022903442 -66.775512695313 -288.817230224609 1.790716171265
-103.202880859375 -68.978019714355 -288.752441406250 2.880349397659
-86.471626281738 -66.659820556641 -288.426147460938 2.460727214813
-167.071777343750 -65.662330627441 -287.237335205078 4.517989635468
-89.549499511719 -67.220245361328 -290.432373046875 2.537023782730
-151.981170654297 -68.135818481445 -290.382049560547 2.222733736038
-73.158958435059 -67.684860229492 -291.787536621094 3.926996231079
-67.153076171875 -67.480087280273 -291.138854980469 3.663695335388
-80.723365783691 -66.347679138184 -292.387603759766 4.352862358093
-2.929738998413 -64.444442749023 -291.208404541016 1.981506347656
-83.814903259277 -67.825057983398 -293.429199218750 3.495425939560
-97.467330932617 -67.164070129395 -293.683227539063 3.604018449783
-114.492248535156 -66.979278564453 -294.779449462891 3.442724943161
-115.672866821289 -66.174430847168 -295.654205322266 4.241471290588
-135.247833251953 -63.509017944336 -295.540039062500 4.905644893646
-142.337814331055 -69.998207092285 -302.890411376953 2.724641561508
-143.576019287109 -69.307273864746 -313.367858886719 2.738290548325
24.141101837158 -72.406837463379 -18.508317947388 2.191945075989
30.352964401245 -70.328758239746 -21.298843383789 2.532142400742
29.036338806152 -73.519035339355 -19.918975830078 2.404162406921
44.291088104248 -73.019828796387 -25.451471328735 2.135593652725
24.684183120728 -72.960777282715 -33.322654724121 2.169878721237
-76.911018371582 -68.172569274902 -50.904716491699 2.505814552307
88.184043884277 -70.346542358398 -65.707130432129 1.589417695999
-14.227359771729 -71.044616699219 -69.982719421387 1.368565559387
100.663742065430 -71.098091125488 -73.146766662598 2.253298759460
96.557456970215 -71.707839965820 -78.170562744141 1.833604454994
70.522064208984 -74.585472106934 -80.903182983398 1.291491746902
67.774757385254 -71.144477844238 -86.163475036621 2.067843675613
-46.645790100098 -70.967582702637 -84.814537048340 1.596211671829
61.010005950928 -70.913093566895 -84.743125915527 1.128600239754
-97.173484802246 -69.696846008301 -89.933860778809 2.249180555344
-50.605484008789 -69.205390930176 -89.246246337891 2.802574872971
-55.690067291260 -75.078521728516 -91.070693969727 1.711105942726
97.594947814941 -72.910163879395 -97.695907592773 0.993857145309
57.391506195068 -72.444183349609 -98.869079589844 1.797615170479
62.920051574707 -69.522994995117 -92.852874755859 2.693091630936
-96.517662048340 -67.425491333008 -98.006660461426 1.931899905205
108.139076232910 -70.302040100098 -96.680465698242 0.599673569202
46.969108581543 -70.308662414551 -98.474983215332 1.659353137016
100.622169494629 -70.512329101563 -98.930816650391 1.175221800804
106.143043518066 -70.919334411621 -107.219184875488 0.325342923403
102.145629882813 -70.815979003906 -106.560630798340 1.488882422447
73.955200195313 -70.291168212891 -105.174453735352 1.699123740196
87.114303588867 -71.532554626465 -106.940238952637 2.679378509521
48.416557312012 -72.710937500000 -112.520080566406 1.089977741241
109.725357055664 -71.250648498535 -107.710861206055 1.781366586685
45.065464019775 -70.438842773438 -109.537971496582 2.292372703552
44.715816497803 -68.444763183594 -102.626121520996 2.037610292435
110.013710021973 -71.765953063965 -113.695945739746 0.485589951277
-79.089576721191 -67.886123657227 -111.810607910156 2.384863853455
47.211540222168 -69.802139282227 -115.143440246582 1.790434956551
36.571060180664 -70.465133666992 -114.487037658691 0.861727237701
105.473388671875 -70.712905883789 -110.176635742188 2.157608985901
42.706169128418 -68.664344787598 -113.660186767578 2.232286691666
-89.432762145996 -67.940551757813 -118.843399047852 2.246634960175
-96.677642822266 -68.121604919434 -118.003135681152 2.311117649078
107.800888061523 -69.525680541992 -120.825614929199 0.737443566322
-93.691940307617 -71.607849121094 -119.714111328125 1.154206633568
38.775615692139 -69.219749450684 -124.003242492676 1.287711501122
37.409057617188 -69.355445861816 -119.305656433105 1.069240212440
-80.037536621094 -68.757591247559 -126.245429992676 1.112508296967
30.280099868774 -68.029914855957 -134.935073852539 1.675121426582
109.120803833008 -71.462577819824 -133.391510009766 0.784686625004
-50.188236236572 -68.800086975098 -136.470108032227 1.433143258095
-88.801681518555 -69.001846313477 -132.183044433594 0.927223443985
36.693618774414 -70.459976196289 -136.773971557617 1.997885704041
-90.361572265625 -67.183120727539 -137.169586181641 2.765092372894
-90.182708740234 -69.328796386719 -138.830963134766 0.202941402793
-48.305778503418 -71.485328674316 -138.886520385742 1.465812921524
-71.140556335449 -68.899452209473 -141.869262695313 1.457560181618
-50.238948822021 -68.057350158691 -138.186965942383 2.082277297974
113.422775268555 -69.200180053711 -139.960922241211 1.048958182335
-74.997940063477 -66.836677551270 -142.409622192383 1.691821098328
35.459144592285 -69.772430419922 -132.900436401367 1.037591218948
-77.521369934082 -67.486755371094 -140.733535766602 1.194658756256
-76.074256896973 -67.431076049805 -137.018951416016 1.746939539909
-87.203155517578 -68.054504394531 -138.796661376953 2.087845802307
-53.653156280518 -68.866409301758 -152.092620849609 2.234059572220
31.558948516846 -68.232604980469 -149.040740966797 1.026672124863
30.011447906494 -68.450637817383 -152.678756713867 2.230941057205
18.640810012817 -68.105575561523 -146.122543334961 1.379189491272
113.540946960449 -71.547691345215 -149.164337158203 1.691188454628
-97.070693969727 -69.971786499023 -156.819992065430 1.682616472244
16.695510864258 -70.428810119629 -151.895812988281 1.622612595558
-71.045700073242 -69.264595031738 -151.321166992188 0.830817997456
23.303218841553 -69.221191406250 -151.758392333984 0.965376257896
-46.960632324219 -67.716163635254 -156.656692504883 1.867638945580
8.597363471985 -67.494865417480 -152.587432861328 1.349224567413
10.862358093262 -69.255386352539 -158.559051513672 1.333456993103
18.441804885864 -69.727653503418 -164.913269042969 1.045321345329
-45.932380676270 -69.299934387207 -164.350921630859 2.631868839264
-40.207336425781 -66.722801208496 -155.394821166992 2.142204284668
-45.372463226318 -67.409584045410 -160.040390014648 1.626583695412
-102.662338256836 -67.091026306152 -172.146408081055 1.172088265419
20.285802841187 -67.361228942871 -173.929794311523 2.259236335754
-36.481746673584 -68.625350952148 -175.116836547852 1.198343038559
14.745888710022 -66.531845092773 -179.874603271484 3.625735998154
-145.581863403320 -69.643020629883 -175.931961059570 1.266428470612
-33.583995819092 -66.051528930664 -175.874526977539 3.356678962708
-152.197341918945 -65.714973449707 -178.974884033203 1.837356925011
20.776483535767 -69.161895751953 -183.325668334961 1.430568814278
-31.711307525635 -69.823387145996 -174.260589599609 2.185603380203
-108.465820312500 -68.849655151367 -183.298660278320 1.728269577026
-105.954154968262 -67.730522155762 -184.413223266602 1.040893912315
-30.602323532104 -66.909889221191 -184.753677368164 2.246405839920
-20.527648925781 -69.054725646973 -186.143127441406 1.592583656311
15.676196098328 -68.794586181641 -191.153015136719 1.449455380440
19.415437698364 -68.425125122070 -196.890487670898 0.751608073711
16.214174270630 -65.797630310059 -188.400543212891 1.986236095428
-141.636795043945 -67.731697082520 -189.270004272461 2.056612730026
17.751268386841 -68.178970336914 -193.321838378906 2.430128097534
10.598307609558 -69.507141113281 -198.807723999023 0.644997835159
-139.865783691406 -65.697479248047 -198.221038818359 1.516283035278
-116.918235778809 -67.829971313477 -199.045288085938 3.518698215485
15.454860687256 -67.472404479980 -199.395874023438 1.630770683289
-112.369300842285 -68.630126953125 -196.990509033203 1.455110669136
-108.008804321289 -68.060462951660 -193.763900756836 0.976193964481
-162.728347778320 -68.442955017090 -201.109191894531 2.131337881088
-21.127614974976 -70.445579528809 -203.330749511719 2.103124380112
16.394491195679 -66.911743164063 -203.167190551758 1.646826982498
-138.909744262695 -65.315773010254 -203.974044799805 2.670565605164
-133.002944946289 -66.725196838379 -208.208480834961 3.765203714371
-17.790058135986 -67.340431213379 -208.210388183594 1.661572217941
-11.091040611267 -68.139541625977 -205.390426635742 2.206086635590
-15.238036155701 -68.373405456543 -209.254516601563 2.126323938370
-144.297607421875 -68.030639648438 -209.414566040039 2.265025854111
-16.803756713867 -69.837303161621 -211.113204956055 0.890199363232
-11.987785339355 -66.910781860352 -214.035415649414 0.790392577648
16.796638488770 -67.872360229492 -211.642730712891 2.070831298828
-10.929127693176 -68.028312683105 -211.617965698242 1.176328778267
11.322694778442 -66.007087707520 -213.418487548828 2.140743732452
-8.088321685791 -68.924423217773 -218.254302978516 1.661354541779
-16.150613784790 -69.291419982910 -213.733642578125 1.196364641190
13.292764663696 -68.199440002441 -224.440795898438 1.820031285286
-1.302260994911 -69.406463623047 -221.806671142578 1.980913043022
12.325233459473 -67.228645324707 -223.800445556641 1.555497407913
-4.488924026489 -68.788703918457 -225.955917358398 1.961361408234
-156.765472412109 -66.262626647949 -224.447189331055 2.307570219040
83.035514831543 -69.671562194824 -222.674606323242 2.143006563187
-133.954849243164 -66.332038879395 -225.796234130859 1.457366347313
-133.944320678711 -66.354942321777 -226.912506103516 0.884611725807
-8.175614356995 -68.202400207520 -228.169845581055 2.013710260391
12.705270767212 -69.345512390137 -234.278106689453 1.199161410332
-152.760925292969 -65.498832702637 -227.079269409180 3.057724475861
86.154907226563 -67.826240539551 -222.088653564453 1.928953409195
-4.197698116302 -68.041557312012 -226.156951904297 2.021128416061
2.051469087601 -69.247611999512 -227.787322998047 0.921835720539
73.743064880371 -69.010925292969 -228.966476440430 1.853295564651
3.033430099487 -68.695030212402 -234.310363769531 0.722147107124
-16.105169296265 -68.256378173828 -232.351455688477 2.915557146072
-122.863220214844 -69.260116577148 -237.757583618164 3.806082248688
-2.932383060455 -68.018791198730 -237.942916870117 0.886937081814
1.839687943459 -67.950614929199 -235.696258544922 1.414991021156
67.460998535156 -69.624641418457 -239.139617919922 0.824112355709
-159.184036254883 -65.379653930664 -241.331527709961 3.091870307922
-9.901899337769 -68.424621582031 -246.434402465820 2.657670259476
-166.209716796875 -66.933975219727 -240.862854003906 2.213814020157
9.358107566833 -69.373046875000 -245.371871948242 2.459674835205
-165.687179565430 -65.296005249023 -240.915237426758 3.233855247498
-159.012130737305 -64.738334655762 -245.901977539063 3.704551696777
55.810531616211 -69.332084655762 -249.784469604492 2.116918802261
64.626190185547 -67.496498107910 -245.212417602539 2.772260189056
56.834209442139 -68.037673950195 -244.470474243164 1.555412888527
52.118206024170 -69.652992248535 -249.957489013672 1.408521175385
-158.722595214844 -65.233581542969 -247.788467407227 3.325467824936
-154.427764892578 -66.691711425781 -252.792968750000 3.131706953049
-14.155087471008 -67.030021667480 -250.304138183594 2.011644124985
-152.279739379883 -65.691246032715 -248.320114135742 3.215196847916
22.183115005493 -70.773597717285 -254.865432739258 1.625015735626
-166.082489013672 -66.030189514160 -252.826477050781 3.040038347244
-166.252502441406 -63.313652038574 -246.759979248047 5.483706474304
-80.674697875977 -65.977722167969 -253.446853637695 3.765464782715
-168.184020996094 -66.526947021484 -265.589202880859 3.404562711716
-85.133316040039 -66.979309082031 -258.485473632813 4.407687664032
40.837360382080 -66.243324279785 -253.166046142578 1.104640364647
24.278322219849 -71.032363891602 -257.063171386719 1.443716764450
-158.216491699219 -64.525222778320 -261.499816894531 2.621456384659
-100.148361206055 -64.308349609375 -261.623931884766 4.384619712830
39.454063415527 -68.563957214355 -259.418853759766 1.014052987099
-100.700485229492 -67.375022888184 -261.657073974609 2.666654348373
-152.929168701172 -61.972358703613 -263.669738769531 0.775917589664
-106.107490539551 -64.629844665527 -261.877441406250 3.465291738510
-163.826858520508 -65.473205566406 -261.461242675781 3.181046009064
-112.338897705078 -67.484527587891 -264.237365722656 2.979339361191
-152.654617309570 -66.913940429688 -268.270751953125 2.147653102875
-156.569213867188 -67.341300964355 -266.250030517578 3.264446258545
-165.987030029297 -66.940750122070 -266.171966552734 2.239920616150
-160.508941650391 -65.135269165039 -265.366760253906 4.112011432648
-164.825515747070 -64.362991333008 -269.864624023438 5.715695381165
-161.417358398438 -63.775062561035 -268.906311035156 5.810341358185
25.091577529907 -68.897132873535 -266.158447265625 1.106297850609
-150.378158569336 -65.155693054199 -268.119476318359 2.496865749359
-146.791854858398 -64.449707031250 -286.418426513672 0.710091948509
20.095106124878 -71.637802124023 -280.175231933594 1.786773681641
-8.834653854370 -66.607269287109 -276.545440673828 2.066943883896
-125.699432373047 -68.080490112305 -286.159057617188 1.460049867630
-135.804870605469 -69.469978332520 -288.691925048828 2.103207349777
-135.633300781250 -65.264488220215 -288.855316162109 1.395583987236
-125.628280639648 -65.412277221680 -287.580841064453 1.374365568161
-115.435897827148 -65.531600952148 -289.527343750000 2.083230495453
-106.639526367188 -66.506500244141 -289.509124755859 1.838911533356
12.669920921326 -67.539909362793 -291.685302734375 3.556981086731
-86.642021179199 -65.751808166504 -289.355224609375 3.388203620911
-147.530227661133 -66.671669006348 -294.444396972656 2.112959861755
-99.360992431641 -64.742591857910 -291.546447753906 4.059614181519
-125.312042236328 -64.555953979492 -293.308349609375 2.778448343277
10.764426231384 -71.436859130859 -290.750732421875 2.230491876602
-113.374565124512 -66.668289184570 -294.701629638672 3.514934539795
1.821321010590 -67.697921752930 -292.663391113281 2.175671339035
-142.125091552734 -66.267204284668 -292.995910644531 2.055146217346
-153.897369384766 -67.269805908203 -300.898590087891 0.539973914623
-158.000122070313 -66.431869506836 -311.583282470703 4.483120918274
-152.806488037109 -66.764038085938 -314.301513671875 2.553506612778
49.504470825195 -73.372383117676 -26.139579772949 2.032754898071
20.481386184692 -72.116828918457 -34.153747558594 1.805321574211
33.998313903809 -72.545433044434 -38.792823791504 1.961564540863
-49.349071502686 -69.608032226563 -50.995105743408 3.085611820221
-14.605986595154 -69.147193908691 -62.960121154785 1.123365283012
93.617965698242 -74.188789367676 -72.614486694336 2.213821411133
68.246513366699 -69.616653442383 -71.009399414063 1.576876282692
-21.659275054932 -71.328163146973 -76.272308349609 2.707877159119
-94.116859436035 -70.022834777832 -84.588630676270 2.331666469574
-40.788402557373 -70.309844970703 -80.758941650391 2.828870773315
65.442092895508 -70.207237243652 -83.720428466797 1.650505542755
57.617454528809 -72.990898132324 -87.730850219727 1.589718103409
56.609649658203 -70.577171325684 -88.697540283203 1.881515860558
-57.388526916504 -69.382713317871 -89.611892700195 1.066550731659
66.734588623047 -69.291763305664 -90.236587524414 1.405184030533
44.928886413574 -72.570533752441 -98.082054138184 0.740684747696
67.154411315918 -71.484405517578 -94.151893615723 2.831314802170
-64.146591186523 -67.559532165527 -97.585311889648 1.956815481186
50.562637329102 -69.654724121094 -97.374221801758 3.159018754959
45.117847442627 -70.557052612305 -99.920120239258 1.122147202492
103.604866027832 -71.807937622070 -97.813316345215 1.567361116409
-69.033103942871 -71.222473144531 -101.352561950684 1.527751445770
109.670059204102 -71.143539428711 -102.691627502441 1.565674662590
-79.394660949707 -67.540359497070 -99.930671691895 1.155585289001
55.972049713135 -71.757644653320 -105.468467712402 2.979517459869
48.623920440674 -68.517524719238 -101.982681274414 1.121749520302
94.158859252930 -71.944229125977 -103.014389038086 0.628078639507
87.056266784668 -64.748695373535 -111.042335510254 2.996833324432
53.714683532715 -70.100875854492 -105.277999877930 0.897859334946
-73.245323181152 -69.254524230957 -109.548942565918 1.794165134430
-76.305908203125 -68.158706665039 -112.751121520996 1.258804202080
-80.875350952148 -70.325691223145 -121.215446472168 1.477062940598
-92.726921081543 -72.360527038574 -120.275314331055 2.005154848099
105.872932434082 -70.133789062500 -115.971473693848 1.307076931000
-85.435531616211 -67.396469116211 -121.614891052246 0.948886930943
-78.938896179199 -66.667755126953 -121.953109741211 1.578895211220
110.827819824219 -68.719169616699 -116.654258728027 2.171245098114
-63.626422882080 -64.278121948242 -120.287467956543 1.755681276321
113.807388305664 -71.431045532227 -132.408218383789 1.049656152725
109.620758056641 -69.886810302734 -130.581619262695 1.673617124557
111.189842224121 -69.494537353516 -122.006164550781 1.968915820122
-93.018203735352 -67.027252197266 -138.971954345703 1.281258583069
-50.294998168945 -66.494758605957 -142.263290405273 2.002687692642
-75.757202148438 -69.092407226563 -147.770736694336 1.301365613937
-68.761581420898 -67.082336425781 -151.816970825195 2.415711402893
-72.670440673828 -66.339553833008 -146.567703247070 3.193875074387
-54.393089294434 -66.195922851563 -146.369613647461 1.899006962776
-47.890079498291 -67.527893066406 -151.441055297852 2.061276197433
20.601470947266 -69.588340759277 -146.221572875977 2.119457006454
-94.381927490234 -65.792175292969 -150.575485229492 1.590803980827
-43.855525970459 -69.086280822754 -150.009963989258 1.807070255280
-53.859237670898 -67.327110290527 -151.867553710938 2.661200761795
-42.198993682861 -66.110725402832 -157.471343994141 2.854241132736
28.748176574707 -70.533020019531 -163.825088500977 2.376303672791
-48.111919403076 -66.817047119141 -153.503738403320 2.297365665436
-96.686820983887 -67.765022277832 -151.948913574219 1.115029931068
-41.706169128418 -67.198013305664 -161.398208618164 2.105179786682
26.348878860474 -67.263839721680 -155.174255371094 2.626113176346
-101.341598510742 -67.613311767578 -164.422958374023 1.864572048187
22.516700744629 -68.178215026855 -159.029296875000 1.428130507469
-105.543785095215 -65.049713134766 -173.249664306641 2.397734880447
-99.889175415039 -65.590141296387 -165.221359252930 3.151948928833
22.922800064087 -65.668190002441 -166.276733398438 2.277052402496
26.019617080688 -66.875679016113 -169.584762573242 0.911640167236
-105.070861816406 -67.901107788086 -176.139907836914 1.275098323822
-141.957412719727 -66.893478393555 -178.091339111328 1.717622995377
-22.684560775757 -66.943878173828 -188.713241577148 1.869571566582
-24.770885467529 -66.267616271973 -185.197967529297 2.195874929428
-112.369781494141 -65.861869812012 -189.898712158203 1.889055490494
-142.390029907227 -63.904823303223 -190.706192016602 3.350943088531
-105.353828430176 -67.776016235352 -183.479766845703 1.357672452927
-153.074310302734 -67.696640014648 -196.998291015625 1.866551160812
-129.987411499023 -68.247497558594 -196.081161499023 2.448028326035
-134.315582275391 -65.999740600586 -197.725189208984 1.407801508904
-20.343093872070 -64.939888000488 -194.384109497070 2.960603475571
-121.070594787598 -66.729194641113 -196.412597656250 1.658432245255
-113.643814086914 -64.918594360352 -197.922439575195 0.876414895058
-21.470300674438 -68.424674987793 -197.650161743164 1.827526569366
-153.754119873047 -63.995567321777 -201.004364013672 2.635995149612
-132.417953491211 -68.558464050293 -208.922637939453 4.118862152100
-123.840301513672 -64.815284729004 -207.088470458984 2.878487110138
17.082372665405 -66.232337951660 -204.449417114258 2.835262060165
-160.474304199219 -64.603225708008 -207.453109741211 2.581429481506
9.954076766968 -69.476837158203 -213.604095458984 1.393473505974
14.097624778748 -69.542282104492 -215.300369262695 1.329529404640
-18.560823440552 -66.622154235840 -209.131332397461 2.388322114944
-4.787963867188 -67.982162475586 -216.385955810547 1.029563188553
-165.936599731445 -65.537391662598 -212.911575317383 2.822788715363
-158.141754150391 -64.753280639648 -217.387710571289 4.183303833008
-96.608032226563 -67.142784118652 -219.638046264648 2.075237512589
-100.459320068359 -65.413848876953 -227.610565185547 3.883046865463
-159.332672119141 -63.780971527100 -223.682647705078 4.017056465149
-103.420166015625 -66.371673583984 -222.605865478516 1.378761053085
-13.565297126770 -67.588264465332 -219.727508544922 1.915194630623
-124.861572265625 -65.972259521484 -227.831329345703 1.160996079445
-141.443435668945 -67.465454101563 -227.075393676758 1.431058645248
-4.113849163055 -68.039360046387 -225.200256347656 1.617425918579
-132.977996826172 -64.781959533691 -228.100662231445 1.213428378105
-123.911941528320 -64.853584289551 -227.757720947266 0.967861652374
-112.501518249512 -66.288856506348 -230.032638549805 1.253456830978
2.630475044250 -67.196105957031 -229.363098144531 1.723549246788
-106.652336120605 -65.634857177734 -230.175186157227 3.103806495667
-157.660202026367 -66.771354675293 -224.984313964844 1.569684147835
-146.906463623047 -66.750122070313 -229.109786987305 0.667148053646
-165.051467895508 -65.356292724609 -227.525268554688 2.262711524963
-6.565457820892 -68.159416198730 -230.338073730469 2.048416137695
-8.422576904297 -63.223857879639 -232.271514892578 4.489715099335
78.569030761719 -64.756973266602 -227.838150024414 4.051189899445
3.003133058548 -66.112831115723 -233.261260986328 1.148131728172
-142.168457031250 -64.851387023926 -235.362335205078 2.837356805801
-12.605913162231 -68.102508544922 -230.914916992188 0.743199646473
76.016731262207 -69.779945373535 -228.101348876953 1.382379770279
74.000297546387 -68.182746887207 -233.882598876953 1.210416197777
-132.336502075195 -65.579467773438 -234.549087524414 1.815145969391
-159.079238891602 -64.551559448242 -230.114852905273 3.606585741043
-112.738662719727 -64.899749755859 -234.523223876953 3.295752286911
-121.416969299316 -64.696777343750 -236.015151977539 3.981947660446
-165.981582641602 -63.182163238525 -236.295776367188 5.006312847137
-157.911300659180 -64.266456604004 -239.178665161133 4.023329734802
-140.540832519531 -65.520202636719 -240.071884155273 5.724578380585
-8.886683464050 -70.334175109863 -237.108886718750 0.605046153069
-2.906088113785 -67.035530090332 -241.600341796875 2.937107324600
-160.240982055664 -63.415126800537 -241.414276123047 4.978069305420
7.152709960938 -69.095581054688 -241.875350952148 1.650122880936
7.799353122711 -66.265327453613 -237.736099243164 1.473677039146
-161.698226928711 -64.802360534668 -243.720382690430 4.281496524811
14.623449325562 -67.915824890137 -245.512924194336 1.869832992554
51.636043548584 -67.894622802734 -246.887283325195 1.590513467789
53.549205780029 -66.074760437012 -249.439971923828 2.060938358307
-10.835963249207 -67.875427246094 -247.641860961914 2.277648448944
50.677890777588 -66.002563476563 -248.820083618164 1.530067682266
-162.661376953125 -65.195053100586 -255.529556274414 4.914760112762
-162.665313720703 -63.873283386230 -251.079086303711 3.887871026993
-160.083648681641 -65.773147583008 -251.048797607422 2.802199840546
54.504898071289 -67.308296203613 -253.484954833984 3.117918729782
-89.295501708984 -67.074943542480 -254.861129760742 2.316077470779
-124.488815307617 -65.549842834473 -255.393615722656 1.464294791222
-105.371726989746 -66.993469238281 -256.848236083984 0.718521416187
30.741548538208 -67.884857177734 -258.363983154297 1.862768292427
42.492507934570 -67.625091552734 -253.203094482422 1.752534270287
-98.969429016113 -65.071052551270 -256.450378417969 2.844215393066
-92.932151794434 -64.524063110352 -257.825012207031 4.073544979095
45.827270507813 -66.945907592773 -255.573074340820 1.531065225601
43.590393066406 -66.352661132813 -256.824798583984 2.381335496902
-155.649688720703 -66.442100524902 -261.510589599609 2.238737106323
33.977886199951 -65.901588439941 -257.974426269531 1.822977423668
-139.993652343750 -67.446937561035 -266.294830322266 4.487869739532
-115.063735961914 -63.586868286133 -262.969146728516 3.187650442123
-133.341766357422 -65.396636962891 -266.429412841797 3.147496223450
32.086933135986 -69.317985534668 -264.687744140625 2.680935144424
-126.003784179688 -65.839698791504 -266.515106201172 2.609392642975
-9.831080436707 -65.442268371582 -260.881103515625 2.819610834122
23.493432998657 -68.977775573730 -273.885528564453 2.377399682999
-9.439027786255 -65.825920104980 -269.013275146484 2.733246326447
22.877391815186 -66.024490356445 -282.429565429688 3.720301389694
-150.093322753906 -65.229995727539 -284.807067871094 0.740023910999
-9.764752388000 -68.295707702637 -280.328613281250 0.928614318371
-153.294509887695 -67.263664245605 -288.000335693359 2.366926670074
-125.599418640137 -63.977409362793 -287.001647949219 2.293876409531
-156.746139526367 -66.959220886230 -289.824920654297 2.401030063629
-116.535621643066 -65.268249511719 -288.846191406250 1.075020670891
-105.287132263184 -66.376548767090 -291.248748779297 2.647696018219
-6.815587043762 -66.142234802246 -289.170013427734 2.438691139221
-109.266807556152 -65.220710754395 -293.769226074219 4.680611133575
-116.010910034180 -66.333007812500 -290.969604492188 1.118804454803
-117.652679443359 -65.571891784668 -293.286193847656 3.078057527542
-135.542907714844 -63.141113281250 -291.698883056641 3.441935062408
-124.026397705078 -67.360359191895 -294.894409179688 2.624018669128
-156.773239135742 -66.094657897949 -292.282836914063 0.911680936813
-145.190353393555 -67.911186218262 -297.821472167969 3.104524612427
-151.416854858398 -64.349960327148 -301.123748779297 2.001849651337
-153.000625610352 -62.927783966064 -311.780303955078 4.464945316315
-155.786865234375 -64.505668640137 -303.280212402344 4.586959838867
-145.302383422852 -65.730041503906 -313.796539306641 3.184493780136
-149.583206176758 -63.837905883789 -314.824218750000 4.457103729248
35.162414550781 -71.567802429199 -15.171422004700 0.898281753063
44.392883300781 -72.483970642090 -17.916620254517 1.394045472145
27.282030105591 -66.077896118164 -29.305149078369 3.068568229675
50.604942321777 -70.500923156738 -31.260850906372 1.219733715057
30.349269866943 -70.886306762695 -37.206371307373 2.078465223312
37.429637908936 -73.437271118164 -37.730770111084 1.537394046783
-56.494651794434 -67.915252685547 -46.895389556885 2.620324134827
84.865570068359 -69.578330993652 -63.319957733154 1.954135417938
81.102890014648 -70.143653869629 -66.975402832031 1.597363591194
-91.835189819336 -66.187088012695 -63.749435424805 3.165296554565
-12.280684471130 -67.514030456543 -64.534835815430 0.808986008167
-89.912696838379 -70.804298400879 -68.954154968262 2.195733547211
96.992492675781 -69.725936889648 -71.558998107910 1.034777283669
-15.855797767639 -66.443489074707 -69.747421264648 0.882319390774
68.603050231934 -71.094863891602 -77.157859802246 1.402131676674
-38.398414611816 -71.492324829102 -78.135398864746 1.593352913857
-28.521881103516 -72.930816650391 -80.636108398438 2.587596178055
57.122173309326 -68.606697082520 -87.268508911133 0.749855399132
-45.681907653809 -77.757461547852 -88.159614562988 2.773508787155
64.215309143066 -66.718757629395 -85.231437683105 1.809227824211
54.272659301758 -69.859703063965 -87.705635070801 0.457313358784
50.958633422852 -72.052764892578 -93.579109191895 1.091548442841
63.823284149170 -68.776229858398 -92.819389343262 1.764519453049
58.683544158936 -69.704818725586 -98.297164916992 1.476993680000
102.617614746094 -67.996032714844 -97.256355285645 1.212563872337
104.645835876465 -70.760437011719 -97.449035644531 0.634561240673
58.785243988037 -71.920921325684 -99.601676940918 1.181388616562
107.457366943359 -67.911026000977 -99.676231384277 1.568027496338
-73.512344360352 -70.531364440918 -101.604866027832 0.426780074835
-70.945732116699 -67.850448608398 -102.819511413574 1.174803137779
102.609718322754 -70.661247253418 -99.081550598145 1.514924883842
54.199260711670 -68.458648681641 -102.198081970215 1.747802972794
71.540229797363 -70.363754272461 -102.423027038574 2.245729207993
-71.478668212891 -64.676544189453 -104.748092651367 1.422351717949
-82.099555969238 -66.041397094727 -107.549194335938 2.154552221298
94.127243041992 -69.020378112793 -109.032180786133 3.726227283478
43.126987457275 -68.436584472656 -106.633094787598 1.083689928055
102.990013122559 -68.771995544434 -103.820541381836 1.364207625389
44.491512298584 -68.250358581543 -113.451087951660 1.292954206467
111.230010986328 -67.769950866699 -107.950164794922 2.565258264542
-81.538795471191 -64.600860595703 -110.119812011719 1.953941226006
106.777885437012 -66.591041564941 -110.040222167969 0.909673690796
-85.545906066895 -65.092826843262 -120.139068603516 1.677343368530
-58.269535064697 -68.812866210938 -128.811553955078 0.578861474991
-55.424133300781 -65.835609436035 -128.642547607422 1.526468992233
-73.243446350098 -67.682411193848 -130.962326049805 0.963508307934
-50.463310241699 -68.510498046875 -132.111602783203 2.167924880981
-84.734756469727 -67.688598632813 -133.340911865234 1.539411425591
-77.153709411621 -68.075279235840 -136.402023315430 1.144561886787
-83.357894897461 -66.383979797363 -129.694091796875 1.820489168167
-56.549533843994 -69.927093505859 -140.744766235352 1.405897378922
-72.163337707520 -65.693862915039 -140.729568481445 2.023859262466
-59.005516052246 -66.364341735840 -138.389144897461 0.925177395344
-61.299392700195 -68.550071716309 -140.774383544922 1.993164896965
23.201688766479 -68.446342468262 -142.019531250000 1.762330174446
-88.366065979004 -67.323135375977 -146.034545898438 2.629890203476
-45.771953582764 -68.572402954102 -146.241958618164 2.140829563141
-98.351249694824 -64.477844238281 -151.187042236328 1.962288141251
-100.220008850098 -65.687713623047 -153.679534912109 2.667827606201
18.105411529541 -69.987030029297 -153.993408203125 2.465821266174
14.057478904724 -69.752990722656 -159.335754394531 0.757107853889
-97.816070556641 -66.335304260254 -160.319000244141 2.063201189041
-100.916595458984 -64.975479125977 -159.616241455078 2.396713256836
-98.539527893066 -65.633331298828 -170.561904907227 2.853356838226
21.712867736816 -65.937675476074 -170.799148559570 1.165808796883
-109.824592590332 -67.142547607422 -171.525848388672 1.904546260834
19.808025360107 -68.869216918945 -170.187988281250 1.652746915817
-145.889526367188 -66.609489440918 -178.719940185547 2.085997581482
17.719732284546 -67.714874267578 -177.983596801758 0.191638588905
23.153314590454 -68.067855834961 -187.465011596680 0.669477880001
-152.717712402344 -64.198059082031 -189.464248657227 2.602075576782
21.301927566528 -67.999778747559 -180.513854980469 1.116829514503
17.839656829834 -66.297126770020 -179.846954345703 1.860085010529
-139.205383300781 -69.273307800293 -191.351867675781 3.375332355499
-151.079025268555 -66.460800170898 -191.091491699219 2.428103685379
19.347694396973 -66.296272277832 -190.771789550781 2.160494565964
19.721075057983 -65.669013977051 -189.241348266602 1.634125471115
-143.893844604492 -65.576927185059 -194.597076416016 0.907565176487
-107.856979370117 -67.822776794434 -198.156143188477 0.805624246597
21.649686813354 -67.295623779297 -198.053329467773 2.138618707657
-124.265785217285 -63.291339874268 -195.525619506836 1.539565086365
12.508719444275 -67.727729797363 -199.427703857422 0.603520989418
-131.838760375977 -63.681922912598 -197.032974243164 1.330606698990
-152.727554321289 -64.595703125000 -195.548736572266 1.432016849518
-162.256729125977 -67.065086364746 -201.036743164063 1.375652551651
-161.852798461914 -63.710933685303 -201.613250732422 3.281420707703
-18.156412124634 -64.782394409180 -203.222061157227 1.826444029808
-165.411285400391 -65.570915222168 -203.103668212891 1.604227662086
-22.528015136719 -66.099159240723 -194.550094604492 1.143811821938
-14.846780776978 -66.655975341797 -200.224716186523 1.572602748871
14.217967033386 -66.519073486328 -196.556869506836 0.828141808510
-158.591903686523 -63.140975952148 -200.760314941406 3.490056753159
-110.051292419434 -64.893760681152 -203.502532958984 2.782593011856
-17.472827911377 -67.109382629395 -207.594314575195 1.525808811188
-156.872344970703 -66.104339599609 -203.736053466797 2.705065488815
17.238817214966 -65.082191467285 -201.324111938477 2.582959175110
-164.102722167969 -64.368255615234 -204.087905883789 3.301778793335
-121.200042724609 -67.653007507324 -206.071395874023 2.567175149918
-112.078460693359 -64.258201599121 -207.823242187500 4.919435024261
-124.009872436523 -62.656127929688 -208.273544311523 4.334390640259
-12.971442222595 -67.889038085938 -205.695663452148 1.138623237610
-15.757612228394 -64.859695434570 -206.788848876953 2.531254053116
-163.194747924805 -63.213939666748 -211.394714355469 3.827071905136
-160.024215698242 -63.916221618652 -215.619430541992 3.728098154068
-164.708221435547 -65.100837707520 -221.443801879883 2.703940391541
-145.586776733398 -66.396896362305 -214.541946411133 2.006362438202
-143.210968017578 -65.560234069824 -225.082244873047 2.199683666229
-5.570044994354 -65.168426513672 -222.784606933594 1.601458668709
-11.503870010376 -65.526435852051 -218.941574096680 2.286197423935
-99.092407226563 -65.582550048828 -223.737976074219 2.725953578949
-5.690816879272 -65.796813964844 -225.958633422852 1.359563350677
-163.860977172852 -64.025390625000 -228.440155029297 3.885322570801
-110.796012878418 -62.685913085938 -232.434295654297 4.094671726227
0.405874013901 -64.991493225098 -229.314193725586 1.625560283661
5.315138816833 -64.753471374512 -231.746871948242 1.733666181564
-111.410179138184 -65.653076171875 -234.384918212891 3.893052577972
-1.427970051765 -63.801757812500 -232.935760498047 3.662348985672
-115.364425659180 -64.225532531738 -237.746780395508 3.925421476364
-5.375112056732 -64.500663757324 -239.044921875000 1.804323911667
-2.841150045395 -66.740417480469 -235.369049072266 0.442392468452
0.090228997171 -65.823654174805 -239.235519409180 1.419913053513
69.506629943848 -67.313583374023 -237.424316406250 1.445982456207
-13.100799560547 -68.089668273926 -238.276153564453 1.039289474487
4.271269798279 -65.712623596191 -239.892822265625 1.729630827904
11.442339897156 -65.891036987305 -242.801559448242 1.792819380760
7.325725078583 -67.598556518555 -240.665344238281 1.635907530785
1.230512976646 -68.277160644531 -242.134170532227 2.089648246765
66.835060119629 -67.820968627930 -238.881698608398 2.145737648010
70.583885192871 -67.061973571777 -241.007217407227 2.833005189896
13.326255798340 -67.514259338379 -244.550994873047 1.893439769745
58.909347534180 -66.284347534180 -242.083694458008 1.335923671722
57.172367095947 -68.783409118652 -241.661666870117 1.153928518295
47.745151519775 -64.520385742188 -247.220703125000 1.742247581482
39.069915771484 -67.574867248535 -252.353805541992 1.272772789001
40.797946929932 -66.862564086914 -254.298034667969 0.974230289459
-133.707687377930 -65.013504028320 -256.580657958984 0.820222437382
-13.249662399292 -67.987083435059 -254.309188842773 1.654640674591
26.143020629883 -67.666389465332 -259.904663085938 0.934775114059
48.244407653809 -66.885963439941 -253.868331909180 1.790235042572
24.926103591919 -64.707015991211 -256.903503417969 0.486229121685
-99.971122741699 -64.124877929688 -260.744995117188 4.210494041443
33.886524200439 -65.791717529297 -257.127441406250 1.713186979294
-149.680099487305 -64.866210937500 -261.855712890625 0.870814561844
-115.295120239258 -62.558944702148 -261.398468017578 3.845076322556
-103.971900939941 -64.904190063477 -258.008972167969 2.523893594742
-5.870180130005 -64.918464660645 -260.807098388672 2.484388828278
-149.912063598633 -67.166732788086 -258.741943359375 1.909012794495
32.632617950439 -64.527412414551 -260.286132812500 1.791332602501
-111.787124633789 -65.283012390137 -258.807312011719 1.518159151077
28.465436935425 -66.114616394043 -260.402038574219 1.966983079910
-133.350875854492 -62.886054992676 -262.159423828125 2.574382066727
-116.492362976074 -64.286010742188 -262.104614257813 1.648355245590
-105.682022094727 -62.617134094238 -261.898071289063 5.009478569031
-115.844848632813 -63.699226379395 -265.180877685547 3.778233528137
-136.892440795898 -65.190330505371 -264.772674560547 3.588843345642
28.503574371338 -65.431419372559 -264.287292480469 1.147578835487
-117.479446411133 -63.465373992920 -266.741455078125 4.135321140289
-142.906173706055 -65.457336425781 -268.025421142578 4.331402778625
-4.409264087677 -66.322982788086 -273.425170898438 1.854216337204
-152.260665893555 -64.664993286133 -283.587219238281 1.358263254166
-7.868593215942 -66.182403564453 -283.595153808594 1.258991599083
