27.345701217651 -77.648582458496 -141.534194946289 1.314141750336
-65.424995422363 -77.879386901855 -153.932937622070 1.851053237915
-40.233879089355 -80.677673339844 -154.247879028320 1.565892338753
-61.566101074219 -79.955619812012 -165.659576416016 0.668578445911
-42.704227447510 -78.866294860840 -159.581161499023 2.087593793869
29.536909103394 -78.542419433594 -154.942825317383 0.806880176067
-35.825260162354 -80.936058044434 -164.348739624023 2.078070402145
-4.162775993347 -78.148696899414 -167.390075683594 1.834922432899
30.306720733643 -78.158592224121 -159.045913696289 1.029409646988
-10.973683357239 -79.745620727539 -167.648773193359 2.497439622879
-62.558017730713 -77.747764587402 -164.702743530273 1.596197009087
-36.563388824463 -78.965927124023 -168.208358764648 1.936786651611
-28.827833175659 -76.838302612305 -173.776275634766 0.853959500790
26.673328399658 -78.793815612793 -173.618957519531 1.831053972244
-55.779960632324 -79.116844177246 -178.542236328125 1.842264294624
-31.231868743896 -76.948753356934 -176.581939697266 3.063352346420
23.026876449585 -79.240768432617 -179.866806030273 0.860467553139
-51.143432617188 -78.486557006836 -185.016708374023 1.314987421036
-26.049680709839 -77.203224182129 -187.224411010742 1.860747814178
-54.166522979736 -78.216659545898 -182.083099365234 0.757519543171
-39.351474761963 -80.313217163086 -195.754974365234 0.402741372585
-30.204483032227 -80.424400329590 -188.621978759766 1.910920023918
-42.401298522949 -79.414428710938 -195.274673461914 0.708624958992
-24.698986053467 -77.771835327148 -191.692535400391 1.670906543732
-134.836273193359 -80.588386535645 -198.831680297852 1.332818269730
16.951345443726 -78.477622985840 -199.807250976563 1.718472957611
-135.915481567383 -76.185165405273 -198.870727539063 1.704161047935
-23.820705413818 -77.290969848633 -197.643066406250 1.287793040276
-18.664546966553 -76.143417358398 -197.259567260742 1.692152976990
-41.078231811523 -77.133728027344 -195.763977050781 1.980822086334
15.496790885925 -79.016288757324 -190.907577514648 2.867820024490
-16.309717178345 -78.559562683105 -198.871749877930 1.869476914406
-61.501224517822 -78.656196594238 -206.571716308594 1.263209581375
-36.553722381592 -77.085243225098 -204.028823852539 1.525163412094
-66.218536376953 -77.523056030273 -207.554367065430 0.855190277100
-70.184997558594 -77.207946777344 -209.310211181641 0.831584692001
18.809299468994 -78.296226501465 -210.353134155273 1.903170466423
-85.504608154297 -80.481803894043 -213.653915405273 2.302906990051
-29.904539108276 -79.058914184570 -217.122329711914 1.121883511543
-81.143371582031 -80.654357910156 -214.629470825195 2.212356567383
-145.870635986328 -82.832473754883 -218.727890014648 1.592687249184
-8.719816207886 -78.012962341309 -214.792770385742 1.805783987045
-11.739521026611 -77.575416564941 -219.079345703125 1.493522882462
13.287692070007 -77.936569213867 -212.825927734375 1.899949193001
13.520879745483 -79.637435913086 -220.781082153320 1.109778285027
-3.399601936340 -78.410545349121 -231.188034057617 0.963646829128
-133.684722900391 -79.118858337402 -227.374923706055 1.601641535759
-147.575317382813 -82.942871093750 -230.299850463867 0.758856952190
-147.425933837891 -77.416702270508 -232.197250366211 2.343750715256
9.953154563904 -78.624382019043 -232.554092407227 1.678553700447
1.245347976685 -78.675178527832 -235.102935791016 0.647510170937
-24.584968566895 -77.878799438477 -236.857025146484 1.788520812988
-149.713546752930 -79.746421813965 -238.876770019531 2.253048181534
10.446311950684 -77.107429504395 -244.937988281250 1.787965297699
-24.661437988281 -78.833427429199 -243.464538574219 1.465420961380
18.634618759155 -76.325912475586 -237.372360229492 1.519823312759
-55.463996887207 -79.253921508789 -245.247451782227 1.459781169891
-51.151294708252 -77.209533691406 -247.514556884766 1.531933307648
-145.333938598633 -82.735359191895 -246.250839233398 1.151359558105
-62.907924652100 -78.551277160645 -247.083908081055 0.826499700546
-4.488073825836 -74.675987243652 -249.059585571289 2.936969518661
-9.771909713745 -79.708679199219 -256.616394042969 1.550417304039
-148.150100708008 -83.102272033691 -257.666503906250 1.022667169571
-134.524932861328 -79.513641357422 -258.781066894531 0.384488910437
-135.991912841797 -78.470520019531 -262.099945068359 1.521057844162
18.957038879395 -76.786705017090 -261.566162109375 2.533111810684
-145.425308227539 -82.356834411621 -271.829864501953 2.313612461090
18.179237365723 -81.359611511230 -269.453460693359 1.864471316338
-149.408355712891 -78.535308837891 -270.821777343750 1.236714720726
3.825473070145 -83.681816101074 -277.092803955078 2.159313201904
-146.567230224609 -80.379310607910 -283.478118896484 0.938790321350
3.738415002823 -77.357574462891 -283.765808105469 1.469371557236
-153.081542968750 -82.281158447266 -283.386077880859 2.177411794662
-141.555053710938 -79.664916992188 -289.110473632813 1.524732589722
-137.194686889648 -79.898040771484 -285.529510498047 1.761879801750
-148.554336547852 -85.291084289551 -291.868530273438 1.460883498192
-18.101884841919 -78.909080505371 -289.688140869141 1.419162869453
-154.123916625977 -80.801071166992 -292.759307861328 0.777532041073
-149.887451171875 -80.409500122070 -295.028991699219 1.667882442474
-148.737060546875 -78.604148864746 -311.773162841797 0.678643524647
-57.939861297607 -76.091865539551 -58.560691833496 1.698040485382
-39.871040344238 -77.620796203613 -61.932834625244 1.239856123924
-74.593078613281 -77.974357604980 -62.472187042236 1.385462999344
-29.180130004883 -76.339881896973 -69.511009216309 2.541550636292
-27.659309387207 -79.040596008301 -73.558479309082 1.312276363373
-86.293212890625 -78.130096435547 -83.909202575684 1.923341274261
86.775962829590 -74.482406616211 -83.377540588379 2.639443874359
-38.527706146240 -76.326499938965 -82.058242797852 1.683871030807
80.733825683594 -77.605560302734 -83.159614562988 1.862922906876
75.137214660645 -75.190086364746 -86.937828063965 1.264115333557
85.081977844238 -73.691986083984 -90.773544311523 3.696078300476
80.461242675781 -74.964027404785 -91.059188842773 2.818822860718
91.931152343750 -75.178260803223 -90.590950012207 2.242457628250
-90.944046020508 -74.795646667480 -95.685478210449 2.420886039734
51.827972412109 -75.182853698730 -104.862815856934 1.372739434242
-92.089805603027 -75.759117126465 -116.569351196289 2.063722610474
38.439971923828 -76.944999694824 -111.564628601074 1.614108085632
48.968013763428 -76.010910034180 -112.677856445313 0.900042593479
40.854484558105 -77.255508422852 -116.035499572754 2.315117835999
30.189962387085 -77.135482788086 -131.341186523438 1.842714190483
25.814954757690 -78.269660949707 -140.215148925781 0.324648797512
25.110521316528 -74.758300781250 -144.371139526367 1.288939595222
32.040454864502 -76.342277526855 -146.835952758789 1.290126562119
-50.051372528076 -78.787132263184 -153.011322021484 0.903938531876
-45.842746734619 -78.476043701172 -151.565750122070 0.651857376099
-41.942787170410 -78.926712036133 -154.682495117188 0.971027910709
26.635370254517 -78.751808166504 -148.902984619141 1.019307255745
23.013124465942 -76.467658996582 -168.019729614258 1.922915220261
-36.062831878662 -77.736991882324 -163.805084228516 1.787027835846
-34.935668945313 -77.083534240723 -158.456832885742 2.181125164032
-46.979259490967 -76.383903503418 -155.779281616211 2.270637512207
1.726122021675 -77.407707214355 -165.411453247070 1.441171050072
24.273498535156 -77.139060974121 -156.363937377930 1.612803697586
30.267860412598 -73.994628906250 -160.105133056641 1.951910138130
26.569723129272 -76.798362731934 -167.829055786133 2.088758707047
-10.038395881653 -76.965293884277 -169.498550415039 0.568678617477
-1.026520013809 -76.772941589355 -169.535751342773 1.364758253098
-56.110633850098 -77.156875610352 -171.996917724609 1.825644612312
-61.216121673584 -77.817436218262 -168.254348754883 0.815977454185
-38.853950500488 -78.780090332031 -172.986480712891 0.932154238224
-39.037998199463 -76.843894958496 -166.846542358398 1.160165905952
22.872842788696 -77.043029785156 -173.135025024414 2.395756244659
-21.030506134033 -80.067771911621 -177.853454589844 0.810208678246
-35.512203216553 -80.587158203125 -180.385040283203 2.539849042892
-60.320331573486 -79.545654296875 -179.026443481445 1.428611397743
104.734840393066 -76.899002075195 -179.427322387695 1.642497301102
19.750406265259 -77.287429809570 -170.249023437500 1.986376404762
-26.190500259399 -76.913032531738 -179.346359252930 2.176539182663
-49.936172485352 -76.121322631836 -181.257110595703 0.854772388935
-17.036830902100 -75.911911010742 -178.766174316406 1.889795780182
108.133522033691 -76.650444030762 -177.519638061523 1.866464734077
-48.682621002197 -78.537696838379 -182.615386962891 1.431022047997
16.382371902466 -77.725822448730 -184.185241699219 1.064931631088
25.481473922729 -76.689384460449 -180.478759765625 1.171078324318
-55.139686584473 -77.758239746094 -180.780929565430 1.153351426125
-23.051990509033 -76.284088134766 -181.709487915039 1.767228960991
-56.524394989014 -79.039749145508 -175.397247314453 0.854359149933
-33.390384674072 -73.264472961426 -181.419158935547 1.481268405914
-27.829317092896 -77.626594543457 -185.410476684570 2.052903413773
22.116294860840 -78.607879638672 -186.376617431641 1.054562211037
-50.679927825928 -78.480888366699 -187.252685546875 0.618039071560
104.137474060059 -76.639068603516 -188.936447143555 1.431690692902
-51.764900207520 -75.334823608398 -190.487213134766 1.556697487831
12.375824928284 -78.571754455566 -200.309906005859 2.374624967575
17.510667800903 -77.046028137207 -200.544692993164 1.938818454742
-46.459682464600 -77.510208129883 -189.785202026367 1.100581049919
-20.291711807251 -76.769943237305 -189.893722534180 0.336143553257
103.220306396484 -76.766288757324 -195.577743530273 0.616824328899
102.983497619629 -77.492553710938 -195.781341552734 0.530312359333
-46.422943115234 -75.210693359375 -190.136138916016 1.914790511131
-148.475036621094 -81.300071716309 -195.798904418945 1.591923117638
-48.283271789551 -76.553497314453 -199.304534912109 2.905260801315
-145.821411132813 -79.169105529785 -199.860366821289 1.016511559486
-136.320037841797 -77.281692504883 -202.374755859375 0.786926090717
-42.786422729492 -75.847694396973 -198.201293945313 1.830664634705
11.894426345825 -77.528038024902 -208.253494262695 0.996912062168
-17.662485122681 -76.898345947266 -202.221954345703 1.692360281944
15.474220275879 -78.544387817383 -203.416732788086 1.151201128960
90.695816040039 -77.615020751953 -208.770538330078 1.475451946259
-38.679996490479 -76.599052429199 -199.689727783203 0.952392935753
-10.903849601746 -78.737152099609 -206.552368164063 2.401025772095
-10.876257896423 -77.990371704102 -210.097686767578 1.042499899864
-37.940971374512 -78.014648437500 -208.980194091797 1.481007933617
9.875779151917 -79.063751220703 -206.075714111328 2.309888124466
-75.333419799805 -76.048545837402 -210.455383300781 0.894584357738
14.260409355164 -78.289794921875 -212.838714599609 1.185482025146
-36.297767639160 -77.039733886719 -208.916809082031 1.104009866714
-143.741592407227 -78.157691955566 -208.968658447266 1.348661899567
-145.691894531250 -77.427116394043 -212.885864257813 1.358740568161
-85.983528137207 -78.017456054688 -213.375015258789 0.528423547745
-34.833019256592 -76.908004760742 -210.700119018555 2.566843986511
-24.600240707397 -78.000854492188 -213.761077880859 1.049638152122
-28.729227066040 -78.065940856934 -212.608551025391 1.074489235878
-91.450393676758 -78.211799621582 -218.376876831055 2.600009202957
-87.458709716797 -77.823616027832 -215.509841918945 0.427981346846
9.822276115417 -76.939117431641 -219.675735473633 1.702988862991
-148.980606079102 -77.654159545898 -217.418884277344 1.491098880768
-12.291311264038 -76.894653320313 -212.610275268555 1.364016413689
8.061665534973 -79.926872253418 -217.655319213867 1.224175095558
-143.445281982422 -78.917655944824 -217.854919433594 2.041478157043
-20.477222442627 -78.989837646484 -220.842483520508 0.952848196030
-3.658842086792 -77.477890014648 -222.508728027344 0.975835263729
-2.420186996460 -78.331642150879 -218.148956298828 1.125701904297
-152.444931030273 -78.375144958496 -224.445587158203 0.137549325824
-136.043716430664 -76.805816650391 -226.722183227539 1.495883226395
-6.014217853546 -77.135658264160 -224.318069458008 1.405108213425
-149.061340332031 -82.862815856934 -228.677764892578 0.926875174046
0.860118985176 -76.652519226074 -230.394836425781 1.757961034775
17.048263549805 -75.592956542969 -231.960510253906 0.436096221209
-1.783401966095 -75.652687072754 -234.846725463867 1.808967947960
1.475062966347 -77.029075622559 -234.641143798828 1.260742783546
7.958642959595 -80.597511291504 -232.787200927734 1.751727700233
-150.337051391602 -78.909492492676 -234.977478027344 0.922950387001
-18.656084060669 -77.167213439941 -237.956466674805 0.972270965576
-33.112361907959 -80.550003051758 -240.012802124023 0.868596911430
6.917572021484 -74.743751525879 -230.803359985352 1.559871554375
-0.452493995428 -76.331871032715 -237.213562011719 1.268778204918
4.697476863861 -78.125717163086 -234.964447021484 1.084777712822
-53.397956848145 -77.251213073730 -241.564682006836 1.655267238617
-150.550109863281 -77.763267517090 -246.544281005859 1.484065413475
-151.536651611328 -79.219696044922 -249.151718139648 1.732877850533
10.374597549438 -78.626869201660 -246.876846313477 0.691294550896
21.175151824951 -77.877418518066 -247.515502929688 1.105490803719
-59.274017333984 -77.584167480469 -248.654647827148 0.794030010700
-146.363098144531 -78.110542297363 -254.008636474609 1.982638478279
-153.013763427734 -81.536712646484 -255.365249633789 1.248755812645
-149.051589965820 -82.341560363770 -257.820037841797 1.205674886703
-143.207931518555 -79.847473144531 -259.940063476563 1.442835927010
-136.593200683594 -78.827453613281 -257.434753417969 1.204902052879
-12.328123092651 -77.227516174316 -257.118621826172 0.738111495972
-144.636474609375 -78.904136657715 -265.573089599609 1.514670610428
-11.440964698792 -79.590347290039 -261.679016113281 1.342069387436
-149.061630249023 -79.128623962402 -276.788330078125 1.575013160706
-149.082290649414 -80.226043701172 -283.347595214844 2.675919294357
-151.673141479492 -80.790611267090 -282.541656494141 1.029905438423
-4.230298042297 -74.619377136230 -286.540222167969 0.743750989437
-143.500030517578 -76.362083435059 -286.644714355469 1.276940345764
-33.229637145996 -77.300529479980 -284.672698974609 2.739632368088
-31.910680770874 -75.875671386719 -288.916503906250 2.278619766235
-18.945394515991 -77.431358337402 -287.123168945313 1.982325673103
-9.343050003052 -77.522384643555 -289.083099365234 1.655521750450
15.770215034485 -77.816665649414 -291.836242675781 1.179566025734
-125.348373413086 -77.863327026367 -289.155700683594 0.560057342052
-56.060474395752 -78.704902648926 -288.031463623047 2.176001071930
-38.671627044678 -77.194145202637 -290.903869628906 1.026010990143
-32.929077148438 -78.394493103027 -289.993286132813 1.125669598579
-9.488590240479 -77.748405456543 -289.363830566406 1.822110891342
5.879908084869 -76.620010375977 -288.086853027344 1.128293514252
-141.813186645508 -81.063110351563 -293.039886474609 2.147750616074
8.316007614136 -78.439888000488 -291.795257568359 1.108968615532
-152.762039184570 -80.108718872070 -303.087341308594 3.080454587936
-148.794784545898 -78.940902709961 -301.608001708984 0.567872405052
-151.774551391602 -78.384757995605 -311.660491943359 1.322300195694
-146.499649047852 -78.708953857422 -311.907592773438 1.145024657249
-51.667282104492 -74.922050476074 -54.353267669678 1.911370396614
-55.490390777588 -75.743812561035 -56.655712127686 2.002413034439
-66.544471740723 -75.589675903320 -55.951210021973 1.912038087845
-44.449424743652 -76.178855895996 -58.340927124023 1.281496644020
-39.509468078613 -73.786216735840 -59.192249298096 2.916800737381
-23.744850158691 -73.722259521484 -64.607315063477 1.311437606812
-83.152755737305 -76.514434814453 -67.634246826172 0.752047538757
81.279159545898 -74.733589172363 -78.673416137695 2.310081958771
-90.541778564453 -76.794326782227 -82.746177673340 1.050191760063
83.752944946289 -76.829040527344 -81.065711975098 1.212664127350
85.362823486328 -75.581665039063 -82.583854675293 1.447085142136
92.916152954102 -74.445411682129 -84.181427001953 1.968333840370
-59.598949432373 -80.876327514648 -94.208633422852 1.696809291840
84.173416137695 -75.755149841309 -93.259948730469 1.164386391640
79.496734619141 -74.462898254395 -92.384307861328 2.561931371689
89.261436462402 -76.800216674805 -90.316474914551 2.065468549728
-62.759468078613 -79.666740417480 -97.482528686523 0.753284633160
53.991001129150 -74.861579895020 -96.623832702637 1.524913311005
45.612537384033 -76.262466430664 -105.493858337402 1.139713525772
40.170028686523 -76.280105590820 -105.777427673340 2.180615186691
37.839046478271 -75.560073852539 -108.753456115723 1.523499488831
-92.003341674805 -76.289756774902 -113.365043640137 1.525675296783
35.650268554688 -76.918334960938 -117.392593383789 2.040336370468
-84.454811096191 -77.337600708008 -111.886215209961 1.375836253166
42.388111114502 -77.072967529297 -123.837928771973 1.775780081749
33.501651763916 -76.391944885254 -121.911979675293 1.722543358803
32.888107299805 -76.446662902832 -122.378570556641 1.423156261444
42.151008605957 -75.453025817871 -120.575416564941 2.761488199234
39.461135864258 -77.820129394531 -126.444931030273 0.838248491287
-54.799892425537 -72.708190917969 -137.861877441406 1.443015336990
36.115116119385 -77.088180541992 -134.589859008789 1.326827049255
36.335254669189 -75.924270629883 -141.084701538086 1.127358317375
-50.440547943115 -73.082130432129 -139.530944824219 1.779699921608
-48.523056030273 -77.770690917969 -141.013061523438 2.561315298080
34.453132629395 -76.983467102051 -143.404876708984 1.382482051849
110.254333496094 -74.414367675781 -141.445175170898 0.947760939598
112.367050170898 -74.697631835938 -141.861267089844 2.114011049271
26.870985031128 -77.361717224121 -144.365356445313 1.889312744141
-42.497657775879 -76.482315063477 -147.951171875000 1.370070219040
112.042404174805 -76.762870788574 -156.010772705078 1.073757529259
-41.997398376465 -76.016426086426 -154.817977905273 1.835033774376
-66.288711547852 -78.281806945801 -159.426712036133 1.947581648827
110.777679443359 -75.895545959473 -161.809051513672 1.579481840134
23.841365814209 -76.787704467773 -164.319976806641 1.622113823891
-0.265920013189 -77.322296142578 -163.988876342773 1.318504214287
112.719268798828 -76.371360778809 -155.000076293945 0.999791979790
-63.550186157227 -77.429168701172 -162.850036621094 0.964742541313
-36.307533264160 -77.779579162598 -160.637802124023 1.273304104805
112.200576782227 -74.522666931152 -163.934585571289 0.662757635117
28.119333267212 -74.339874267578 -158.330093383789 2.845986127853
-64.936477661133 -76.005439758301 -168.059860229492 1.066640734673
109.573463439941 -74.842788696289 -168.484329223633 1.335905194283
-64.638801574707 -78.715797424316 -168.882690429688 1.461935997009
-52.370182037354 -78.420227050781 -178.022659301758 1.662589788437
106.055160522461 -74.592758178711 -173.846542358398 2.116030693054
-61.413078308105 -76.057029724121 -169.192764282227 1.614793300629
111.716873168945 -75.211616516113 -173.229873657227 1.776125907898
-59.223815917969 -78.266143798828 -173.165939331055 0.735297501087
-13.649063110352 -76.156372070313 -176.731811523438 1.313526391983
-11.981930732727 -77.436637878418 -178.785690307617 1.204262614250
107.149406433105 -75.990379333496 -171.352706909180 0.973489940166
21.055011749268 -75.893562316895 -170.467361450195 1.364874124527
28.547481536865 -76.993530273438 -169.801742553711 2.540933609009
-55.402156829834 -77.798164367676 -177.190704345703 1.361047387123
18.917823791504 -76.047973632813 -183.383773803711 1.661317825317
-57.502052307129 -76.967750549316 -178.399124145508 1.177147507668
-51.274932861328 -75.283683776855 -188.377487182617 1.061801314354
14.239540100098 -76.288192749023 -181.644409179688 1.217414021492
-59.809387207031 -76.129837036133 -182.918380737305 2.424385309219
108.935447692871 -74.291717529297 -184.403961181641 1.669961929321
22.168912887573 -76.479721069336 -180.141189575195 2.333242416382
-31.652093887329 -76.784156799316 -188.319534301758 0.633982777596
-43.207149505615 -75.189620971680 -193.649353027344 2.237701177597
10.947368621826 -75.358879089355 -195.262405395508 0.654416143894
-20.938163757324 -77.394676208496 -189.975967407227 0.984379947186
-51.555534362793 -77.357917785645 -194.465377807617 3.360249042511
102.573410034180 -76.958213806152 -185.677505493164 2.497543334961
15.530815124512 -75.267303466797 -190.784820556641 1.040524125099
-135.338943481445 -77.686401367188 -196.667404174805 1.232998967171
-41.659118652344 -76.827423095703 -192.222900390625 0.505114912987
99.581329345703 -76.763671875000 -197.597320556641 2.154164314270
-147.791000366211 -80.488616943359 -201.718826293945 1.217346668243
18.209314346313 -76.079185485840 -193.284240722656 3.044853687286
-42.968486785889 -79.462707519531 -204.546173095703 2.547441482544
-32.700935363770 -77.596412658691 -203.944931030273 0.714014708996
-38.208301544189 -75.171081542969 -205.433212280273 1.750162959099
-42.895816802979 -76.767654418945 -194.971801757813 1.303023219109
100.528427124023 -77.137313842773 -200.587127685547 0.591613113880
-18.865859985352 -76.071640014648 -202.605255126953 0.974350810051
-150.734939575195 -76.271446228027 -203.967834472656 0.624089181423
14.843680381775 -75.524864196777 -207.076019287109 2.299359798431
-74.293945312500 -79.529693603516 -206.847930908203 1.933985590935
-148.237548828125 -77.180290222168 -210.411468505859 1.659857630730
97.009330749512 -74.430389404297 -208.871170043945 2.201097726822
-33.334358215332 -76.570686340332 -207.036315917969 1.200558304787
-27.470455169678 -76.126403808594 -215.474792480469 0.819330930710
7.084015846252 -77.656898498535 -211.101181030273 1.172833681107
-71.243682861328 -77.006546020508 -212.742553710938 1.092116951942
-28.507291793823 -76.528869628906 -209.728561401367 1.806085348129
-5.661054134369 -77.763824462891 -215.460052490234 1.289974093437
-76.782562255859 -79.700057983398 -215.614776611328 1.832110047340
-14.041399002075 -77.971405029297 -217.917816162109 1.533799886703
8.909098625183 -75.535041809082 -214.469512939453 0.954990506172
17.603080749512 -79.570426940918 -219.909500122070 2.797138214111
-146.893768310547 -77.660095214844 -216.890518188477 1.450595498085
-5.894289970398 -75.358192443848 -215.315887451172 2.260643482208
-93.213775634766 -74.190917968750 -221.447204589844 1.351380586624
-21.925310134888 -74.611480712891 -219.576705932617 1.046525835991
93.090370178223 -76.549407958984 -211.471725463867 1.249550223351
6.311962127686 -77.505592346191 -227.901107788086 0.537692606449
15.712034225464 -77.275650024414 -216.069290161133 1.784464001656
81.054740905762 -72.995010375977 -221.405044555664 2.117770671844
1.850852012634 -75.609657287598 -226.282531738281 2.120904922485
86.298179626465 -75.087104797363 -218.699462890625 1.332676768303
-16.203950881958 -76.424263000488 -222.278244018555 0.909361124039
14.312511444092 -77.763923645020 -221.312850952148 1.284772276878
-146.632644653320 -79.138320922852 -224.498535156250 2.184078693390
-18.403869628906 -80.284553527832 -225.186721801758 2.669061660767
1.697850942612 -79.315460205078 -226.693527221680 2.125289201736
-153.242996215820 -79.854423522949 -228.597869873047 1.321418166161
-135.062545776367 -77.089759826660 -228.052902221680 0.981791436672
9.385899543762 -75.970222473145 -226.644790649414 1.494403839111
-4.643528938293 -76.705009460449 -235.631958007813 2.792277097702
-136.464263916016 -77.538528442383 -231.860443115234 0.860605001450
-146.399032592773 -79.946586608887 -235.232162475586 2.186120033264
-145.732238769531 -76.476127624512 -237.457092285156 1.599204301834
-30.092525482178 -77.111900329590 -237.146316528320 1.667846679688
-145.580169677734 -76.762733459473 -243.289901733398 1.924767494202
20.368299484253 -75.828529357910 -240.940109252930 1.419309377670
5.775948047638 -77.089683532715 -243.223556518555 0.068069376051
-150.793273925781 -76.340675354004 -236.253387451172 1.621695876122
-149.884063720703 -78.090789794922 -242.874786376953 1.645732402802
-46.646377563477 -77.277328491211 -240.839706420898 2.051245689392
-31.758968353271 -79.018241882324 -244.227645874023 1.332993745804
6.099689960480 -78.888107299805 -247.590545654297 1.721727728844
-37.460342407227 -76.296249389648 -246.065017700195 1.511803507805
23.730278015137 -77.800521850586 -248.817672729492 1.256660223007
-3.657583951950 -78.534095764160 -247.195571899414 1.784050464630
-151.651168823242 -77.049247741699 -252.816879272461 1.690622806549
-6.279303073883 -75.339324951172 -249.593887329102 2.929486513138
-144.394546508789 -78.670249938965 -252.557693481445 1.437670230865
-67.133491516113 -77.678932189941 -249.862030029297 1.321505069733
-151.173797607422 -84.201515197754 -259.555541992188 0.970367014408
-125.679183959961 -78.359062194824 -260.645385742188 2.133052587509
-149.194763183594 -74.409851074219 -260.871795654297 0.627147555351
-12.545392036438 -75.318405151367 -266.021148681641 0.870531260967
-145.734619140625 -79.589492797852 -265.090240478516 0.374023675919
-149.699249267578 -78.271774291992 -265.032012939453 0.885293602943
-9.922604560852 -79.025428771973 -269.031646728516 0.952293992043
-147.477005004883 -78.791099548340 -270.137725830078 1.342258572578
-3.800889968872 -78.723121643066 -280.961547851563 1.691509366035
-45.268508911133 -78.109329223633 -284.620422363281 3.644565820694
-135.281936645508 -78.797103881836 -287.448272705078 1.560295701027
-132.719421386719 -75.995857238770 -284.399139404297 1.424512028694
-125.894485473633 -77.303337097168 -285.791198730469 1.095424056053
-53.816272735596 -76.498329162598 -284.020782470703 2.674662590027
-114.676330566406 -76.023002624512 -289.396423339844 1.694375157356
15.774866104126 -79.284896850586 -289.334930419922 2.029664039612
-60.877216339111 -76.991821289063 -287.999969482422 1.420477747917
-141.487014770508 -76.272933959961 -289.272521972656 0.829839348793
-61.992527008057 -75.543930053711 -288.823242187500 1.394623637199
-142.708328247070 -81.107376098633 -290.973815917969 1.094723463058
-118.080551147461 -76.997962951660 -288.221435546875 1.203810334206
-47.101482391357 -76.647850036621 -290.990234375000 0.634010672569
-36.946643829346 -77.592414855957 -290.702423095703 2.102185249329
-133.673858642578 -77.895301818848 -290.833038330078 0.835107982159
-10.916579246521 -75.404251098633 -291.602752685547 1.037269115448
0.148091003299 -78.482437133789 -291.521057128906 1.347109556198
7.282894134521 -77.016479492188 -291.480834960938 1.072267889977
14.543493270874 -76.977066040039 -293.348571777344 0.602466046810
-148.806198120117 -79.745582580566 -295.921630859375 1.661192536354
-146.926574707031 -77.066772460938 -299.508789062500 1.023843288422
-70.395919799805 -75.028358459473 -61.083343505859 3.124657630920
87.067947387695 -74.058959960938 -75.792655944824 1.487064599991
78.887733459473 -74.830551147461 -75.671356201172 0.986989140511
-26.747673034668 -77.367507934570 -75.897201538086 1.114143490791
84.892120361328 -73.358749389648 -75.242622375488 1.588409185410
-36.876388549805 -74.524459838867 -80.575279235840 1.786443710327
88.793197631836 -76.591835021973 -77.793556213379 1.028470158577
91.386695861816 -76.117156982422 -80.904563903809 2.276319980621
-67.393257141113 -71.121070861816 -93.249359130859 2.605706453323
76.799041748047 -74.397239685059 -91.841369628906 2.207093238831
80.452461242676 -73.530189514160 -96.824256896973 1.758454442024
91.841239929199 -74.100540161133 -91.970870971680 2.727713108063
54.535335540771 -74.776107788086 -95.583290100098 1.775249004364
-77.436424255371 -79.668251037598 -101.450187683105 1.678710103035
-78.460433959961 -71.574005126953 -100.969078063965 2.060155630112
49.233337402344 -75.051780700684 -106.889816284180 1.577902674675
-91.752372741699 -78.231536865234 -107.069915771484 1.995457053185
44.303714752197 -75.279777526855 -116.000991821289 1.588013172150
110.739784240723 -73.676391601563 -116.532310485840 1.616304874420
110.482345581055 -73.581405639648 -131.338592529297 2.019842147827
26.314399719238 -73.421447753906 -138.205139160156 1.460311889648
111.320732116699 -76.163146972656 -127.446556091309 0.731521368027
27.097335815430 -74.727958679199 -134.177230834961 2.422630786896
112.442451477051 -74.680183410645 -129.607666015625 2.140799999237
36.421607971191 -77.112564086914 -135.561355590820 0.412802159786
-51.583110809326 -78.114379882813 -146.565444946289 1.449780821800
34.831752777100 -74.288734436035 -140.958236694336 0.838919162750
110.599151611328 -73.321464538574 -137.401687622070 1.938757538795
-50.681652069092 -76.301612854004 -146.550109863281 1.735316753387
31.011711120605 -77.345916748047 -146.877380371094 2.364977598190
-55.762287139893 -75.429084777832 -137.470367431641 0.998881161213
-54.020408630371 -79.027137756348 -148.023834228516 2.613460063934
-51.278766632080 -74.850196838379 -150.169448852539 2.478764533997
-65.655776977539 -77.568756103516 -156.152404785156 1.136162757874
113.844703674316 -74.162002563477 -147.998367309570 1.629590630531
-50.873805999756 -75.818679809570 -154.099212646484 1.688177704811
20.607742309570 -76.645881652832 -156.166870117188 0.984185993671
109.727416992188 -76.611526489258 -156.499496459961 1.477298378944
-67.461822509766 -76.714248657227 -156.370223999023 1.551907062531
-48.268962860107 -75.739433288574 -156.313995361328 2.291953563690
7.583827018738 -74.065483093262 -155.877365112305 2.400970458984
-65.875793457031 -74.075180053711 -159.121093750000 1.311933994293
-60.448963165283 -76.453193664551 -162.030151367188 0.887774348259
-1.281839013100 -78.748001098633 -161.520217895508 2.220829963684
-42.675296783447 -77.475692749023 -168.839126586914 1.706907391548
29.401084899902 -73.623664855957 -164.086166381836 0.833117067814
-63.857688903809 -76.009208679199 -164.501403808594 0.895782530308
-54.836826324463 -74.268341064453 -168.558349609375 3.137236595154
20.897676467896 -75.213188171387 -161.550033569336 1.291021227837
-31.053739547729 -78.151145935059 -171.676040649414 2.605966329575
-31.477689743042 -74.507575988770 -167.508316040039 1.999874591827
15.988737106323 -74.723754882813 -175.028411865234 2.132452011108
-39.571556091309 -78.071403503418 -174.123260498047 1.756589651108
-10.551654815674 -75.274200439453 -173.589187622070 0.834290742874
-61.553661346436 -75.357711791992 -171.989440917969 1.197628736496
-5.527021884918 -75.022148132324 -170.891113281250 0.303365170956
-23.315670013428 -78.368721008301 -178.957702636719 1.632220625877
21.993494033813 -76.251899719238 -181.446380615234 1.876202702522
-38.172210693359 -74.969696044922 -173.663879394531 0.664650797844
17.783781051636 -75.461433410645 -178.287109375000 2.011070489883
-20.967420578003 -74.562339782715 -184.074645996094 1.898879647255
-32.754497528076 -76.394104003906 -181.391693115234 1.028234720230
-146.620040893555 -74.330596923828 -186.600616455078 1.008348703384
-23.202850341797 -76.178176879883 -186.139709472656 1.519845604897
-145.025772094727 -75.695281982422 -190.033508300781 2.274027824402
-150.744628906250 -76.087677001953 -187.924835205078 1.637340903282
-46.772045135498 -76.835090637207 -187.461517333984 2.445446014404
99.690032958984 -75.994094848633 -193.741180419922 2.249489545822
-145.064117431641 -76.195503234863 -192.940780639648 0.824368536472
-152.676467895508 -77.677955627441 -197.432296752930 1.228002905846
20.588857650757 -75.759185791016 -197.072067260742 1.689109206200
-135.360229492188 -74.394111633301 -197.057098388672 1.004631161690
20.306461334229 -73.023536682129 -197.707015991211 0.879225909710
-140.574554443359 -74.324470520020 -199.740646362305 1.408017277718
12.056211471558 -75.603843688965 -195.863418579102 1.126110196114
-136.131072998047 -75.223518371582 -201.878921508789 0.995708048344
7.654305934906 -75.184211730957 -206.328979492188 1.617949604988
-149.322082519531 -76.056694030762 -204.601318359375 1.127127170563
92.484832763672 -73.474311828613 -203.359970092773 1.806291460991
-14.472287178040 -75.532783508301 -203.882583618164 1.527820587158
-28.854032516479 -74.926315307617 -206.432296752930 1.425133824348
-9.881793022156 -77.877502441406 -204.652954101563 0.926902353764
-149.453292846680 -77.834236145020 -211.340911865234 0.327873289585
-37.447509765625 -76.990653991699 -206.531921386719 1.625899553299
-82.031044006348 -76.533912658691 -210.296020507813 0.775037169456
-27.994781494141 -76.612556457520 -211.029998779297 1.356721162796
18.350511550903 -73.521766662598 -208.917526245117 1.429541826248
-147.224792480469 -77.388122558594 -211.054077148438 1.446339011192
-89.528594970703 -75.591697692871 -214.080856323242 0.850192248821
-28.032155990601 -75.332824707031 -213.592407226563 1.686191558838
-25.502193450928 -73.364387512207 -219.255920410156 1.673852324486
-14.594676971436 -75.081581115723 -214.959518432617 1.406432867050
-26.527502059937 -75.237213134766 -213.839248657227 1.167303204536
-80.295585632324 -76.320617675781 -217.608932495117 1.954235911369
-85.243110656738 -77.171295166016 -219.749786376953 2.803731441498
-23.123664855957 -76.432571411133 -220.619186401367 0.723715007305
-3.515033006668 -74.989868164063 -221.419296264648 1.881349325180
-148.697814941406 -75.066383361816 -216.954025268555 0.760002851486
-2.301723957062 -75.274139404297 -217.965530395508 1.839072346687
83.702644348145 -74.537590026855 -223.768417358398 0.788651645184
-143.163558959961 -79.137100219727 -226.573638916016 0.801527619362
-8.321260452271 -75.894248962402 -223.626937866211 1.427633404732
-142.275527954102 -77.198562622070 -228.577224731445 1.943663001060
-148.096694946289 -83.347816467285 -226.819381713867 0.477760225534
-6.519629001617 -74.856803894043 -229.485092163086 0.692653596401
18.010992050171 -75.383857727051 -221.530883789063 1.103853583336
-140.940078735352 -76.404823303223 -229.173095703125 0.429743379354
-14.861794471741 -75.515830993652 -230.261016845703 0.955702722073
77.577316284180 -75.591850280762 -227.119506835938 1.643659710884
78.867462158203 -75.220153808594 -232.662384033203 1.728344559669
8.355106353760 -74.568626403809 -231.313430786133 1.597754955292
-25.884895324707 -75.924461364746 -239.885879516602 2.315082073212
-19.038866043091 -76.810577392578 -237.728454589844 0.971565604210
6.968623161316 -74.689262390137 -243.409744262695 1.096978783607
-47.389385223389 -74.075759887695 -242.204299926758 1.387405753136
-24.342050552368 -76.558662414551 -244.832275390625 2.280631780624
8.180547714233 -76.173789978027 -243.931869506836 0.323055416346
-63.806110382080 -76.214500427246 -247.242233276367 1.688416361809
-30.514831542969 -74.825050354004 -245.532974243164 2.931904077530
-43.229644775391 -74.538383483887 -244.464523315430 0.603295743465
-150.245742797852 -76.405227661133 -245.492767333984 0.767780959606
-47.880710601807 -77.099693298340 -247.834701538086 1.677503824234
-53.799514770508 -76.341194152832 -247.640594482422 0.861976325512
-65.940528869629 -78.669113159180 -250.711853027344 2.464993715286
-8.964172363281 -74.436111450195 -250.588043212891 1.638707041740
-82.209243774414 -74.869575500488 -252.708404541016 0.825888276100
-152.230957031250 -80.742965698242 -257.708831787109 2.306325435638
-140.290863037109 -80.628402709961 -257.895599365234 2.848566055298
-125.182975769043 -74.914207458496 -261.896118164063 0.743395864964
-153.535690307617 -74.371467590332 -263.737915039063 0.505803763866
20.782251358032 -75.790145874023 -262.125061035156 1.211017727852
-11.324612617493 -76.253524780273 -268.324005126953 1.201849937439
-150.893722534180 -78.023139953613 -269.467041015625 1.062628149986
-150.796554565430 -77.965133666992 -276.647155761719 0.758375763893
-142.872512817383 -80.239860534668 -283.325225830078 1.803726315498
-56.861499786377 -76.846397399902 -285.602996826172 3.250164270401
-37.110218048096 -75.618904113770 -286.993713378906 1.371778607368
-24.750356674194 -75.023040771484 -288.893005371094 2.587500810623
-12.745091438293 -76.116508483887 -286.794219970703 1.568932890892
-65.510910034180 -76.436691284180 -286.360595703125 2.139803647995
-77.899139404297 -75.293296813965 -286.868316650391 0.727546095848
-4.188762187958 -77.250930786133 -288.125488281250 0.453793048859
9.927646636963 -76.633087158203 -289.022277832031 1.489134311676
-134.519683837891 -77.622001647949 -290.309356689453 1.107689976692
-77.091384887695 -75.334419250488 -289.251647949219 1.015177369118
-147.182937622070 -77.079689025879 -290.373413085938 1.508479714394
-93.271385192871 -75.473365783691 -289.303619384766 1.659458637238
-74.389610290527 -75.154563903809 -289.776580810547 2.543887853622
-83.309463500977 -76.713874816895 -290.682189941406 1.764545202255
-60.947330474854 -77.180435180664 -290.315399169922 1.346850275993
-23.852018356323 -75.506935119629 -292.841583251953 2.660187005997
-2.580562114716 -75.029045104980 -291.640472412109 0.986111760139
-153.946273803711 -76.563560485840 -294.788177490234 1.846395730972
-148.846939086914 -77.749229431152 -299.222076416016 1.087811350822
-145.090576171875 -77.635337829590 -302.141906738281 1.356444239616
-154.042098999023 -76.850051879883 -308.001556396484 1.158620476723
-58.641578674316 -74.204078674316 -55.378490447998 1.708738327026
-46.651042938232 -72.498413085938 -53.218235015869 2.464021921158
-40.817283630371 -72.647804260254 -54.925548553467 2.583236217499
-76.368370056152 -76.526802062988 -58.726028442383 1.693048596382
-29.908832550049 -74.142112731934 -60.764427185059 1.209659814835
-30.024702072144 -74.584175109863 -78.754577636719 1.836498498917
75.196586608887 -76.148010253906 -81.821372985840 0.942083120346
77.106559753418 -75.501403808594 -83.148757934570 1.875236749649
76.515113830566 -73.930397033691 -84.701828002930 2.600691795349
96.023117065430 -75.066284179688 -89.563812255859 1.718291759491
72.931297302246 -74.806442260742 -90.110565185547 1.780071496964
54.562526702881 -74.467430114746 -93.070587158203 0.778441488743
46.152130126953 -75.371284484863 -99.856269836426 1.183929800987
-67.089118957520 -76.641883850098 -100.864700317383 1.251684784889
-72.720443725586 -70.579750061035 -100.509460449219 1.363940954208
44.482940673828 -73.682067871094 -102.901046752930 1.145670413971
-83.328002929688 -77.295806884766 -108.480850219727 1.007005691528
-93.335395812988 -72.798629760742 -112.136451721191 1.772198438644
49.786693572998 -72.955589294434 -104.130088806152 2.620872259140
106.316680908203 -72.629112243652 -110.533477783203 1.568592667580
32.654651641846 -75.755447387695 -120.005386352539 1.876559138298
45.322257995605 -75.950614929199 -117.625183105469 0.823334395885
42.905960083008 -75.811187744141 -124.499092102051 1.734388232231
29.099864959717 -74.961769104004 -125.648124694824 1.502434730530
108.860061645508 -73.293846130371 -117.478576660156 1.034697413445
36.777694702148 -75.575927734375 -126.731735229492 3.807285070419
30.198177337646 -73.490295410156 -129.929794311523 1.148551583290
-45.327564239502 -73.817016601563 -143.720687866211 1.295341968536
-71.518241882324 -75.569595336914 -146.955886840820 0.685588479042
-54.062385559082 -73.697067260742 -146.145187377930 1.770059227943
-70.918937683105 -74.693557739258 -144.513122558594 0.748098313808
-41.794372558594 -74.356117248535 -147.671737670898 0.976587355137
109.089035034180 -71.736053466797 -149.930175781250 1.295089840889
-71.878456115723 -75.295722961426 -154.116119384766 2.398627758026
23.279973983765 -76.683868408203 -150.352844238281 1.052769780159
32.972415924072 -73.237319946289 -152.054168701172 1.155947446823
114.648757934570 -73.099029541016 -156.217575073242 1.358116388321
8.252722740173 -72.979423522949 -157.911285400391 2.462549209595
32.024974822998 -73.449043273926 -155.614608764648 1.253877997398
-62.817771911621 -74.765617370605 -159.256072998047 1.006753683090
-45.250789642334 -76.617164611816 -169.169815063477 2.301056385040
18.708869934082 -73.496963500977 -163.538909912109 0.474353194237
-65.207092285156 -73.729713439941 -165.385055541992 1.647711873055
-66.758087158203 -73.832984924316 -163.017532348633 1.391095757484
108.800041198730 -75.296722412109 -165.045120239258 0.846021354198
-8.913455963135 -72.494186401367 -168.243865966797 3.274531841278
-59.554103851318 -76.834617614746 -176.668319702148 1.654051899910
-29.099519729614 -74.187667846680 -171.741424560547 0.769212722778
-55.436939239502 -74.330375671387 -173.299087524414 0.847432017326
28.771091461182 -76.889961242676 -168.635711669922 3.295912742615
109.986831665039 -71.424537658691 -170.300933837891 1.895140051842
105.207336425781 -75.870773315430 -182.031356811523 1.413441181183
110.189361572266 -75.572250366211 -189.526412963867 2.781115770340
107.594726562500 -74.281410217285 -175.834564208984 1.225259423256
-55.639682769775 -75.693778991699 -188.833526611328 3.516138553619
-52.090545654297 -73.826889038086 -181.825469970703 1.282340526581
24.693666458130 -75.521957397461 -183.024063110352 1.730211257935
-50.913208007813 -71.716255187988 -187.735961914063 2.759505271912
-21.083053588867 -74.471206665039 -185.450439453125 0.892885088921
-50.587085723877 -74.266662597656 -191.573272705078 1.213451266289
-147.764831542969 -76.803009033203 -194.950363159180 2.564603328705
101.042625427246 -72.944198608398 -192.339492797852 1.241347908974
-45.479866027832 -74.270912170410 -191.754531860352 0.810757040977
-16.080127716064 -76.429481506348 -196.233657836914 1.237533926964
-139.586151123047 -76.938812255859 -199.287841796875 2.396795749664
-45.181709289551 -75.237785339355 -195.587646484375 2.046719312668
104.596458435059 -77.288101196289 -195.627456665039 1.255225419998
106.754241943359 -74.339759826660 -187.013854980469 2.435167312622
-46.800315856934 -76.221412658691 -197.577743530273 1.565825223923
-23.799510955811 -75.481636047363 -195.503143310547 1.615660905838
-149.341171264648 -81.374282836914 -200.103927612305 1.585127234459
-25.798797607422 -75.280220031738 -199.603210449219 1.368059873581
-153.329925537109 -78.060974121094 -199.172531127930 0.976829409599
-152.709442138672 -77.776565551758 -202.727935791016 0.515879809856
-141.153656005859 -76.940940856934 -201.809326171875 0.176887929440
-37.932022094727 -74.908142089844 -197.529098510742 2.383496284485
101.385276794434 -74.899085998535 -199.232467651367 2.173638582230
-38.896633148193 -73.949699401855 -200.036590576172 2.604558467865
-144.300735473633 -78.706123352051 -203.975952148438 1.180571198463
-38.159690856934 -74.568122863770 -207.275360107422 1.924363851547
-18.553018569946 -76.658355712891 -209.855987548828 1.202994585037
95.200263977051 -74.481094360352 -203.556747436523 2.180917739868
93.678428649902 -74.300643920898 -208.865310668945 0.592951714993
-29.049621582031 -75.670341491699 -216.609008789063 1.449455976486
-86.760505676270 -76.929977416992 -212.301589965820 1.220394611359
-73.592079162598 -75.762931823730 -211.858840942383 0.561069786549
-17.789495468140 -75.678733825684 -218.579101562500 1.488331794739
-149.785400390625 -73.899894714355 -212.825973510742 1.754557728767
87.389038085938 -75.962203979492 -213.689956665039 1.365680098534
88.890808105469 -73.821624755859 -219.257400512695 1.473260402679
89.866081237793 -74.959457397461 -218.240112304688 1.279448986053
-101.112258911133 -72.160232543945 -223.140060424805 1.179493427277
-149.002487182617 -78.065757751465 -224.246170043945 1.875499844551
-18.910697937012 -77.552452087402 -219.982666015625 1.524669051170
79.749244689941 -73.815055847168 -223.453552246094 1.506708502769
-147.171188354492 -80.197296142578 -226.897445678711 1.019072294235
-28.744134902954 -75.224288940430 -221.440322875977 2.803116798401
-132.403686523438 -73.125434875488 -230.835968017578 1.541841983795
-12.220400810242 -76.648574829102 -227.200912475586 1.120799541473
18.745498657227 -74.760147094727 -220.657241821289 1.509482383728
17.810630798340 -75.055572509766 -232.739212036133 1.157086133957
-154.636428833008 -79.538688659668 -233.779327392578 2.134759426117
-123.975608825684 -73.739219665527 -232.609344482422 0.647675216198
-8.050390243530 -74.499244689941 -233.636077880859 0.546792566776
0.661023974419 -74.077476501465 -237.591201782227 0.991235077381
68.547943115234 -75.415168762207 -234.915466308594 1.935691237450
71.216636657715 -73.697319030762 -235.784866333008 1.596050858498
0.418258994818 -75.874313354492 -240.327194213867 1.396332263947
18.346187591553 -74.428405761719 -238.151138305664 1.721434354782
-26.604162216187 -73.987861633301 -240.242767333984 1.037027835846
-36.882484436035 -76.632911682129 -242.499313354492 2.451431035995
-45.201938629150 -75.741188049316 -240.072555541992 1.326690196991
-38.683010101318 -75.708572387695 -242.576019287109 1.379800319672
-18.830238342285 -77.034072875977 -243.046752929688 2.072844266891
-53.652965545654 -73.785659790039 -242.290313720703 1.243660569191
3.596194982529 -74.735122680664 -244.531707763672 1.369029164314
-69.114807128906 -72.275321960449 -246.387466430664 0.286004662514
17.942790985107 -73.768699645996 -245.910156250000 1.151627659798
-146.320373535156 -77.824485778809 -247.843658447266 1.707221746445
-70.664344787598 -78.163108825684 -249.990463256836 1.985333323479
13.071571350098 -77.195159912109 -247.724517822266 1.267257213593
-162.730102539063 -75.703956604004 -250.526184082031 1.918864011765
18.079082489014 -74.932212829590 -250.312026977539 1.357865929604
-80.716804504395 -76.580398559570 -251.784225463867 1.683337926865
-74.025138854980 -74.714492797852 -251.414718627930 1.248239517212
22.403861999512 -75.027160644531 -256.278686523438 0.420198351145
-88.252792358398 -74.513435363770 -255.485092163086 1.183193922043
-127.193923950195 -76.242790222168 -256.123077392578 1.780726075172
-135.631103515625 -76.154159545898 -258.277038574219 1.381765246391
-133.423080444336 -76.606353759766 -258.616271972656 0.990547239780
-145.444747924805 -74.211013793945 -260.104553222656 2.106911420822
-140.521331787109 -77.074043273926 -258.423278808594 1.515057206154
-135.666488647461 -74.579147338867 -262.690948486328 1.540971875191
-160.021255493164 -76.313865661621 -260.528961181641 2.157639980316
-126.293739318848 -73.203430175781 -264.604064941406 1.379079818726
-133.833847045898 -75.073692321777 -261.049682617188 0.929016113281
-164.040573120117 -76.949707031250 -265.141174316406 2.944915294647
-156.725524902344 -75.374687194824 -264.130065917969 1.628908276558
-150.312164306641 -75.314262390137 -266.204040527344 1.784090876579
-146.137268066406 -77.728927612305 -265.787139892578 0.988565087318
15.563270568848 -79.891677856445 -278.922943115234 2.394697904587
-164.633438110352 -77.019386291504 -269.281127929688 2.520124197006
-153.176635742188 -74.093093872070 -275.183563232422 1.966533303261
-5.963908195496 -77.791351318359 -274.488525390625 2.061414241791
-160.206939697266 -75.770904541016 -268.677215576172 3.770346879959
13.963136672974 -78.830795288086 -279.648742675781 0.836484909058
-151.744964599609 -75.518417358398 -283.121124267578 0.996412932873
-161.307739257813 -74.860084533691 -289.109741210938 1.795299649239
-152.995086669922 -74.518066406250 -283.390838623047 0.414235293865
-166.664703369141 -73.390060424805 -284.659942626953 1.494254469872
3.060481071472 -74.798004150391 -287.862792968750 0.622270703316
9.281616210938 -78.193138122559 -283.855072021484 1.101820230484
-96.706428527832 -72.857170104980 -287.579925537109 1.912044882774
-150.595306396484 -76.442291259766 -288.443115234375 2.002724885941
-147.991302490234 -76.061622619629 -286.443939208984 1.568816781044
-109.457740783691 -74.104255676270 -290.078979492188 0.513677418232
-149.952651977539 -75.254966735840 -290.991882324219 1.419380426407
