24.954635620117 -68.117759704590 -168.393676757813 1.328545212746
-106.138389587402 -69.751594543457 -174.773025512695 1.364474773407
-143.031219482422 -68.916221618652 -176.686996459961 1.869235038757
-23.772291183472 -68.566864013672 -187.459014892578 1.812989711761
-25.857112884521 -67.866744995117 -183.947509765625 0.607536435127
-113.462677001953 -67.870590209961 -188.540878295898 1.588013887405
-143.491836547852 -66.046546936035 -189.328460693359 1.409402370453
-106.430892944336 -69.695785522461 -182.113357543945 0.860800802708
-154.167861938477 -69.941184997559 -195.571609497070 2.068545579910
-131.077743530273 -70.387054443359 -194.678634643555 0.546185076237
-135.417312622070 -68.172737121582 -196.337951660156 2.160855293274
-21.446203231812 -66.605812072754 -193.151168823242 1.352873563766
-122.167770385742 -68.834648132324 -195.035430908203 0.559680938721
-114.750503540039 -67.007125854492 -196.571380615234 1.010984301567
-22.562808990479 -70.125419616699 -196.383346557617 1.080965638161
-154.868087768555 -66.280303955078 -199.610946655273 1.527307629585
-133.522720336914 -70.827278137207 -207.513595581055 3.687788724899
-124.958580017090 -67.031448364258 -205.725082397461 1.312234997749
15.971980094910 -67.835212707520 -203.251449584961 1.580399513245
-161.593582153320 -66.975822448730 -206.045257568359 2.453237771988
8.846103668213 -71.194252014160 -212.366622924805 1.910422921181
12.987806320190 -71.258110046387 -214.067459106445 1.137609839439
-19.675003051758 -68.417350769043 -207.884399414063 1.313983440399
-5.905478000641 -69.787040710449 -215.143554687500 1.737788677216
-167.058609008789 -67.983398437500 -211.487915039063 1.319983363152
-159.272628784180 -67.208282470703 -215.981002807617 1.509913444519
-97.732208251953 -69.361473083496 -218.287002563477 0.404620170593
-101.600494384766 -67.722679138184 -226.270324707031 1.033406376839
-160.475341796875 -66.299400329590 -222.283172607422 2.060279130936
-104.551155090332 -68.646392822266 -221.253219604492 1.305158257484
-14.688483238220 -69.460830688477 -218.477493286133 1.156477808952
-126.000457763672 -68.385047912598 -226.455001831055 2.560759544373
-142.574981689453 -69.940429687500 -225.664260864258 1.461326003075
-5.241950988770 -69.923187255859 -223.957794189453 1.244356632233
-134.122116088867 -67.231224060059 -226.725082397461 1.438988327980
-125.055427551270 -67.261779785156 -226.392974853516 1.394562721252
-113.641891479492 -68.670417785645 -228.668945312500 2.510756254196
1.493669986725 -69.090423583984 -228.136810302734 1.157965540886
-107.795677185059 -67.993331909180 -228.824951171875 1.270202040672
-158.791946411133 -69.294715881348 -223.559173583984 1.995607614517
-148.043457031250 -69.266830444336 -227.698272705078 1.701169371605
-166.192184448242 -67.934181213379 -226.103775024414 1.765096426010
-7.699340820313 -70.101142883301 -229.091171264648 1.574556946754
-9.579492568970 -65.191535949707 -231.067932128906 2.693294286728
77.423179626465 -66.320022583008 -226.730712890625 2.693123817444
1.856999993324 -68.041809082031 -232.045318603516 1.430102109909
-143.321121215820 -67.406402587891 -233.974151611328 0.738052308559
-13.740687370300 -70.074821472168 -229.660873413086 1.840503334999
74.891632080078 -71.355842590332 -226.944091796875 2.684992551804
72.861419677734 -69.820777893066 -232.737350463867 1.174130678177
-133.485214233398 -68.085823059082 -233.166641235352 1.225538015366
-160.226562500000 -67.128562927246 -228.708267211914 0.963849186897
-113.890365600586 -67.324028015137 -233.171905517578 1.919836759567
-122.571273803711 -67.171165466309 -234.654663085938 1.376576423645
-167.142166137695 -65.845405578613 -234.892883300781 3.143937110901
-159.070953369141 -66.922676086426 -237.775817871094 2.028838157654
-141.696487426758 -68.112075805664 -238.679351806641 3.886428117752
-10.019744873047 -72.348297119141 -235.838577270508 1.952935338020
-4.058537960052 -69.066505432129 -240.367996215820 2.248863935471
-161.406936645508 -66.101860046387 -240.016265869141 1.960076332092
6.008460998535 -71.086975097656 -240.636627197266 1.568680882454
6.648322105408 -68.215774536133 -236.524612426758 1.677765607834
-162.861175537109 -67.516502380371 -242.307571411133 1.737311720848
13.469724655151 -69.909812927246 -244.294448852539 1.260591626167
50.480201721191 -69.746742248535 -245.715820312500 1.884023785591
52.382591247559 -67.942657470703 -248.287689208984 1.045480966568
-11.992238044739 -69.995536804199 -246.391433715820 1.309539437294
49.511760711670 -67.876708984375 -247.664871215820 0.259064882994
-163.837173461914 -68.022743225098 -254.111358642578 2.171495676041
-163.841171264648 -66.659774780273 -249.673339843750 1.612995386124
-161.251541137695 -68.548477172852 -249.628707885742 1.614662766457
53.338474273682 -69.209663391113 -252.322280883789 1.541804194450
-90.463272094727 -69.589836120605 -253.518447875977 1.647979617119
-125.663307189941 -68.216781616211 -254.020477294922 1.218642234802
-106.542129516602 -69.593963623047 -255.485855102539 0.686847150326
29.571771621704 -69.930732727051 -257.165649414063 1.447744965553
41.327869415283 -69.574005126953 -252.022277832031 1.969043135643
-100.147453308105 -67.641204833984 -255.113937377930 0.948938369751
-94.114212036133 -67.081779479980 -256.501251220703 1.610616803169
44.656845092773 -68.902908325195 -254.402679443359 2.557100057602
42.415969848633 -68.330650329590 -255.656997680664 0.920976161957
-156.827667236328 -69.295921325684 -260.089447021484 1.807433843613
32.800247192383 -67.930427551270 -256.798583984375 0.934968590736
-141.173446655273 -70.279685974121 -264.883972167969 2.062605857849
-116.255844116211 -66.284812927246 -261.625823974609 0.171586036682
-134.530364990234 -68.202941894531 -265.045989990234 0.978386998177
30.915382385254 -71.416824340820 -263.477569580078 2.882924795151
-127.190696716309 -68.616127014160 -265.136871337891 1.499130368233
-11.013809204102 -67.681114196777 -259.653930664063 2.806647300720
22.309246063232 -71.197853088379 -272.667205810547 2.370204925537
-10.630135536194 -68.138549804688 -267.782684326172 2.115857839584
21.670351028442 -68.326560974121 -281.237487792969 2.416567325592
-151.305023193359 -68.276779174805 -283.403198242188 0.977567613125
-10.959401130676 -70.714538574219 -279.074218750000 1.848973035812
-154.501586914063 -70.353340148926 -286.573425292969 1.631380438805
-126.819290161133 -66.942291259766 -285.640319824219 0.750831305981
-157.956695556641 -70.080261230469 -288.396362304688 1.184254646301
-117.752433776855 -68.212303161621 -287.484283447266 1.724919080734
-106.502357482910 -69.295837402344 -289.890686035156 1.284782767296
-8.030138015747 -68.630874633789 -287.938934326172 1.618045568466
-110.489929199219 -68.180068969727 -292.416748046875 2.889900922775
-117.225868225098 -69.294517517090 -289.598388671875 2.494047164917
-118.873657226563 -68.561790466309 -291.919860839844 0.517558991909
-136.771957397461 -66.191146850586 -290.332489013672 1.835504770279
-125.241798400879 -70.391708374023 -293.503356933594 1.206163764000
-157.990447998047 -69.238655090332 -290.862182617188 2.086387395859
-146.406845092773 -71.058082580566 -296.398406982422 1.912272572517
-152.652252197266 -67.553680419922 -299.725646972656 1.109656572342
-154.255050659180 -66.237052917480 -310.392913818359 2.098521709442
-157.024230957031 -67.747642517090 -301.875030517578 2.889920234680
-146.547622680664 -69.025711059570 -312.392852783203 1.341248869896
-150.837585449219 -67.161087036133 -313.432586669922 0.991876602173
34.306556701660 -71.338996887207 -13.955121994019 2.389720678329
43.537410736084 -72.242019653320 -16.703395843506 2.072143316269
26.385896682739 -66.013412475586 -28.129154205322 2.413187503815
49.724723815918 -70.356918334961 -30.073299407959 0.897891104221
29.463552474976 -70.882057189941 -35.989334106445 1.570862650871
36.553901672363 -73.408172607422 -36.499027252197 1.343971610069
-57.403911590576 -68.363845825195 -45.595504760742 2.681664228439
83.941818237305 -69.588645935059 -62.182952880859 2.547621726990
80.177047729492 -70.203567504883 -65.828224182129 1.133381843567
-92.772056579590 -66.939758300781 -62.420085906982 2.248420476913
-13.213685035706 -67.941566467285 -63.293891906738 2.009205341339
-90.836631774902 -71.596984863281 -67.584197998047 0.797658205032
96.059135437012 -69.762008666992 -70.435623168945 1.302492022514
-16.799650192261 -66.934371948242 -68.511650085449 1.233025193214
67.668815612793 -71.301406860352 -75.985595703125 2.249696969986
-39.331203460693 -72.154937744141 -76.823905944824 1.115732192993
-29.451807022095 -73.575286865234 -79.323677062988 1.956049084663
56.165206909180 -68.955123901367 -86.104331970215 1.671017765999
-46.600688934326 -78.543167114258 -86.780380249023 1.149750828743
63.252872467041 -67.018753051758 -84.093833923340 2.003564596176
53.320430755615 -70.224029541016 -86.526214599609 1.522303223610
50.008411407471 -72.485305786133 -92.374900817871 1.982475638390
62.860153198242 -69.148147583008 -91.661888122559 1.628253221512
57.717624664307 -70.148979187012 -97.124305725098 1.305453896523
101.645416259766 -68.247077941895 -96.155021667480 1.155099511147
103.684959411621 -71.004653930664 -96.324630737305 1.554570198059
57.827007293701 -72.376640319824 -98.408348083496 1.530642032623
106.481796264648 -68.164306640625 -98.581710815430 1.807437181473
-74.477645874023 -71.558441162109 -100.256790161133 1.659058928490
-71.923782348633 -68.878204345703 -101.499488830566 0.839613199234
101.646446228027 -70.929122924805 -97.955413818359 0.963860750198
53.223373413086 -68.957794189453 -101.030929565430 1.032702326775
70.571891784668 -70.792442321777 -101.260162353516 2.091439723969
-72.472381591797 -65.724586486816 -103.456741333008 1.852051377296
-83.090888977051 -67.159721374512 -106.231620788574 1.366795182228
93.144950866699 -69.416084289551 -107.910087585449 2.338602781296
42.145664215088 -69.023132324219 -105.451934814453 0.904720067978
102.013008117676 -69.082344055176 -102.712196350098 2.400607347488
43.501026153564 -68.894454956055 -112.273086547852 1.290416121483
110.243659973145 -68.084236145020 -106.861366271973 2.462695360184
-82.539329528809 -65.740768432617 -108.816184997559 2.501965522766
105.784065246582 -66.943374633789 -108.956626892090 1.828056931496
-86.556640625000 -66.342391967773 -118.825370788574 1.771855711937
-59.275577545166 -70.028739929199 -127.497528076172 1.532505512238
-56.442466735840 -67.038177490234 -127.359733581543 1.774399518967
-74.256729125977 -68.980842590332 -129.639724731445 1.466098666191
-51.474739074707 -69.724380493164 -130.810119628906 1.276265621185
-85.750823974609 -69.057106018066 -132.003601074219 0.955816924572
-78.171989440918 -69.440490722656 -135.070587158203 2.097136020660
-84.374961853027 -67.712974548340 -128.370773315430 2.139474630356
-57.565574645996 -71.246421813965 -139.422073364258 1.648213148117
-73.196952819824 -67.078498840332 -139.426345825195 0.913613021374
-60.033565521240 -67.672264099121 -137.096481323242 1.644533395767
-62.321193695068 -69.889587402344 -139.458435058594 1.927931547165
22.177150726318 -69.444396972656 -140.811508178711 2.208739042282
-89.399215698242 -68.824592590332 -144.695465087891 2.076891183853
-46.800514221191 -69.897766113281 -144.945236206055 2.348408699036
-99.402549743652 -66.068954467773 -149.861480712891 1.303725242615
-101.269287109375 -67.309692382813 -152.340286254883 2.458096027374
17.072677612305 -71.117370605469 -152.764129638672 1.412484169006
13.017242431641 -70.949813842773 -158.103286743164 0.850050926208
-98.870811462402 -68.008796691895 -158.976501464844 0.956098854542
-101.976135253906 -66.655479431152 -158.282455444336 0.762200653553
-99.609771728516 -67.404907226563 -169.224548339844 1.618080735207
20.642505645752 -67.209053039551 -169.611236572266 2.042699337006
-110.889595031738 -68.970138549805 -170.160171508789 3.905171394348
18.750713348389 -70.142730712891 -168.970520019531 1.486551642418
-146.965255737305 -68.654502868652 -177.313217163086 2.039423704147
16.648033142090 -69.069496154785 -176.773849487305 1.219968557358
22.071405410767 -69.487716674805 -186.258453369141 1.571148991585
-153.816665649414 -66.371398925781 -188.070770263672 1.659698963165
20.228282928467 -69.362892150879 -179.305877685547 1.582718372345
16.759731292725 -67.668601989746 -178.650421142578 1.133042216301
-140.285522460938 -71.407447814941 -189.928359985352 3.414285898209
-152.170532226563 -68.642272949219 -189.679031372070 1.975081682205
18.254339218140 -67.762794494629 -189.576690673828 1.448821663857
18.626968383789 -67.119812011719 -188.052612304688 1.036131381989
-144.993408203125 -67.760948181152 -193.201766967773 2.090735197067
-108.951843261719 -69.889144897461 -196.785491943359 2.044661760330
20.551559448242 -68.820030212402 -196.851562500000 1.267041683197
-125.376251220703 -65.402091979980 -194.176315307617 1.701885938644
11.410798072815 -69.303047180176 -198.210296630859 1.405781865120
-132.949371337891 -65.838272094727 -195.670379638672 1.194846987724
-153.832321166992 -66.825508117676 -194.151290893555 1.310619235039
-163.357803344727 -69.385482788086 -199.604095458984 1.599029421806
-162.968627929688 -66.035163879395 -200.212188720703 0.947946012020
-19.271049499512 -66.521171569824 -201.992965698242 0.585203647614
-166.521133422852 -67.923744201660 -201.680801391602 1.552131772041
-23.626449584961 -67.775688171387 -193.303634643555 1.633649945259
-15.949919700623 -68.353027343750 -198.982574462891 2.528664112091
13.118491172791 -68.060684204102 -195.352966308594 1.731895804405
-159.709106445313 -65.443695068359 -199.368698120117 1.083628177643
-111.164970397949 -67.019050598145 -202.156021118164 1.469988703728
-18.583089828491 -68.885742187500 -206.344314575195 1.013110876083
-157.980804443359 -68.427337646484 -202.319015502930 0.335146844387
16.127441406250 -66.655471801758 -200.137145996094 1.719602108002
-165.218811035156 -66.724807739258 -202.677795410156 0.746206164360
-122.305206298828 -69.848556518555 -204.685073852539 1.539456844330
-113.200080871582 -66.432067871094 -206.479873657227 2.965220928192
-125.138648986816 -64.884101867676 -206.929901123047 2.088927984238
-14.076148986816 -69.628944396973 -204.444229125977 1.513183116913
-16.876325607300 -66.621536254883 -205.561920166016 2.229322195053
-164.324661254883 -65.634544372559 -209.996139526367 1.493907690048
-161.156387329102 -66.362731933594 -214.218185424805 2.096173763275
-165.842544555664 -67.620887756348 -220.025375366211 2.538728475571
-146.707382202148 -68.772964477539 -213.136016845703 2.840582132339
-144.348037719727 -68.024200439453 -223.686630249023 0.877538979053
-6.707194805145 -67.036079406738 -221.567016601563 1.253503441811
-12.634748458862 -67.383209228516 -217.713317871094 1.390591859818
-100.228134155273 -67.849731445313 -222.398071289063 0.772955536842
-6.829229831696 -67.694381713867 -224.734924316406 1.651942253113
-165.008407592773 -66.606857299805 -227.032455444336 0.959144294262
-111.954444885254 -65.082809448242 -231.106048583984 1.388155937195
-0.740086972713 -66.894760131836 -228.105529785156 1.748693943024
4.165149211884 -66.658805847168 -230.546524047852 0.967645585537
-112.558570861816 -68.070487976074 -233.028305053711 2.220868349075
-2.583343982697 -65.746345520020 -231.735656738281 1.948976993561
-116.522888183594 -66.690719604492 -236.398239135742 1.948667287827
-6.535020828247 -66.518379211426 -237.833068847656 0.920671880245
-3.987186908722 -68.713333129883 -234.139801025391 1.597137808800
-1.064421057701 -67.820228576660 -238.018310546875 1.947340607643
68.359809875488 -69.003288269043 -236.281280517578 1.757593750954
-14.244659423828 -70.132339477539 -237.021270751953 1.810476064682
3.115309000015 -67.697837829590 -238.681900024414 0.412132114172
10.283490180969 -67.873268127441 -241.597946166992 1.478142857552
6.176688194275 -69.578086853027 -239.440780639648 0.868652164936
0.082571998239 -70.295738220215 -240.895523071289 1.842999577522
65.688598632813 -69.535324096680 -237.730514526367 1.701441168785
69.431602478027 -68.780426025391 -239.867721557617 1.687782883644
12.172040939331 -69.504768371582 -243.334640502930 1.764649868011
57.752590179443 -68.061599731445 -240.936584472656 1.184385895729
56.026615142822 -70.563873291016 -240.489196777344 0.692444145679
46.574798583984 -66.392021179199 -246.075576782227 1.182794928551
37.906143188477 -69.530204772949 -251.169158935547 2.649843215942
39.628784179688 -68.828758239746 -253.122100830078 0.682710051537
-134.885803222656 -67.730003356934 -255.200775146484 0.873315989971
-14.413631439209 -70.179115295410 -253.054382324219 1.440268039703
24.970478057861 -69.745780944824 -258.702453613281 1.084476232529
47.075805664063 -68.817062377930 -252.701629638672 0.964549422264
23.744859695435 -66.763793945313 -255.727310180664 1.532587051392
-101.158378601074 -66.739112854004 -259.415893554688 1.110135912895
32.709465026855 -67.813087463379 -255.952545166016 0.951064825058
-150.865158081055 -67.698371887207 -260.456726074219 1.477825880051
-116.489601135254 -65.243339538574 -260.064453125000 1.262546896935
-105.152496337891 -67.509712219238 -256.667694091797 1.250036954880
-7.055047988892 -67.140098571777 -259.589782714844 0.750597476959
-151.083663940430 -69.970855712891 -257.321502685547 1.855690240860
31.446397781372 -66.583381652832 -259.121246337891 1.018958449364
-112.967041015625 -67.928565979004 -257.452606201172 0.749496400356
27.285762786865 -68.188995361328 -259.217163085938 1.203861355782
-134.544754028320 -65.652915954590 -260.799468994141 1.096889376640
-117.680465698242 -66.981872558594 -260.753051757813 1.702582120895
-106.876953125000 -65.265998840332 -260.575683593750 1.960902810097
-117.039184570313 -66.420944213867 -263.835418701172 0.816040337086
-138.079849243164 -67.996116638184 -263.386749267578 2.610082149506
27.316267013550 -67.541709899902 -263.108612060547 0.621442854404
-118.676666259766 -66.208412170410 -265.396026611328 2.002425670624
-144.096389770508 -68.318405151367 -266.629272460938 2.156901359558
-5.603751182556 -68.655502319336 -272.196136474609 1.525764346123
-153.473220825195 -67.709541320801 -282.185913085938 2.008932352066
-9.076122283936 -68.623725891113 -282.362609863281 2.159124851227
-4.722629070282 -68.688751220703 -286.529632568359 2.156605720520
-135.058319091797 -68.699890136719 -286.774383544922 0.952112615108
-123.803680419922 -65.924636840820 -289.201354980469 1.183675765991
-137.415115356445 -66.396629333496 -292.597747802734 2.483446121216
-127.485816955566 -68.857116699219 -295.585906982422 1.282342076302
-152.340805053711 -68.761764526367 -296.003448486328 1.099308609962
-152.521469116211 -68.776382446289 -301.864654541016 1.959741473198
-148.534393310547 -70.109558105469 -302.871520996094 3.536958217621
-150.956787109375 -64.970672607422 -300.316986083984 1.444791197777
-144.532928466797 -68.205429077148 -302.652099609375 1.983221530914
-146.681121826172 -66.968605041504 -303.402160644531 2.262121200562
-149.134536743164 -67.437301635742 -312.434997558594 1.770044088364
20.610586166382 -72.950286865234 -30.802200317383 1.624412655830
47.298042297363 -71.873428344727 -35.021240234375 0.725456058979
26.564188003540 -73.884529113770 -39.003379821777 2.728903293610
32.240718841553 -72.085983276367 -40.918865203857 0.908867776394
-45.632019042969 -67.189651489258 -48.922237396240 2.451207637787
-80.031051635742 -68.776428222656 -51.218273162842 1.796129226685
79.800712585449 -67.829750061035 -62.565536499023 1.835834622383
77.532783508301 -67.296615600586 -62.438812255859 0.819249629974
69.509178161621 -68.929168701172 -67.932395935059 3.108942031860
-97.793029785156 -67.088417053223 -73.797439575195 2.540346622467
99.812576293945 -70.007736206055 -75.068214416504 1.483186721802
-35.608768463135 -65.320205688477 -77.960433959961 2.644188404083
66.818031311035 -69.292739868164 -78.094467163086 1.955495119095
-44.899272918701 -66.231658935547 -80.886665344238 0.541919529438
-51.554077148438 -66.437416076660 -83.383079528809 1.621143937111
50.051128387451 -69.738235473633 -90.262489318848 0.676498115063
101.420005798340 -69.755157470703 -89.596824645996 2.155946969986
64.862815856934 -67.010276794434 -95.060462951660 2.219363451004
56.472877502441 -68.153579711914 -95.295150756836 2.054039955139
48.417301177979 -68.913154602051 -101.960144042969 1.455217599869
58.106670379639 -66.915573120117 -98.009086608887 1.353046417236
104.018669128418 -68.065933227539 -98.832435607910 1.198726415634
70.390449523926 -69.937995910645 -105.783149719238 4.071532249451
48.322982788086 -67.950057983398 -106.388900756836 0.973256170750
77.265510559082 -69.764305114746 -106.406738281250 1.392225146294
90.186454772949 -67.550582885742 -109.850746154785 2.470223426819
-79.278762817383 -68.460060119629 -108.522262573242 0.986484408379
-87.426300048828 -69.701683044434 -110.392547607422 2.090099096298
-84.800903320313 -68.878799438477 -115.276878356934 2.359935522079
-61.244106292725 -66.520431518555 -117.940895080566 1.353726983070
-56.736507415771 -71.021797180176 -124.592475891113 2.463390588760
-94.810920715332 -66.175865173340 -122.150123596191 1.082597851753
-78.511817932129 -67.309783935547 -120.752830505371 0.871321916580
-77.360115051270 -68.904197692871 -129.948974609375 1.709954857826
-61.939235687256 -68.944213867188 -128.210952758789 1.538703322411
-89.864891052246 -63.463325500488 -130.539337158203 1.458731770515
-92.141319274902 -68.048477172852 -130.077865600586 2.173673152924
-49.555618286133 -70.081420898438 -136.997680664063 0.696740567684
-55.080177307129 -65.650817871094 -136.255157470703 1.584420323372
-77.394020080566 -65.961364746094 -139.114395141602 1.634854197502
-55.223274230957 -67.464981079102 -142.836196899414 0.957755744457
-75.554283142090 -67.703948974609 -144.868377685547 1.746126174927
21.998910903931 -66.573387145996 -140.034881591797 1.505272030830
-58.463596343994 -68.261322021484 -146.184646606445 2.276105642319
-52.694313049316 -66.991775512695 -146.556365966797 1.435803651810
11.095517158508 -69.109214782715 -154.647003173828 1.869925379753
14.168931961060 -66.690002441406 -152.281478881836 2.184694051743
-144.245391845703 -65.499870300293 -176.317214965820 1.456849336624
-109.372619628906 -68.890342712402 -180.083358764648 1.610226750374
-108.385810852051 -67.078460693359 -188.212692260742 1.899325370789
-150.589096069336 -67.698211669922 -194.782363891602 1.671485662460
-112.433845520020 -66.718589782715 -185.795166015625 1.472714066505
-153.645568847656 -65.114273071289 -196.528167724609 1.703262805939
-114.903068542480 -64.318115234375 -197.319717407227 0.950257360935
-148.055084228516 -67.535942077637 -199.456497192383 1.529764294624
-151.737640380859 -69.782241821289 -204.808029174805 1.905944705009
-152.796127319336 -69.521148681641 -211.790115356445 3.281737327576
-145.946701049805 -67.604614257813 -222.520904541016 1.505175590515
-153.338424682617 -69.573616027832 -223.970016479492 1.458987116814
-105.008140563965 -67.168190002441 -223.254028320313 1.364086985588
-103.716590881348 -66.928474426270 -226.478668212891 1.502265095711
-123.753883361816 -63.778514862061 -227.342575073242 1.962939858437
-110.760910034180 -64.715995788574 -227.975112915039 1.960720419884
-155.413269042969 -68.767631530762 -232.327636718750 1.713050603867
-3.543952941895 -68.536102294922 -229.450607299805 1.876922488213
-133.419479370117 -65.332283020020 -231.055862426758 1.313263535500
-155.334228515625 -68.509437561035 -235.983184814453 1.934845447540
-135.120574951172 -66.290710449219 -234.980941772461 1.642370223999
-12.101976394653 -68.583328247070 -240.797042846680 0.741474092007
7.416722774506 -69.357040405273 -242.581787109375 1.223260760307
62.500308990479 -65.823104858398 -241.331848144531 0.781743586063
19.076427459717 -68.539482116699 -247.684432983398 1.040470123291
59.559589385986 -67.228805541992 -246.435348510742 0.929258763790
40.971984863281 -66.429794311523 -247.084564208984 3.064670801163
53.804698944092 -68.237945556641 -249.516159057617 1.624604463577
-152.009307861328 -67.310752868652 -252.801574707031 1.039098024368
-153.420471191406 -67.711105346680 -253.366760253906 2.147048711777
41.274829864502 -69.780174255371 -255.352493286133 1.306529879570
30.820468902588 -66.169563293457 -258.942565917969 0.709604203701
46.940387725830 -66.549621582031 -250.600509643555 0.908796191216
-144.062500000000 -68.827545166016 -256.341491699219 1.591325640678
-135.191406250000 -65.543746948242 -256.216033935547 1.096300721169
-126.374053955078 -66.138717651367 -257.423400878906 1.369441747665
-134.528259277344 -65.231872558594 -257.635559082031 1.182310581207
-141.586090087891 -64.844589233398 -258.847381591797 1.600565433502
-124.383666992188 -66.403732299805 -258.329101562500 0.253419518471
-142.641128540039 -66.382446289063 -261.005004882813 0.829767704010
-125.700195312500 -67.305091857910 -261.852050781250 1.428190231323
-126.070373535156 -63.819507598877 -262.927642822266 2.043187856674
-126.007926940918 -69.076492309570 -264.142700195313 1.481491923332
-118.381195068359 -66.553649902344 -262.762420654297 1.085858702660
-4.878249168396 -68.030899047852 -265.284545898438 1.425430774689
26.815589904785 -69.260017395020 -263.256652832031 0.867223918438
-146.888153076172 -68.535781860352 -265.935211181641 0.876954793930
27.791110992432 -65.161239624023 -266.768524169922 1.536386132240
-4.998804092407 -66.853675842285 -270.574218750000 0.537697196007
15.975863456726 -71.164329528809 -284.183776855469 1.466176509857
-142.782135009766 -67.192863464355 -289.849304199219 1.184533596039
-125.452171325684 -65.379791259766 -288.455352783203 0.859089851379
-134.475097656250 -66.473854064941 -287.973602294922 0.849487721920
-157.426147460938 -64.579040527344 -290.383666992188 1.556135296822
-124.879219055176 -65.929748535156 -289.301391601563 0.707032918930
-117.990890502930 -64.048522949219 -289.679779052734 1.546568989754
-127.418533325195 -65.502868652344 -291.951477050781 1.257263898849
-151.050827026367 -67.800750732422 -296.892913818359 1.646455883980
27.015111923218 -71.965858459473 -14.124320030212 1.362634062767
30.444746017456 -73.280166625977 -18.385309219360 1.561927556992
38.082782745361 -73.285774230957 -18.264280319214 2.474546909332
46.616466522217 -64.988975524902 -24.961492538452 2.758260488510
24.147171020508 -72.213371276855 -27.903577804565 1.541485190392
23.204236984253 -72.326316833496 -34.345302581787 1.580664634705
-36.632343292236 -68.095802307129 -46.441818237305 2.317783594131
-83.331947326660 -68.079475402832 -51.999965667725 1.400070309639
-15.310094833374 -67.639411926270 -57.176074981689 1.126238703728
69.597991943359 -67.505470275879 -65.750274658203 1.940638184547
96.776115417480 -68.109848022461 -67.680892944336 2.124715328217
63.674655914307 -67.962059020996 -81.061958312988 2.050997018814
61.343673706055 -64.241172790527 -81.783653259277 1.875471591949
100.762916564941 -65.470176696777 -83.526855468750 2.552469015121
-63.578712463379 -65.132011413574 -88.872344970703 0.914725482464
-64.750503540039 -65.095962524414 -93.453239440918 0.906888365746
47.497142791748 -66.217788696289 -95.013687133789 2.032416105270
-64.847114562988 -64.851814270020 -97.040512084961 1.657498836517
-70.257522583008 -64.787315368652 -99.819984436035 1.950412034988
-100.899017333984 -64.154006958008 -97.158378601074 2.220384836197
-74.674224853516 -65.756225585938 -101.210830688477 0.955216526985
46.893497467041 -67.362213134766 -102.959449768066 1.630137205124
-71.365829467773 -67.822113037109 -103.801704406738 1.003369688988
50.549880981445 -67.333366394043 -100.333496093750 1.149695992470
96.721183776855 -69.231437683105 -102.964210510254 1.994580388069
90.681320190430 -67.973251342773 -107.599258422852 0.895177483559
-75.520301818848 -66.919029235840 -112.594032287598 1.888577818871
-82.567001342773 -66.653320312500 -112.035354614258 2.135756731033
-63.340732574463 -65.256813049316 -119.382942199707 1.814985752106
-96.705841064453 -65.498779296875 -118.955993652344 0.606371819973
-78.112190246582 -68.675430297852 -128.365295410156 1.123444676399
-91.929115295410 -62.916378021240 -125.549949645996 2.688216209412
-63.904342651367 -65.044654846191 -120.671379089355 1.826206684113
-60.698932647705 -65.064826965332 -118.628417968750 1.582575201988
-88.430450439453 -64.213623046875 -129.925872802734 1.123421192169
-62.646759033203 -68.078178405762 -129.450241088867 0.919027090073
-83.952987670898 -65.327713012695 -129.124328613281 1.562179565430
-73.150245666504 -67.002342224121 -132.547103881836 1.246695876122
-66.497802734375 -67.272674560547 -131.533508300781 3.739026069641
-61.742813110352 -63.660396575928 -136.464096069336 2.086283206940
-54.691707611084 -66.104225158691 -138.306625366211 1.504366993904
-92.380867004395 -65.970634460449 -135.864074707031 1.480326771736
-97.592285156250 -66.501609802246 -142.255615234375 2.214053392410
-87.149040222168 -67.614181518555 -135.894790649414 1.059283971786
22.890953063965 -68.160583496094 -146.752685546875 1.604925394058
-50.587120056152 -67.213035583496 -144.139724731445 2.264584064484
14.318848609924 -64.910774230957 -148.646911621094 1.454502701759
-98.877685546875 -64.887168884277 -162.487426757813 1.218173980713
-100.379943847656 -64.969818115234 -171.820388793945 1.997727036476
-100.706115722656 -62.747234344482 -171.986160278320 2.949381113052
-108.893638610840 -67.076965332031 -168.489624023438 2.513501167297
-106.280479431152 -67.491668701172 -182.298553466797 1.199103713036
-110.164710998535 -63.798973083496 -179.923568725586 1.217576384544
-144.147338867188 -66.092056274414 -188.136749267578 1.243700146675
-111.773651123047 -65.609397888184 -187.819015502930 1.466726779938
-133.863037109375 -62.514759063721 -194.229446411133 2.619466304779
-146.102005004883 -67.835571289063 -198.588348388672 1.660884022713
-124.323989868164 -66.340682983398 -198.069152832031 2.009081840515
-156.002868652344 -67.419532775879 -198.885955810547 1.831012368202
-145.390823364258 -65.535789489746 -201.346542358398 1.470585703850
-122.713005065918 -62.598022460938 -200.621734619141 1.097764253616
-134.963348388672 -66.116477966309 -204.038848876953 1.048164248466
-145.922607421875 -65.336708068848 -208.964828491211 2.081714391708
-133.255996704102 -66.512565612793 -224.211105346680 1.102575659752
-113.211097717285 -64.867706298828 -228.456268310547 1.073184847832
-149.546005249023 -67.435569763184 -229.251190185547 0.422001302242
-117.749534606934 -63.797153472900 -231.004928588867 2.504696607590
-111.496177673340 -65.050758361816 -232.599456787109 2.607339382172
-125.064323425293 -66.584320068359 -235.086608886719 1.283427596092
-129.120803833008 -67.398193359375 -235.675094604492 2.675998449326
-117.937263488770 -63.459823608398 -235.529693603516 2.423046588898
2.136405944824 -67.289421081543 -235.280212402344 1.272975325584
-150.740982055664 -66.411300659180 -236.418716430664 0.820209503174
6.803665161133 -69.254432678223 -232.797592163086 1.233891487122
7.572008132935 -65.097000122070 -240.166778564453 0.585400938988
0.780269026756 -67.756179809570 -239.940780639648 1.483524322510
14.192745208740 -65.195510864258 -240.536865234375 1.931156039238
-145.372909545898 -66.654685974121 -237.121170043945 1.610465407372
-4.310214996338 -66.122634887695 -245.059204101563 1.896711468697
18.791297912598 -64.485923767090 -243.069564819336 1.026877284050
46.828781127930 -65.444290161133 -248.589309692383 1.526451110840
50.322559356689 -66.002159118652 -246.425659179688 2.431792736053
-147.711730957031 -67.051757812500 -252.482482910156 1.117176055908
-7.022158145905 -67.760574340820 -253.554489135742 2.050641059875
27.363574981689 -66.430099487305 -257.305999755859 0.905984520912
-134.043472290039 -62.183269500732 -260.178741455078 2.676700353622
-128.168472290039 -63.966598510742 -261.831024169922 1.487418293953
-127.740890502930 -65.228187561035 -258.899902343750 1.562502503395
24.877885818481 -66.335945129395 -260.911590576172 1.236438512802
-136.886795043945 -65.993988037109 -264.160705566406 2.835546731949
27.983789443970 -67.206886291504 -260.410400390625 1.220611810684
29.760135650635 -66.730331420898 -265.032073974609 1.295132875443
-153.074249267578 -66.036605834961 -265.637878417969 2.286685705185
-148.507339477539 -69.282600402832 -289.098052978516 1.002068400383
-153.326812744141 -66.078063964844 -290.847320556641 2.036482810974
-143.700881958008 -64.331459045410 -291.543304443359 0.867876112461
7.552814960480 -68.369743347168 -293.668884277344 1.622527003288
-155.032577514648 -65.245704650879 -295.643737792969 1.813827991486
43.595298767090 -72.628044128418 -26.577596664429 2.217142105103
34.474620819092 -72.844055175781 -40.799709320068 2.060281991959
-66.645637512207 -66.841911315918 -46.628452301025 1.694059848785
-76.023330688477 -64.851753234863 -46.381385803223 1.067721724510
-28.927061080933 -67.200569152832 -50.869915008545 2.197195768356
-22.860166549683 -67.955680847168 -57.313102722168 2.235646009445
-14.983543395996 -65.763153076172 -67.153633117676 0.899295866489
-27.065320968628 -64.555236816406 -70.630737304688 1.743277072906
65.259605407715 -67.196800231934 -72.641685485840 2.707994461060
-99.104919433594 -64.563491821289 -80.048553466797 3.490176200867
-49.620033264160 -65.870048522949 -84.032897949219 0.894514858723
53.321456909180 -66.107055664063 -85.133468627930 1.761512517929
55.175228118896 -66.918136596680 -88.179115295410 1.242061257362
66.424629211426 -66.888626098633 -87.993446350098 2.119456291199
103.127365112305 -67.054565429688 -92.573806762695 2.136763811111
52.204071044922 -64.935012817383 -92.788337707520 2.166188478470
98.138542175293 -67.846168518066 -101.445907592773 1.222569227219
-80.418395996094 -67.109443664551 -103.326583862305 1.536289334297
-98.973808288574 -67.116844177246 -104.249000549316 2.018003702164
75.928421020508 -66.228614807129 -109.890701293945 2.110251188278
-77.274856567383 -64.384979248047 -102.987052917480 1.916886210442
-80.260345458984 -67.369941711426 -118.511672973633 2.509225606918
-84.652137756348 -64.883026123047 -119.610282897949 1.045939564705
-55.954734802246 -67.001655578613 -126.755584716797 1.691132903099
-80.638656616211 -65.521438598633 -127.130714416504 2.128913640976
-62.348770141602 -67.309486389160 -131.511184692383 0.750920832157
-80.730369567871 -68.050743103027 -135.039169311523 1.181892514229
-75.562141418457 -63.520225524902 -133.347488403320 1.691802144051
-82.095649719238 -62.402114868164 -126.384628295898 0.935907423496
-88.084754943848 -64.320381164551 -130.257354736328 1.260143160820
-63.096187591553 -65.554870605469 -132.412521362305 1.935176730156
-91.186454772949 -65.325653076172 -134.593200683594 1.409677267075
-51.664924621582 -67.093101501465 -134.067703247070 1.867964982986
-55.983150482178 -66.708786010742 -140.881759643555 1.253849506378
25.975561141968 -66.726272583008 -137.644973754883 1.511301517487
-59.734981536865 -62.383880615234 -137.165527343750 1.261431813240
12.555908203125 -67.457420349121 -146.743927001953 1.719031333923
18.879878997803 -65.688041687012 -148.642105102539 1.816345334053
17.225912094116 -65.574111938477 -152.315795898438 0.992851078510
-97.845184326172 -66.178314208984 -145.570098876953 1.854244470596
-95.181838989258 -65.728561401367 -154.431396484375 1.849435806274
-97.980491638184 -61.619445800781 -153.786270141602 2.320029973984
-100.455245971680 -65.500999450684 -157.602691650391 2.050898075104
-95.489990234375 -64.053924560547 -159.456848144531 1.922178030014
-152.238723754883 -69.961631774902 -176.776229858398 0.895117580891
-154.170486450195 -66.406181335449 -177.619796752930 2.138626813889
-106.473922729492 -65.836524963379 -184.194442749023 1.112804651260
-143.725921630859 -61.963859558105 -179.255218505859 1.980837464333
-111.508270263672 -65.251281738281 -180.174591064453 2.254909515381
-151.796371459961 -64.512046813965 -188.464004516602 1.489269852638
-113.464355468750 -64.969963073730 -194.002487182617 2.331447124481
-108.080711364746 -64.554244995117 -188.041213989258 1.255304932594
-143.628250122070 -65.691596984863 -197.016555786133 2.465581655502
-134.665161132813 -65.304878234863 -198.893493652344 1.546525955200
-109.099502563477 -64.894187927246 -199.217391967773 1.466415643692
-116.151023864746 -64.937202453613 -201.254730224609 1.564306974411
-114.044067382813 -63.559074401855 -202.195083618164 1.136000156403
-114.623962402344 -63.997840881348 -204.409164428711 1.755694270134
-134.527816772461 -63.927947998047 -199.963333129883 0.681795775890
-135.350112915039 -64.716224670410 -201.303436279297 1.694491624832
-132.871780395508 -65.895324707031 -203.213424682617 1.463710904121
-125.126770019531 -62.537979125977 -203.838043212891 0.929480731487
-125.803398132324 -64.008033752441 -207.541534423828 2.826027393341
-117.462638854980 -63.080543518066 -205.622695922852 1.984956741333
-146.860565185547 -65.297813415527 -218.002182006836 1.228447437286
-151.529586791992 -65.162513732910 -225.744079589844 3.091300010681
-155.127166748047 -62.129364013672 -224.640457153320 1.749628305435
-142.196777343750 -67.227401733398 -226.137405395508 0.838735401630
-135.255279541016 -64.014099121094 -228.392898559570 1.325781822205
-125.706977844238 -65.950660705566 -224.971923828125 0.701214313507
-142.216796875000 -63.730773925781 -230.708877563477 1.901298761368
-149.636734008789 -67.039497375488 -230.723403930664 1.352866292000
-138.288421630859 -64.717567443848 -227.447021484375 3.207561969757
-133.076858520508 -62.700805664063 -229.589630126953 1.285365581512
-149.495376586914 -66.230705261230 -232.382247924805 2.196218252182
-135.193634033203 -64.409805297852 -233.986038208008 2.510680913925
-126.010818481445 -62.365432739258 -230.571517944336 1.154874682426
-7.711391925812 -67.987251281738 -237.663711547852 0.939065635204
3.301438093185 -65.461029052734 -238.259994506836 1.741928815842
10.802029609680 -64.979896545410 -242.698776245117 2.040962219238
10.425339698792 -66.224510192871 -242.914535522461 1.323994994164
-10.099043846130 -66.645454406738 -244.878173828125 1.103853702545
-11.878950119019 -63.890663146973 -248.361846923828 1.952098727226
42.409805297852 -62.938343048096 -252.696319580078 1.159221053123
49.259548187256 -66.903594970703 -250.873565673828 1.701835513115
-145.883468627930 -63.061462402344 -256.846008300781 0.868628501892
41.320819854736 -64.879135131836 -257.298309326172 1.394456982613
33.573814392090 -64.993286132813 -252.938079833984 2.681395053864
-157.857040405273 -62.968627929688 -258.877532958984 2.736431360245
-151.900894165039 -62.746704101563 -260.854248046875 0.960983753204
-148.112167358398 -66.755126953125 -262.127532958984 2.435635089874
1.576179981232 -65.822395324707 -264.915588378906 2.100955963135
-153.725357055664 -63.780864715576 -266.886932373047 2.815409183502
0.446417003870 -65.078910827637 -276.119201660156 3.539372444153
-146.537475585938 -65.680305480957 -274.583190917969 0.773667871952
-147.032531738281 -63.545448303223 -285.224487304688 1.090559005737
-152.536575317383 -64.366462707520 -283.780944824219 1.259099960327
-150.699630737305 -63.275550842285 -284.772033691406 1.478027343750
-145.862136840820 -63.486621856689 -285.263488769531 1.084016084671
-156.239959716797 -61.729705810547 -288.625244140625 2.946370601654
-151.319534301758 -61.800483703613 -286.471191406250 1.491942048073
-150.987213134766 -64.339042663574 -286.652069091797 1.179083585739
-146.256530761719 -65.591430664063 -287.963317871094 2.012037277222
-143.312210083008 -63.212684631348 -289.094238281250 1.827153563499
13.345519065857 -66.466102600098 -291.756439208984 3.094568014145
-148.925155639648 -61.868679046631 -290.427947998047 2.263959646225
-157.271392822266 -63.489803314209 -291.402191162109 1.920570731163
-152.409240722656 -62.999271392822 -290.590515136719 0.982937335968
-151.124649047852 -63.021690368652 -295.386322021484 1.749405860901
-152.364242553711 -63.165580749512 -290.987091064453 0.688354551792
-149.016921997070 -65.314025878906 -292.798400878906 2.158263206482
1.192510008812 -63.446159362793 -293.953399658203 1.646238446236
-145.395767211914 -64.095520019531 -294.762207031250 1.477845788002
-146.819808959961 -63.834533691406 -295.108764648438 1.071484088898
28.466856002808 -61.990051269531 -20.161735534668 2.325630426407
38.919239044189 -68.619430541992 -17.597024917603 2.508012056351
41.177364349365 -64.278511047363 -23.841831207275 2.877594232559
18.713090896606 -72.267097473145 -31.892574310303 2.495657444000
28.927276611328 -62.516975402832 -36.200008392334 1.937156319618
39.356300354004 -73.695533752441 -36.374908447266 2.098437786102
-59.193820953369 -64.235801696777 -43.841911315918 2.242234468460
-54.550483703613 -65.957542419434 -46.066467285156 2.667279958725
88.886535644531 -66.799568176270 -60.561927795410 2.165444612503
-97.562751770020 -63.625190734863 -66.003601074219 1.874209284782
93.232978820801 -69.138610839844 -67.021156311035 1.808240890503
64.062355041504 -64.394180297852 -67.644317626953 3.153590917587
102.355987548828 -67.895347595215 -77.077018737793 2.134770393372
64.157417297363 -66.127143859863 -74.324623107910 1.975497484207
-41.986671447754 -67.957954406738 -78.956161499023 1.045832872391
58.778652191162 -63.511993408203 -82.939193725586 2.197496891022
-60.093082427979 -63.289001464844 -79.147216796875 3.076740741730
61.960578918457 -63.950332641602 -85.647247314453 2.197058677673
61.942005157471 -65.504791259766 -82.560554504395 1.413007140160
-100.006446838379 -65.388610839844 -82.022956848145 2.950091362000
50.394905090332 -66.293678283691 -90.520195007324 1.409121870995
50.357955932617 -67.442939758301 -94.139930725098 1.330348253250
63.687065124512 -66.698699951172 -92.724800109863 0.928381025791
51.627510070801 -63.487098693848 -95.570190429688 1.909135103226
-82.767608642578 -65.312431335449 -108.714790344238 2.093659400940
83.347465515137 -69.257186889648 -105.481880187988 1.925062060356
-77.658424377441 -63.741451263428 -114.595718383789 1.060866236687
-76.158126831055 -63.640316009521 -109.395057678223 1.000796198845
-82.871040344238 -65.849212646484 -121.598220825195 1.933976769447
-88.043601989746 -64.725082397461 -111.955513000488 1.328587174416
-91.145591735840 -67.143028259277 -120.464096069336 1.612444877625
-79.373420715332 -64.963737487793 -125.537590026855 0.741071701050
-55.630668640137 -61.708160400391 -127.978401184082 2.069045305252
-76.570831298828 -66.245620727539 -134.680221557617 1.384166598320
-56.133243560791 -61.874099731445 -135.656265258789 1.849425911903
-89.676048278809 -64.126937866211 -136.370193481445 1.520304679871
27.578735351563 -64.175064086914 -138.454498291016 1.624027371407
18.901727676392 -65.472007751465 -140.059600830078 1.629078030586
-92.690986633301 -64.337692260742 -139.664016723633 1.573202133179
17.884531021118 -64.804748535156 -151.655410766602 1.089579701424
-90.348175048828 -65.705673217773 -145.692977905273 1.447072267532
-94.941772460938 -63.282569885254 -147.326034545898 1.667954564095
18.701753616333 -64.802917480469 -153.860305786133 1.245299220085
-96.741577148438 -62.441135406494 -146.302963256836 1.345750570297
-96.797683715820 -62.396770477295 -148.221572875977 0.666315495968
-101.574577331543 -63.007923126221 -158.489990234375 2.587723493576
-99.527313232422 -64.484527587891 -159.387634277344 2.015776395798
-106.512077331543 -63.053054809570 -174.844436645508 1.190562248230
-106.439666748047 -63.238464355469 -168.498580932617 1.700627446175
-102.639183044434 -64.924346923828 -165.007766723633 3.729741811752
-106.803649902344 -62.574581146240 -172.881072998047 0.372868955135
-138.850341796875 -67.897369384766 -177.974655151367 3.397023916245
-108.358894348145 -63.517166137695 -178.535140991211 1.306805491447
-143.633468627930 -63.010688781738 -188.554916381836 1.437685012817
-149.553237915039 -65.519897460938 -188.180038452148 0.943523347378
-150.026947021484 -63.795589447021 -194.771438598633 1.722146868706
-125.611968994141 -63.256671905518 -196.663238525391 0.854563057423
-131.981414794922 -61.627090454102 -200.098892211914 1.619989275932
-121.545829772949 -63.825733184814 -198.743652343750 1.395328521729
-141.690734863281 -65.822174072266 -204.141204833984 1.386025905609
-124.842956542969 -63.838352203369 -204.602722167969 0.724346995354
-146.504211425781 -65.545089721680 -206.798187255859 1.482956886292
-151.051895141602 -66.544975280762 -206.855346679688 0.474854707718
-157.652038574219 -62.390968322754 -230.564575195313 2.948477983475
-142.045684814453 -65.181213378906 -234.065383911133 2.732725381851
-127.521148681641 -63.492443084717 -234.627563476563 2.084288835526
-154.196990966797 -61.644828796387 -232.968231201172 1.031336665154
-3.453958034515 -67.228744506836 -236.925354003906 1.090524435043
12.916810035706 -66.240165710449 -240.781509399414 2.087977647781
-3.263710975647 -64.038131713867 -242.198013305664 0.596684217453
-149.346771240234 -64.117187500000 -245.685272216797 2.059480190277
-6.511209964752 -64.294639587402 -247.748153686523 1.990239500999
-148.628219604492 -62.324600219727 -253.815353393555 0.564683794975
-6.809545993805 -63.774654388428 -249.928054809570 2.375891923904
-151.208892822266 -64.240211486816 -253.086181640625 0.859849154949
24.495367050171 -67.223022460938 -254.503540039063 1.029924273491
-154.287780761719 -62.900588989258 -256.460174560547 0.585189521313
-148.032760620117 -64.177902221680 -254.342224121094 0.943738579750
-153.166931152344 -61.396339416504 -254.897354125977 1.508815646172
-150.892913818359 -62.407657623291 -258.587341308594 1.204449653625
34.577503204346 -64.833686828613 -255.139389038086 2.267266750336
28.865118026733 -64.787574768066 -261.600524902344 2.067683696747
-146.859954833984 -62.855876922607 -258.474853515625 0.693050682545
-150.736572265625 -60.991687774658 -261.325286865234 1.735077023506
-156.280624389648 -62.046726226807 -260.192291259766 2.274893522263
-148.401687622070 -63.080646514893 -263.344146728516 0.966627359390
26.116991043091 -63.900306701660 -262.546997070313 1.148059844971
27.676834106445 -63.934173583984 -264.331634521484 1.204797029495
-151.758193969727 -61.638778686523 -263.967956542969 1.602309942245
-143.046249389648 -63.137100219727 -263.414062500000 0.571038305759
-152.236984252930 -63.104789733887 -266.122314453125 1.512233376503
-146.080657958984 -62.371612548828 -262.202636718750 1.047862887383
-148.295700073242 -64.976882934570 -265.840148925781 1.393426656723
-151.827331542969 -61.827041625977 -267.677673339844 2.551836967468
-150.077056884766 -63.022331237793 -267.811981201172 2.176614999771
-151.327636718750 -63.121940612793 -283.722442626953 1.251610875130
-150.038635253906 -64.910362243652 -283.977355957031 0.767773330212
-149.372024536133 -63.754909515381 -280.909759521484 0.993809819221
16.292634963989 -65.688667297363 -284.359375000000 1.844221830368
-154.887237548828 -62.138496398926 -284.986419677734 2.224633216858
-146.462280273438 -61.468055725098 -284.164581298828 1.630136251450
-4.219741821289 -66.933746337891 -289.677185058594 1.544413566589
6.596510887146 -65.714729309082 -294.744354248047 3.280151128769
-151.370529174805 -64.569107055664 -296.716339111328 1.386582612991
24.901201248169 -72.478317260742 -21.626867294312 1.814122557640
41.620826721191 -65.261161804199 -28.289247512817 2.992452383041
49.148124694824 -71.586669921875 -31.387447357178 0.655021607876
41.057018280029 -64.596008300781 -32.575763702393 1.281082391739
23.742134094238 -72.390609741211 -38.069263458252 2.024808168411
41.191928863525 -73.333992004395 -38.186832427979 2.162293672562
80.097549438477 -66.118125915527 -60.996284484863 1.907060623169
75.662826538086 -65.090187072754 -59.778392791748 1.638651013374
-14.672889709473 -67.748977661133 -68.218582153320 1.198539257050
64.474861145020 -63.537334442139 -68.525939941406 2.436500310898
-29.095792770386 -69.931098937988 -76.108070373535 1.921308994293
