28.789932250977 -79.675422668457 -149.404571533203 1.309317827225
-43.938259124756 -80.590164184570 -147.886230468750 2.210682630539
27.485733032227 -79.719757080078 -142.009948730469 0.727162063122
-65.329444885254 -79.144760131836 -154.059677124023 2.648863315582
-40.160392761230 -82.118774414063 -154.502304077148 2.441652297974
-61.528942108154 -81.111953735352 -165.824127197266 1.521295309067
-42.637390136719 -80.227935791016 -159.804840087891 2.344421625137
29.620868682861 -80.473220825195 -155.436248779297 0.591977775097
-35.791126251221 -82.291122436523 -164.622085571289 2.681881904602
-4.120923042297 -79.694458007813 -167.750579833984 0.715516984463
30.378234863281 -80.047203063965 -159.537490844727 1.339009284973
-10.944023132324 -81.239654541016 -168.002029418945 3.037016630173
-62.501445770264 -78.908363342285 -164.837982177734 1.358292818069
-36.529365539551 -80.271026611328 -168.455764770508 1.886192917824
-28.799390792847 -78.134017944336 -174.027832031250 1.643889784813
26.686511993408 -80.486991882324 -174.103088378906 1.979553103447
-55.784610748291 -80.164718627930 -178.717971801758 2.030379533768
-31.214515686035 -78.194686889648 -176.825485229492 2.383680820465
23.013864517212 -80.835243225098 -180.341873168945 1.962977886200
-51.167659759521 -79.492263793945 -185.202178955078 1.299603939056
-26.073680877686 -78.362342834473 -187.489715576172 1.831928253174
-54.177864074707 -79.234947204590 -182.254226684570 0.770156145096
-39.428901672363 -81.277984619141 -196.005432128906 1.273664474487
-30.256628036499 -81.537330627441 -188.908828735352 2.400568246841
-42.470401763916 -80.363113403320 -195.503204345703 1.576200366020
-24.743633270264 -78.888572692871 -191.969223022461 1.572113513947
-134.923934936523 -80.836387634277 -198.724044799805 1.295653343201
16.870267868042 -79.796974182129 -200.249008178711 2.052481889725
-135.971664428711 -76.425430297852 -198.707931518555 1.789392828941
-23.883937835693 -78.344825744629 -197.917053222656 1.771421432495
-18.718294143677 -77.238601684570 -197.539749145508 0.961940288544
-41.132823944092 -78.086372375488 -195.971023559570 1.271634697914
15.444806098938 -80.428703308105 -191.350738525391 3.898580312729
-16.386838912964 -79.652572631836 -199.188751220703 2.272799968719
-61.606037139893 -79.337371826172 -206.718399047852 1.623527884483
-36.638679504395 -77.974052429199 -204.251800537109 0.951134502888
-66.318702697754 -78.159263610840 -207.669982910156 0.866156399250
-70.289268493652 -77.795478820801 -209.407043457031 1.289972901344
18.690460205078 -79.506202697754 -210.799011230469 2.813418865204
-85.647926330566 -80.909271240234 -213.730484008789 2.644617795944
-30.052291870117 -79.842697143555 -217.392364501953 1.962011933327
-81.291679382324 -81.101562500000 -214.724472045898 2.635200023651
-146.047622680664 -82.770210266113 -218.603088378906 1.520086646080
-8.852142333984 -78.975013732910 -215.130950927734 1.613177657127
-11.884461402893 -78.466133117676 -219.400711059570 1.055826902390
13.162470817566 -79.078445434570 -213.246582031250 1.906331777573
13.354027748108 -80.688316345215 -221.221771240234 0.973598480225
-3.595586061478 -79.219856262207 -231.549728393555 0.891742110252
-133.867446899414 -79.043296813965 -227.252471923828 1.481554627419
-147.795822143555 -82.733879089355 -230.169021606445 0.586474835873
-147.613815307617 -77.187225341797 -232.002746582031 2.451903820038
9.750149726868 -79.513008117676 -232.968658447266 2.203394412994
1.032835960388 -79.472061157227 -235.484985351563 0.432805985212
-24.797410964966 -78.471145629883 -237.132019042969 2.006749868393
-149.942779541016 -79.422737121582 -238.700134277344 2.103923320770
10.208377838135 -77.855712890625 -245.335891723633 1.239520072937
-24.905160903931 -79.348312377930 -243.749832153320 1.994511961937
18.430004119873 -77.220634460449 -237.792739868164 1.470853447914
-55.716323852539 -79.528358459473 -245.421020507813 1.405175447464
-51.397480010986 -77.488548278809 -247.680541992188 1.250155448914
-145.612030029297 -82.356887817383 -246.124908447266 1.115710854530
-63.161758422852 -78.751335144043 -247.221038818359 1.002276182175
-4.723318099976 -75.270057678223 -249.372512817383 2.851930618286
-10.071036338806 -80.176727294922 -256.967163085938 1.300335407257
-148.472946166992 -82.570938110352 -257.533355712891 1.238033175468
-134.826599121094 -79.066848754883 -258.657684326172 0.430313885212
-136.298309326172 -77.974761962891 -261.958679199219 1.397768855095
18.659633636475 -77.402351379395 -261.991302490234 2.079198837280
-145.795257568359 -81.680297851563 -271.697296142578 1.666517496109
17.819879531860 -81.877571105957 -269.928131103516 2.446843147278
-149.747039794922 -77.842453002930 -270.629882812500 0.645085871220
3.421670913696 -84.008354187012 -277.539581298828 2.839656114578
-146.966049194336 -79.559364318848 -283.317443847656 1.381494522095
3.355314970016 -77.606483459473 -284.138366699219 1.520644545555
-153.493453979492 -81.415649414063 -283.222839355469 1.401817202568
-141.969726562500 -78.815292358398 -288.960021972656 0.854180514812
-137.597946166992 -79.121124267578 -285.398498535156 1.535982251167
-149.019363403320 -84.358947753906 -291.756683349609 1.684185504913
-18.517307281494 -78.933227539063 -289.995697021484 1.136805057526
-154.559829711914 -79.819274902344 -292.574249267578 1.078670620918
-150.329086303711 -79.431556701660 -294.855255126953 0.643209576607
-149.227691650391 -77.439872741699 -311.581573486328 1.323003292084
-57.479030609131 -78.519813537598 -58.702064514160 1.069827675819
-39.434242248535 -80.138244628906 -62.160018920898 2.519421577454
-74.159675598145 -80.237876892090 -62.572139739990 2.682535886765
-28.762514114380 -78.845573425293 -69.763191223145 1.507542610168
-27.276088714600 -81.509819030762 -73.847442626953 3.078649044037
-85.939826965332 -80.060882568359 -83.965126037598 1.175700902939
87.151840209961 -77.653984069824 -84.045600891113 1.933596253395
-38.156089782715 -78.619628906250 -82.273994445801 3.006938934326
81.088294982910 -80.736289978027 -83.841079711914 3.333869934082
75.495223999023 -78.237190246582 -87.569824218750 2.067643404007
85.436233520508 -76.765548706055 -91.425483703613 1.269889712334
80.805465698242 -78.001197814941 -91.708389282227 1.547836899757
92.275192260742 -78.302658081055 -91.286041259766 1.245273709297
-90.610130310059 -76.556640625000 -95.684257507324 2.772169828415
52.120510101318 -77.855285644531 -105.405265808105 1.195423126221
-91.839996337891 -77.269004821777 -116.573425292969 2.584057807922
38.695518493652 -79.443855285645 -112.076400756836 1.055690050125
49.225803375244 -78.571990966797 -113.218521118164 2.473752737045
41.091190338135 -79.719566345215 -116.559669494629 1.780013561249
30.371276855469 -79.345520019531 -131.822509765625 1.504216432571
25.955455780029 -80.345199584961 -140.692428588867 1.978284478188
25.260871887207 -76.780815124512 -144.804702758789 1.451682209969
32.170097351074 -78.385406494141 -147.313919067383 1.823060870171
-49.959430694580 -80.172775268555 -153.206787109375 2.108170986176
-45.743362426758 -79.908538818359 -151.773635864258 0.650087058544
-41.858291625977 -80.350730895996 -154.910110473633 0.940604329109
26.740257263184 -80.732131958008 -149.388305664063 1.485881686211
23.063823699951 -78.200057983398 -168.463439941406 0.971701979637
-36.003726959229 -79.096977233887 -164.040466308594 2.233645439148
-34.852130889893 -78.513816833496 -158.689285278320 1.694081664085
-46.880409240723 -77.759490966797 -155.958282470703 1.973083496094
1.780416011810 -79.018539428711 -165.785781860352 1.958301305771
24.362443923950 -79.015930175781 -156.821060180664 2.116948366165
30.365335464478 -75.871032714844 -160.548171997070 2.106710672379
26.618638992310 -78.558311462402 -168.290069580078 1.704162716866
-9.995658874512 -78.444747924805 -169.822952270508 1.305006146431
-0.982833027840 -78.316238403320 -169.891998291016 1.264642477036
-56.077007293701 -78.278686523438 -172.149139404297 1.533343672752
-61.173229217529 -78.946289062500 -168.395217895508 1.531194329262
-38.836193084717 -80.013305664063 -173.222717285156 1.489456176758
-38.983634948730 -78.147377014160 -167.060073852539 0.391010552645
22.900501251221 -78.714897155762 -173.584503173828 1.917183756828
-21.040567398071 -81.371391296387 -178.171661376953 0.503242313862
-35.534881591797 -81.758003234863 -180.654327392578 3.492155551910
-60.329704284668 -80.555480957031 -179.189956665039 2.300036668777
104.737594604492 -79.081520080566 -180.184188842773 2.355152845383
19.787086486816 -78.970565795898 -170.689743041992 2.066600799561
-26.183279037476 -78.162780761719 -179.608352661133 2.409464359283
-49.929561614990 -77.179580688477 -181.419982910156 1.031557321548
-17.020578384399 -77.233779907227 -179.051193237305 1.014455914497
108.144996643066 -78.879402160645 -178.286621093750 2.627743721008
-48.698410034180 -79.588874816895 -182.810928344727 1.380931496620
16.364477157593 -79.222839355469 -184.617279052734 1.256341338158
25.484426498413 -78.294486999512 -180.933441162109 0.917784392834
-55.142890930176 -78.784774780273 -180.943161010742 1.603996634483
-23.049097061157 -77.528800964355 -181.975875854492 0.768105387688
-56.516838073730 -80.118888854980 -175.569503784180 1.832045316696
-33.364414215088 -74.439109802246 -181.611434936523 2.089081048965
-27.849588394165 -78.794075012207 -185.674102783203 1.993514537811
22.083780288696 -80.120223999023 -186.840408325195 2.247189760208
-50.712398529053 -79.463897705078 -187.439666748047 0.887365996838
104.106941223145 -78.706771850586 -189.687347412109 1.255260109901
-51.786720275879 -76.272781372070 -190.633361816406 0.900133848190
12.292361259460 -79.852615356445 -200.735412597656 2.829201221466
17.437114715576 -78.360916137695 -200.971893310547 1.875166296959
-46.494689941406 -78.493965148926 -189.976699829102 0.758558690548
-20.322660446167 -77.939125061035 -190.175567626953 1.089085221291
103.164337158203 -78.750205993652 -196.326156616211 1.596392035484
102.921569824219 -79.472351074219 -196.537261962891 2.378554821014
-46.442749023438 -76.190841674805 -190.301086425781 1.092732191086
-148.556137084961 -81.486015319824 -195.648178100586 1.340631723404
-48.346557617188 -77.413635253906 -199.477340698242 2.669212818146
-145.902343750000 -79.326942443848 -199.694656372070 0.883952677250
-136.397033691406 -77.478218078613 -202.222885131836 0.673601031303
-42.840744018555 -76.759933471680 -198.386764526367 2.119809389114
11.789090156555 -78.713195800781 -208.664489746094 1.061649680138
-17.740034103394 -77.942909240723 -202.514328002930 1.678304553032
15.379362106323 -79.811218261719 -203.853408813477 2.017497062683
90.585372924805 -79.356132507324 -209.480468750000 2.718747854233
-38.745346069336 -77.523193359375 -199.899337768555 1.189875245094
-11.010826110840 -79.779388427734 -206.891311645508 2.524975061417
-10.990988731384 -78.991645812988 -210.427810668945 1.350785255432
-38.050857543945 -78.835899353027 -209.208328247070 1.367321252823
9.767543792725 -80.259689331055 -206.497055053711 2.157809019089
-75.433433532715 -76.586158752441 -210.519210815430 1.412947654724
14.132573127747 -79.438438415527 -213.267150878906 2.153961896896
-36.400482177734 -77.873527526855 -209.139846801758 0.948958575726
-143.849014282227 -78.224540710449 -208.798400878906 1.457873702049
-145.808502197266 -77.434562683105 -212.699478149414 1.215992689133
-86.108123779297 -78.444976806641 -213.421203613281 0.830751836300
-34.941429138184 -77.731521606445 -210.927047729492 2.605666160583
-24.728145599365 -78.861648559570 -214.039138793945 0.580044746399
-28.853202819824 -78.910690307617 -212.871841430664 1.474736690521
-91.594703674316 -78.542152404785 -218.404281616211 2.808274269104
-87.589759826660 -78.215812683105 -215.548049926758 0.492286413908
9.678992271423 -77.976722717285 -220.071212768555 2.312905073166
-149.115493774414 -77.585426330566 -217.222351074219 1.359531521797
-12.407424926758 -77.856719970703 -212.922134399414 0.668870210648
7.904472827911 -80.975135803223 -218.078948974609 1.666421532631
-143.591033935547 -78.883209228516 -217.693939208984 1.896132349968
-20.638545989990 -79.797599792480 -221.147094726563 1.655832409859
-3.816028118134 -78.386360168457 -222.859252929688 0.279572188854
-2.567415952682 -79.299568176270 -218.514404296875 2.090335845947
-152.610855102539 -78.199928283691 -224.243789672852 0.214553087950
-136.207336425781 -76.721244812012 -226.564041137695 1.381472587585
-6.175561904907 -78.006324768066 -224.655593872070 1.519099593163
-149.275222778320 -82.662094116211 -228.540512084961 0.712099492550
0.679543972015 -77.501594543457 -230.752288818359 1.818521261215
16.868972778320 -76.539367675781 -232.366775512695 0.765827596188
-1.973181009293 -76.431228637695 -235.182266235352 2.132364273071
1.276062965393 -77.833122253418 -235.004989624023 1.275312781334
7.740684032440 -81.469017028809 -233.217086791992 2.508091211319
-150.545837402344 -78.626792907715 -234.789077758789 0.670132637024
-18.867679595947 -77.789131164551 -238.245544433594 0.741299808025
-33.355361938477 -81.044593811035 -240.286315917969 0.827131628990
6.748983860016 -75.631454467773 -231.161544799805 1.186341404915
-0.655942022800 -77.092315673828 -237.561828613281 1.144732475281
4.489307880402 -78.948883056641 -235.353164672852 1.666478514671
-53.622367858887 -77.583396911621 -241.723098754883 1.488393545151
-150.793441772461 -77.344650268555 -246.340911865234 1.200994491577
-151.800033569336 -78.763587951660 -248.961334228516 1.593760132790
10.118593215942 -79.351951599121 -247.291961669922 1.550623059273
20.921810150146 -78.672172546387 -247.962722778320 0.778555452824
-59.526844024658 -77.791969299316 -248.794189453125 0.890747785568
-146.636657714844 -77.634956359863 -253.824584960938 2.013921022415
-153.316696166992 -80.997596740723 -255.195693969727 1.501156687737
-149.369522094727 -81.802078247070 -257.674621582031 1.564507246017
-143.515991210938 -79.325248718262 -259.787658691406 1.935788631439
-136.884887695313 -78.381629943848 -257.295684814453 1.214649915695
-12.611221313477 -77.671722412109 -257.430908203125 0.731172323227
-144.958541870117 -78.306304931641 -265.403900146484 1.544162273407
-11.757910728455 -79.987632751465 -262.021728515625 1.848286271095
-149.426651000977 -78.368804931641 -276.604217529297 1.238615036011
-149.479446411133 -79.389694213867 -283.175628662109 1.930938959122
-152.071273803711 -79.945106506348 -282.366485595703 0.637985408306
-4.603751182556 -74.779457092285 -286.850677490234 0.796077251434
-143.881835937500 -75.527565002441 -286.448791503906 1.297222495079
-33.614475250244 -77.275260925293 -284.904754638672 2.602245807648
-32.301033020020 -75.810592651367 -289.136718750000 2.448851346970
-19.340700149536 -77.479454040527 -287.410583496094 1.952764511108
-9.746569633484 -77.616157531738 -289.407714843750 1.735930442810
15.353582382202 -78.057495117188 -292.259033203125 1.290544509888
-125.750823974609 -77.128921508789 -289.045623779297 0.649182438850
-56.467063903809 -78.477622985840 -288.193237304688 2.348233461380
-39.078567504883 -77.057617187500 -291.113647460938 0.834027349949
-33.341449737549 -78.309402465820 -290.238769531250 0.772028207779
-9.894764900208 -77.837860107422 -289.690490722656 1.565980911255
5.486051082611 -76.834022521973 -288.458648681641 0.983747541904
-142.252410888672 -80.165824890137 -292.904388427734 1.659395098686
7.895298004150 -78.627975463867 -292.197082519531 1.576108694077
-153.231231689453 -79.016601562500 -302.898620605469 3.121258258820
-149.250244140625 -77.894386291504 -301.420837402344 0.996670305729
-152.263107299805 -77.200149536133 -311.454864501953 0.883277237415
-146.991622924805 -77.559059143066 -311.725677490234 0.982486844063
-51.182704925537 -77.443763732910 -54.505096435547 2.762910604477
-55.020099639893 -78.211418151855 -56.802448272705 1.996457338333
-66.070106506348 -77.986648559570 -56.054412841797 2.444476604462
-43.988849639893 -78.705566406250 -58.534332275391 1.691939473152
-39.035034179688 -76.338470458984 -59.376514434814 1.033723711967
-23.290496826172 -76.323982238770 -64.850044250488 2.055616617203
-82.727691650391 -78.657028198242 -67.684516906738 1.906912922859
81.670814514160 -77.920639038086 -79.323951721191 1.366959452629
-90.174362182617 -78.708465576172 -82.770629882813 2.662888050079
84.120635986328 -80.005722045898 -81.749740600586 2.550614833832
85.733795166016 -78.752288818359 -83.259384155273 2.082710742950
93.289123535156 -77.651428222656 -84.872222900391 1.769630908966
-59.304225921631 -82.877471923828 -94.396591186523 1.955666899681
84.503700256348 -78.793128967285 -93.932197570801 3.187537193298
79.839683532715 -77.477821350098 -93.023948669434 1.840405821800
89.594940185547 -79.908607482910 -91.020309448242 3.265093803406
-62.468067169189 -81.607383728027 -97.644264221191 1.496491432190
54.316246032715 -77.645278930664 -97.171340942383 1.589794993401
45.895198822021 -78.883132934570 -106.025283813477 1.179755091667
40.451690673828 -78.858657836914 -106.288452148438 2.519186735153
38.114944458008 -78.087463378906 -109.247100830078 1.113494515419
-91.745498657227 -77.837471008301 -113.375846862793 1.559181451797
35.884544372559 -79.329528808594 -117.893074035645 1.159187793732
-84.199256896973 -78.956245422363 -111.937828063965 1.451382160187
42.597221374512 -79.457252502441 -124.365203857422 0.587791919708
33.723060607910 -78.735313415527 -122.397888183594 1.632341504097
33.107421875000 -78.780220031738 -122.862762451172 1.596736192703
42.383815765381 -77.873710632324 -121.083244323730 1.826811552048
39.655342102051 -80.153152465820 -126.969612121582 1.475716948509
-54.608150482178 -74.236694335938 -137.969985961914 0.974391698837
36.284564971924 -79.302703857422 -135.092788696289 1.299139022827
36.489028930664 -78.064941406250 -141.574478149414 1.499017953873
-50.257804870605 -74.622283935547 -139.659744262695 1.054520726204
-48.379497528076 -79.306846618652 -141.203399658203 2.762437343597
34.590785980225 -79.083633422852 -143.899642944336 1.365415334702
110.415199279785 -77.078155517578 -142.196914672852 2.147067308426
112.524269104004 -77.371620178223 -142.624252319336 2.564075469971
27.002618789673 -79.396606445313 -144.835784912109 1.579708456993
-42.370712280273 -77.980888366699 -148.148834228516 0.961976408958
112.132492065430 -79.269805908203 -156.795440673828 2.905686855316
-41.892520904541 -77.438758850098 -155.011611938477 0.784396171570
-66.216339111328 -79.477104187012 -159.554443359375 2.488424539566
110.852584838867 -78.326126098633 -162.578445434570 1.060548305511
23.903421401978 -78.569000244141 -164.770812988281 1.755730748177
-0.205687001348 -78.935470581055 -164.354766845703 0.814927756786
112.815879821777 -78.894920349121 -155.782836914063 2.220989942551
-63.484443664551 -78.604255676270 -162.977981567383 1.646836519241
-36.237010955811 -79.174652099609 -160.872985839844 1.386756658554
112.277427673340 -76.938804626465 -164.693283081055 2.531971693039
28.220966339111 -76.221565246582 -158.769134521484 1.972419738770
-64.879737854004 -77.110198974609 -168.165649414063 1.139786720276
109.631278991699 -77.187255859375 -169.236450195313 1.131794691086
-64.604560852051 -79.812858581543 -169.020996093750 1.750174522400
-52.368026733398 -79.498519897461 -178.203247070313 1.979854226112
106.095054626465 -76.849800109863 -174.582077026367 2.666996479034
-61.361015319824 -77.173728942871 -169.312393188477 1.557612895966
111.754417419434 -77.516151428223 -173.994049072266 0.755263149738
-59.202369689941 -79.352050781250 -173.319183349609 1.570237398148
-13.627152442932 -77.526039123535 -177.032638549805 0.986639738083
-11.976856231689 -78.794189453125 -179.107528686523 0.944187223911
107.188453674316 -78.284088134766 -172.108764648438 1.842124342918
21.100841522217 -77.583587646484 -170.896820068359 1.655061364174
28.587636947632 -78.744628906250 -170.272338867188 2.178014993668
-55.392360687256 -78.864570617676 -177.352676391602 2.110114574432
18.914850234985 -77.572547912598 -183.805984497070 1.478379964828
-57.490699768066 -78.005203247070 -178.543426513672 1.987845301628
-51.288600921631 -76.249671936035 -188.525054931641 1.256156325340
14.241426467896 -77.799606323242 -182.051849365234 1.854665875435
-59.808658599854 -77.098365783691 -183.043899536133 2.263198614120
108.938369750977 -76.446563720703 -185.146102905273 1.431765317917
22.174726486206 -78.065147399902 -180.580947875977 2.233470439911
-31.676952362061 -77.890625000000 -188.558700561523 1.455924153328
-43.239902496338 -76.151855468750 -193.825942993164 1.945357203484
10.905670166016 -76.688545227051 -195.645599365234 0.834839642048
-20.973878860474 -78.558227539063 -190.262619018555 0.814604580402
-51.606586456299 -78.250915527344 -194.635498046875 2.951591491699
102.552696228027 -79.052627563477 -186.426437377930 3.463719606400
15.506182670593 -76.681732177734 -191.184616088867 0.929808974266
-135.397766113281 -77.956260681152 -196.524368286133 1.454506039619
-41.698394775391 -77.817131042480 -192.424438476563 0.559100627899
99.518028259277 -78.698158264160 -198.331802368164 2.025926351547
-147.888198852539 -80.610664367676 -201.560836791992 1.041808009148
18.169525146484 -77.483573913574 -193.703414916992 2.630343437195
-43.072204589844 -80.299530029297 -204.772430419922 3.406932592392
-32.789371490479 -78.513626098633 -204.188415527344 1.239309549332
-38.284660339355 -76.031936645508 -205.627624511719 1.657235383987
-42.944789886475 -77.716575622559 -195.167785644531 1.495152235031
100.451354980469 -79.043754577637 -201.329284667969 2.169783353806
-18.938854217529 -77.103240966797 -202.883453369141 0.385991096497
-150.810104370117 -76.346740722656 -203.749618530273 0.709888517857
14.756976127625 -76.744926452637 -207.475006103516 2.194455623627
-74.405632019043 -80.116348266602 -206.956344604492 2.204740524292
-148.343139648438 -77.198387145996 -210.212768554688 1.726510763168
96.921157836914 -76.215652465820 -209.568023681641 0.723217368126
-33.426849365234 -77.447525024414 -207.265274047852 1.499369263649
-27.591154098511 -76.946983337402 -215.720138549805 0.604433119297
6.967381954193 -78.774612426758 -211.495254516602 1.906350255013
-71.359161376953 -77.546638488770 -212.832794189453 0.959884822369
-28.609594345093 -77.408836364746 -209.975067138672 1.361279368401
-5.794158935547 -78.739952087402 -215.806854248047 0.540264248848
-76.927810668945 -80.166999816895 -215.715103149414 1.952180504799
-14.184809684753 -78.859169006348 -218.235153198242 2.184534311295
8.795172691345 -76.626808166504 -214.845626831055 1.875169634819
17.439798355103 -80.660560607910 -220.364898681641 3.259296894073
-147.026809692383 -77.612388610840 -216.701980590820 1.255833029747
-6.009593963623 -76.334564208984 -215.633911132813 1.590650916100
-93.340530395508 -74.473365783691 -221.421051025391 1.208114743233
-22.050489425659 -75.424041748047 -219.825134277344 1.166061401367
92.977508544922 -78.276290893555 -212.178146362305 1.041646718979
6.134309768677 -78.422462463379 -228.289260864258 1.040820240974
15.579480171204 -78.397171020508 -216.491210937500 1.464959263802
80.931037902832 -74.520874023438 -222.023971557617 1.665608882904
1.692934989929 -76.513710021973 -226.631942749023 1.845244526863
86.169303894043 -76.681632995605 -219.362686157227 2.238648176193
-16.352315902710 -77.246047973633 -222.569137573242 0.764087200165
14.157108306885 -78.814437866211 -221.734741210938 1.965011358261
-146.804443359375 -79.003860473633 -224.327575683594 2.185113191605
-18.590616226196 -81.056472778320 -225.513870239258 3.466431856155
1.511829018593 -80.213302612305 -227.085327148438 2.592849969864
-153.434875488281 -79.625091552734 -228.409912109375 1.227699398994
-135.233154296875 -76.996681213379 -227.901657104492 1.108360171318
9.223810195923 -76.923767089844 -227.026855468750 1.042273163795
-4.843668937683 -77.453926086426 -235.968826293945 3.085583925247
-136.652130126953 -77.391136169434 -231.708816528320 0.871118009090
-146.616317749023 -79.688903808594 -235.070663452148 2.104229450226
-145.932876586914 -76.197654724121 -237.257690429688 1.445072054863
-30.300355911255 -77.661682128906 -237.391571044922 1.468499779701
-145.804443359375 -76.417495727539 -243.093963623047 1.661432385445
20.154001235962 -76.694183349609 -241.361007690430 1.012621879578
5.544632911682 -77.824600219727 -243.603729248047 0.838823258877
-150.988327026367 -76.040122985840 -236.033370971680 1.734701037407
-150.116180419922 -77.719558715820 -242.678009033203 1.551383972168
-46.868511199951 -77.666091918945 -241.024002075195 1.749689340591
-32.006607055664 -79.473609924316 -244.488189697266 1.907234549522
5.839312076569 -79.574378967285 -247.992477416992 1.625859618187
-37.695060729980 -76.689849853516 -246.272293090820 1.603057026863
23.472589492798 -78.598358154297 -249.273574829102 1.856307387352
-3.913642883301 -79.155403137207 -247.556533813477 1.648592591286
-151.912536621094 -76.549903869629 -252.600601196289 1.944014191628
-6.521224021912 -75.914352416992 -249.907684326172 2.266570806503
-144.666824340820 -78.225509643555 -252.387680053711 1.610776543617
-67.391204833984 -77.816635131836 -249.972854614258 1.450340509415
-151.511413574219 -83.626548767090 -259.423553466797 1.543409228325
-125.979743957520 -77.953781127930 -260.541931152344 1.770298123360
-149.467056274414 -73.834602355957 -260.633605957031 0.697349071503
-12.847707748413 -75.657714843750 -266.309814453125 0.902728259563
-146.059783935547 -78.989379882813 -264.924896240234 0.535002350807
-150.014633178711 -77.644195556641 -264.836395263672 0.390241533518
-10.262737274170 -79.348098754883 -269.373016357422 0.815425038338
-147.815048217773 -78.119949340820 -269.956176757813 1.305224061012
-4.183170795441 -78.950744628906 -281.321655273438 2.208535909653
-45.658565521240 -77.998741149902 -284.816345214844 3.806674957275
-135.684448242188 -78.011619567871 -287.311584472656 1.786881327629
-133.090637207031 -75.264373779297 -284.239868164063 1.801278829575
-126.280456542969 -76.604209899902 -285.672821044922 0.516087472439
-54.192272186279 -76.333892822266 -284.165740966797 2.632847547531
-115.066818237305 -75.362083435059 -289.305358886719 1.045144915581
15.356949806213 -79.554710388184 -289.774932861328 1.697755455971
-61.271244049072 -76.730712890625 -288.123657226563 1.228921175003
-141.877960205078 -75.422225952148 -289.082977294922 0.955130457878
-62.379173278809 -75.265441894531 -288.925842285156 1.563248276711
-143.140197753906 -80.227722167969 -290.835601806641 0.789888024330
-118.473571777344 -76.326332092285 -288.128875732422 1.242166638374
-47.504547119141 -76.450248718262 -291.161804199219 0.726300477982
-37.355754852295 -77.470497131348 -290.923370361328 1.987716913223
-134.082473754883 -77.082015991211 -290.691741943359 0.507866382599
-11.314167976379 -75.457702636719 -291.896667480469 0.795608937740
-0.271643012762 -78.615463256836 -291.892517089844 1.779547452927
6.873593807220 -77.200988769531 -291.862274169922 0.527011096478
14.127332687378 -77.191642761230 -293.756866455078 0.363436192274
-149.246414184570 -78.765029907227 -295.744201660156 1.397019028664
-147.360885620117 -76.058166503906 -299.307128906250 0.211719051003
-69.936386108398 -77.338241577148 -61.165092468262 1.777300596237
87.474906921387 -77.320854187012 -76.457473754883 1.766497731209
79.289871215820 -78.035446166992 -76.314201354980 2.161826848984
-26.361127853394 -79.816192626953 -76.170028686523 2.250406742096
85.306205749512 -76.611587524414 -75.891128540039 2.086781740189
-36.486412048340 -76.846771240234 -80.776481628418 1.834188461304
89.174522399902 -79.842529296875 -78.494132995605 3.515697479248
91.759841918945 -79.350212097168 -81.609207153320 3.479775428772
-67.024734497070 -73.078689575195 -93.294738769531 2.811767578125
77.144561767578 -77.399253845215 -92.470085144043 1.556300520897
80.785652160645 -76.500389099121 -97.456359863281 1.702638745308
92.187919616699 -77.208343505859 -92.653015136719 1.000083565712
54.865020751953 -77.575790405273 -96.131942749023 1.462192654610
-77.159225463867 -81.458084106445 -101.556144714355 2.404457807541
-78.123352050781 -73.362884521484 -100.977294921875 2.238428115845
49.519405364990 -77.682151794434 -107.420783996582 1.089167475700
-91.485183715820 -79.854057312012 -107.104660034180 2.700322151184
44.554615020752 -77.769020080566 -116.515289306641 1.834242224693
110.998054504395 -76.633407592773 -117.279174804688 1.546201944351
110.686546325684 -76.364410400391 -132.082290649414 1.789916157722
26.497106552124 -75.524368286133 -138.628219604492 1.332171678543
111.520774841309 -78.997154235840 -128.223648071289 3.543018102646
27.285537719727 -76.883186340332 -134.618713378906 1.859457015991
112.645111083984 -77.497200012207 -130.371643066406 2.227655172348
36.587276458740 -79.317970275879 -136.065658569336 1.976391911507
-51.462451934814 -79.564117431641 -146.747787475586 2.105546474457
34.997776031494 -76.420303344727 -141.423370361328 1.718394756317
110.782798767090 -76.034828186035 -138.142349243164 0.828919231892
-50.547958374023 -77.758125305176 -146.714828491211 1.618048310280
31.134033203125 -79.381126403809 -147.363082885742 1.669701099396
-55.588592529297 -76.955032348633 -137.606430053711 2.392648458481
-53.911613464355 -80.442451477051 -148.207443237305 3.409945964813
-51.148025512695 -76.260498046875 -150.314804077148 2.106722831726
-65.566200256348 -78.806701660156 -156.274490356445 1.184314131737
113.983024597168 -76.775207519531 -148.760269165039 1.271933317184
-50.764560699463 -77.186080932617 -154.257049560547 1.596007108688
20.701074600220 -78.498939514160 -156.604446411133 2.175300836563
109.816856384277 -79.096290588379 -157.273620605469 2.767633914948
-67.366851806641 -77.936866760254 -156.475555419922 1.350083827972
-48.167427062988 -77.099670410156 -156.480590820313 2.537518262863
7.697168827057 -75.829269409180 -156.235763549805 1.448164582253
-65.772117614746 -75.277359008789 -159.201599121094 1.471191167831
-60.373283386230 -77.660026550293 -162.158554077148 1.061927914619
-1.222673058510 -80.382507324219 -161.899002075195 2.632252454758
-42.632720947266 -78.730003356934 -169.046081542969 2.148756265640
29.486528396606 -75.447624206543 -164.521331787109 0.899133980274
-63.787853240967 -77.163032531738 -164.611572265625 0.535996019840
-54.769802093506 -75.439491271973 -168.682144165039 2.533635854721
20.981370925903 -77.005851745605 -161.971664428711 1.648931264877
-31.026878356934 -79.455291748047 -171.934585571289 2.110075473785
-31.409257888794 -75.857498168945 -167.723281860352 0.754352092743
16.026258468628 -76.324722290039 -175.424804687500 1.181277275085
-39.552894592285 -79.286354064941 -174.348480224609 2.429346799850
-10.511894226074 -76.702575683594 -173.891738891602 1.198120355606
-61.506919860840 -76.440956115723 -172.100204467773 1.122391939163
-5.475638866425 -76.517761230469 -171.209930419922 1.437216758728
-23.317548751831 -79.643348693848 -179.247482299805 1.275909185410
21.996120452881 -77.820922851563 -181.882736206055 1.562625169754
-38.129642486572 -76.200248718262 -173.858444213867 1.277089118958
17.803899765015 -77.037239074707 -178.698608398438 2.799005508423
-20.960988998413 -75.794570922852 -184.328765869141 1.720313191414
-32.750900268555 -77.573310852051 -181.622695922852 1.107328772545
-146.617187500000 -74.637374877930 -186.376739501953 0.904512465000
-23.215576171875 -77.370300292969 -186.403961181641 0.566537439823
-145.045455932617 -75.973381042480 -189.831237792969 2.166914463043
-150.759140014648 -76.349479675293 -187.705642700195 1.472768068314
-46.793601989746 -77.843696594238 -187.644180297852 1.871309399605
99.646507263184 -77.974266052246 -194.467422485352 2.347000360489
-145.098144531250 -76.439476013184 -192.743957519531 0.897258043289
-152.737487792969 -77.815269470215 -197.223541259766 1.067927002907
20.537279129028 -77.136528015137 -197.496231079102 2.558482885361
-135.396865844727 -74.659591674805 -196.875762939453 1.037248015404
20.272172927856 -74.391731262207 -198.098342895508 2.088136434555
-140.620452880859 -74.521568298340 -199.538589477539 1.477124571800
12.010495185852 -76.934410095215 -196.253601074219 1.601460456848
-136.191467285156 -75.427345275879 -201.703918457031 0.858547151089
7.573042869568 -76.361724853516 -206.696884155273 0.606710374355
-149.398086547852 -76.134719848633 -204.385910034180 1.077267169952
92.424049377441 -75.291481018066 -204.029022216797 1.266640424728
-14.546281814575 -76.580909729004 -204.171051025391 1.970704078674
-28.932636260986 -75.842285156250 -206.659164428711 1.020073056221
-9.975610733032 -78.949195861816 -204.985931396484 1.893785357475
-149.566970825195 -77.832794189453 -211.145141601563 0.505485653877
-37.541015625000 -77.843986511230 -206.750228881836 1.568040490150
-82.133735656738 -77.025566101074 -210.340164184570 0.503203392029
-28.102514266968 -77.481033325195 -211.279327392578 1.648751735687
18.271253585815 -74.745613098145 -209.306396484375 1.437594532967
-147.334289550781 -77.405944824219 -210.861557006836 1.617557883263
-89.638282775879 -75.985954284668 -214.085449218750 0.530710458755
-28.140180587769 -76.171356201172 -213.826553344727 1.588149905205
-25.617122650146 -74.155288696289 -219.476379394531 1.419237375259
-14.706395149231 -76.000076293945 -215.241455078125 1.754162788391
-26.635803222656 -76.083618164063 -214.077957153320 1.226613283157
-80.423843383789 -76.739631652832 -217.656631469727 2.222719907761
-85.385231018066 -77.530052185059 -219.788482666016 2.851803779602
-23.265727996826 -77.224296569824 -220.884140014648 1.549191832542
-3.650343894958 -75.912261962891 -221.741592407227 1.773487806320
-148.812423706055 -75.005310058594 -216.728576660156 0.738349139690
-2.426341056824 -76.245323181152 -218.295974731445 1.079206228256
83.559043884277 -76.054718017578 -224.415084838867 1.325559258461
-143.343139648438 -79.003257751465 -226.415618896484 0.972067058086
-8.471067428589 -76.756614685059 -223.941390991211 1.139362812042
-142.448623657227 -77.047927856445 -228.399932861328 2.049144029617
-148.307220458984 -83.175544738770 -226.691558837891 0.256655931473
-6.683714866638 -75.663993835449 -229.793884277344 0.765490293503
17.871738433838 -76.458435058594 -221.939132690430 1.296219229698
-141.109741210938 -76.256858825684 -228.991607666016 0.416439503431
-15.033205032349 -76.254440307617 -230.545852661133 1.194280028343
77.413963317871 -77.026222229004 -227.755004882813 1.647307991982
78.686225891113 -76.599311828613 -233.298019409180 3.110768795013
8.185841560364 -75.460662841797 -231.675003051758 0.778942286968
-26.094472885132 -76.472496032715 -240.133071899414 2.421584367752
-19.247047424316 -77.432449340820 -238.011962890625 0.373188644648
6.753804206848 -75.430740356445 -243.766571044922 0.942205250263
-47.593570709229 -74.443649291992 -242.348556518555 1.145370602608
-24.574522018433 -77.060127258301 -245.092285156250 2.718480825424
7.953105926514 -76.917701721191 -244.310455322266 0.794056653976
-64.043731689453 -76.406532287598 -247.348846435547 1.646674871445
-30.737253189087 -75.274505615234 -245.749481201172 2.822656869888
-43.445644378662 -74.909614562988 -244.629699707031 0.721966087818
-150.475448608398 -76.001129150391 -245.274871826172 1.118431448936
-48.127399444580 -77.398323059082 -248.011764526367 2.043317556381
-54.039848327637 -76.599945068359 -247.786483764648 0.549419641495
-66.208526611328 -78.805351257324 -250.838607788086 2.787074089050
-9.203201293945 -74.980506896973 -250.881149291992 1.176158189774
-82.456832885742 -74.866928100586 -252.729431152344 0.835835576057
-152.536895751953 -80.182250976563 -257.532867431641 1.967829465866
-140.597061157227 -80.150680541992 -257.763427734375 2.378928422928
-125.463462829590 -74.498245239258 -261.754486083984 1.108691692352
-153.818176269531 -73.731933593750 -263.482635498047 0.500624954700
20.489871978760 -76.412406921387 -262.545501708984 1.345149397850
-11.642193794250 -76.574684143066 -268.627929687500 0.921300590038
-151.223663330078 -77.335487365723 -269.263671875000 1.450790405273
-151.152648925781 -77.194686889648 -276.442962646484 1.572664976120
-143.269882202148 -79.448059082031 -283.176910400391 2.114929199219
-57.245746612549 -76.641815185547 -285.740356445313 2.820893049240
-37.491447448730 -75.539131164551 -287.191406250000 1.231068253517
-25.134737014771 -75.009384155273 -289.130371093750 2.674242019653
-13.129947662354 -76.212760925293 -287.089843750000 1.795389413834
-65.894737243652 -76.161659240723 -286.460449218750 1.897540807724
-78.276237487793 -74.924118041992 -286.908020019531 1.190758347511
-4.586960792542 -77.392623901367 -288.466522216797 0.484223216772
9.530103683472 -76.865081787109 -289.409454345703 1.214403748512
-134.924362182617 -76.808799743652 -290.161743164063 1.437380433083
-77.477622985840 -74.943283081055 -289.294708251953 1.371905922890
-147.583557128906 -76.175483703613 -290.171600341797 0.817409336567
-93.658279418945 -74.966217041016 -289.287078857422 1.823966860771
-74.776580810547 -74.776611328125 -289.827728271484 2.431853055954
-83.710685729980 -76.261627197266 -290.717651367188 1.654910922050
-61.351268768311 -76.891891479492 -290.440826416016 0.943375945091
-24.254503250122 -75.453720092773 -293.087677001953 2.824237823486
-2.975869894028 -75.141540527344 -291.961547851563 1.017419576645
-154.359283447266 -75.559829711914 -294.554473876953 1.308189392090
-149.285034179688 -76.730194091797 -299.021087646484 0.540786027908
-145.538757324219 -76.609153747559 -301.953582763672 1.528366804123
-154.506042480469 -75.691963195801 -307.769836425781 0.532665550709
-58.155410766602 -76.664199829102 -55.495544433594 0.538877964020
-46.145042419434 -75.069328308105 -53.360996246338 1.861242771149
-40.318859100342 -75.240455627441 -55.091976165771 0.739586949348
-75.910667419434 -78.821357727051 -58.802749633789 3.435102224350
-29.443078994751 -76.744522094727 -60.989006042480 2.381512641907
-29.628644943237 -76.976516723633 -78.982513427734 0.628472030163
75.566650390625 -79.254951477051 -82.465087890625 2.666109800339
77.476287841797 -78.606582641602 -83.792091369629 1.841217279434
76.890388488770 -77.013442993164 -85.324592590332 1.503114342690
96.371627807617 -78.231811523438 -90.273155212402 2.930159330368
73.280403137207 -77.800956726074 -90.729537963867 1.999459028244
54.903717041016 -77.296554565430 -93.615951538086 2.357750415802
46.462017059326 -78.061439514160 -100.379814147949 0.991689324379
-66.788383483887 -78.512603759766 -100.974723815918 2.265258312225
-72.374710083008 -72.415000915527 -100.527877807617 2.139314413071
44.793743133545 -76.325073242188 -103.398452758789 1.328431844711
-83.059593200684 -78.962089538574 -108.536483764648 1.281959891319
-93.047912597656 -74.351448059082 -112.101799011230 0.357568114996
50.097991943359 -75.622192382813 -104.639038085938 0.926620364189
106.604797363281 -75.624435424805 -111.251914978027 2.263002634048
32.887706756592 -78.115005493164 -120.480857849121 1.655932903290
45.562305450439 -78.428169250488 -118.150985717773 2.116393089294
43.121665954590 -78.191596984863 -125.013633728027 1.029690623283
29.317865371704 -77.230430603027 -126.100524902344 1.463659763336
109.117637634277 -76.226478576660 -118.213829040527 1.156152009964
36.987030029297 -77.886688232422 -127.220207214355 3.190571069717
30.410863876343 -75.717140197754 -130.368957519531 1.203814268112
-45.165756225586 -75.344848632813 -143.877044677734 1.255145668983
-71.380119323730 -76.872856140137 -147.033309936523 1.230990171432
-53.908397674561 -75.134422302246 -146.266937255859 1.178485155106
-70.765510559082 -76.029586791992 -144.582824707031 0.972566485405
-41.651161193848 -75.863143920898 -147.847396850586 1.753856658936
109.237770080566 -74.293106079102 -150.645797729492 0.801519632339
-71.764831542969 -76.513183593750 -154.188461303711 2.113779306412
23.394447326660 -78.623588562012 -150.801391601563 1.977091908455
33.105007171631 -75.226699829102 -152.499237060547 1.401038408279
114.764282226563 -75.622489929199 -156.969573974609 1.185747981071
8.366313934326 -74.724426269531 -158.259460449219 1.227494359016
32.142913818359 -75.390243530273 -156.058288574219 0.959188818932
-62.719650268555 -75.987968444824 -159.356140136719 1.070611238480
-45.203186035156 -77.849349975586 -169.357055664063 2.956757307053
18.797594070435 -75.251045227051 -163.932220458984 1.672046899796
-65.124130249023 -74.863853454590 -165.463623046875 2.239126682281
-66.667060852051 -74.983589172363 -163.091598510742 1.754734516144
108.867347717285 -77.675621032715 -165.799835205078 0.955901503563
-8.834033966064 -73.996665954590 -168.520736694336 1.878716468811
-59.535327911377 -77.877578735352 -176.803436279297 2.128816604614
-29.044523239136 -75.505355834961 -171.961349487305 0.868922591209
-55.387866973877 -75.442108154297 -173.420974731445 1.182939767838
28.816295623779 -78.656227111816 -169.106048583984 3.254147052765
110.062438964844 -73.751144409180 -171.014831542969 1.701825261116
105.207824707031 -78.026473999023 -182.777893066406 0.873059868813
110.164108276367 -77.676353454590 -190.287780761719 3.344890117645
107.629455566406 -76.526344299316 -176.572143554688 2.115765333176
-55.657836914063 -76.623298645020 -188.969314575195 3.631930828094
-52.069503784180 -74.863388061523 -181.953536987305 1.401063680649
24.695608139038 -77.091957092285 -183.462051391602 1.863954424858
-50.898918151855 -72.692619323730 -187.843551635742 1.939745068550
-21.081052780151 -75.686622619629 -185.702957153320 1.036204338074
-50.605297088623 -75.200485229492 -191.711395263672 0.436862140894
-147.810562133789 -77.004295349121 -194.750213623047 2.433172702789
101.026123046875 -74.950599670410 -193.035583496094 1.709482789040
-45.498943328857 -75.239051818848 -191.912017822266 1.164959311485
-16.132219314575 -77.555007934570 -196.527008056641 1.459130644798
-139.649154663086 -77.147972106934 -199.119873046875 2.595262765884
-45.221908569336 -76.163391113281 -195.757186889648 1.268592834473
104.536514282227 -79.281211853027 -196.387115478516 2.402611970901
106.747238159180 -76.448692321777 -187.748107910156 1.069878816605
-46.854881286621 -77.112236022949 -197.752426147461 1.668151855469
-23.841846466064 -76.560691833496 -195.756362915039 1.200988173485
-149.438690185547 -81.503974914551 -199.950469970703 1.519971609116
-25.854785919189 -76.297355651855 -199.846237182617 1.587512373924
-153.400100708008 -78.173362731934 -198.965637207031 1.067543506622
-152.790756225586 -77.852058410645 -202.519821166992 0.323143005371
-141.225952148438 -77.109611511230 -201.635269165039 0.365401595831
-37.977272033691 -75.862899780273 -197.722091674805 2.230887174606
101.329238891602 -76.827598571777 -199.952011108398 0.645501375198
-38.944252014160 -74.868507385254 -200.214614868164 1.768291115761
-144.393600463867 -78.826980590820 -203.810302734375 1.061340808868
-38.238536834717 -75.407958984375 -207.462814331055 2.068855524063
-18.657047271729 -77.607810974121 -210.141647338867 1.073079466820
95.131439208984 -76.315246582031 -204.247726440430 1.486381411552
93.591316223145 -76.062232971191 -209.548049926758 1.406331419945
-29.171192169189 -76.466506958008 -216.843002319336 0.968618154526
-86.873298645020 -77.364547729492 -212.332305908203 1.249892473221
-73.695289611816 -76.296669006348 -211.925842285156 0.861591935158
-17.918779373169 -76.532295227051 -218.855636596680 1.778445363045
-149.876342773438 -73.879173278809 -212.583190917969 1.571383476257
87.272369384766 -77.622680664063 -214.367828369141 2.475001811981
88.768859863281 -75.428276062012 -219.915710449219 1.224563241005
89.739700317383 -76.584785461426 -218.915390014648 0.531189739704
-101.230445861816 -72.366859436035 -223.060363769531 1.250543594360
-149.165573120117 -77.917434692383 -224.053817749023 1.618930339813
-19.058578491211 -78.381523132324 -220.276580810547 0.913341283798
79.612121582031 -75.307716369629 -224.076919555664 0.638288497925
-147.359436035156 -80.031005859375 -226.736557006836 0.783926308155
-28.880382537842 -75.966491699219 -221.669952392578 2.805464506149
-132.556243896484 -73.019325256348 -230.648574829102 1.750063896179
-12.388709068298 -77.441505432129 -227.509109497070 1.608993411064
18.613927841187 -75.850181579590 -221.061096191406 0.691693544388
17.632289886475 -75.998420715332 -233.142074584961 1.035178184509
-154.845153808594 -79.239196777344 -233.582061767578 2.115756511688
-124.139396667480 -73.672531127930 -232.460815429688 0.540037155151
-8.227211952209 -75.247283935547 -233.934631347656 0.997971415520
0.472317993641 -74.841682434082 -237.917510986328 1.260017395020
68.357315063477 -76.694511413574 -235.514175415039 2.707042694092
71.035034179688 -74.985740661621 -236.373672485352 1.672443032265
0.206551000476 -76.604812622070 -240.673217773438 1.536848187447
18.152315139771 -75.312194824219 -238.548339843750 1.198048472404
-26.801139831543 -74.526802062988 -240.464736938477 1.277150273323
-37.106449127197 -77.072067260742 -242.712936401367 2.184291124344
-45.410259246826 -76.149314880371 -240.244552612305 1.336788177490
-38.900569915771 -76.134078979492 -242.772109985352 1.769980072975
-19.059696197510 -77.595565795898 -243.333251953125 2.020542144775
-53.855182647705 -74.107910156250 -242.407516479492 0.893775343895
3.377007961273 -75.439498901367 -244.876220703125 1.230403065681
-69.320838928223 -72.439804077148 -246.428375244141 0.217481777072
17.724971771240 -74.559448242188 -246.297607421875 1.364663481712
-146.569076538086 -77.420913696289 -247.656906127930 1.311341762543
-70.925895690918 -78.274093627930 -250.093551635742 2.272067546844
12.822616577148 -77.929756164551 -248.133163452148 1.919660568237
-162.972976684570 -75.152359008789 -250.252578735352 1.738352417946
17.836631774902 -75.672637939453 -250.713165283203 1.573691964149
-80.973297119141 -76.598976135254 -251.830795288086 1.665835857391
-74.267105102539 -74.785270690918 -251.464981079102 1.128983378410
22.138525009155 -75.729034423828 -256.696838378906 0.992140412331
-88.507896423340 -74.435424804688 -255.478927612305 1.220476150513
-127.462532043457 -75.879493713379 -255.989669799805 1.802030205727
-135.906768798828 -75.705650329590 -258.110565185547 1.346197962761
-133.703308105469 -76.169601440430 -258.463348388672 0.756317853928
-145.712905883789 -73.671447753906 -259.878295898438 1.681859493256
-140.803970336914 -76.588867187500 -258.248962402344 1.196927428246
-135.947174072266 -74.079208374023 -262.505737304688 1.036897897720
-160.305587768555 -75.665214538574 -260.271911621094 1.708015084267
-126.571929931641 -72.748207092285 -264.438171386719 1.418500661850
-134.112060546875 -74.605857849121 -260.877227783203 1.161194801331
-164.346389770508 -76.218696594238 -264.875976562500 2.254045963287
-157.016555786133 -74.707756042480 -263.874359130859 1.407693982124
-150.610626220703 -74.668960571289 -265.971710205078 1.207086563110
-146.451644897461 -77.118019104004 -265.598632812500 0.850423574448
15.179512023926 -80.280998229980 -279.369995117188 2.333753347397
-164.955047607422 -76.236000061035 -269.014190673828 1.713540673256
-153.499450683594 -73.323051452637 -274.925567626953 2.098438262939
-6.315495014191 -78.078910827637 -274.830108642578 1.791604399681
-160.517501831055 -75.026229858398 -268.412597656250 3.836247444153
13.584357261658 -79.200370788574 -280.077392578125 1.185441136360
-152.107406616211 -74.666152954102 -282.884490966797 0.888600230217
-161.687301635742 -73.870048522949 -288.828887939453 1.916660428047
-153.351318359375 -73.653839111328 -283.137847900391 0.976151585579
-167.017074584961 -72.413696289063 -284.342071533203 1.559548735619
2.680617094040 -74.994682312012 -288.202789306641 0.626733005047
8.892009735107 -78.480468750000 -284.258270263672 1.415410995483
-97.068069458008 -72.345817565918 -287.520202636719 1.412198305130
-150.984100341797 -75.536254882813 -288.221130371094 1.214208841324
-148.370056152344 -75.197433471680 -286.227539062500 1.094733595848
