-145.841567993164 -71.819938659668 -187.167938232422 1.172539234161
-21.325550079346 -68.650268554688 -188.257171630859 1.123748660088
13.522860527039 -75.923896789551 -182.842666625977 1.943059086800
-145.585891723633 -73.062667846680 -193.100097656250 0.806594312191
-33.419052124023 -75.982948303223 -184.802383422852 0.397506058216
100.711769104004 -74.920547485352 -189.081008911133 0.768951833248
107.290473937988 -73.758918762207 -191.750045776367 0.481725066900
21.778013229370 -72.568878173828 -192.453308105469 1.216501832008
-19.529708862305 -75.724174499512 -189.634521484375 0.842681884766
-26.158170700073 -75.505798339844 -196.292633056641 2.089815139771
-151.787521362305 -70.593292236328 -196.928802490234 2.206617355347
-133.324478149414 -72.367584228516 -198.310409545898 1.078171253204
-124.139411926270 -71.691902160645 -195.916015625000 0.695607483387
-123.279304504395 -72.681243896484 -198.484420776367 1.380774259567
-21.723859786987 -71.433204650879 -197.401153564453 1.642178177834
10.514367103577 -74.582115173340 -193.501449584961 1.571938872337
94.011421203613 -71.844856262207 -200.927413940430 2.203893661499
-147.712982177734 -72.033523559570 -197.371047973633 0.937634944916
-146.621871948242 -70.894317626953 -200.697616577148 0.565012812614
-148.672851562500 -69.287475585938 -199.296844482422 2.016205549240
-155.575622558594 -69.998580932617 -200.572952270508 2.083255529404
-27.464126586914 -73.328041076660 -200.572341918945 2.449486494064
-14.481985092163 -76.974609375000 -195.887634277344 1.335634827614
-147.351104736328 -69.490013122559 -199.779968261719 2.343025684357
-17.312707901001 -74.159820556641 -198.502029418945 2.026222944260
-163.140243530273 -72.235260009766 -199.732040405273 1.627274274826
-133.219787597656 -72.591934204102 -200.248245239258 0.681112706661
14.663796424866 -71.555862426758 -208.655364990234 2.052110433578
-163.638595581055 -71.373153686523 -204.113922119141 0.751358568668
-145.246017456055 -72.967613220215 -205.555709838867 0.978001475334
10.402937889099 -73.914382934570 -201.132308959961 1.946282863617
-154.756225585938 -72.937561035156 -205.119461059570 2.227479696274
-23.542778015137 -74.095458984375 -201.264831542969 1.149842739105
102.381584167480 -73.664352416992 -200.273651123047 2.902055263519
-155.412582397461 -71.990890502930 -215.806777954102 0.672492682934
-164.371170043945 -72.488677978516 -211.886459350586 1.126546859741
-79.282821655273 -71.502586364746 -212.710327148438 1.648263216019
89.315017700195 -73.409172058105 -210.725128173828 1.524465799332
-4.077198982239 -72.339309692383 -215.499389648438 1.157675743103
-152.410278320313 -71.917091369629 -212.932205200195 1.767419695854
-88.994270324707 -69.883888244629 -215.851699829102 1.583914756775
-7.801251888275 -73.478584289551 -211.539566040039 2.152374029160
14.704359054565 -72.600837707520 -223.066574096680 0.899378895760
-145.629089355469 -73.173019409180 -219.302185058594 0.974486827850
-3.188513040543 -74.195953369141 -221.055511474609 1.995578527451
-20.131994247437 -70.207725524902 -221.220153808594 1.442867517471
-16.700654983521 -70.357917785645 -219.431335449219 2.571128368378
87.496620178223 -74.080329895020 -215.974914550781 2.185145378113
-22.372867584229 -71.020103454590 -217.485260009766 1.264199852943
-29.066621780396 -73.021141052246 -217.289169311523 1.181168556213
-106.103034973145 -72.172554016113 -223.266006469727 0.678403317928
-15.588597297668 -72.429489135742 -224.019226074219 2.348920822144
89.505798339844 -72.436599731445 -219.488235473633 1.740574717522
81.031372070313 -73.069099426270 -219.055923461914 1.190933227539
5.577532768250 -75.320220947266 -222.571517944336 1.558112978935
-11.656901359558 -73.275886535645 -226.218780517578 1.501991748810
77.987678527832 -77.236213684082 -223.003921508789 2.407640218735
-125.800369262695 -72.148864746094 -224.851913452148 1.934168577194
-23.873289108276 -73.322692871094 -222.775650024414 1.541493177414
-101.002212524414 -71.090599060059 -225.290405273438 1.774548292160
-106.307273864746 -73.358856201172 -227.958923339844 1.796397328377
-134.936553955078 -72.235343933105 -228.473602294922 1.490380048752
80.202629089355 -73.428916931152 -224.645965576172 1.085510134697
-125.318870544434 -72.887115478516 -228.208160400391 1.874466538429
3.722971916199 -73.184486389160 -229.394454956055 1.403549790382
77.534950256348 -73.212112426758 -224.389663696289 0.956715285778
-14.982687950134 -73.661193847656 -227.885650634766 1.571329593658
-11.336887359619 -73.843139648438 -231.197875976563 1.479733109474
-5.465844154358 -73.057075500488 -231.434509277344 1.565295577049
7.630825996399 -73.537734985352 -228.620758056641 1.713443279266
84.500579833984 -73.979393005371 -225.445861816406 0.915589809418
12.306627273560 -73.141693115234 -232.724304199219 1.553740262985
2.738079071045 -74.428153991699 -230.609115600586 2.405124425888
-8.014596939087 -74.125862121582 -229.091339111328 1.603381276131
-6.796085834503 -72.003952026367 -234.253005981445 0.883721470833
15.991810798645 -72.101776123047 -232.465591430664 1.642511606216
-11.556568145752 -71.955253601074 -235.018966674805 1.147795915604
71.954643249512 -73.581176757813 -237.895629882813 0.767308235168
-8.536719322205 -71.260177612305 -237.034042358398 1.220251441002
19.428071975708 -74.093902587891 -233.970046997070 1.550235271454
-165.012176513672 -71.033271789551 -243.006652832031 2.579499721527
-5.304813861847 -72.769195556641 -240.977416992188 1.403228759766
-10.028931617737 -71.891426086426 -242.254913330078 1.814822673798
-167.971786499023 -70.839950561523 -254.750747680664 2.499513149261
-10.476507186890 -73.609191894531 -245.350204467773 1.002620577812
17.262039184570 -73.756278991699 -245.962982177734 0.481569766998
-147.270645141602 -74.278419494629 -252.594528198242 1.294435143471
-68.589172363281 -71.487449645996 -248.781387329102 1.312060236931
-60.010360717773 -71.535591125488 -248.086135864258 1.913369059563
53.804721832275 -73.080635070801 -247.639221191406 1.186798214912
-77.540954589844 -72.734939575195 -248.070892333984 2.206173896790
16.678630828857 -73.904479980469 -248.325973510742 1.886597752571
-75.133598327637 -71.997283935547 -252.455459594727 0.973225533962
-16.346113204956 -73.492973327637 -250.371932983398 2.385484695435
-147.480590820313 -73.016189575195 -254.481719970703 2.720006942749
48.251121520996 -72.499168395996 -249.176696777344 1.139747500420
-80.539894104004 -70.444664001465 -252.731582641602 1.749763727188
-100.143928527832 -72.139999389648 -255.737152099609 1.440155863762
-97.352813720703 -75.515457153320 -254.901718139648 1.982024073601
-119.949485778809 -73.203948974609 -257.597595214844 2.394108533859
-106.897232055664 -72.012496948242 -257.721618652344 1.830649375916
-107.539031982422 -72.031440734863 -260.305175781250 0.434356451035
20.363578796387 -74.111549377441 -260.357299804688 2.374998092651
-128.368316650391 -70.448364257813 -266.204376220703 2.230397224426
-10.648509979248 -74.591590881348 -277.329254150391 2.259837388992
-146.399551391602 -73.217514038086 -282.812011718750 0.937066137791
-169.192626953125 -71.639091491699 -283.998046875000 1.488972425461
-126.302978515625 -72.660049438477 -287.490509033203 2.248807191849
-115.261116027832 -72.144676208496 -285.316223144531 1.662554264069
-77.208168029785 -69.401725769043 -288.134246826172 1.534423470497
-57.002799987793 -69.796478271484 -288.495147705078 1.246761202812
-44.000686645508 -72.079589843750 -287.250030517578 1.395521283150
-14.750826835632 -72.101493835449 -289.006103515625 0.849394679070
-13.262086868286 -71.526527404785 -289.212982177734 0.642509698868
-37.171157836914 -72.339302062988 -289.865570068359 1.349140763283
-34.739204406738 -71.796318054199 -289.024993896484 2.637780666351
-19.498378753662 -70.944602966309 -291.012176513672 2.566631793976
-71.134597778320 -72.804206848145 -292.175384521484 2.085805892944
-54.556713104248 -71.067146301270 -292.738555908203 3.050791025162
-15.094500541687 -70.320281982422 -291.627502441406 1.208314299583
-14.419462203979 -72.689735412598 -291.696685791016 1.379054665565
-4.679957866669 -71.737197875977 -291.660278320313 1.481062173843
2.291629076004 -70.784904479980 -293.285034179688 1.438107252121
-89.306678771973 -72.003349304199 -290.235198974609 1.542759299278
-144.337310791016 -70.445716857910 -291.860717773438 1.499840021133
-118.101867675781 -72.800094604492 -294.473327636719 2.755672216415
-154.251129150391 -74.335807800293 -299.714630126953 1.515873789787
-155.212020874023 -72.148757934570 -300.144775390625 1.052389860153
-145.441650390625 -72.580566406250 -301.750549316406 2.241730213165
45.645801544189 -74.127410888672 -21.547021865845 3.244060993195
18.467563629150 -72.911857604980 -24.288110733032 2.784144163132
48.716476440430 -73.972229003906 -26.881746292114 2.776098251343
47.190929412842 -74.675628662109 -34.069690704346 3.402659177780
85.946403503418 -71.655845642090 -67.835502624512 1.251590132713
95.298805236816 -72.887878417969 -74.139724731445 1.668689608574
98.891151428223 -71.865806579590 -80.878143310547 1.691254615784
96.841995239258 -73.664817810059 -84.677215576172 1.086774110794
54.885379791260 -73.518379211426 -88.336845397949 1.493651151657
48.662868499756 -74.219612121582 -93.569206237793 1.483029007912
61.726554870605 -71.607040405273 -91.692817687988 0.950306952000
-65.294052124023 -68.787834167480 -92.655815124512 1.589612007141
69.629692077637 -74.450248718262 -89.672744750977 2.160650253296
101.927909851074 -72.121032714844 -96.114257812500 2.015091419220
73.783798217773 -75.547035217285 -100.066101074219 2.981914520264
94.649955749512 -71.807098388672 -99.756042480469 1.448776364326
-81.534332275391 -73.279998779297 -101.639816284180 1.764305710793
44.102657318115 -73.379776000977 -103.044464111328 1.177349448204
-86.013160705566 -73.723373413086 -107.738555908203 3.542735338211
49.760124206543 -74.600112915039 -112.064285278320 1.260378599167
40.065853118896 -71.497245788574 -105.605194091797 1.177781224251
104.438491821289 -74.054908752441 -104.535118103027 1.297443270683
38.380767822266 -71.205238342285 -108.920280456543 1.612796902657
39.273994445801 -73.152915954590 -115.305702209473 2.236994981766
41.992633819580 -70.832695007324 -114.672943115234 0.926745057106
105.726524353027 -70.962013244629 -115.620246887207 1.577080726624
-82.589515686035 -71.436340332031 -121.065940856934 0.687297403812
111.381698608398 -73.625663757324 -125.028167724609 1.164475917816
37.403911590576 -70.444061279297 -122.127044677734 1.107509493828
41.781555175781 -72.168579101563 -119.787567138672 2.501849174500
34.397994995117 -72.845886230469 -122.207740783691 1.060708522797
-56.909080505371 -72.333335876465 -131.063644409180 1.115053176880
29.898599624634 -72.120315551758 -123.766349792480 1.643536210060
-77.566802978516 -73.781639099121 -137.370330810547 1.591485500336
-58.026775360107 -71.964721679688 -134.059234619141 1.875958800316
-78.928741455078 -70.866592407227 -134.199234008789 1.270115613937
33.159755706787 -72.023674011230 -128.495391845703 1.627471446991
-58.556095123291 -70.871620178223 -133.983245849609 1.848062992096
35.837066650391 -72.279891967773 -133.972381591797 2.018858909607
-74.925292968750 -71.719932556152 -139.928131103516 0.781314194202
-59.118564605713 -74.182800292969 -139.647781372070 1.641234397888
28.378417968750 -71.967201232910 -139.695037841797 0.941946089268
109.485610961914 -75.433837890625 -144.824966430664 1.693315863609
116.390876770020 -72.561492919922 -137.315444946289 2.470773696899
31.520185470581 -71.747749328613 -140.234024047852 1.496165752411
-46.839023590088 -70.521034240723 -142.869552612305 2.342807292938
108.935897827148 -72.564758300781 -154.222305297852 2.782699584961
-74.358474731445 -71.708526611328 -146.481552124023 1.904963850975
-56.236724853516 -72.926155090332 -141.891189575195 1.631394863129
31.975694656372 -74.463645935059 -151.042694091797 1.127770423889
-74.569396972656 -72.522758483887 -146.170974731445 1.602369546890
-71.390907287598 -73.260742187500 -149.898742675781 1.686936259270
116.173027038574 -71.738403320313 -149.438476562500 1.880299329758
-64.959869384766 -72.214584350586 -152.833221435547 3.076698780060
-40.165882110596 -71.616218566895 -152.963653564453 1.392296791077
28.344135284424 -69.927169799805 -150.478439331055 1.538287520409
-75.871200561523 -71.543159484863 -149.811279296875 1.164962768555
10.297909736633 -73.885391235352 -154.846847534180 1.383980631828
32.005809783936 -70.794143676758 -155.618194580078 1.150310754776
28.159740447998 -72.450019836426 -149.316192626953 2.324666738510
9.264787673950 -75.342063903809 -155.670837402344 2.342710256577
-48.873470306396 -70.716133117676 -154.306533813477 0.611756980419
26.008886337280 -71.426246643066 -153.178604125977 2.130512952805
-46.402168273926 -72.470458984375 -149.627578735352 2.839028358459
6.127905845642 -73.325523376465 -153.059432983398 1.986362457275
21.142997741699 -72.694236755371 -149.872879028320 2.407427787781
-72.660621643066 -73.617988586426 -155.424560546875 1.332567811012
-45.896629333496 -71.212821960449 -155.088973999023 1.727073192596
-69.354103088379 -70.030761718750 -159.212066650391 2.173521995544
12.749733924866 -69.565811157227 -161.121078491211 2.180783510208
22.447511672974 -72.421440124512 -149.103958129883 1.080218911171
1.504186987877 -71.379470825195 -162.328475952148 1.679936647415
20.347816467285 -71.991950988770 -156.224639892578 1.179512739182
29.489738464355 -73.314811706543 -164.147705078125 0.788089692593
-47.717227935791 -73.939018249512 -162.688507080078 1.378139019012
-34.093154907227 -72.270935058594 -161.532760620117 0.713322818279
-39.194114685059 -71.163078308105 -161.211547851563 0.867353320122
28.262695312500 -72.593940734863 -162.158462524414 1.778133869171
-45.143569946289 -72.371124267578 -167.577194213867 1.394969105721
-42.189857482910 -71.792884826660 -163.009765625000 1.593782067299
19.904445648193 -73.336524963379 -165.563446044922 0.935517847538
-41.616394042969 -71.962936401367 -173.583526611328 1.664371371269
29.604438781738 -71.256187438965 -171.887756347656 1.562027454376
114.524497985840 -71.663513183594 -166.356124877930 1.130972504616
-32.906352996826 -71.391151428223 -172.904067993164 1.492410659790
105.910278320313 -71.209938049316 -172.196868896484 1.683662652969
-34.791309356689 -70.402336120605 -177.593276977539 1.128648757935
-37.906375885010 -72.760848999023 -180.566955566406 1.494813919067
17.454608917236 -73.938117980957 -175.329742431641 1.152750968933
103.316345214844 -71.170364379883 -181.150009155273 2.536991357803
-29.474615097046 -71.427452087402 -184.557403564453 1.002093672752
-33.339408874512 -69.093070983887 -174.560684204102 1.342179179192
-23.997611999512 -72.642700195313 -186.589233398438 1.926357626915
-148.463012695313 -73.818710327148 -188.492492675781 1.446141362190
14.179379463196 -73.400978088379 -183.428894042969 1.486391782761
105.930259704590 -71.604263305664 -191.154663085938 1.412563920021
-157.492950439453 -70.966865539551 -194.979797363281 1.171500325203
-26.867113113403 -72.185974121094 -191.866928100586 0.951272785664
-116.030914306641 -70.611091613770 -196.398330688477 1.074870347977
-133.459167480469 -71.730766296387 -198.034744262695 0.846110463142
-109.720314025879 -70.142562866211 -200.918319702148 1.777865409851
-111.752517700195 -69.993431091309 -200.680953979492 0.919166684151
-15.588733673096 -70.526420593262 -198.050689697266 1.112542986870
19.316091537476 -73.597236633301 -197.431854248047 1.707551717758
-18.485771179199 -68.073272705078 -201.736633300781 1.335371613503
-125.208564758301 -70.561386108398 -204.468429565430 1.350607275963
-23.942195892334 -70.527214050293 -207.072753906250 3.154295444489
-131.536773681641 -73.597854614258 -203.693283081055 1.206420898438
-13.193121910095 -70.974426269531 -202.780899047852 1.032138586044
-144.896286010742 -71.000228881836 -205.153930664063 0.744087815285
90.737159729004 -71.907875061035 -208.525527954102 1.629890799522
-165.762680053711 -71.207992553711 -203.443603515625 0.550199925900
-3.309449911118 -74.220756530762 -214.077377319336 1.435015201569
10.757117271423 -69.462547302246 -210.728332519531 1.570700645447
9.312330245972 -69.817085266113 -216.992492675781 2.348509788513
82.625373840332 -71.988037109375 -218.476104736328 0.868071794510
4.976274967194 -70.619834899902 -214.511459350586 2.590133428574
14.381628036499 -72.067253112793 -214.464462280273 1.181895732880
-15.922182083130 -75.436355590820 -215.559020996094 2.264386415482
-90.473678588867 -70.964591979980 -216.849136352539 1.223457098007
-99.390151977539 -72.282081604004 -217.495407104492 1.633981347084
-4.198548793793 -70.868530273438 -221.452194213867 1.244005799294
-167.884521484375 -71.324264526367 -226.887619018555 1.608491659164
12.104370117188 -70.934257507324 -221.628738403320 1.646383523941
-144.372833251953 -71.539802551270 -223.847579956055 0.360186725855
11.329319000244 -70.679542541504 -225.838714599609 0.928898215294
-134.443298339844 -71.567428588867 -224.142379760742 1.299153566360
-116.981895446777 -71.391754150391 -227.082717895508 1.765069842339
16.723255157471 -69.347549438477 -223.575576782227 2.602603435516
75.086120605469 -71.868934631348 -226.868713378906 2.608102083206
5.550498008728 -70.102027893066 -224.593841552734 2.464594125748
-113.609542846680 -72.485931396484 -227.264328002930 1.412204265594
75.229171752930 -71.848464965820 -228.186752319336 2.007857561111
79.879356384277 -73.008323669434 -230.703598022461 1.450334787369
-123.452903747559 -71.650688171387 -232.107208251953 0.287689656019
-116.865776062012 -72.606796264648 -232.413314819336 1.695709109306
-11.836434364319 -71.486106872559 -231.580871582031 1.404608845711
70.344734191895 -73.828308105469 -228.981246948242 1.720554471016
65.109077453613 -71.850997924805 -235.680130004883 0.755710482597
73.591262817383 -71.591476440430 -232.595291137695 1.893640398979
-133.966812133789 -71.757102966309 -236.601547241211 2.490231275558
70.192131042480 -74.394027709961 -235.238937377930 0.904565989971
65.465316772461 -73.395797729492 -236.158447265625 1.232015967369
-167.499130249023 -72.494934082031 -229.046478271484 1.614838957787
-0.678290009499 -74.326469421387 -240.470596313477 1.979480266571
15.789976119995 -71.752082824707 -242.667251586914 2.130080461502
-5.517331123352 -72.426795959473 -241.091400146484 1.489515066147
13.363059043884 -72.782203674316 -241.528564453125 0.961639702320
65.661842346191 -73.277030944824 -239.938369750977 1.578222274780
10.289392471313 -73.603958129883 -241.162658691406 1.698619008064
-9.527269363403 -68.522483825684 -243.333831787109 1.480057835579
-1.322955965996 -71.600845336914 -243.394836425781 1.907070875168
64.967048645020 -72.538925170898 -244.378173828125 0.994715869427
5.352893829346 -74.019630432129 -244.618164062500 1.641411185265
-9.772540092468 -72.262817382813 -242.467758178711 1.553627133369
13.512099266052 -73.011573791504 -246.044586181641 1.260339260101
-167.235031127930 -68.769035339355 -241.861999511719 1.333368301392
59.249141693115 -70.647163391113 -248.892257690430 1.481239199638
51.688919067383 -71.195556640625 -249.552886962891 0.485365390778
55.448272705078 -74.151695251465 -242.524902343750 1.786663532257
-13.489922523499 -71.747329711914 -250.275405883789 1.088149309158
55.533679962158 -74.178504943848 -246.906661987305 3.302644729614
-73.849983215332 -72.031112670898 -248.972488403320 1.225598216057
51.079685211182 -73.097869873047 -250.799392700195 1.913751602173
-90.676139831543 -73.064521789551 -253.698852539063 1.522646427155
-127.174308776855 -73.173751831055 -254.760894775391 1.752611398697
-134.485336303711 -69.017707824707 -253.993072509766 0.978885233402
46.175189971924 -71.823913574219 -254.902389526367 2.584684133530
-137.218933105469 -70.726829528809 -256.882263183594 2.543175220490
-109.413742065430 -74.653915405273 -255.853225708008 2.709145784378
-113.502891540527 -70.106277465820 -257.895874023438 1.131848216057
-84.029335021973 -72.287643432617 -254.245178222656 2.156867504120
-112.717323303223 -72.978675842285 -262.477691650391 1.830621242523
-124.911956787109 -70.933540344238 -264.187866210938 0.407092273235
-145.522033691406 -70.190101623535 -266.623321533203 0.711477100849
-14.869570732117 -72.573547363281 -261.966644287109 1.140328049660
-170.259735107422 -70.447998046875 -265.817962646484 3.684437274933
-12.883769989014 -73.751358032227 -272.199737548828 1.195174336433
-159.707351684570 -68.269271850586 -267.442504882813 2.037140130997
-154.036651611328 -68.937805175781 -274.763397216797 1.675770759583
-169.222351074219 -68.735435485840 -276.572814941406 2.994494915009
-13.163222312927 -70.100418090820 -276.084045410156 1.330203533173
-134.291519165039 -71.877235412598 -284.284240722656 1.167239665985
-159.453994750977 -69.472702026367 -287.605194091797 2.259071350098
-145.171203613281 -70.647209167480 -282.507720947266 0.648052215576
-136.147338867188 -73.699493408203 -285.319488525391 0.918798804283
-9.197851181030 -70.969062805176 -284.157531738281 0.935528814793
-125.541389465332 -74.761581420898 -284.416778564453 0.369818538427
-142.319396972656 -71.837265014648 -286.081787109375 1.119781374931
-116.196487426758 -70.486755371094 -286.438720703125 0.390653282404
-77.216796875000 -70.680862426758 -288.437072753906 1.797739744186
-62.839282989502 -71.097572326660 -286.341766357422 1.270622730255
-6.023034095764 -72.207992553711 -288.754730224609 0.993112444878
-52.297470092773 -71.897613525391 -290.223571777344 0.879010200500
-60.206233978271 -71.723930358887 -288.720489501953 2.256552934647
-69.783851623535 -70.035888671875 -291.323699951172 0.991649270058
-87.368591308594 -72.173339843750 -293.804504394531 2.544152736664
-101.354629516602 -67.581054687500 -290.624023437500 1.075979232788
-161.752838134766 -69.834945678711 -291.696716308594 1.372070431709
-160.623336791992 -71.077896118164 -291.478393554688 1.230442643166
-126.713592529297 -72.749191284180 -296.262512207031 1.584491848946
-145.805572509766 -71.604125976563 -295.589050292969 1.214097976685
-157.011337280273 -71.082511901855 -300.849609375000 2.253097295761
-147.891876220703 -71.120735168457 -315.357788085938 2.261320114136
46.135990142822 -71.442405700684 -19.223442077637 1.750358462334
18.986951828003 -76.046737670898 -26.989843368530 4.244433879852
42.047374725342 -72.909179687500 -35.657615661621 1.864710569382
-18.548688888550 -74.266990661621 -67.028366088867 2.173339128494
80.862297058105 -71.811019897461 -66.329681396484 2.070626020432
84.896263122559 -69.268653869629 -68.649452209473 2.669154405594
75.744194030762 -71.517280578613 -69.285278320313 0.957188904285
74.582695007324 -72.194641113281 -68.617492675781 1.682975292206
92.911651611328 -74.888168334961 -73.927742004395 1.339608550072
-95.384674072266 -71.805847167969 -72.054351806641 3.399364709854
69.276191711426 -74.092216491699 -77.349838256836 2.474616050720
-37.062072753906 -69.675949096680 -77.299140930176 1.424450397491
98.995422363281 -73.374244689941 -87.343513488770 0.639261305332
61.002201080322 -74.719009399414 -90.264343261719 2.981313705444
107.038490295410 -73.246887207031 -94.565734863281 2.240766763687
104.685188293457 -73.784545898438 -98.363433837891 0.716324269772
70.267921447754 -72.848716735840 -98.887954711914 1.931715965271
-78.476715087891 -73.553710937500 -99.794441223145 1.815449357033
54.167938232422 -73.870857238770 -104.840751647949 1.988657832146
105.613616943359 -72.959419250488 -105.687454223633 1.781093001366
48.230255126953 -75.811706542969 -112.020889282227 0.574127495289
81.557022094727 -72.428588867188 -103.700325012207 2.102404594421
41.924198150635 -74.125854492188 -108.490142822266 1.908671259880
106.052421569824 -71.185157775879 -102.584014892578 0.565126717091
47.411128997803 -71.090538024902 -108.135345458984 1.575721979141
109.650276184082 -73.894042968750 -112.240989685059 1.145035505295
107.912399291992 -72.108703613281 -115.065803527832 1.869542360306
-79.095603942871 -68.297576904297 -114.430671691895 2.666495084763
-80.742309570313 -71.222320556641 -116.986015319824 1.838437318802
43.032917022705 -73.134254455566 -120.263053894043 2.345833063126
114.297340393066 -71.117897033691 -118.573211669922 2.001578807831
114.340309143066 -70.544082641602 -123.549118041992 1.229605078697
-83.511543273926 -71.155555725098 -127.473052978516 1.689534783363
107.246627807617 -71.849815368652 -123.324325561523 1.627550363541
-62.047424316406 -72.395408630371 -133.420501708984 2.585878610611
-87.686058044434 -70.084793090820 -127.080444335938 1.864167451859
-75.686965942383 -70.027221679688 -128.797943115234 1.466100573540
-58.048160552979 -67.477592468262 -126.435882568359 0.499738395214
32.223766326904 -71.010169982910 -129.989517211914 1.023024320602
40.094272613525 -72.523681640625 -133.802658081055 1.639666080475
-76.093589782715 -71.544105529785 -136.906097412109 1.619400382042
27.972326278687 -70.963638305664 -132.233276367188 1.465755939484
107.575584411621 -73.040336608887 -138.583724975586 1.821885228157
-42.190868377686 -71.266998291016 -147.700256347656 2.079932689667
25.022518157959 -70.077598571777 -147.404907226563 1.580104351044
112.938934326172 -69.209152221680 -146.313873291016 1.370462417603
34.427032470703 -72.386123657227 -144.146255493164 1.738658070564
110.724433898926 -72.103652954102 -143.589859008789 1.494801044464
-54.622131347656 -72.288192749023 -148.850128173828 1.057579398155
-67.948486328125 -72.006973266602 -150.350006103516 1.529273748398
-52.654323577881 -72.680984497070 -155.358551025391 2.187107801437
-43.243881225586 -71.016502380371 -166.801757812500 1.243887066841
4.134306907654 -69.988487243652 -155.579147338867 2.156238794327
110.424163818359 -69.509300231934 -154.859649658203 1.336714625359
108.570594787598 -71.210868835449 -159.470199584961 1.092559695244
8.299159049988 -68.536300659180 -159.538803100586 2.263816356659
3.219177961349 -71.969078063965 -162.181625366211 1.282532095909
15.043484687805 -71.161758422852 -158.491760253906 1.231621384621
22.823543548584 -70.669227600098 -153.635070800781 1.724452376366
112.181892395020 -72.883537292480 -166.311157226563 1.972645759583
106.576065063477 -73.338043212891 -170.315017700195 1.648777723312
24.289854049683 -70.142623901367 -172.748489379883 1.428520321846
26.051773071289 -70.706840515137 -163.178909301758 1.803676009178
113.593879699707 -71.439979553223 -162.389007568359 1.986021280289
-29.687349319458 -70.271194458008 -174.585144042969 1.480876803398
110.174606323242 -70.818206787109 -169.791625976563 1.513791680336
17.769954681396 -69.999038696289 -174.785186767578 1.530004143715
19.276762008667 -72.166564941406 -165.786132812500 1.592687368393
108.582122802734 -70.922340393066 -175.576629638672 1.499375820160
24.228389739990 -71.230239868164 -171.124542236328 2.036631345749
109.472473144531 -70.996131896973 -181.840072631836 1.258452892303
-39.258258819580 -69.688171386719 -176.042526245117 3.186372280121
26.505764007568 -69.476104736328 -173.585800170898 1.530972361565
106.840942382813 -71.170822143555 -184.148818969727 2.416134595871
23.502010345459 -70.697769165039 -179.980377197266 0.611397504807
-153.532012939453 -68.721076965332 -185.270874023438 2.278770685196
-30.639387130737 -70.169540405273 -188.696762084961 1.313204526901
24.672931671143 -71.836135864258 -185.360992431641 1.943776607513
-112.216377258301 -70.387939453125 -193.013763427734 1.095509171486
-111.176918029785 -70.830879211426 -189.749160766602 2.469781398773
21.181715011597 -69.848335266113 -191.316375732422 1.703593850136
12.228881835938 -72.022644042969 -186.485534667969 1.156216382980
-27.117380142212 -72.085853576660 -191.029129028320 1.373759031296
-30.400621414185 -71.744575500488 -188.664093017578 0.676885008812
-26.615444183350 -71.620101928711 -185.999267578125 1.725833892822
18.465166091919 -72.275970458984 -179.810165405273 2.621215343475
-152.376235961914 -70.148414611816 -193.958969116211 1.805541753769
-145.308517456055 -71.393829345703 -196.676559448242 1.751893043518
-141.773117065430 -70.424209594727 -195.709594726563 1.310862660408
-21.018238067627 -69.249755859375 -191.894454956055 1.356490969658
13.051817893982 -70.896224975586 -199.603591918945 1.401830315590
98.741706848145 -72.332695007324 -195.718963623047 1.678993582726
-115.271827697754 -70.351615905762 -200.590347290039 2.204744815826
19.180494308472 -70.518814086914 -200.827926635742 1.596715927124
-17.865011215210 -70.274787902832 -196.681777954102 0.272739320993
-19.129934310913 -69.628425598145 -198.240631103516 0.756481587887
98.175064086914 -71.224983215332 -200.087219238281 1.639539480209
8.258818626404 -71.858818054199 -200.654479980469 1.478631854057
-24.120361328125 -69.881523132324 -195.971069335938 1.558126330376
-122.800895690918 -71.908782958984 -202.161514282227 1.211399793625
-134.560745239258 -69.356658935547 -202.499862670898 1.473779201508
-112.763824462891 -68.990699768066 -205.319412231445 2.413021087646
-144.142089843750 -70.679161071777 -204.411132812500 0.844037353992
18.983501434326 -71.457580566406 -197.948150634766 2.023251533508
95.130325317383 -72.242507934570 -206.535110473633 2.637474060059
-167.311141967773 -68.805595397949 -205.054794311523 1.862085342407
99.777885437012 -72.006950378418 -203.822433471680 1.213495850563
-18.408586502075 -70.952377319336 -209.036788940430 1.878464221954
92.650032043457 -74.384437561035 -213.785369873047 2.528499603271
88.399803161621 -70.068473815918 -216.621032714844 1.820759654045
12.660921096802 -70.293441772461 -211.293731689453 1.089803576469
16.399261474609 -71.637016296387 -211.014541625977 2.700755357742
10.583058357239 -70.811477661133 -209.596633911133 1.469249367714
-10.844285964966 -70.796928405762 -220.309844970703 0.903186678886
-97.238471984863 -69.779418945313 -218.061828613281 0.731953859329
-8.022242546082 -71.957649230957 -216.744827270508 2.440703868866
90.562088012695 -70.537063598633 -214.876678466797 1.825136661530
-92.795890808105 -71.504486083984 -220.850372314453 2.151961326599
-103.360397338867 -71.693252563477 -220.875808715820 1.614212393761
-93.597480773926 -71.443489074707 -220.571166992188 1.686105847359
86.957260131836 -72.476531982422 -221.976730346680 1.832038640976
-135.108810424805 -71.070976257324 -226.357864379883 0.955632328987
-134.495117187500 -66.633331298828 -228.056198120117 1.346156954765
-118.690467834473 -69.561424255371 -226.553115844727 2.487478494644
-113.400909423828 -68.442321777344 -226.342636108398 1.158509373665
-134.230209350586 -69.510116577148 -224.725158691406 0.276460111141
-108.988128662109 -74.343559265137 -227.256240844727 2.308865547180
-114.565467834473 -69.634613037109 -228.427062988281 2.050520658493
-9.187602043152 -70.073989868164 -225.798797607422 0.572930157185
-19.057458877563 -71.817794799805 -224.966033935547 1.924575924873
-1.804913997650 -71.110656738281 -232.640319824219 1.596811413765
-10.459749221802 -69.687072753906 -228.624160766602 1.282929658890
14.521407127380 -71.765602111816 -232.968215942383 1.053029060364
-17.926652908325 -71.187118530273 -228.707153320313 1.506581783295
-165.381072998047 -69.629714965820 -224.986541748047 1.926350712776
-2.799369096756 -69.598060607910 -232.571578979492 1.131712794304
80.466400146484 -71.503829956055 -229.910644531250 1.024846196175
8.084933280945 -70.679229736328 -235.854843139648 1.923437595367
-8.664052009583 -70.126472473145 -232.339736938477 2.244006872177
-156.589157104492 -67.527503967285 -236.377120971680 2.022013664246
-140.455276489258 -70.655029296875 -234.125640869141 1.395432591438
66.150520324707 -68.902832031250 -236.004119873047 1.937795042992
-7.130178928375 -71.088706970215 -235.487136840820 0.970650613308
4.045951843262 -70.934684753418 -234.584945678711 2.505245447159
70.060554504395 -71.085250854492 -237.102111816406 1.812227010727
76.550621032715 -72.679100036621 -235.413040161133 2.013463497162
68.074211120605 -72.917434692383 -239.030319213867 1.200718164444
-2.388138055801 -70.052612304688 -237.319778442383 1.532427191734
55.552707672119 -71.281204223633 -240.035675048828 1.661611318588
-18.173923492432 -70.878280639648 -239.447479248047 1.230937719345
-16.985267639160 -70.165626525879 -241.502319335938 1.489374160767
8.322468757629 -71.158340454102 -240.763031005859 0.851492583752
65.476715087891 -71.546485900879 -242.715423583984 1.599656343460
60.531970977783 -71.284667968750 -239.977432250977 1.315308332443
51.289272308350 -69.439834594727 -247.550964355469 1.626027226448
60.931488037109 -72.923942565918 -244.187026977539 2.387082815170
-17.007738113403 -69.860122680664 -249.824737548828 2.043669462204
-84.155128479004 -69.194236755371 -249.806289672852 1.819859027863
-77.678939819336 -68.217407226563 -252.967864990234 1.946827769279
42.899425506592 -71.417587280273 -250.356109619141 0.839589536190
-144.838775634766 -68.301132202148 -251.464233398438 1.358802914619
37.695224761963 -71.702102661133 -256.960937500000 1.752924323082
-89.908554077148 -70.452224731445 -252.556686401367 1.028264880180
-155.065322875977 -69.673667907715 -256.558990478516 0.096432767808
-142.800781250000 -69.317260742188 -256.105743408203 1.273192644119
47.519527435303 -72.175033569336 -252.983779907227 1.356784105301
-125.947128295898 -67.858871459961 -255.673797607422 1.661612391472
-117.035224914551 -69.083625793457 -257.079620361328 1.412049412727
-95.068038940430 -69.006828308105 -256.956542968750 1.650274634361
-16.405969619751 -72.902755737305 -255.043533325195 2.699905633926
31.029460906982 -71.292823791504 -259.787445068359 1.325794458389
22.880289077759 -71.820854187012 -261.433898925781 1.339735984802
-157.287490844727 -69.346427917480 -258.512756347656 1.667609095573
-115.115715026855 -71.178970336914 -263.722625732422 1.197954297066
-14.484178543091 -70.777648925781 -261.256988525391 1.211847782135
-135.071304321289 -69.749427795410 -265.681457519531 1.897643923759
-13.731552124023 -69.478347778320 -271.867950439453 1.067692279816
-166.015380859375 -69.077407836914 -276.853851318359 1.377635478973
-10.212118148804 -69.587837219238 -280.041015625000 0.593258798122
-163.424133300781 -68.350219726563 -289.648040771484 1.948625564575
-161.396530151367 -68.822967529297 -278.012237548828 2.759381055832
-146.584655761719 -68.804481506348 -286.096252441406 2.509979724884
-169.127639770508 -69.552124023438 -285.037567138672 1.820282459259
14.823785781860 -68.943992614746 -287.865295410156 2.013176679611
-104.674468994141 -71.746780395508 -287.341552734375 2.539833545685
-87.954078674316 -69.341735839844 -287.096893310547 1.639954924583
-168.553421020508 -68.739265441895 -285.620086669922 2.353429317474
-91.036346435547 -69.934997558594 -289.086883544922 1.569365739822
-153.462020874023 -71.164024353027 -288.798828125000 3.229916334152
-74.648696899414 -70.328933715820 -290.498291015625 2.007916927338
-68.641609191895 -70.088340759277 -289.873535156250 0.970254838467
-82.221908569336 -69.035057067871 -291.082061767578 1.193253993988
-4.435102939606 -66.730514526367 -290.205749511719 1.231807827950
-85.309707641602 -70.536941528320 -292.099426269531 2.208669900894
-98.966140747070 -69.946838378906 -292.308929443359 0.465983867645
-115.995658874512 -69.857170104980 -293.344024658203 1.053437232971
-117.183509826660 -69.065887451172 -294.221374511719 2.112373828888
-136.771179199219 -66.498046875000 -294.058227539063 2.972844600677
-143.854919433594 -73.086311340332 -301.326019287109 1.788872957230
-145.134719848633 -72.492492675781 -311.804412841797 1.241732120514
23.667383193970 -72.191459655762 -17.548366546631 1.554990649223
29.858463287354 -70.106445312500 -20.379617691040 1.640144586563
28.563024520874 -73.291213989258 -18.967355728149 1.621869444847
43.794834136963 -72.763305664063 -24.560079574585 2.474424362183
24.159374237061 -72.871109008789 -32.359256744385 1.911992073059
-77.522079467773 -68.746475219727 -49.608020782471 2.404908657074
87.527015686035 -70.218551635742 -64.998664855957 1.477282881737
-14.894467353821 -71.468635559082 -68.891059875488 0.390928417444
99.983215332031 -70.971832275391 -72.477416992188 2.423251867294
95.861816406250 -71.645759582520 -77.480590820313 2.279251575470
69.831550598145 -74.677864074707 -80.092361450195 2.149925708771
67.047752380371 -71.296478271484 -85.372093200684 1.467573761940
-47.366619110107 -71.683242797852 -83.603561401367 2.154689788818
60.287117004395 -71.086807250977 -83.928901672363 2.158717155457
-97.918403625488 -70.711036682129 -88.547668457031 2.950986146927
-51.351272583008 -69.979476928711 -88.035751342773 2.115585565567
-56.412677764893 -75.893707275391 -89.790580749512 2.612792253494
96.834358215332 -73.012138366699 -96.998497009277 1.030512213707
56.625057220459 -72.758522033691 -98.027664184570 2.032379627228
62.160598754883 -69.757499694824 -92.057350158691 2.418888807297
-97.303443908691 -68.506507873535 -96.642189025879 1.072512984276
107.368782043457 -70.342323303223 -96.044486999512 0.801785647869
46.193481445313 -70.672096252441 -97.613700866699 1.197015166283
99.844902038574 -70.609909057617 -98.265243530273 1.080859899521
105.337585449219 -71.061019897461 -106.570053100586 1.316609501839
101.342109680176 -70.972053527832 -105.897705078125 2.238027334213
73.154609680176 -70.577003479004 -104.412361145020 1.841267824173
86.313323974609 -71.767471313477 -106.215766906738 2.490604400635
47.601974487305 -73.188774108887 -111.642723083496 2.273894548416
108.919708251953 -71.378562927246 -107.072021484375 1.756388902664
44.250293731689 -70.907783508301 -108.668075561523 2.053821325302
43.915706634521 -68.855613708496 -101.772491455078 1.859194397926
109.188896179199 -71.944297790527 -113.053451538086 0.819752871990
-79.923568725586 -68.999191284180 -110.505691528320 2.012533426285
46.372718811035 -70.308921813965 -114.286705017090 1.229811787605
35.738182067871 -71.019699096680 -113.585418701172 1.035427927971
104.656135559082 -70.883613586426 -109.526695251465 2.122263908386
41.867069244385 -69.180984497070 -112.796775817871 2.441706418991
-90.291870117188 -69.166618347168 -117.499633789063 1.612615227699
-97.532638549805 -69.376800537109 -116.631172180176 1.648946762085
106.938858032227 -69.777099609375 -120.194046020508 1.155697464943
-94.535575866699 -72.862701416016 -118.322891235352 1.312129616737
37.901786804199 -69.845817565918 -123.120109558105 1.318281292915
36.553024291992 -69.947639465332 -118.416519165039 1.503918290138
-80.919609069824 -70.000564575195 -124.928848266602 1.668585896492
29.360647201538 -68.793571472168 -134.030487060547 1.822760939598
108.222839355469 -71.816230773926 -132.747482299805 1.147001504898
-51.107849121094 -69.981636047363 -135.262573242188 1.039834618568
-89.703941345215 -70.340370178223 -130.831832885742 1.867250680923
35.779651641846 -71.207206726074 -135.871871948242 0.867734611034
-91.291145324707 -68.572822570801 -135.828155517578 2.030461549759
-91.107475280762 -70.731903076172 -137.471542358398 2.310477495193
-49.220626831055 -72.678237915039 -137.662582397461 0.664371311665
-72.078910827637 -70.233177185059 -140.583526611328 1.184361100197
-51.168563842773 -69.254089355469 -136.985610961914 2.037954568863
112.489387512207 -69.589286804199 -139.352020263672 1.532498717308
-75.948623657227 -68.194587707520 -141.127517700195 1.778463721275
34.555812835693 -70.492309570313 -131.999923706055 0.748836874962
-78.462615966797 -68.842788696289 -139.436584472656 1.052665591240
-77.002296447754 -68.747619628906 -135.727966308594 0.796665251255
-88.134300231934 -69.442390441895 -137.459243774414 1.837606906891
-54.629188537598 -70.200866699219 -150.871093750000 1.963029742241
30.589191436768 -69.112144470215 -148.138473510742 1.429047107697
29.029592514038 -69.369499206543 -151.768753051758 1.964355230331
17.681268692017 -69.024780273438 -145.173965454102 0.722597420216
112.585960388184 -72.015899658203 -148.535156250000 2.241696119308
-98.057502746582 -71.565498352051 -155.428863525391 3.046002149582
15.726764678955 -71.407737731934 -150.919708251953 2.311655521393
-72.016578674316 -70.679794311523 -150.032196044922 1.299270629883
22.328735351563 -70.165763854980 -150.817077636719 0.983352184296
-47.959213256836 -69.056602478027 -155.469543457031 1.929733037949
7.611410140991 -68.520668029785 -151.606887817383 1.961227655411
9.863549232483 -70.321495056152 -157.571334838867 1.600213646889
17.422130584717 -70.810729980469 -163.949096679688 1.819728970528
-46.950950622559 -70.701850891113 -163.153503417969 1.073624134064
-41.206481933594 -68.018394470215 -154.241180419922 1.079813361168
-46.384933471680 -68.771392822266 -158.861587524414 1.940314173698
-103.719360351563 -68.845916748047 -170.758941650391 0.602568030357
19.221323013306 -68.513343811035 -172.992492675781 1.447438478470
-37.543067932129 -70.073143005371 -173.959579467773 2.166487216949
13.655695915222 -67.763412475586 -178.923812866211 3.118103504181
-146.638931274414 -71.646423339844 -174.364273071289 1.793041348457
-34.661151885986 -67.491455078125 -174.750183105469 1.841353416443
-153.285232543945 -67.778236389160 -177.416702270508 1.711523652077
19.686931610107 -70.392944335938 -182.374176025391 2.085676431656
-32.763545989990 -71.239707946777 -173.110565185547 1.535792589188
-109.554397583008 -70.730354309082 -181.874130249023 2.050745725632
-107.052497863770 -69.608314514160 -183.007583618164 0.682230889797
-31.707489013672 -68.411781311035 -183.632476806641 2.081911802292
-21.627206802368 -70.517898559570 -185.040390014648 2.123254537582
14.556412696838 -70.119171142578 -190.185577392578 2.207989692688
18.272844314575 -69.780693054199 -195.939758300781 1.193395972252
15.089226722717 -67.095787048340 -187.461151123047 1.419371485710
-142.752120971680 -69.831039428711 -187.732788085938 0.872098326683
16.620443344116 -69.511962890625 -192.367263793945 2.191415786743
9.454384803772 -70.923614501953 -197.815093994141 0.404301166534
-141.024002075195 -67.865638732910 -196.707550048828 1.033860087395
-118.069091796875 -69.889785766602 -197.597793579102 2.614091396332
14.298410415649 -68.869659423828 -198.438690185547 2.673506736755
-113.508720397949 -70.649208068848 -195.552902221680 1.797088384628
-109.139450073242 -70.029663085938 -192.347427368164 2.269368410110
-163.882736206055 -70.750984191895 -199.487670898438 1.677082061768
-22.282638549805 -72.060760498047 -202.213027954102 1.128080248833
15.221469879150 -68.337005615234 -202.218170166016 1.480064034462
-140.090835571289 -67.529029846191 -202.467132568359 1.012071728706
-134.192413330078 -68.945411682129 -206.710937500000 2.370404005051
-18.978605270386 -68.981300354004 -207.131591796875 1.392762303352
-12.265414237976 -69.722229003906 -204.329498291016 1.191815853119
-16.425203323364 -70.010437011719 -208.176132202148 2.294531106949
-145.484634399414 -70.318038940430 -207.864089965820 2.206168651581
-17.990245819092 -71.498260498047 -210.016311645508 2.096939802170
-13.199804306030 -68.573013305664 -212.981445312500 1.337510824203
15.597641944885 -69.369056701660 -210.686492919922 1.801170468330
-12.126719474792 -69.664199829102 -210.558334350586 1.121133208275
10.107905387878 -67.546798706055 -212.458160400391 1.257488846779
-9.305570602417 -70.603530883789 -217.197082519531 1.804513931274
-17.349409103394 -70.971847534180 -212.643768310547 1.510988950729
12.048940658569 -69.824729919434 -223.468276977539 1.191771149635
-2.530119895935 -71.082237243652 -220.770095825195 1.468897938728
11.078843116760 -68.853294372559 -222.832794189453 0.784302353859
-5.734940052032 -70.516510009766 -224.912765502930 0.931152939796
-158.015884399414 -68.743171691895 -222.865463256836 1.216718435287
81.804237365723 -70.930763244629 -221.946136474609 1.554820775986
-135.210250854492 -68.709579467773 -224.297805786133 1.055698156357
-135.203674316406 -68.742111206055 -225.413864135742 0.933038830757
-9.432579994202 -69.967971801758 -227.118118286133 1.061928987503
11.431476593018 -71.059005737305 -233.293075561523 1.451654195786
-154.024856567383 -67.982109069824 -225.518783569336 0.372256100178
84.916366577148 -69.064765930176 -221.387664794922 1.520164132118
-5.448231220245 -69.769676208496 -225.121337890625 0.933906555176
0.800989985466 -70.958389282227 -226.764205932617 2.691958904266
72.485740661621 -70.371452331543 -228.209243774414 0.803682923317
1.756410002708 -70.457473754883 -233.295349121094 1.505959630013
-17.376920700073 -70.098091125488 -231.269882202148 2.477490663528
-124.147529602051 -71.685470581055 -236.274108886719 2.206403493881
-4.225924015045 -69.842765808105 -236.911636352539 1.011680006981
0.553884029388 -69.731117248535 -234.683242797852 1.508440971375
66.169891357422 -71.104949951172 -238.353500366211 1.305397987366
-160.500289916992 -68.018836975098 -239.747787475586 1.861546635628
-11.224139213562 -70.357261657715 -245.373580932617 1.679190397263
-167.516265869141 -69.604339599609 -239.239837646484 1.188880562782
8.044165611267 -71.199577331543 -244.373794555664 1.621784448624
-167.002227783203 -67.964279174805 -239.308303833008 1.519784092903
-160.348251342773 -67.416320800781 -244.324218750000 2.042793512344
54.479450225830 -70.963302612305 -248.957534790039 2.149764776230
63.302280426025 -69.043838500977 -244.434020996094 2.167312622070
55.515888214111 -69.617721557617 -243.658752441406 1.448153138161
50.788192749023 -71.304267883301 -249.114181518555 1.232289433479
-160.063079833984 -67.926445007324 -246.207412719727 1.722140550613
-155.779159545898 -69.406303405762 -251.214889526367 0.871053397655
-15.498378753662 -69.017677307129 -249.239562988281 0.837384045124
-153.619964599609 -68.356300354004 -246.758789062500 2.233941316605
20.841487884521 -72.617904663086 -253.902023315430 2.578787088394
-167.437133789063 -68.803718566895 -251.211212158203 1.544786214828
-167.598815917969 -66.035560607910 -245.167861938477 3.340134859085
-82.033477783203 -68.327171325684 -252.146392822266 1.708595156670
-169.582519531250 -69.421691894531 -263.961334228516 2.250587940216
-86.505271911621 -69.394821166992 -257.159729003906 1.626065135002
39.478633880615 -67.979316711426 -252.310577392578 0.915969550610
22.929969787598 -72.885177612305 -256.105133056641 1.210365533829
-159.610443115234 -67.334487915039 -259.926147460938 1.574322581291
-101.544967651367 -66.826713562012 -260.265869140625 1.293311119080
38.084365844727 -70.361015319824 -258.537933349609 1.334822654724
-102.081680297852 -69.896293640137 -260.270446777344 0.640863060951
-154.344039916992 -64.773979187012 -262.137512207031 0.787786006927
-107.503280639648 -67.180358886719 -260.494689941406 0.709529936314
-165.215774536133 -68.310302734375 -259.858734130859 0.882489204407
-113.728706359863 -70.086700439453 -262.806823730469 1.277064681053
-154.061203002930 -69.753837585449 -266.696594238281 2.258720874786
-157.966232299805 -70.183334350586 -264.657867431641 0.736968755722
-167.385604858398 -69.829483032227 -264.548583984375 0.980795443058
-161.913833618164 -67.989562988281 -263.779205322266 0.964764773846
-166.250595092773 -67.278038024902 -268.267669677734 2.497743368149
-162.841979980469 -66.664688110352 -267.327026367188 2.980133533478
23.699323654175 -70.824844360352 -265.221466064453 1.408573031425
-151.793151855469 -67.982925415039 -266.568939208984 1.148169040680
-148.277038574219 -67.417625427246 -284.886383056641 2.924595117569
18.665832519531 -73.712051391602 -279.195556640625 2.401896476746
-10.275629997253 -68.795768737793 -275.502960205078 2.158920764923
-127.165702819824 -70.939926147461 -284.673217773438 1.358389019966
-137.273117065430 -72.402122497559 -287.156768798828 2.427079439163
-137.123428344727 -68.197395324707 -287.357177734375 1.505726695061
-127.113227844238 -68.283813476563 -286.118316650391 1.373736023903
-116.927513122559 -68.368766784668 -288.101226806641 1.511661767960
-108.126304626465 -69.299224853516 -288.106933593750 1.275943398476
11.178188323975 -69.751525878906 -290.713226318359 1.672454476357
