-145.446762084961 -72.416145324707 -173.661132812500 2.378409862518
-33.531326293945 -66.833381652832 -174.111877441406 1.695027828217
-152.143524169922 -68.635208129883 -176.712585449219 1.106944561005
20.845191955566 -69.046737670898 -181.763885498047 2.009367227554
-31.585166931152 -70.555961608887 -172.470687866211 0.878959596157
-108.381027221680 -71.032394409180 -181.192138671875 2.132422685623
-105.894264221191 -69.879325866699 -182.327758789063 1.380838394165
-30.570997238159 -67.722221374512 -182.995147705078 1.309280633926
-20.465436935425 -69.700576782227 -184.407165527344 2.532616615295
15.707348823547 -68.843948364258 -189.572647094727 0.675826668739
19.416028976440 -68.462142944336 -195.329116821289 1.812266230583
16.203033447266 -65.812088012695 -186.850616455078 2.636579036713
-141.590698242188 -70.560760498047 -187.033050537109 1.413208723068
17.762277603149 -68.211997985840 -191.755905151367 0.898711919785
10.611846923828 -69.718788146973 -197.198760986328 1.833310604095
-139.892669677734 -68.579811096191 -196.010147094727 0.449436783791
-116.914299011230 -70.311607360840 -196.911666870117 1.654050469398
15.428937911987 -67.603645324707 -197.826492309570 1.568326950073
-112.343498229980 -71.011344909668 -194.868774414063 2.083613395691
-107.980751037598 -70.333862304688 -191.666137695313 2.717375755310
-162.714263916016 -71.758476257324 -198.775604248047 0.723124623299
-21.110475540161 -71.263786315918 -201.578353881836 1.653133988380
16.343070983887 -67.061935424805 -201.606842041016 1.468555331230
-138.967010498047 -68.235389709473 -201.770477294922 2.299667835236
-133.053314208984 -69.579406738281 -206.016540527344 1.694038033485
-17.848670959473 -68.145904541016 -206.500900268555 0.855895757675
-11.125050544739 -68.799163818359 -203.701995849609 1.169544816017
-15.282917022705 -69.143127441406 -207.546142578125 1.240187525749
-144.327743530273 -71.096786499023 -207.162506103516 1.701642751694
-16.829854965210 -70.652084350586 -209.384399414063 2.036430358887
-12.078731536865 -67.668060302734 -212.354232788086 1.811123967171
16.727769851685 -68.095069885254 -210.074645996094 0.922663509846
-10.990496635437 -68.743759155273 -209.930938720703 1.363309502602
11.214270591736 -66.344245910645 -211.844558715820 2.089289426804
-8.161207199097 -69.651718139648 -216.570602416992 1.392901301384
-16.197214126587 -70.119392395020 -212.012573242188 0.991474747658
13.178215980530 -68.604995727539 -222.854141235352 1.255258440971
-1.382146000862 -70.046470642090 -220.147033691406 0.467347413301
12.196150779724 -67.645568847656 -222.218811035156 1.483966469765
-4.596176147461 -69.524597167969 -224.288314819336 1.627492904663
-156.886215209961 -69.692481994629 -222.158035278320 1.149735689163
82.942764282227 -68.820060729980 -221.369812011719 1.703893184662
-134.083648681641 -69.368995666504 -223.603012084961 1.380438446999
-134.077270507813 -69.402221679688 -224.719055175781 0.403001815081
-8.301712036133 -69.024826049805 -226.492004394531 1.228543758392
12.571201324463 -69.853981018066 -232.677734375000 1.103387951851
-152.906677246094 -68.882446289063 -224.814086914063 1.117911100388
86.031135559082 -66.914123535156 -220.814361572266 2.208969831467
-4.319130897522 -68.774314880371 -224.497573852539 1.535763025284
1.943850994110 -69.884376525879 -226.143051147461 1.502979636192
73.614486694336 -68.384078979492 -227.628143310547 2.486107587814
2.889250040054 -69.375915527344 -232.675079345703 1.582756638527
-16.246004104614 -69.259201049805 -230.639282226563 1.928637027740
-122.990379333496 -72.211975097656 -235.583358764648 2.098609685898
-3.102406024933 -68.840126037598 -236.288482666016 1.187463879585
1.676800012589 -68.665939331055 -234.062805175781 1.232115149498
67.302986145020 -69.205238342285 -237.768402099609 0.975264489651
-159.388839721680 -69.011810302734 -239.039489746094 1.366808295250
-10.098092079163 -69.449821472168 -244.746200561523 2.124418735504
-166.383743286133 -70.686325073242 -238.526535034180 1.216059923172
9.179931640625 -70.045570373535 -243.756469726563 1.025999426842
-165.890701293945 -69.039894104004 -238.596450805664 0.910565316677
-159.246994018555 -68.410636901855 -243.616424560547 1.281304597855
55.605922698975 -69.220214843750 -248.366073608398 2.307260036469
64.406005859375 -67.185165405273 -243.848770141602 1.658348679543
56.627994537354 -67.857788085938 -243.068786621094 2.224695444107
51.919227600098 -69.608345031738 -248.520431518555 0.812012493610
-158.956359863281 -68.918411254883 -245.499404907227 0.639575123787
-154.656631469727 -70.347038269043 -250.508224487305 2.158524751663
-14.391175270081 -68.167602539063 -248.610748291016 1.254612445831
-152.508590698242 -69.266426086426 -246.054046630859 2.089732646942
21.989118576050 -71.307258605957 -253.290786743164 1.409730792046
-166.321350097656 -69.893203735352 -250.498504638672 1.040080666542
-166.515045166016 -67.123069763184 -244.457015991211 1.701524376869
-80.931243896484 -68.327934265137 -251.481262207031 2.233742713928
-168.465621948242 -70.547500610352 -263.247009277344 1.314154744148
-85.391777038574 -69.456077575684 -256.491363525391 1.683096766472
40.566440582275 -66.430191040039 -251.712890625000 0.998473763466
24.079641342163 -71.549430847168 -255.494857788086 1.734567284584
-158.518783569336 -68.330406188965 -259.218811035156 1.160273551941
-100.464698791504 -67.082221984863 -259.591003417969 1.521018028259
39.199279785156 -68.833877563477 -257.937805175781 1.261061668396
-100.962211608887 -70.158401489258 -259.593139648438 1.063235640526
-153.286666870117 -65.704490661621 -261.434875488281 2.319468975067
-106.418136596680 -67.512001037598 -259.816253662109 1.206064820290
-164.111160278320 -69.377593994141 -259.147613525391 0.813558995724
-112.607238769531 -70.499153137207 -262.122955322266 0.758563280106
-152.942825317383 -70.683547973633 -265.990631103516 1.111665010452
-156.840927124023 -71.161392211914 -263.949432373047 1.466539621353
-166.263992309570 -70.927642822266 -263.835205078125 1.600247025490
-160.815719604492 -69.017532348633 -263.070129394531 1.387957692146
-165.163635253906 -68.364547729492 -267.556671142578 1.167446732521
-161.762634277344 -67.707107543945 -266.618347167969 1.649780273438
24.817689895630 -69.485885620117 -264.613067626953 0.740736484528
-150.697463989258 -68.883758544922 -265.865447998047 1.297474622726
-147.198822021484 -68.286582946777 -284.185241699219 1.742308855057
19.813837051392 -72.446929931641 -278.582336425781 0.690024614334
-9.185972213745 -67.897621154785 -274.877166748047 2.658537387848
-126.044151306152 -71.539138793945 -283.981292724609 1.249470353127
-136.133453369141 -73.131904602051 -286.458221435547 1.270110726357
-136.037521362305 -68.925758361816 -286.661651611328 1.069380998611
-126.026351928711 -68.883598327637 -285.428283691406 0.946664333344
-115.841461181641 -68.840011596680 -287.416748046875 0.753510713577
-107.029106140137 -69.658126831055 -287.426666259766 0.846289336681
12.270013809204 -68.590362548828 -290.098632812500 1.851380586624
-87.047752380371 -68.546562194824 -287.364562988281 1.733890652657
-147.930130004883 -70.596855163574 -292.186859130859 2.108413696289
-99.791519165039 -67.784355163574 -289.511230468750 1.436177611351
-125.748733520508 -68.075798034668 -291.164825439453 1.101582050323
10.438087463379 -72.511596679688 -289.119628906250 1.288561820984
-113.781272888184 -69.988571166992 -292.588867187500 1.079241871834
1.422055959702 -68.950454711914 -291.029235839844 1.813237309456
-142.527221679688 -70.082717895508 -290.765167236328 1.763567566872
-154.311828613281 -71.368911743164 -298.608123779297 1.319412231445
-158.472320556641 -70.704788208008 -309.282745361328 2.911993980408
-153.284698486328 -70.970153808594 -312.019714355469 1.717286825180
50.283229827881 -71.264282226563 -24.668413162231 1.686432957649
21.209983825684 -70.600570678711 -32.570919036865 0.881597161293
34.713413238525 -70.832450866699 -37.263019561768 0.711819231510
-48.722095489502 -69.492660522461 -49.138942718506 2.698691129684
-14.041714668274 -68.526893615723 -61.254863739014 0.893825709820
94.214752197266 -71.734092712402 -71.320175170898 0.987276852131
68.772583007813 -67.598892211914 -69.650413513184 1.416235327721
-21.109146118164 -70.958290100098 -74.516067504883 1.499637007713
-93.611770629883 -71.019981384277 -82.537124633789 1.407018065453
-40.271495819092 -70.322601318359 -78.930931091309 1.559395551682
65.927413940430 -68.359008789063 -82.343368530273 0.815851688385
58.137363433838 -71.319030761719 -86.294395446777 1.343815684319
57.082778930664 -68.932823181152 -87.279327392578 0.886773169041
-56.921413421631 -69.774253845215 -87.721740722656 2.244268894196
67.176856994629 -67.482139587402 -88.873222351074 1.525912404060
45.401283264160 -71.221916198730 -96.595222473145 0.431331753731
67.619750976563 -69.703773498535 -92.769599914551 1.025920033455
-63.743293762207 -68.146751403809 -95.683151245117 1.564987659454
50.985015869141 -68.199851989746 -95.938560485840 2.098451614380
45.546852111816 -69.222801208496 -98.452812194824 0.859729707241
104.054992675781 -69.413604736328 -96.582260131836 1.732880592346
-68.579048156738 -71.931335449219 -99.395256042480 2.300188541412
110.087478637695 -68.687469482422 -101.492233276367 1.391232013702
-78.998710632324 -68.420806884766 -97.963958740234 2.126438856125
56.398056030273 -70.282432556152 -104.035636901855 1.494148969650
49.007602691650 -67.140777587891 -100.549194335938 1.827474713326
94.591819763184 -69.766845703125 -101.741760253906 2.064534902573
87.329505920410 -62.774711608887 -109.806465148926 1.346196889877
54.112316131592 -68.664344787598 -103.851104736328 2.267298460007
-72.859001159668 -70.115921020508 -107.591751098633 1.997591018677
-75.951637268066 -69.104927062988 -110.791038513184 2.282280683517
-80.516151428223 -71.432487487793 -119.215293884277 1.900175929070
-92.325660705566 -73.668792724609 -118.205963134766 0.901651501656
106.218933105469 -67.870582580566 -114.764724731445 1.426221609116
-85.129402160645 -68.588714599609 -119.622787475586 1.371075034142
-78.648216247559 -67.747810363770 -119.995330810547 0.622207045555
111.145004272461 -66.374572753906 -115.481704711914 1.245834946632
-63.374092102051 -65.070686340332 -118.416999816895 1.332923769951
114.108283996582 -69.181381225586 -131.222106933594 0.847653210163
109.902267456055 -67.694694519043 -129.392303466797 1.375930905342
111.499008178711 -67.193786621094 -120.827613830566 0.600972533226
-92.788040161133 -68.517959594727 -136.950256347656 1.883573889732
-50.094837188721 -67.256919860840 -140.427429199219 1.386186003685
-75.528923034668 -70.358695983887 -145.802413940430 1.019540071487
-68.586761474609 -68.262763977051 -149.896865844727 1.373382925987
-72.486839294434 -67.540168762207 -144.638259887695 1.944455504417
-54.214286804199 -67.069709777832 -144.518966674805 1.975860595703
-47.709262847900 -68.333564758301 -149.605255126953 1.435996174812
20.828834533691 -69.126541137695 -144.656997680664 0.878217160702
-94.220771789551 -67.416732788086 -148.558944702148 1.605375766754
-43.641788482666 -69.806419372559 -148.176757812500 1.569534897804
-53.682743072510 -68.242980957031 -150.008300781250 0.879244565964
-42.068927764893 -66.872322082520 -155.672576904297 1.935189604759
28.919364929199 -70.092063903809 -162.285278320313 1.503154277802
-47.952133178711 -67.646247863770 -151.673522949219 2.282358169556
-96.495719909668 -69.443099975586 -149.904083251953 0.949166595936
-41.572795867920 -67.987625122070 -159.591171264648 0.299908608198
26.497421264648 -66.784683227539 -153.655303955078 1.993290662766
-101.203201293945 -69.491744995117 -162.359176635742 1.705718398094
22.666482925415 -67.803344726563 -157.485366821289 1.864706516266
-105.486289978027 -67.086570739746 -171.191574096680 2.111040830612
-99.790313720703 -67.450675964355 -163.182601928711 2.360486745834
22.998287200928 -65.354904174805 -164.757598876953 3.399120807648
26.102640151978 -66.538261413574 -168.067291259766 1.427836894989
-104.974403381348 -69.956207275391 -174.057022094727 1.926443099976
-141.880706787109 -69.623062133789 -175.861465454102 0.675727307796
-22.670064926147 -67.652725219727 -186.987747192383 1.177532196045
-24.753784179688 -66.980567932129 -183.470138549805 1.761027336121
-112.364440917969 -68.176826477051 -187.803237915039 1.708826541901
-142.417846679688 -66.761581420898 -188.501770019531 0.786571860313
-105.289428710938 -69.905342102051 -181.396453857422 1.753235101700
-153.058395385742 -70.801910400391 -194.712814331055 1.434308052063
-129.961791992188 -70.933502197266 -193.888412475586 1.960763096809
-134.335983276367 -68.778648376465 -195.535018920898 1.182089805603
-20.387783050537 -65.660949707031 -192.686965942383 2.776199340820
-121.074867248535 -69.260070800781 -194.271804809570 1.845543265343
-113.687736511230 -67.332008361816 -195.829956054688 1.205954313278
-21.465993881226 -69.195854187012 -195.915496826172 0.096255913377
-153.820358276367 -67.151428222656 -198.750381469727 0.892652332783
-132.438659667969 -71.408630371094 -206.716003417969 2.591029405594
-123.921676635742 -67.496406555176 -204.953277587891 1.253169775009
17.013509750366 -66.382514953613 -202.898254394531 1.603449463844
-160.554840087891 -67.939224243164 -205.164627075195 1.866037964821
9.906956672668 -69.839378356934 -211.991912841797 1.870556950569
14.044076919556 -69.847114562988 -213.705047607422 1.535628676414
-18.635856628418 -67.450157165527 -207.425247192383 0.749847769737
-4.870584964752 -68.633354187012 -214.725143432617 1.782245874405
-166.021789550781 -69.021766662598 -210.590927124023 1.244836091995
-158.260437011719 -68.141387939453 -215.107192993164 0.607987463474
-96.703544616699 -69.457473754883 -217.595825195313 1.011824369431
-100.617454528809 -67.872497558594 -225.567764282227 1.577878952026
-159.494110107422 -67.249778747559 -221.405853271484 1.164944648743
-103.540367126465 -68.835617065430 -220.541824340820 1.504860043526
-13.667077064514 -68.427093505859 -218.033004760742 2.049730777740
-125.006591796875 -68.866775512695 -225.679885864258 1.501409888268
-141.555999755859 -70.647392272949 -224.839782714844 1.332687854767
-4.231441020966 -68.761611938477 -223.541290283203 1.913735866547
-133.143966674805 -67.823577880859 -225.925949096680 1.186309695244
-124.076751708984 -67.730743408203 -225.620788574219 1.515564084053
-112.651908874512 -68.984275817871 -227.930511474609 2.202872753143
2.479788064957 -67.837844848633 -227.740386962891 0.920790076256
-106.815940856934 -68.227745056152 -228.103958129883 0.936167478561
-157.773925781250 -70.222084045410 -222.686584472656 1.982257962227
-147.039138793945 -70.048515319824 -226.857604980469 2.738857746124
-165.199523925781 -68.962684631348 -225.209304809570 1.657785296440
-6.701415061951 -68.973655700684 -228.667343139648 1.771637916565
-8.654047012329 -64.090339660645 -230.638946533203 3.818306922913
78.368431091309 -64.034545898438 -226.560104370117 4.377315044403
2.817212104797 -66.784889221191 -231.650039672852 1.627416372299
-142.361221313477 -68.124839782715 -233.147644042969 0.518175423145
-12.744226455688 -69.029602050781 -229.219085693359 1.688972949982
75.904998779297 -69.104370117188 -226.765502929688 0.991858541965
73.836906433105 -67.597824096680 -232.552841186523 2.007885694504
-132.514617919922 -68.670288085938 -232.369293212891 2.253613233566
-159.253158569336 -68.076316833496 -227.831588745117 0.702621400356
-112.932052612305 -67.641983032227 -232.432846069336 2.194153547287
-121.618598937988 -67.607429504395 -233.889816284180 1.919457197189
-166.203918457031 -66.888175964355 -233.995742797852 1.971251845360
-158.127395629883 -67.855918884277 -236.902542114258 0.884200274944
-140.741119384766 -68.808959960938 -237.857589721680 3.596300125122
-9.011057853699 -71.253059387207 -235.407623291016 1.846296072006
-3.108524084091 -67.891059875488 -239.955032348633 1.169665336609
-160.480957031250 -67.067253112793 -239.136123657227 1.222549080849
6.984189033508 -69.774429321289 -240.253372192383 0.808697819710
7.597136020660 -66.894248962402 -236.143539428711 1.101394534111
-161.922622680664 -68.501853942871 -241.422958374023 0.569071352482
14.417854309082 -68.496345520020 -243.933441162109 1.426232099533
51.418308258057 -67.829978942871 -245.464782714844 1.426300883293
53.288330078125 -66.000518798828 -248.042449951172 2.035746097565
-11.046702384949 -68.928726196289 -245.954772949219 2.280415296555
50.418731689453 -65.973548889160 -247.411102294922 1.868438720703
-162.926681518555 -69.022872924805 -253.223754882813 1.527605175972
-162.936050415039 -67.659500122070 -248.785858154297 1.132197856903
-160.320846557617 -69.512794494629 -248.748764038086 1.570645093918
54.249382019043 -67.254928588867 -252.079742431641 2.043180942535
-89.536819458008 -69.591545104980 -252.848678588867 1.292350769043
-124.753608703613 -68.697555541992 -253.246261596680 1.518620014191
-105.619903564453 -69.814666748047 -254.768310546875 0.731842935085
30.480407714844 -68.299896240234 -256.852447509766 1.120856642723
42.245784759521 -67.782592773438 -251.744033813477 1.776400327682
-99.251304626465 -67.775054931641 -254.415573120117 1.303085327148
-93.230377197266 -67.133773803711 -255.820846557617 1.166639924049
45.558242797852 -67.066589355469 -254.134368896484 1.290132284164
43.306072235107 -66.525032043457 -255.382080078125 1.874945878983
-155.918289184570 -70.201362609863 -259.222534179688 0.463699877262
33.682445526123 -66.255805969238 -256.495147705078 1.057061910629
-140.266433715820 -70.972694396973 -264.063446044922 1.639172792435
-115.395919799805 -66.638778686523 -260.879699707031 0.749274134636
-133.652740478516 -68.805793762207 -264.245391845703 1.344779610634
31.825365066528 -69.768402099609 -263.168151855469 1.567325592041
-126.308425903320 -69.119094848633 -264.358032226563 1.471614837646
-10.139233589172 -66.602951049805 -259.220306396484 3.071691989899
23.189796447754 -69.667739868164 -272.332214355469 1.650923252106
-9.773510932922 -67.056190490723 -267.350158691406 1.726128101349
22.486452102661 -66.806526184082 -280.900817871094 2.704622268677
-150.479263305664 -69.110237121582 -282.552673339844 1.428013443947
-10.101226806641 -69.637901306152 -278.640411376953 1.784285426140
-153.656677246094 -71.230506896973 -285.713195800781 1.714545607567
-126.020706176758 -67.443046569824 -284.862640380859 0.847724497318
-157.120590209961 -71.004692077637 -287.525878906250 0.844631493092
-116.942924499512 -68.589843750000 -286.733428955078 0.699313521385
-105.686340332031 -69.520545959473 -289.173126220703 1.511247873306
-7.226915836334 -67.515747070313 -287.514007568359 0.958737909794
-109.696205139160 -68.459457397461 -291.687438964844 2.252189397812
-116.407966613770 -69.665069580078 -288.848999023438 2.228240966797
-118.072456359863 -68.955131530762 -291.165618896484 1.566521406174
-135.996551513672 -66.827995300293 -289.525299072266 0.962635695934
-124.419792175293 -70.871719360352 -292.730010986328 0.986650764942
-157.173110961914 -70.163955688477 -289.991668701172 0.821768045425
-145.582305908203 -71.826347351074 -295.562103271484 0.967420697212
-151.884674072266 -68.407676696777 -298.871093750000 0.988754093647
-153.536895751953 -67.114372253418 -309.533691406250 1.813797116280
-156.259963989258 -68.661376953125 -301.007476806641 1.488276839256
-145.798217773438 -69.798179626465 -311.556243896484 1.287974357605
-150.116226196289 -67.992225646973 -312.583435058594 1.192876219749
35.956047058105 -69.611724853516 -13.656930923462 2.128183603287
45.190128326416 -70.389442443848 -16.432533264160 1.624292254448
27.921613693237 -64.396240234375 -27.807851791382 3.133215188980
51.311496734619 -68.422096252441 -29.820926666260 1.808781027794
31.041868209839 -69.223594665527 -35.676700592041 1.956024765968
38.164382934570 -71.653091430664 -36.207225799561 1.428747296333
-55.879962921143 -67.888648986816 -45.024990081787 2.355155229568
85.419479370117 -67.192604064941 -62.032154083252 1.848805189133
81.652626037598 -67.859161376953 -65.666175842285 2.087722778320
-91.314010620117 -66.948059082031 -61.744556427002 1.726150870323
-11.752311706543 -66.867553710938 -62.854618072510 0.675642549992
-89.330749511719 -71.579200744629 -66.913978576660 1.211731314659
97.513481140137 -67.202186584473 -70.320770263672 1.932264924049
-15.367124557495 -65.909919738770 -68.061790466309 0.724767744541
69.130378723145 -69.128402709961 -75.786239624023 1.291398644447
-37.850154876709 -71.437622070313 -76.306594848633 0.722865462303
-27.959812164307 -72.723770141602 -78.835578918457 0.806516289711
57.565917968750 -66.940162658691 -85.870971679688 1.771974921227
-45.061588287354 -77.925460815430 -86.240852355957 1.243286132813
64.632522583008 -64.907279968262 -83.881713867188 1.096604347229
54.737426757813 -68.247703552246 -86.284286499023 1.217146873474
51.439128875732 -70.554595947266 -92.122901916504 1.119214653969
64.246337890625 -67.042816162109 -91.448371887207 0.816885471344
59.101707458496 -68.114227294922 -96.895393371582 1.580960750580
103.002243041992 -65.614768981934 -96.056785583496 0.438433319330
105.078605651855 -68.344375610352 -96.232200622559 0.767367541790
59.237571716309 -70.340370178223 -98.179557800293 1.170429110527
107.829826354980 -65.466529846191 -98.497840881348 2.238341808319
-73.070884704590 -71.322387695313 -99.635025024414 1.976118206978
-70.557418823242 -68.607826232910 -100.885543823242 1.538089752197
103.034416198730 -68.296791076660 -97.856933593750 0.578116178513
54.580085754395 -66.984809875488 -100.788764953613 1.657215476036
71.951202392578 -68.583305358887 -101.069366455078 1.242303252220
-71.154678344727 -65.462219238281 -102.841445922852 1.637796282768
-81.760871887207 -67.042045593262 -105.584632873535 2.652662754059
94.483604431152 -66.900856018066 -107.786437988281 1.889576435089
43.491210937500 -67.201423645020 -105.176826477051 1.343043565750
103.361694335938 -66.445823669434 -102.614952087402 1.567367553711
44.824436187744 -67.055221557617 -112.001991271973 1.440662503242
111.565650939941 -65.336380004883 -106.788642883301 3.502191543579
-81.236343383789 -65.616050720215 -108.170959472656 2.490453004837
107.084747314453 -64.256568908691 -108.870750427246 2.733624696732
-85.274803161621 -66.273582458496 -118.168106079102 1.530702352524
-57.971984863281 -69.589591979980 -126.920936584473 1.762013554573
-55.179420471191 -66.560745239258 -126.791831970215 1.332008719444
-72.972297668457 -68.745887756348 -129.018707275391 1.605970621109
-50.185878753662 -69.179573059082 -130.256713867188 1.096666455269
-84.471260070801 -68.978813171387 -131.348419189453 1.486312866211
-76.897048950195 -69.259468078613 -134.437881469727 1.576598167419
-83.103034973145 -67.615615844727 -127.719825744629 1.144645333290
-56.280986785889 -70.785461425781 -138.850387573242 2.230292558670
-71.967559814453 -66.830581665039 -138.808609008789 0.759026765823
-58.790458679199 -67.244903564453 -136.517807006836 1.171491384506
-61.054710388184 -69.493453979492 -138.872756958008 0.602060735226
23.425371170044 -67.898941040039 -140.476882934570 1.424719452858
-88.160148620605 -68.797622680664 -144.029418945313 2.948427677155
-45.551715850830 -69.291206359863 -144.405639648438 1.930126905441
-98.215339660645 -66.179008483887 -149.165939331055 1.769321680069
-100.072380065918 -67.445350646973 -151.639068603516 1.069191813469
18.308662414551 -69.642776489258 -152.414123535156 2.167720079422
14.235487937927 -69.531105041504 -157.741241455078 0.687432527542
-97.684326171875 -68.112632751465 -158.282318115234 1.083860158920
-100.805702209473 -66.801597595215 -157.579177856445 1.442574620247
-98.461860656738 -67.520187377930 -168.528182983398 2.759870767593
21.774950027466 -65.688468933105 -169.272140502930 1.933537125587
-109.722076416016 -69.238853454590 -169.430145263672 3.487868309021
19.925155639648 -68.647529602051 -168.625518798828 0.594371855259
-145.819778442383 -69.414970397949 -176.476013183594 1.763267278671
17.784908294678 -67.604019165039 -176.422668457031 1.515970349312
23.185281753540 -67.949653625488 -185.923309326172 1.326382517815
-152.733535766602 -67.226692199707 -187.213378906250 0.367192357779
21.361284255981 -67.849006652832 -178.965301513672 1.341189026833
17.871963500977 -66.201972961426 -178.299697875977 1.367842912674
-139.140701293945 -72.078437805176 -189.110702514648 3.678898811340
-151.061431884766 -69.475181579590 -188.826324462891 0.646282553673
19.335266113281 -66.277267456055 -189.230346679688 1.056667804718
19.703636169434 -65.629074096680 -187.707443237305 1.964131116867
-143.907455444336 -68.496757507324 -192.370437622070 1.264832377434
-107.851066589355 -70.134910583496 -196.061019897461 1.716937422752
21.625045776367 -67.304100036621 -196.511917114258 1.742237329483
-124.327178955078 -65.871368408203 -193.403472900391 1.363780021667
12.487707138062 -67.911605834961 -197.843444824219 2.158400774002
-131.898071289063 -66.410736083984 -194.875000000000 0.738289177418
-152.761062622070 -67.681777954102 -193.293777465820 1.744487404823
-162.266983032227 -70.371810913086 -198.718032836914 1.469807147980
-161.925231933594 -67.016593933105 -199.327590942383 1.557487368584
-18.240245819092 -65.547889709473 -201.535202026367 1.986530900002
-165.456054687500 -68.953521728516 -200.785461425781 0.669383943081
-22.552356719971 -66.860397338867 -192.832855224609 1.253664135933
-14.885577201843 -67.333999633789 -198.534515380859 2.526417255402
14.186817169189 -66.645744323730 -194.991302490234 1.208181977272
-158.671569824219 -66.380729675293 -198.493835449219 1.160289764404
-110.118972778320 -67.295890808105 -201.425216674805 0.438609391451
-17.533103942871 -67.903450012207 -205.888366699219 1.219954252243
-156.911590576172 -69.340965270996 -201.449005126953 1.771796703339
17.162153244019 -65.200363159180 -199.784530639648 2.062299489975
-164.173141479492 -67.737106323242 -201.786437988281 1.624608159065
-121.227142333984 -70.277023315430 -203.920898437500 1.431695699692
-112.174713134766 -66.737213134766 -205.743057250977 2.455031156540
-124.134521484375 -65.351867675781 -206.157745361328 2.024137020111
-13.010846138000 -68.585021972656 -204.001602172852 1.093213677406
-15.854985237122 -65.616127014160 -205.111236572266 1.736330270767
-163.315628051758 -66.635734558105 -209.107498168945 1.920387387276
-160.150299072266 -67.321311950684 -213.338867187500 0.617197155952
-164.836120605469 -68.643867492676 -219.132003784180 2.401921510696
-145.666687011719 -69.534614562988 -212.299423217773 2.856789827347
-143.349090576172 -68.755203247070 -222.857055664063 1.397990226746
-5.728724002838 -65.894393920898 -221.146453857422 1.466369152069
-11.639536857605 -66.321624755859 -217.275115966797 2.136485338211
-99.232002258301 -67.980361938477 -221.699584960938 0.718298912048
-5.851195812225 -66.554710388184 -224.313919067383 0.738011181355
-164.036666870117 -67.619499206543 -226.141632080078 0.850647985935
-111.020675659180 -65.374366760254 -230.372955322266 1.887579202652
0.216469004750 -65.672760009766 -227.702667236328 1.586962580681
5.110773086548 -65.370422363281 -230.158248901367 1.283634066582
-111.589797973633 -68.370239257813 -232.293136596680 1.294530987740
-1.653010964394 -64.550010681152 -231.327407836914 2.437207698822
-115.582511901855 -67.044967651367 -235.651397705078 1.531673789024
-5.611907005310 -65.376525878906 -237.412979125977 1.762970805168
-3.023492097855 -67.536132812500 -233.727096557617 0.838428199291
-0.124675996602 -66.603866577148 -237.614364624023 2.178771257401
69.314079284668 -66.842117309570 -236.083465576172 1.832793354988
-13.269221305847 -69.094932556152 -236.577957153320 1.151720166206
4.051012992859 -66.424713134766 -238.290374755859 0.868401706219
11.212227821350 -66.502983093262 -241.227676391602 0.387544423342
7.135423183441 -68.263229370117 -239.058166503906 1.094958901405
1.047340989113 -69.063919067383 -240.494735717773 0.895607650280
66.646064758301 -67.410636901855 -237.524719238281 1.379517436028
70.372085571289 -66.605163574219 -239.673095703125 1.955930709839
13.117635726929 -68.108871459961 -242.969833374023 1.131744503975
58.681255340576 -66.045433044434 -240.707321166992 1.207391619682
56.990818023682 -68.570892333984 -240.254592895508 0.421157002449
47.466575622559 -64.528747558594 -245.813232421875 2.093219518661
38.826324462891 -67.785240173340 -250.880752563477 0.811802983284
40.533462524414 -67.060676574707 -252.838867187500 0.461977481842
-133.985336303711 -68.336441040039 -254.399200439453 0.640123367310
-13.485147476196 -69.146110534668 -252.610488891602 0.575759053230
25.872480392456 -68.177757263184 -258.375579833984 1.047365546227
47.980850219727 -66.947608947754 -252.440521240234 1.497356057167
24.615245819092 -65.212333679199 -255.397079467773 1.223106265068
-100.287178039551 -66.887351989746 -258.714569091797 1.629390954971
33.592590332031 -66.139602661133 -255.648834228516 1.375662088394
-149.979187011719 -68.522888183594 -259.607666015625 0.563399314880
-115.639190673828 -65.600372314453 -259.317718505859 1.265800476074
-104.262268066406 -67.711860656738 -255.954467773438 2.289757966995
-6.188026905060 -66.008125305176 -259.167999267578 0.762686491013
-150.157440185547 -70.797729492188 -256.471588134766 2.362533807755
32.303504943848 -64.927612304688 -258.813903808594 1.639213681221
-112.072685241699 -68.237091064453 -256.716125488281 1.755660891533
28.164833068848 -66.589691162109 -258.897277832031 1.628786087036
-133.689208984375 -66.255645751953 -259.999053955078 1.564585208893
-116.808326721191 -67.355033874512 -260.002624511719 1.530752182007
-106.028686523438 -65.492324829102 -259.857513427734 1.602538585663
-116.183898925781 -66.785842895508 -263.086944580078 0.534626662731
-137.199752807617 -68.647048950195 -262.575622558594 2.173293590546
28.174974441528 -65.942558288574 -262.788879394531 0.866636395454
-117.828742980957 -66.595809936523 -264.642700195313 1.252773761749
-143.220962524414 -69.051589965820 -265.800231933594 2.127004146576
-4.753684997559 -67.505294799805 -271.778472900391 1.339867353439
-152.651367187500 -68.572387695313 -281.328979492188 1.601447939873
-8.256338119507 -67.522094726563 -281.934600830078 1.961669802666
-3.914756059647 -67.528434753418 -286.114501953125 2.282858371735
-134.238388061523 -69.312721252441 -285.972076416016 1.002883911133
-123.029808044434 -66.384933471680 -288.432708740234 1.796808838844
-136.643585205078 -67.042503356934 -291.788604736328 1.429700493813
-126.690650939941 -69.368072509766 -294.806030273438 0.137789800763
-151.545761108398 -69.610916137695 -295.149749755859 1.292917132378
-151.743621826172 -69.628761291504 -301.010375976563 1.728253245354
-147.741790771484 -70.907707214355 -302.028961181641 2.690080642700
-150.226257324219 -65.801910400391 -299.467712402344 1.659799814224
-143.765960693359 -68.949287414551 -301.821624755859 1.959509015083
-145.932983398438 -67.741897583008 -302.565399169922 1.891779541969
-148.406616210938 -68.245117187500 -311.590881347656 1.395943403244
22.233299255371 -71.411392211914 -30.463100433350 1.561111807823
48.890991210938 -69.972129821777 -34.761497497559 0.916416883469
28.174682617188 -72.265632629395 -38.681846618652 1.142541170120
33.820507049561 -70.390274047852 -40.614345550537 0.751906633377
-44.135063171387 -66.554855346680 -48.386787414551 2.020181417465
-78.515991210938 -68.609756469727 -50.580478668213 1.927273035049
81.253715515137 -65.490257263184 -62.402595520020 1.071146488190
78.979133605957 -64.988006591797 -62.269184112549 2.216936588287
70.962196350098 -66.730293273926 -67.738761901855 1.528399109840
-96.366256713867 -67.166503906250 -73.106933593750 1.926478743553
101.256149291992 -67.397438049316 -74.964477539063 0.544741213322
-34.224437713623 -64.553024291992 -77.454795837402 2.693288087845
68.246086120605 -67.131767272949 -77.892753601074 2.131053447723
-43.510330200195 -65.591171264648 -80.353332519531 1.153843879700
-50.169101715088 -65.887763977051 -82.829948425293 1.519381046295
51.450736999512 -67.806922912598 -90.010871887207 1.763247370720
102.816848754883 -67.124923706055 -89.497817993164 0.373787015676
66.209625244141 -64.878341674805 -94.853080749512 0.847792029381
57.835361480713 -66.135711669922 -95.062728881836 0.404114007950
49.771110534668 -67.005676269531 -101.703697204590 1.739937186241
59.444099426270 -64.875946044922 -97.781623840332 1.846895098686
105.364852905273 -65.401710510254 -98.741256713867 1.164277672768
71.744720458984 -67.731994628906 -105.591865539551 2.460288047791
49.650550842285 -66.044540405273 -106.132240295410 1.562734365463
78.614906311035 -67.464874267578 -106.235893249512 0.716087222099
91.494255065918 -65.076034545898 -109.718475341797 1.098908543587
-77.938224792480 -68.290702819824 -107.886466979980 0.741839528084
-86.073638916016 -69.643295288086 -109.732437133789 1.047851681709
-83.474197387695 -68.785415649414 -114.624618530273 2.028567314148
-59.959674835205 -66.107131958008 -117.358818054199 1.533442616463
-55.411022186279 -70.547637939453 -124.023353576660 2.600999832153
-93.540428161621 -66.219810485840 -121.468338012695 1.147899270058
-77.223327636719 -67.131698608398 -120.119369506836 1.385436654091
-76.077346801758 -68.711502075195 -129.318740844727 1.599323987961
-60.652256011963 -68.541496276855 -127.626541137695 1.450286388397
-88.656684875488 -63.441329956055 -129.872451782227 1.573815822601
-90.869140625000 -68.056968688965 -129.403808593750 1.991961717606
-48.280456542969 -69.511283874512 -136.449920654297 1.588237404823
-53.862552642822 -65.156143188477 -135.691390991211 1.731622934341
-76.178497314453 -65.770606994629 -138.484283447266 1.829527616501
-54.000495910645 -66.972961425781 -142.271804809570 1.512047410011
-74.332313537598 -67.488754272461 -144.243560791016 0.522228598595
23.210395812988 -65.030525207520 -139.699981689453 1.833951115608
-57.239612579346 -67.813743591309 -145.610534667969 1.356066226959
-51.489261627197 -66.465881347656 -145.999526977539 1.427862048149
12.299169540405 -67.716369628906 -154.279418945313 1.501897335052
15.346399307251 -65.255256652832 -151.923263549805 0.723267018795
-143.140136718750 -66.223495483398 -175.488388061523 1.052478551865
-108.235801696777 -69.139732360840 -179.357803344727 0.699528098106
-107.297874450684 -67.315658569336 -187.490203857422 1.106606483459
-149.508132934570 -68.510360717773 -193.934417724609 2.170995235443
-111.343231201172 -67.010574340820 -185.060684204102 2.079163074493
-152.604660034180 -65.968475341797 -195.671371459961 0.504980146885
-113.879096984863 -64.645423889160 -196.578063964844 0.800632834435
-146.990478515625 -68.314239501953 -198.616073608398 2.027612447739
-150.658004760742 -70.611137390137 -203.956436157227 1.723456621170
-151.740661621094 -70.365386962891 -210.935363769531 2.500518083572
-144.949829101563 -68.357246398926 -221.686630249023 0.694172680378
-152.318359375000 -70.426826477051 -223.113601684570 2.056320905685
-104.023353576660 -67.364021301270 -222.541397094727 1.100472211838
-102.744773864746 -67.107185363770 -225.769897460938 1.310742974281
-122.825538635254 -64.230216979980 -226.574554443359 2.119068622589
-109.822952270508 -64.990936279297 -227.245605468750 0.779640316963
-154.428787231445 -69.650238037109 -231.465087890625 1.463827848434
-2.568788051605 -67.352279663086 -229.039260864258 1.326225161552
-132.480087280273 -65.915824890137 -230.258972167969 2.265890359879
-154.364120483398 -69.391471862793 -235.120880126953 1.770251393318
-134.179626464844 -66.897827148438 -234.178878784180 0.414893895388
-11.159030914307 -67.517410278320 -240.360214233398 1.213332056999
8.363003730774 -68.025749206543 -242.202865600586 1.225733637810
63.396888732910 -63.742607116699 -241.116882324219 2.932532548904
19.995306015015 -67.050315856934 -247.340194702148 0.902245700359
60.460422515869 -65.188850402832 -246.211517333984 1.754712939262
41.861820220947 -64.642868041992 -246.805572509766 4.088047981262
54.710670471191 -66.276596069336 -249.275115966797 1.190066218376
-151.105758666992 -68.149871826172 -251.949188232422 1.203735351563
-152.513031005859 -68.569458007813 -252.510131835938 1.572189807892
42.185668945313 -67.989906311035 -255.074050903320 0.467236667871
31.672538757324 -64.522315979004 -258.633392333984 1.677913665771
47.820835113525 -64.681953430176 -250.339218139648 0.998917937279
-143.149597167969 -69.558868408203 -255.512557983398 0.984319567680
-134.323669433594 -66.154670715332 -255.413742065430 1.033911705017
-125.502662658691 -66.629798889160 -256.647247314453 0.846665680408
-133.669052124023 -65.833999633789 -256.835266113281 0.707006573677
-140.735061645508 -65.542922973633 -258.026153564453 1.725215196609
-123.511550903320 -66.867828369141 -257.558807373047 1.044837474823
-141.775482177734 -67.095275878906 -260.180480957031 0.683244585991
-124.826156616211 -67.787475585938 -261.077758789063 1.226480484009
-125.246910095215 -64.307395935059 -262.152587890625 1.724337935448
-125.116554260254 -69.563201904297 -263.367340087891 1.417513608932
-117.520790100098 -66.936653137207 -262.009948730469 1.327063441277
-4.016228199005 -66.869979858398 -264.869140625000 0.623320400715
27.697282791138 -67.667533874512 -262.935302734375 0.987002491951
-146.007431030273 -69.306838989258 -265.097869873047 1.469550609589
28.606519699097 -63.556331634521 -266.450408935547 2.812266111374
-4.168494224548 -65.695190429688 -270.158508300781 1.204430460930
16.822376251221 -69.721885681152 -283.829956054688 0.849362611771
-141.991088867188 -67.911315917969 -289.024169921875 0.642126321793
-124.683334350586 -65.862472534180 -287.681854248047 0.870189487934
-133.689071655273 -67.079116821289 -287.173217773438 1.019972920418
-156.670822143555 -65.497024536133 -289.515258789063 0.973935186863
-124.105468750000 -66.404693603516 -288.529541015625 0.838737905025
-117.244522094727 -64.429977416992 -288.928588867188 1.003931403160
-126.658210754395 -66.012741088867 -291.172149658203 0.794973075390
-150.271621704102 -68.632560729980 -296.043121337891 0.866933047771
28.673332214355 -70.337738037109 -13.804409980774 1.212101697922
32.107864379883 -71.605827331543 -18.075448989868 1.259142398834
39.745594024658 -71.507514953613 -17.977109909058 0.774102032185
48.145690917969 -63.096263885498 -24.700397491455 2.153509378433
25.768123626709 -70.626052856445 -27.575063705444 0.738140821457
24.807689666748 -70.752670288086 -34.013950347900 2.269955635071
-35.116565704346 -67.338165283203 -45.933032989502 2.914993286133
-81.828369140625 -67.957870483398 -51.352424621582 1.123315930367
-13.834464073181 -66.593147277832 -56.730625152588 1.717069983482
71.038116455078 -65.305229187012 -65.557037353516 0.935036659241
98.216094970703 -65.540061950684 -67.568328857422 1.058867096901
65.076103210449 -65.844360351563 -80.851013183594 0.641775429249
62.692581176758 -62.155632019043 -81.566116333008 1.237580657005
102.119544982910 -62.848476409912 -83.426307678223 2.452632904053
-62.226631164551 -64.746795654297 -88.283592224121 1.536359906197
-63.412403106689 -64.727294921875 -92.860984802246 1.004904508591
48.834999084473 -64.322174072266 -94.754783630371 1.126672029495
-63.522979736328 -64.484947204590 -96.447975158691 2.407169103622
-68.941993713379 -64.494422912598 -99.211364746094 1.638357877731
-99.581230163574 -64.277679443359 -96.458801269531 1.440361857414
-73.349212646484 -65.523513793945 -100.588996887207 0.879693627357
48.223388671875 -65.475738525391 -102.698616027832 1.628179311752
-70.020729064941 -67.544548034668 -103.189498901367 1.048997759819
51.886821746826 -65.396812438965 -100.083534240723 1.638092160225
98.071662902832 -66.666931152344 -102.851226806641 1.222511529922
92.001510620117 -65.491630554199 -107.468421936035 1.065998315811
-74.213188171387 -66.699218750000 -111.969528198242 1.343426823616
-81.261161804199 -66.529319763184 -111.389945983887 2.070142984390
-62.077571868896 -64.872352600098 -118.794746398926 1.078012943268
-95.434883117676 -65.568145751953 -118.268653869629 1.537322402000
-76.827758789063 -68.492782592773 -127.732856750488 0.775429487228
-90.713333129883 -62.921859741211 -124.877006530762 2.527716636658
-62.647838592529 -64.668045043945 -120.081520080566 1.480993747711
-59.436397552490 -64.644340515137 -118.048088073730 0.436484307051
-87.210357666016 -64.171958923340 -129.263183593750 0.719288051128
-61.375171661377 -67.685333251953 -128.863800048828 1.489162087440
-82.715789794922 -65.224929809570 -128.474838256836 1.874496698380
-71.901473999023 -66.752899169922 -131.929550170898 1.553778529167
-65.242988586426 -66.932563781738 -130.935699462891 2.464385986328
-60.552242279053 -63.256580352783 -135.880722045898 1.055449128151
-53.474044799805 -65.604499816895 -137.743957519531 1.053732037544
-91.154113769531 -65.983337402344 -135.189468383789 1.503744482994
-96.376777648926 -66.585998535156 -141.565444946289 1.675231933594
-85.900527954102 -67.555557250977 -135.235580444336 1.952570080757
24.103996276855 -66.606323242188 -146.420272827148 2.729819059372
-49.372089385986 -66.658126831055 -143.589111328125 1.882799029350
15.482887268066 -63.473678588867 -148.289321899414 1.216904878616
-97.744102478027 -64.991844177246 -161.793502807617 1.253541111946
-99.272796630859 -65.096153259277 -171.121948242188 2.379853725433
-99.629669189453 -62.878227233887 -171.286956787109 3.041676044464
-107.747108459473 -67.318481445313 -167.765716552734 1.226901650429
-105.169563293457 -67.699409484863 -181.582305908203 0.823355317116
-109.096611022949 -64.059585571289 -179.196136474609 1.177156567574
-143.069122314453 -66.815841674805 -187.308120727539 0.900209128857
-110.704200744629 -65.892768859863 -187.086593627930 1.774544477463
-132.852584838867 -63.099765777588 -193.431655883789 2.820671319962
-145.030929565430 -68.587165832520 -197.753692626953 2.752833604813
-123.273811340332 -66.796066284180 -197.299346923828 1.148218393326
-154.937377929688 -68.305892944336 -198.021926879883 1.635725259781
-144.359283447266 -66.278282165527 -200.514205932617 1.820227503777
-121.721481323242 -63.032173156738 -199.857040405273 1.508507013321
-133.932922363281 -66.717407226563 -203.237411499023 0.480690568686
-144.916351318359 -66.087448120117 -208.130889892578 2.289621829987
-132.280227661133 -67.092872619629 -223.414627075195 1.866188406944
-112.272262573242 -65.176033020020 -227.719451904297 0.433842003345
-148.571075439453 -68.238067626953 -228.406204223633 1.202820897102
-116.832389831543 -64.167655944824 -230.254730224609 1.453653454781
-110.567321777344 -65.336280822754 -231.867706298828 2.676911592484
-124.120674133301 -67.054611206055 -234.314407348633 0.429189413786
-128.167434692383 -67.923675537109 -234.890762329102 1.983597993851
-117.038124084473 -63.833499908447 -234.778945922852 1.870229363441
3.076750040054 -66.029197692871 -234.885818481445 1.295922517776
-149.801162719727 -67.231094360352 -235.570236206055 1.225418925285
7.777660846710 -67.930213928223 -232.416900634766 0.777926921844
8.467489242554 -63.763671875000 -239.788726806641 1.439203262329
1.713256001472 -66.514976501465 -239.542297363281 0.764423668385
15.087825775146 -63.772151947021 -240.178466796875 0.971831619740
-144.432373046875 -67.401519775391 -236.288619995117 1.692056775093
-3.414155960083 -64.951499938965 -244.645721435547 0.410028427839
19.668758392334 -63.000404357910 -242.724868774414 1.646569371223
47.700172424316 -63.577972412109 -248.327789306641 2.668290853500
51.207626342773 -64.087974548340 -246.174484252930 1.626456022263
-146.811187744141 -67.832389831543 -251.642883300781 1.073386549950
-6.128777980804 -66.627304077148 -253.132766723633 1.662238240242
28.224382400513 -64.829643249512 -256.986541748047 2.509569406509
-133.233322143555 -62.779411315918 -259.380157470703 2.249383211136
-127.339546203613 -64.482872009277 -261.049713134766 0.437665998936
-126.886138916016 -65.738136291504 -258.119781494141 1.444123387337
25.726949691772 -64.769790649414 -260.584747314453 1.122681379318
-136.036361694336 -66.628982543945 -263.353302001953 1.551849722862
28.845888137817 -65.598327636719 -260.092712402344 1.965366005898
30.601856231689 -65.098258972168 -264.719665527344 1.915987730026
-152.226058959961 -66.892005920410 -264.782379150391 1.503412008286
-147.685073852539 -70.078651428223 -288.255706787109 0.490935683250
-152.552886962891 -66.940200805664 -289.990966796875 1.725402832031
-142.953720092773 -65.062904357910 -290.715667724609 0.907165944576
8.333960533142 -67.043388366699 -293.290222167969 1.768597006798
-154.284042358398 -66.131759643555 -294.782348632813 1.649594664574
45.223945617676 -70.775939941406 -26.306825637817 0.283534586430
36.064861297607 -71.117881774902 -40.501762390137 0.896813988686
-65.144561767578 -66.492713928223 -46.030616760254 0.841875851154
-74.547691345215 -64.630287170410 -45.755874633789 1.386916160583
-27.437356948853 -66.338768005371 -50.384078979492 2.385771274567
-21.379907608032 -67.012115478516 -56.845195770264 2.138455152512
-13.563096046448 -64.713928222656 -66.709281921387 1.250984191895
-25.670459747314 -63.670936584473 -70.150588989258 1.230120658875
66.675491333008 -65.056510925293 -72.435554504395 1.214553594589
-97.730926513672 -64.660476684570 -79.354347229004 2.523766279221
-48.244895935059 -65.294227600098 -83.485565185547 0.545407474041
54.686576843262 -64.130920410156 -84.891921997070 1.626896262169
56.542160034180 -64.917106628418 -87.942985534668 1.914305210114
67.790618896484 -64.734535217285 -87.790740966797 2.947323799133
104.478462219238 -64.401741027832 -92.480102539063 1.317038416862
53.530624389648 -62.975181579590 -92.543548583984 1.566966891289
99.474548339844 -65.262298583984 -101.337265014648 1.788436770439
-79.080696105957 -66.955024719238 -102.687553405762 2.187141656876
-97.636955261230 -67.214981079102 -103.554840087891 1.145216107368
77.219490051270 -63.948162078857 -109.716186523438 1.302658677101
-75.973518371582 -64.188011169434 -102.357612609863 1.178357362747
-78.964210510254 -67.215347290039 -117.873023986816 1.145179867744
-83.392677307129 -64.788551330566 -118.958808898926 1.168502688408
-54.690441131592 -66.517509460449 -126.189132690430 1.381813645363
-79.393226623535 -65.373291015625 -126.491065979004 1.547319173813
-61.093791961670 -66.912925720215 -130.925689697266 1.339028358459
-79.473999023438 -67.904640197754 -134.398986816406 0.908540606499
-74.362884521484 -63.304016113281 -132.723068237305 1.786822319031
-80.890296936035 -62.273975372314 -125.740943908691 1.471207380295
-86.864227294922 -64.274055480957 -129.595672607422 0.666983783245
-61.867683410645 -65.168754577637 -131.824966430664 1.691974282265
-89.964820861816 -65.321998596191 -133.922210693359 1.631979823112
-50.421516418457 -66.551551818848 -133.513961791992 1.406007170677
-54.764781951904 -66.226913452148 -140.315185546875 0.876912534237
27.195837020874 -65.128982543945 -137.321899414063 1.012062430382
-58.564052581787 -61.952960968018 -136.588226318359 1.734061360359
13.760414123535 -66.043815612793 -146.380874633789 0.900559008121
20.054065704346 -64.188827514648 -148.297988891602 1.530491113663
18.387800216675 -64.097885131836 -151.966751098633 1.115538239479
-96.643898010254 -66.266609191895 -144.879180908203 2.289112806320
-94.013236999512 -65.781822204590 -153.748397827148 0.663471102715
-96.865615844727 -61.711074829102 -153.095336914063 1.191393256187
-99.298645019531 -65.626434326172 -156.904037475586 2.801659584045
-94.359069824219 -64.112190246582 -158.773071289063 2.130193471909
-151.073348999023 -70.793647766113 -175.923248291016 0.967319011688
-153.055816650391 -67.264915466309 -176.761413574219 1.857851862907
-105.391136169434 -66.047294616699 -183.477767944336 1.075617194176
-142.677536010742 -62.681129455566 -178.428253173828 0.755004405975
-110.421028137207 -65.530075073242 -179.443023681641 1.595438838005
-150.739883422852 -65.340080261230 -187.612792968750 1.556610226631
-112.421806335449 -65.277198791504 -193.265075683594 1.845480442047
