# This PCD file was generated using the MATLAB® pcwrite function
# from Computer Vision Toolbox®.
# .PCD v.7 - Point Cloud Data file format
VERSION .7
FIELDS x y z
SIZE 4 4 4
TYPE F F F
COUNT 1 1 1
WIDTH 1415
HEIGHT 1
VIEWPOINT 0 0 0 1 0 0 0
POINTS 1415
DATA ascii
-80.451729 -77.343300 -217.596298
-85.427116 -78.166786 -219.682526
-23.316639 -77.854256 -221.204987
-3.708150 -76.547722 -222.214981
-148.833221 -75.620758 -216.228745
-2.460608 -76.829681 -218.773254
83.481117 -76.697266 -225.479126
-143.428009 -79.758545 -225.892990
-8.543313 -77.426071 -224.369324
-142.547928 -77.832253 -227.911835
-148.391907 -83.936264 -226.073853
-6.796280 -76.418877 -230.249237
17.812347 -77.088799 -222.550858
-141.213455 -77.049461 -228.524155
-15.150410 -77.023384 -230.935654
77.313942 -77.720001 -228.762543
78.548317 -77.374084 -234.319763
8.060055 -76.237717 -232.234222
-26.276461 -77.386322 -240.443192
-19.414331 -78.312485 -238.354828
6.545879 -76.385933 -244.314911
-47.791065 -75.398163 -242.541977
-24.789965 -78.046165 -245.403473
7.742155 -77.880280 -244.845047
-64.273903 -77.440346 -247.400909
-30.957855 -76.272667 -246.044891
-43.658516 -75.896049 -244.844193
-150.689713 -77.036392 -244.745361
-48.361977 -78.435898 -248.157425
-54.273132 -77.636475 -247.903687
-66.461235 -79.890961 -250.840271
-9.459309 -76.046143 -251.326645
-82.723854 -75.986732 -252.678177
-152.832443 -81.397881 -256.926300
-140.894470 -81.365303 -257.238525
-125.790985 -75.766510 -261.414978
-154.157135 -75.036125 -262.961304
20.154491 -77.638268 -263.170380
-12.018081 -77.901718 -269.031097
-151.600281 -78.723251 -268.706329
-151.578110 -78.687897 -275.887238
-143.740219 -81.037033 -282.640808
-57.736820 -78.237022 -285.830170
-37.993355 -77.148491 -287.431580
-25.650352 -76.642723 -289.462097
-13.631412 -77.811577 -287.485779
-66.390732 -77.770683 -286.498383
-78.775558 -76.544418 -286.879883
-5.097424 -79.008377 -288.903076
9.012660 -78.489540 -289.949615
-135.443604 -78.497574 -289.720215
-77.993172 -76.598343 -289.271393
-148.102859 -77.869141 -289.653290
-94.173393 -76.627136 -289.153412
-75.295898 -76.438522 -289.825165
-84.235138 -77.939751 -290.632385
-61.874069 -78.557632 -290.498413
-24.796818 -77.144814 -293.418335
-3.511173 -76.808281 -292.441650
-154.908508 -77.320435 -293.998566
-149.864166 -78.554413 -298.481903
-146.137970 -78.475075 -301.441284
-155.144989 -77.646721 -307.209259
-57.082024 -74.877716 -55.609016
-45.058174 -73.247238 -53.579853
-39.243809 -73.441620 -55.347717
-74.858330 -77.089767 -58.763363
-28.407640 -75.028137 -61.295849
-28.715355 -75.524475 -79.282326
76.454910 -77.815025 -83.446396
78.355186 -77.185516 -84.795731
77.758141 -75.615280 -86.347443
97.205872 -76.899025 -91.409950
74.111877 -76.483429 -91.715561
55.715771 -76.028252 -94.484032
47.228668 -76.895531 -101.178360
-66.022942 -77.397133 -100.996376
-71.608963 -71.295692 -100.601151
45.539104 -75.204300 -104.210762
-82.344948 -77.963654 -108.439896
-92.359413 -73.409561 -112.004524
50.834473 -74.517761 -105.497574
107.295036 -74.596306 -112.493843
33.518116 -77.249352 -121.183670
46.208397 -77.523582 -118.935707
43.721077 -77.388741 -125.784325
29.909760 -76.448738 -126.791313
109.760803 -75.299622 -119.463089
37.571445 -77.118538 -127.953369
30.973022 -74.997902 -131.088852
-44.693806 -74.851936 -144.086639
-70.928291 -76.435814 -147.041779
-53.452579 -74.679855 -146.419861
-70.297440 -75.556404 -144.608185
-41.206024 -75.427200 -148.072784
109.659660 -73.842804 -151.920029
-71.361778 -76.181412 -154.198669
23.819298 -78.206757 -151.428192
33.516506 -74.831589 -153.241745
115.143700 -75.262894 -158.261032
8.739010 -74.423103 -158.840347
32.530327 -75.047745 -156.791397
-62.352165 -75.728836 -159.434891
-44.903191 -77.730453 -169.526276
19.131752 -75.029144 -164.575577
-64.798615 -74.695435 -165.541733
-66.325333 -74.780884 -163.157761
109.187866 -77.447685 -167.019882
-8.531002 -73.852486 -168.993988
-59.285580 -77.873344 -176.873810
-28.763695 -75.419006 -172.274551
-55.116375 -75.386917 -173.555756
29.116661 -78.506264 -169.766846
110.345657 -73.599785 -172.299957
105.413231 -78.049225 -183.965683
110.318207 -77.807632 -191.513412
107.876266 -76.457214 -177.799240
-55.491428 -76.796471 -189.082886
-51.856335 -74.932373 -182.118271
24.897795 -77.154549 -184.115921
-50.726814 -72.847923 -188.047363
-20.893690 -75.799164 -186.065857
-50.458305 -75.412224 -191.879852
-147.681122 -77.296326 -194.230728
101.160492 -75.125900 -194.238739
-45.353416 -75.451859 -192.114609
-16.017643 -77.824516 -196.894699
-139.549530 -77.501160 -198.653198
-45.102081 -76.432465 -195.947586
104.650055 -79.503983 -197.550125
106.918098 -76.544060 -188.968872
-46.748127 -77.411125 -197.917526
-23.722321 -76.821831 -196.086334
-149.342438 -81.872498 -199.353134
-25.763126 -76.619347 -200.165848
-153.298630 -78.529243 -198.390396
-152.713593 -78.259956 -201.952988
-141.143402 -77.500328 -201.158096
-37.871105 -76.158203 -197.965912
101.417488 -77.104179 -201.128769
-38.855461 -75.200890 -200.466141
-144.324951 -79.250633 -203.286087
-38.198761 -75.846489 -207.710266
-18.634895 -78.078232 -210.489609
95.190399 -76.657272 -205.389297
93.614174 -76.482704 -210.682175
-29.194864 -77.039360 -217.135345
-86.864571 -77.892319 -212.219620
-73.684601 -76.813736 -211.918518
-17.956356 -77.130554 -219.223267
-149.869492 -74.434242 -212.093201
87.263359 -78.116112 -215.435425
88.721092 -76.002884 -221.024979
89.699249 -77.144218 -220.014404
-101.296608 -73.058052 -222.922043
-149.234787 -78.640297 -223.507858
-19.104918 -79.000877 -220.609116
79.536240 -75.946838 -225.125137
-147.445923 -80.792374 -226.171478
-28.937092 -76.610191 -221.970978
-132.672943 -73.833458 -230.286636
-12.484785 -78.164734 -227.899872
18.560200 -76.467438 -221.686920
17.496569 -76.793480 -233.757446
-154.978348 -80.103966 -232.976807
-124.268295 -74.510117 -232.146286
-8.368071 -76.063599 -234.385071
0.304005 -75.713341 -238.432541
68.204628 -77.505630 -236.463989
70.875648 -75.808685 -237.366684
0.020346 -77.516853 -241.160202
17.979527 -76.186546 -239.176620
-26.986277 -75.445961 -240.798584
-37.305431 -78.027779 -242.939026
-45.592709 -77.071930 -240.428055
-39.100353 -77.091431 -242.999771
-19.263065 -78.553680 -243.674301
-54.053089 -75.065628 -242.563263
3.161626 -76.412231 -245.401321
-69.546486 -73.462471 -246.502914
17.499187 -75.547867 -246.933029
-146.798950 -78.489571 -247.132797
-71.173676 -79.350555 -250.071030
12.586053 -78.946579 -248.685501
-163.221176 -76.265442 -249.649887
17.581364 -76.725754 -251.332413
-81.233437 -77.704849 -251.764313
-74.525757 -75.883492 -251.470779
21.842527 -76.868454 -257.343719
-88.793663 -75.597900 -255.392502
-127.750183 -77.063667 -255.617035
-136.208725 -76.924110 -257.682770
-134.007492 -77.392387 -258.043701
-146.027603 -74.919716 -259.413452
-141.106339 -77.811081 -257.774872
-136.279755 -75.362427 -262.100983
-160.621689 -76.924431 -259.678528
-126.918480 -74.056496 -264.116486
-134.433380 -75.864418 -260.477448
-164.693420 -77.546974 -264.246368
-157.357651 -76.018776 -263.316895
-150.966141 -76.008430 -265.458130
-146.803574 -78.450211 -265.077393
14.731752 -81.755539 -279.899719
-165.330170 -77.625282 -268.379639
-153.916367 -74.795250 -274.410919
-6.732943 -79.494926 -275.246613
-160.889206 -76.405167 -267.826080
13.131322 -80.685997 -280.612061
-152.577805 -76.254601 -282.358551
-162.198242 -75.549431 -288.248688
-153.823868 -75.246582 -282.618286
-167.498093 -74.029297 -283.747620
2.170654 -76.604141 -288.723999
8.410337 -80.029320 -284.771057
-97.572327 -73.982315 -287.402039
-151.490387 -77.202583 -287.689362
-148.863007 -76.833557 -285.718781
-110.357330 -75.150085 -289.763458
-150.866470 -76.027481 -290.248444
-149.524460 -76.143379 -291.648743
-68.364853 -76.495049 -290.923370
-162.689285 -78.019722 -291.018616
-123.326401 -77.258018 -290.042023
-43.897083 -79.116379 -291.623535
-155.549957 -75.663910 -290.657837
-138.572769 -75.522858 -292.275970
-17.547689 -77.653534 -292.681885
-126.818245 -76.270630 -295.496155
3.624449 -77.289528 -292.841888
13.679699 -77.719040 -292.059875
-134.085587 -76.795212 -293.954407
-146.101151 -76.005997 -294.695557
-156.555099 -75.157982 -310.209625
-71.240715 -72.517784 -51.063656
-22.935957 -72.977020 -61.353497
-21.038912 -74.758110 -65.745728
75.545784 -73.723022 -74.995522
92.210213 -74.727371 -76.631516
-37.033989 -71.999146 -78.391701
77.203102 -75.624489 -77.460480
88.760712 -77.480408 -81.633789
71.969154 -74.275238 -82.320152
71.459885 -74.052345 -87.881485
-47.210567 -77.415329 -87.230957
-92.120499 -74.393929 -88.330917
58.631844 -75.396576 -93.734932
49.681633 -75.435928 -97.862801
96.365280 -73.460587 -97.548798
-93.738770 -72.885902 -102.752640
85.316895 -75.006042 -97.836021
78.760841 -74.610313 -99.634270
92.326172 -75.225876 -98.274139
82.981522 -72.423698 -102.535744
89.999420 -75.451645 -99.749908
-81.155807 -77.710815 -102.257217
41.106236 -77.347015 -110.732391
105.856262 -75.240501 -112.604301
111.610497 -73.288261 -111.524033
46.384338 -74.782486 -117.460373
109.216629 -73.449120 -125.073341
115.641815 -76.154114 -135.994873
-51.945442 -74.262405 -133.204559
28.671900 -75.355560 -134.197205
38.054424 -76.897583 -131.950516
24.720594 -73.005760 -144.171631
114.121017 -74.786629 -140.803894
112.093925 -75.071640 -135.262619
-73.569870 -76.036308 -148.822845
-45.648273 -76.164124 -147.793686
-71.556450 -73.562302 -149.468719
21.414082 -76.397812 -152.892456
112.938141 -74.623001 -153.730087
-53.363579 -75.336166 -150.702820
-69.583015 -73.976494 -149.575272
-38.969723 -78.448189 -155.417480
35.159256 -73.818596 -152.164886
111.410484 -75.593933 -155.228989
115.257683 -75.648361 -159.048065
-68.188324 -73.891068 -153.070099
-70.225304 -75.590904 -163.491486
21.136904 -77.248245 -163.639877
-58.492634 -76.054230 -165.241638
-31.937042 -78.908333 -162.449905
7.238825 -74.562637 -163.799637
111.616310 -76.426003 -164.875397
5.395473 -75.309959 -165.676270
-34.640511 -75.953285 -166.484482
0.196966 -74.116364 -166.882339
107.565033 -74.651199 -173.200439
-40.966419 -71.730865 -171.552231
28.639076 -72.846458 -170.641388
111.657974 -74.333916 -173.091171
-54.854324 -74.257484 -178.484848
-28.298388 -76.492393 -172.427887
103.190758 -76.103531 -175.028229
30.725857 -76.394653 -173.322632
114.008698 -75.038513 -176.215652
-37.282681 -76.221313 -174.927216
106.684509 -74.476723 -181.909317
-58.604214 -75.103592 -178.337158
-24.479010 -76.369377 -179.324387
-143.801727 -74.655449 -181.997086
-54.271194 -75.121689 -184.522888
-146.474930 -74.612953 -185.609833
-32.294754 -74.682442 -187.779755
22.755505 -75.147194 -187.542892
109.269897 -73.464714 -183.693314
-30.010380 -76.389717 -189.082291
12.703643 -76.625343 -192.113861
18.471863 -75.521431 -200.710052
-147.265015 -74.339386 -192.851120
102.775902 -76.810471 -197.371201
-18.115894 -72.946281 -194.626831
103.966522 -73.459229 -191.968964
15.257361 -74.539917 -189.341721
-131.204758 -74.536186 -201.383514
-141.846436 -75.059494 -199.437332
96.274124 -72.792191 -201.577667
-11.692382 -76.183067 -201.556259
-14.994765 -77.336823 -199.867523
10.675339 -76.205063 -206.576233
-148.646103 -73.409393 -205.888596
-146.267395 -76.584450 -206.217026
99.539558 -77.531868 -205.217926
-76.721764 -75.863983 -210.067856
-36.816612 -74.171379 -203.308456
18.500177 -75.395828 -211.350174
-24.988985 -76.941620 -211.518036
-78.673317 -74.238197 -212.571930
92.026489 -75.117912 -210.584595
-82.060928 -73.377045 -214.010437
-146.630753 -76.498863 -218.305695
-78.919174 -76.429565 -215.622696
-15.559751 -74.993202 -213.719742
-21.217356 -75.634209 -217.913864
20.616865 -73.996803 -212.053436
-5.660037 -75.404274 -214.823288
-85.186913 -74.487892 -219.164642
91.787201 -75.519730 -215.075165
-95.021294 -76.415764 -215.694260
-148.018036 -79.089798 -223.485611
-16.376041 -75.717529 -221.220078
16.297564 -75.151779 -217.045776
-102.462914 -74.222450 -219.929245
8.399633 -76.721985 -221.156357
-24.513710 -77.119827 -217.182800
83.382080 -76.487679 -224.945175
-146.227020 -75.652420 -221.259781
5.848934 -73.389374 -226.631943
-8.009294 -76.777039 -222.626114
17.181379 -73.025398 -221.714661
84.118111 -74.534286 -224.801041
-12.550650 -75.780624 -227.654739
-130.030762 -76.673790 -226.907852
-10.095608 -77.962318 -225.706039
16.969297 -76.281006 -234.983841
-125.359550 -75.223137 -225.801590
-149.251617 -74.919632 -228.304108
-140.544403 -75.327087 -228.807312
-133.321548 -74.826477 -230.006012
-13.621700 -75.540405 -227.680237
71.797302 -75.328880 -230.927872
-141.332001 -75.329208 -233.377960
73.541351 -75.688324 -229.736862
-17.677921 -77.417450 -227.313049
-141.902969 -79.828293 -231.510620
78.042091 -76.927979 -231.339569
11.076986 -78.088593 -236.863907
-143.204773 -77.005798 -235.084534
-150.140213 -75.213951 -235.878845
14.480317 -73.170456 -234.412476
-2.717510 -75.919083 -237.519440
-24.267317 -74.883911 -240.846008
-3.030936 -74.274437 -240.686707
-161.467331 -75.860603 -237.131287
10.718017 -76.401093 -245.936218
-164.107544 -74.378220 -235.153214
-15.261886 -75.877769 -236.467560
66.751747 -76.533539 -240.334717
-10.679095 -75.318359 -241.507248
-25.117289 -74.932671 -240.220215
-26.123875 -74.290085 -242.339005
-15.597543 -73.983337 -244.272232
-145.076996 -74.473747 -235.451370
8.841711 -77.039680 -244.564865
64.724541 -76.705574 -242.526855
12.604508 -75.939514 -245.389587
-161.791580 -74.427681 -239.587036
-48.315136 -76.320457 -244.614304
3.737933 -80.603889 -248.091919
16.940037 -73.488602 -248.402740
-56.216095 -74.784515 -248.764359
-3.874585 -74.786583 -245.099380
21.123499 -77.148338 -249.331131
-165.286407 -75.110184 -247.227264
-71.397995 -77.394989 -249.713715
-51.340248 -74.825127 -247.715149
-79.138535 -75.291542 -248.923599
-160.497101 -74.533905 -245.834625
-151.421326 -75.623627 -251.779678
-59.399666 -74.642288 -251.474014
-68.933395 -77.910820 -251.689575
-153.964188 -74.465225 -253.198563
-152.221649 -74.133873 -251.316284
-77.768692 -75.528152 -252.806580
-93.011353 -73.614815 -252.915695
-165.014694 -75.619888 -250.556000
-155.533905 -74.906677 -255.349548
-134.345062 -74.010384 -256.101990
-82.444481 -77.126884 -253.664215
-163.256134 -73.739517 -252.719360
-144.143127 -77.204170 -256.436371
-88.624649 -75.216850 -255.267212
-97.448074 -71.747704 -259.046600
-148.477570 -74.773750 -257.799164
-95.909630 -74.963173 -259.115753
-150.450806 -74.731911 -255.856491
-100.182404 -75.850296 -256.732025
-165.862289 -76.943100 -257.984253
-161.277557 -77.224403 -258.505890
-123.670639 -74.495659 -257.074585
-149.846252 -76.607506 -258.878113
-112.716316 -74.673553 -260.437317
-14.886305 -78.000084 -261.984772
-142.977310 -74.706360 -261.618073
-124.997314 -75.069168 -260.851654
-155.879150 -74.948151 -262.841919
21.450285 -76.507019 -269.225372
-149.245178 -75.299080 -279.449158
-167.893036 -74.719185 -277.820099
-6.626514 -79.367348 -281.049713
-148.064285 -77.142120 -281.310028
-7.526361 -75.222160 -281.556915
13.446751 -75.529205 -286.381805
-135.189056 -75.294754 -286.725220
-71.166702 -77.136452 -284.974365
-35.981602 -75.671715 -285.328674
-114.609398 -74.320313 -287.814514
-92.102966 -76.074860 -292.082764
-91.249245 -75.223160 -292.956940
-48.466366 -77.882599 -290.453827
-115.840424 -74.322365 -291.698425
-110.043457 -76.089729 -291.225189
-32.297508 -76.797211 -291.952179
-114.488464 -75.502007 -290.960938
-125.559441 -75.905624 -291.386475
-144.260376 -76.714134 -293.068909
7.906776 -74.432983 -291.888184
14.226426 -77.447624 -294.674225
-157.093948 -75.938698 -294.071411
-155.125381 -76.708214 -301.701538
-145.463882 -77.222725 -311.154572
-150.725601 -73.527695 -310.552734
-152.581772 -79.140457 -312.576813
29.951324 -72.383644 -16.929295
26.560328 -71.740234 -19.228594
24.072588 -72.473892 -22.589361
29.550026 -72.860962 -40.580990
-54.079323 -69.445320 -51.566948
-64.045471 -71.279892 -50.993633
-37.527695 -72.178856 -53.089863
-79.987518 -73.747795 -59.397076
83.394836 -76.356018 -75.905022
-17.910713 -73.346756 -72.684952
90.605606 -75.292931 -71.323212
98.080902 -72.879570 -80.573456
-91.935417 -72.484795 -80.113983
73.118576 -71.884033 -79.919685
-40.958015 -76.564575 -84.744576
101.683243 -72.124466 -85.353127
-52.706188 -75.051689 -90.066582
53.276356 -73.166534 -90.586525
73.552673 -74.618248 -91.261993
58.675045 -75.324181 -97.318756
52.304043 -74.233574 -101.044907
72.272865 -75.470848 -95.935974
47.349861 -71.828987 -100.452393
104.317528 -74.164963 -101.586990
109.947975 -74.990242 -106.740540
82.267944 -70.594872 -103.162300
90.065102 -74.267906 -103.476540
102.932976 -72.945450 -100.174858
108.887878 -70.176926 -103.399506
40.540371 -77.035828 -106.978317
110.968079 -73.057030 -120.963333
114.364555 -75.129028 -120.468826
34.158405 -73.738060 -121.623322
44.237331 -74.680565 -120.542053
113.516190 -73.009811 -129.171951
40.186314 -75.590942 -127.321060
114.400322 -72.636887 -130.751434
111.195343 -73.411041 -125.160324
26.178963 -72.292992 -138.682175
-48.058857 -75.258080 -134.771255
-52.816067 -73.808815 -137.964890
113.314812 -72.789757 -135.057098
-71.746834 -75.490181 -142.840912
-74.108070 -74.050346 -140.091110
-56.830944 -75.487450 -143.080276
34.727604 -73.556511 -141.451569
110.452194 -73.251137 -146.636353
-65.836067 -73.963028 -146.105774
-44.582291 -71.687134 -145.087677
37.212551 -76.619133 -150.078949
-65.571190 -75.447411 -149.646454
114.426262 -71.705803 -145.248901
112.548447 -74.442436 -158.086349
115.301949 -75.317307 -151.186096
-37.291676 -74.435608 -155.257858
-65.031769 -74.672859 -160.920670
-70.631538 -71.568970 -155.563202
31.952669 -73.387642 -151.509354
-0.562683 -76.001160 -163.599945
108.692299 -74.735870 -159.910583
111.255043 -72.281158 -155.898712
113.223961 -73.375420 -158.342392
-64.112801 -74.409172 -162.416885
-45.507835 -75.551636 -162.013992
2.308632 -74.545982 -167.314102
-25.127321 -72.897942 -174.808044
107.169914 -74.485168 -165.999008
-35.915081 -73.408348 -161.139191
111.226097 -74.854141 -170.469116
-40.822704 -73.986115 -172.715225
110.900650 -74.867577 -168.229080
-148.635071 -73.171448 -181.754044
-28.930019 -72.829239 -175.880722
-20.545170 -72.586349 -181.920532
27.796562 -76.593246 -177.489853
16.617659 -74.736641 -181.650024
25.654509 -74.928322 -183.616821
107.275169 -75.559952 -185.186356
-150.923813 -72.622894 -187.115967
-20.284914 -75.546722 -188.959473
104.884254 -73.517822 -179.650208
104.034126 -73.832535 -192.036575
106.651405 -74.366814 -181.279846
97.343040 -76.954559 -196.103165
-152.817993 -79.695740 -195.095291
100.273376 -77.139923 -204.766464
-29.206833 -73.282539 -195.538040
99.342331 -73.377739 -198.248108
-125.277634 -74.529907 -195.965302
-29.355291 -77.072426 -192.748276
-140.729095 -73.996803 -199.762436
93.584007 -74.463348 -200.798828
9.593735 -75.190186 -199.829849
23.625330 -75.712517 -195.554932
-147.407150 -73.607086 -200.108093
-139.462372 -72.835724 -203.182816
-12.072002 -74.869728 -205.146027
-124.443909 -76.965805 -202.013229
-144.068497 -77.497978 -202.952652
8.071575 -73.617264 -201.103989
-22.541363 -75.307068 -203.745987
19.862944 -74.643944 -205.820190
8.027504 -74.757370 -210.533630
88.864677 -75.348145 -210.542419
-20.974882 -71.242012 -212.235397
93.408875 -74.003822 -210.584991
97.775726 -74.464394 -208.125412
-147.665619 -72.572662 -216.927979
95.965660 -73.182190 -212.310013
6.663764 -73.785751 -209.941956
5.251935 -75.216118 -213.505981
-34.077827 -73.717926 -209.693588
-89.984428 -72.585365 -213.937073
-29.781746 -74.173553 -213.399918
84.779793 -75.556442 -216.619522
86.293777 -75.009247 -219.651428
-34.148018 -72.832901 -214.492081
-82.712402 -71.395073 -219.381058
-2.495432 -75.221375 -217.500092
88.145256 -74.799377 -217.464828
-149.404556 -74.960754 -222.095688
-166.264160 -74.396614 -213.320618
-158.881348 -73.497894 -221.921539
-20.226332 -75.091530 -227.838409
-152.143066 -75.045128 -223.434052
-7.334733 -78.177483 -226.891983
7.481854 -73.472824 -218.718918
-162.820465 -75.860809 -223.213455
-162.159073 -74.160927 -225.748291
79.547928 -75.228615 -231.169296
3.925308 -73.863403 -229.162872
-152.664368 -74.485672 -224.494873
-142.090225 -74.203178 -224.559113
-20.095415 -75.939125 -225.291916
2.967137 -77.065407 -225.180237
81.891869 -74.573021 -224.168091
-160.381836 -74.746513 -228.449524
-146.652542 -73.406006 -227.942078
-124.301270 -73.016350 -229.937881
80.980591 -75.524704 -229.748764
-115.035843 -72.446564 -230.043716
-148.427872 -75.271584 -229.029236
-150.520691 -75.547844 -229.972488
-147.133591 -74.369286 -229.137924
-154.289810 -72.621544 -229.346069
-165.563538 -72.751022 -232.202820
-135.593582 -73.270493 -233.838470
-133.970505 -74.486015 -232.772690
-154.975830 -73.849205 -230.632675
-145.015091 -72.721542 -233.920761
-152.160797 -72.686760 -234.193787
73.375206 -74.186302 -228.001846
68.094627 -72.875763 -239.261826
-159.933167 -73.542572 -236.645355
70.033989 -74.168800 -234.597809
-19.033152 -74.648407 -237.237732
9.755768 -74.563950 -237.290726
9.541810 -76.632591 -236.442719
-148.746948 -74.105301 -244.247498
14.094518 -74.475487 -242.360611
64.858215 -75.400909 -237.946884
12.852082 -73.863762 -237.466187
6.235736 -76.625748 -243.459747
-6.519756 -73.282806 -241.653214
-19.174995 -76.019356 -244.746719
0.303953 -75.857544 -243.945038
2.824525 -74.649597 -243.129410
57.435055 -75.453362 -242.892242
-57.164505 -74.832077 -245.417175
18.698214 -74.720772 -248.201096
-60.156147 -74.852646 -245.116684
-7.949156 -74.395683 -248.868484
-64.293419 -72.847618 -251.423004
-85.581802 -77.603294 -251.678802
-82.189034 -75.879364 -250.653015
-13.825098 -74.142738 -252.592239
-124.282990 -75.747009 -257.378998
-14.459117 -73.864464 -256.121521
-118.916008 -74.652946 -256.809906
-115.638809 -73.118256 -258.455780
-103.289635 -76.114052 -258.801819
-143.927124 -74.187622 -262.710724
-145.815384 -73.347816 -265.965698
-167.527817 -73.333504 -264.439117
15.554151 -76.801041 -281.108002
-56.662296 -75.917999 -285.430176
-65.599754 -75.052498 -285.539124
-43.022224 -76.500732 -285.986633
-28.795210 -76.634323 -284.644073
-95.548096 -74.933563 -289.717499
-29.843122 -73.775040 -288.302521
-3.709260 -73.727562 -287.140869
-166.620926 -75.177910 -288.951538
-13.026353 -76.396873 -288.634003
7.712960 -74.058357 -289.500732
14.545834 -73.930611 -290.481140
-56.385437 -75.433083 -291.770172
-29.516392 -75.839851 -289.622284
14.571152 -73.550987 -291.856964
-69.138321 -75.722031 -292.573456
-37.345722 -74.567604 -291.212372
-17.194214 -74.002312 -291.810059
13.894653 -75.655884 -291.407410
-11.892222 -76.224594 -291.473083
4.219334 -73.642242 -292.977570
13.178165 -75.124329 -293.829803
-134.630920 -75.393211 -293.028351
-143.343094 -76.580475 -301.400909
-148.328674 -77.871017 -311.897125
41.308807 -68.373032 -13.591054
32.151802 -71.300407 -11.758581
40.300125 -71.578331 -16.573400
22.227953 -71.455849 -21.234964
44.780403 -71.664391 -23.684801
24.766882 -71.046616 -22.160704
25.470276 -73.676453 -30.318329
23.520502 -73.241661 -35.735046
44.183807 -70.341499 -32.740208
28.297966 -71.871002 -36.770267
42.500671 -71.901421 -34.548180
33.688801 -70.869354 -37.905209
35.563171 -72.163368 -39.072498
33.179634 -71.464035 -41.326382
43.572968 -71.770073 -42.246376
36.449940 -70.287483 -43.528721
-37.283222 -68.476982 -52.547272
-29.214741 -68.193565 -49.558056
-87.081261 -68.580658 -56.695751
-85.970093 -73.549873 -64.579453
81.064430 -73.027977 -69.773193
84.603264 -73.506783 -72.572350
-15.583852 -72.322861 -73.436317
-86.115540 -74.573166 -71.408707
-23.784721 -72.547333 -78.371819
-48.707748 -74.363014 -87.513084
65.856163 -70.192245 -86.573563
55.429085 -71.234314 -92.631050
99.522446 -72.539986 -90.870163
72.974831 -73.345131 -96.596954
-63.764771 -75.764709 -93.585655
-64.529839 -72.574783 -96.565483
45.929443 -73.929291 -97.742035
76.359032 -74.881195 -102.759293
53.308907 -76.025688 -104.012741
101.995941 -73.830315 -98.909348
-92.545830 -72.444832 -107.120758
39.128578 -76.195038 -112.217888
107.718468 -71.826561 -108.562996
47.789680 -71.159027 -111.370567
104.259850 -71.586792 -108.357933
-84.614845 -73.024124 -113.457680
37.059059 -73.207886 -113.315620
108.367630 -74.085304 -118.533310
104.465500 -71.998077 -116.540207
108.622314 -74.177101 -115.822426
110.581436 -74.877747 -116.453735
37.042828 -72.661873 -114.519531
33.037651 -75.572372 -119.902390
44.693932 -72.596451 -115.891380
110.434433 -73.040535 -124.322754
40.241398 -72.067261 -125.888863
109.892525 -74.002113 -132.569809
114.154625 -72.004959 -130.911911
33.976124 -72.330597 -123.228699
-76.412132 -73.184494 -127.872337
117.253944 -74.942253 -136.301437
-57.094002 -75.442123 -138.601837
36.309471 -74.168678 -136.547913
-72.542374 -73.336517 -138.882309
29.955992 -72.323196 -135.232071
-75.117516 -73.843460 -141.652710
-43.738289 -75.539047 -144.621216
-71.447746 -73.405235 -136.942795
111.889465 -70.740044 -139.250183
115.238869 -73.423470 -142.381836
119.936996 -74.290970 -146.003967
-71.605217 -72.518524 -144.783966
10.133258 -71.575455 -151.279922
-55.013317 -72.919426 -152.888443
-47.595100 -74.632446 -155.321075
109.154243 -72.333214 -160.144638
-40.774399 -74.483391 -151.422119
12.752733 -72.507919 -158.881546
22.835831 -72.931839 -159.394028
114.976860 -74.676308 -164.788849
30.752514 -72.082848 -162.777496
-1.113943 -75.458511 -162.120316
32.070255 -73.614288 -162.969131
-67.860176 -69.835838 -159.710129
-63.077255 -71.968185 -159.319382
-66.659340 -73.109367 -164.079453
114.606438 -72.233742 -162.103989
-44.449062 -71.994698 -163.577286
19.531076 -75.667259 -168.719498
-63.109428 -74.794983 -171.363358
-59.809196 -74.611900 -172.494949
-39.667126 -73.799179 -160.902802
-33.156559 -70.554268 -169.403198
114.133957 -72.103531 -173.258194
-35.401157 -73.646706 -176.081985
16.549212 -73.773758 -173.493668
109.844597 -76.422165 -185.663681
-149.413040 -74.997452 -176.204697
-143.878754 -74.265144 -175.291870
-151.069336 -72.582619 -177.270020
-142.909775 -71.431427 -180.482544
-28.666494 -72.697983 -184.988663
-23.122515 -72.818977 -186.046722
23.249981 -72.180603 -190.363571
-141.756470 -73.026421 -186.919037
-145.038574 -72.672325 -186.343292
-20.546604 -68.983025 -188.242294
14.365788 -76.043945 -182.960022
-144.814026 -73.983002 -192.262070
-32.586597 -76.326607 -184.627472
101.509438 -74.740456 -189.750763
108.066460 -73.581894 -192.473923
22.546932 -72.765884 -192.660080
-18.728531 -76.064758 -189.548416
-25.398752 -75.952347 -196.167343
-151.049805 -71.584961 -196.080658
-132.588074 -73.296249 -197.556137
-123.391472 -72.553429 -195.226822
-122.542900 -73.568947 -197.788849
-20.989107 -71.874016 -197.350647
11.285911 -74.839355 -193.614807
94.722946 -71.831726 -201.590317
-146.971848 -73.012810 -196.531418
-145.906204 -71.907791 -199.877701
-147.955490 -70.293518 -198.483002
-154.862823 -71.048965 -199.707886
-26.740498 -73.830223 -200.463898
-13.714018 -77.366386 -195.817780
-146.635864 -70.496025 -198.971939
-16.573002 -74.594391 -198.447113
-162.412323 -73.308029 -198.794083
-132.494354 -73.542717 -199.491837
15.328743 -71.972191 -208.828354
-162.941406 -72.499184 -203.182510
-144.551285 -74.031654 -204.719818
11.124589 -74.261086 -201.252075
-154.058670 -74.037201 -204.224915
-22.820189 -74.588875 -201.171738
103.104813 -73.607666 -200.967407
-154.784927 -73.217964 -214.918243
-163.716949 -73.708344 -210.936859
-78.640396 -72.368004 -212.300354
89.973145 -73.530197 -211.339828
-3.450456 -72.915504 -215.546326
-151.765335 -73.097824 -212.063416
-88.377960 -70.827576 -215.399979
-7.145064 -74.024467 -211.550491
15.285106 -73.184868 -223.226410
-145.018112 -74.398895 -218.460327
-2.587935 -74.832954 -221.085892
-19.549292 -70.919418 -221.191711
-16.106382 -71.034081 -219.422607
88.125397 -74.270264 -216.570068
-21.763569 -71.697792 -217.433777
-28.447224 -73.725014 -217.172882
-105.521935 -73.275642 -222.680817
-15.013598 -73.154198 -223.992905
90.105736 -72.659004 -220.114670
81.636963 -73.322670 -219.622421
6.173416 -75.937309 -222.643127
-11.091879 -74.009346 -226.206848
78.587166 -77.548492 -223.502731
-125.228577 -73.354691 -224.144577
-23.286512 -74.068275 -222.687622
-100.438423 -72.195549 -224.749283
-105.749908 -74.517426 -227.358276
-134.386429 -73.522446 -227.708237
80.775391 -73.751144 -225.202652
-124.764549 -74.129936 -227.494949
4.267603 -73.889183 -229.478790
78.108414 -73.542778 -224.932343
-14.426159 -74.428284 -227.848434
-10.800067 -74.633217 -231.180893
-4.934067 -73.824867 -231.463089
8.181647 -74.216675 -228.725311
85.070679 -74.292526 -226.022766
12.830323 -73.848495 -232.862122
3.280667 -75.151131 -230.672760
-7.463670 -74.877159 -229.091873
-6.286208 -72.810356 -234.285339
16.512472 -72.789879 -232.638412
-11.051482 -72.790955 -235.022247
72.446709 -74.093094 -238.398193
-8.047152 -72.106499 -237.063965
19.948034 -74.784691 -234.140900
-164.555908 -72.618477 -242.067291
-4.833058 -73.647537 -241.009521
-9.568726 -72.804924 -242.267792
-167.588608 -72.574692 -253.794235
-10.027878 -74.560547 -245.340057
17.706743 -74.596130 -246.123276
-146.859818 -75.899231 -251.726730
-68.169243 -72.727509 -248.434845
-59.586185 -72.730850 -247.792343
54.235126 -73.783775 -248.034088
-77.110970 -74.004906 -247.654327
17.109447 -74.774345 -248.480713
-74.733887 -73.308113 -252.062042
-15.928745 -74.527969 -250.326263
-147.086868 -74.659988 -253.627136
48.669685 -73.244026 -249.543701
-80.148483 -71.781952 -252.322632
-99.763100 -73.596031 -255.186523
-96.952240 -76.949554 -254.329239
-119.574921 -74.766289 -256.911469
-106.528984 -73.520561 -257.130371
-107.186592 -73.572350 -259.709503
20.721102 -75.105858 -260.531464
-128.058487 -72.147240 -265.497284
-10.392528 -75.916298 -277.303833
-146.179443 -75.186844 -281.959351
-168.986023 -73.719856 -283.022125
-126.114670 -74.597992 -286.768677
-115.061974 -74.010086 -284.669128
-77.039398 -71.137436 -287.755035
-56.835110 -71.449951 -288.236755
-43.815769 -73.662758 -287.045898
-14.577462 -73.580025 -288.983185
-13.092540 -73.001144 -289.205933
-37.001411 -73.923729 -289.700592
-34.566715 -73.360588 -288.881500
-19.342264 -72.466911 -290.973053
-70.976082 -74.560776 -291.793976
-54.409695 -72.759514 -292.480194
-14.945015 -71.830971 -291.622925
-14.260117 -74.198166 -291.668732
-4.524809 -73.203621 -291.703857
2.432433 -72.240517 -293.382813
-89.139183 -73.815094 -289.750427
-144.185043 -72.511894 -291.052277
-117.956192 -74.784332 -293.800171
-154.130020 -76.535622 -298.798737
-155.103027 -74.357864 -299.248291
-145.340958 -74.766563 -300.909576
47.473248 -72.230415 -21.898705
20.273619 -71.163147 -24.484964
50.510311 -72.124283 -27.253834
48.943604 -72.917931 -34.423504
87.476906 -70.126137 -68.462097
96.795586 -71.391541 -74.809502
100.341888 -70.432716 -81.581520
98.277222 -72.284630 -85.346626
56.298626 -72.360306 -88.747169
50.047119 -73.149078 -93.932289
63.110630 -70.458961 -92.167542
-63.924549 -68.194473 -92.374680
71.038345 -73.244606 -90.163651
103.285843 -70.852501 -96.832191
75.133095 -74.444664 -100.569145
95.984306 -70.612160 -100.432129
-80.200150 -72.860451 -101.204849
45.425037 -72.439240 -103.388176
-84.714478 -73.394028 -107.270096
51.032112 -73.740402 -112.428154
41.364395 -70.603958 -105.945518
105.752914 -72.873627 -105.245422
39.657673 -70.357811 -109.253250
40.520023 -72.375946 -115.621017
43.232391 -70.036903 -115.032166
106.959198 -69.904648 -116.373550
-81.382950 -71.247849 -120.644173
112.567856 -72.653549 -125.784790
38.596207 -69.754791 -122.461647
42.995636 -71.433189 -120.129501
35.600327 -72.170235 -122.495750
-55.760910 -72.151459 -130.790009
31.088306 -71.482124 -124.034729
-76.450577 -73.761497 -136.951050
-56.898621 -71.822563 -133.782684
-77.805634 -70.815552 -133.805664
34.319828 -71.426651 -128.784729
-57.432213 -70.730919 -133.716125
36.964451 -71.735229 -134.274887
-73.833862 -71.718468 -139.548996
-58.015148 -74.110268 -139.338165
29.469414 -71.521156 -139.954376
110.557777 -74.700409 -145.547073
117.496605 -71.711235 -138.114471
32.606819 -71.294571 -140.515366
-45.771725 -70.433815 -142.678467
109.937737 -71.943428 -154.973541
-73.307465 -71.781013 -146.105499
-55.152672 -72.867538 -141.613892
33.007568 -74.134277 -151.294357
-73.512932 -72.592468 -145.784180
-70.354279 -73.360237 -149.522781
117.200531 -71.030434 -150.244659
-63.946037 -72.320854 -152.509079
-39.156166 -71.618011 -152.800400
29.359856 -69.607101 -150.760345
-74.841377 -71.660934 -149.427475
11.304460 -73.693115 -154.970322
32.993549 -70.518250 -155.912308
29.193596 -72.117004 -149.567719
10.272629 -75.163704 -155.770874
-47.875687 -70.770889 -154.099564
27.014566 -71.147522 -153.428360
-45.368015 -72.459984 -149.415955
7.143147 -73.130302 -153.163681
22.174688 -72.397705 -150.077972
-71.656433 -73.787285 -155.036072
-44.901592 -71.263931 -154.894638
-68.388924 -70.230339 -158.885498
13.698792 -69.436508 -161.309448
23.482714 -72.110382 -149.320374
2.454019 -71.312195 -162.425842
21.337362 -71.772896 -156.432404
30.435987 -73.148895 -164.396149
-46.757076 -74.086266 -162.450516
-33.133530 -72.346565 -161.398849
-38.237186 -71.256866 -161.058868
29.218094 -72.410141 -162.407837
-44.220417 -72.564453 -167.372971
-41.241180 -71.920403 -162.831009
20.842344 -73.228096 -165.751999
-40.732105 -72.211212 -173.405441
30.494066 -71.180145 -172.160187
115.447540 -71.159760 -167.151474
-32.020611 -71.594299 -172.786758
106.795624 -70.811127 -172.943527
-33.938694 -70.668274 -177.475342
-37.061722 -73.074585 -180.402008
18.335052 -73.953949 -175.495255
104.146469 -70.886993 -181.880234
-28.660576 -71.751740 -184.459976
-32.473854 -69.317558 -174.467270
-23.190956 -72.967148 -186.511490
-147.659424 -74.697586 -187.628220
15.007707 -73.525246 -183.579605
106.700577 -71.426277 -191.895203
-156.741440 -71.960197 -194.092056
-26.094862 -72.584229 -191.776215
-115.290878 -71.443649 -195.772003
-132.723831 -72.656837 -197.287064
-109.010323 -71.000832 -200.336212
-111.041656 -70.857643 -200.087997
-14.862100 -70.948631 -198.048752
20.058895 -73.862717 -197.610962
-17.792421 -68.551025 -201.744919
-124.518173 -71.527245 -203.785004
-23.270876 -71.090302 -207.018173
-130.828217 -74.581512 -202.935318
-12.493736 -71.441490 -202.788223
-144.207642 -72.058250 -204.343124
91.402267 -71.997292 -209.166702
-165.062012 -72.335312 -202.500992
-2.665790 -74.776947 -214.107330
11.400307 -69.919914 -210.901215
9.918528 -70.353607 -217.151764
83.229790 -72.228111 -219.065140
5.601366 -71.145927 -214.634674
15.013035 -72.552452 -214.629257
-15.282000 -76.063660 -215.496414
-89.858757 -71.926147 -216.375580
-98.773232 -73.289200 -216.951126
-3.614856 -71.514732 -221.514954
-167.327652 -72.733879 -225.928436
12.686797 -71.512787 -221.791931
-143.796967 -72.813408 -223.032120
11.884735 -71.310463 -225.999710
-133.869415 -72.801994 -223.388214
-116.427383 -72.585915 -226.438736
17.286661 -69.929131 -223.785721
75.638550 -72.239075 -227.411575
6.111234 -70.743202 -224.725769
-113.051491 -73.667702 -226.628555
75.773392 -72.233353 -228.730652
80.412987 -73.402573 -231.262634
-122.928017 -72.931061 -231.419617
-116.338814 -73.862495 -231.755463
-11.312209 -72.282967 -231.588165
70.892815 -74.243195 -229.471710
65.607452 -72.366508 -236.160507
74.107269 -72.034775 -233.131607
-133.468842 -73.134819 -235.847046
70.704132 -74.882462 -235.721344
65.967453 -73.915230 -236.623032
-166.950470 -73.927971 -228.075882
-0.196772 -75.178993 -240.513351
16.246302 -72.559967 -242.841995
-5.047760 -73.307396 -241.126160
13.830946 -73.587120 -241.676361
66.140182 -73.839691 -240.405228
10.763193 -74.417694 -241.281845
-9.088373 -69.446671 -243.388901
-0.871281 -72.490410 -243.465027
65.414856 -73.156357 -244.848907
5.807365 -74.894714 -244.701584
-9.312037 -73.177673 -242.477890
13.953170 -73.868469 -246.190247
-166.781509 -70.350578 -240.935257
59.661087 -71.341805 -249.349106
52.099400 -71.930191 -249.956360
55.914780 -74.788109 -242.917969
-13.079634 -72.769119 -250.267776
55.973320 -74.865623 -247.299561
-73.428719 -73.295853 -248.586945
51.490780 -73.849487 -251.176865
-90.278999 -74.456238 -253.196426
-126.782196 -74.733940 -254.030518
-134.106369 -70.600540 -253.265701
46.555618 -72.644424 -255.263870
-136.850235 -72.354897 -256.117798
-109.022423 -76.150757 -255.215805
-113.143814 -71.644760 -257.285767
-83.639130 -73.657356 -253.792999
-112.373985 -74.566986 -261.838654
-124.587708 -72.594093 -263.496765
-145.215424 -71.967247 -265.812714
-14.527643 -73.737427 -261.939819
-169.946335 -72.321541 -264.850830
-12.599792 -75.025909 -272.170654
-159.413742 -70.116776 -266.566101
-153.785370 -70.846329 -273.913757
-168.982651 -70.730011 -275.631104
-12.919033 -71.421715 -276.095367
-134.086639 -73.812035 -283.522186
-159.279312 -71.554016 -286.714600
-144.960434 -72.607933 -281.692596
-135.940857 -75.654160 -284.524658
-8.999712 -72.367424 -284.182648
-125.325035 -76.660286 -283.675476
-142.125534 -73.827354 -285.270203
-116.011444 -72.369385 -285.804993
-77.044327 -72.420044 -288.042908
-62.652504 -72.750816 -286.032196
-5.847907 -73.646255 -288.784729
-52.131416 -73.550941 -289.969788
-60.031456 -73.393585 -288.419739
-69.632172 -71.776970 -290.982910
-87.222389 -74.018379 -293.329498
-101.208420 -69.449203 -290.115845
-161.601700 -71.973755 -290.787262
-160.465500 -73.209229 -290.561554
-126.578903 -74.791115 -295.536346
-145.671173 -73.719948 -294.757721
-156.911285 -73.307610 -299.954315
-147.881256 -73.475914 -314.517395
47.966053 -69.516441 -19.609591
20.789988 -74.327049 -27.153234
43.782734 -71.192123 -35.999901
-16.998878 -73.174599 -66.975945
82.402893 -70.285492 -66.923035
86.411400 -67.753105 -69.297211
77.265457 -70.048103 -69.850021
76.111053 -70.722603 -69.167206
94.418503 -73.399414 -74.559464
-93.874329 -71.100861 -71.553108
70.759178 -72.744499 -77.843788
-35.594948 -68.782799 -77.184280
100.412895 -72.015938 -88.029434
62.408627 -73.557144 -90.698517
108.410713 -71.938354 -95.302444
106.036423 -72.530304 -99.078957
71.612846 -71.747864 -99.400642
-77.130066 -73.099556 -99.375435
55.481110 -72.908165 -105.241089
106.916145 -71.786621 -106.417694
49.507820 -74.957939 -112.361168
82.870163 -71.335564 -104.287567
43.216351 -73.258041 -108.811188
107.366325 -69.974457 -103.337883
48.692112 -70.195351 -108.525772
110.916397 -72.780289 -112.984856
109.153412 -71.035439 -115.819389
-77.861923 -68.017059 -114.067665
-79.511604 -70.978394 -116.578552
44.248230 -72.398979 -120.601486
115.512260 -70.058281 -119.377655
115.522095 -69.542313 -124.360069
-82.345619 -71.045700 -127.048271
108.435677 -70.875664 -124.076073
-60.913349 -72.262970 -133.114044
-86.522263 -69.988297 -126.642227
-74.534332 -69.899422 -128.434738
-56.892578 -67.247025 -126.212029
33.370258 -70.434647 -130.284698
41.223640 -71.958817 -134.128769
-74.984283 -71.512428 -136.522018
29.104918 -70.432449 -132.502411
108.675827 -72.242523 -139.322342
-41.150200 -71.216141 -147.528946
26.057915 -69.735909 -147.664719
113.974762 -68.478783 -147.129669
35.492268 -71.966057 -144.437881
111.789688 -71.350792 -144.358490
-53.583752 -72.303818 -148.589661
-66.920181 -72.097107 -150.009949
-51.654366 -72.764015 -155.105164
-42.321899 -71.192772 -166.625153
5.119576 -69.831413 -155.709595
111.408745 -68.889267 -155.655594
109.534241 -70.652359 -160.234467
9.253610 -68.407669 -159.711655
4.172429 -71.892708 -162.282791
16.015610 -70.991875 -158.676056
23.823212 -70.409508 -153.873795
113.110588 -72.389183 -167.077789
107.482246 -72.914299 -171.041214
25.169493 -70.099419 -173.000778
26.992743 -70.544533 -163.436417
114.540405 -70.893990 -163.181534
-28.816925 -70.480255 -174.500702
111.072945 -70.373161 -170.569519
18.636612 -70.007469 -174.998505
20.208218 -72.063515 -165.984375
109.445335 -70.551514 -176.342911
25.122759 -71.168289 -171.363968
110.297409 -70.694489 -182.610474
-38.399071 -69.955193 -175.905319
27.377283 -69.433235 -173.859528
107.652496 -70.907333 -184.900665
24.339550 -70.742180 -180.220703
-152.730606 -69.584488 -184.434677
-29.856276 -70.547142 -188.606354
25.482256 -71.938156 -185.594879
-111.456573 -71.164749 -192.414017
-110.395119 -71.565163 -189.150986
21.945822 -70.034851 -191.551193
13.032448 -72.190987 -186.639908
-26.340397 -72.475426 -190.938095
-29.610464 -72.120651 -188.556854
-25.809526 -71.948944 -185.917206
19.310762 -72.339821 -180.000885
-151.622162 -71.108025 -193.112595
-144.565948 -72.354782 -195.859360
-141.028915 -71.358849 -194.925690
-20.259090 -69.623550 -191.874191
13.769682 -71.214012 -199.775040
99.487297 -72.238594 -196.406006
-114.558746 -71.229797 -199.971390
19.889004 -70.824684 -201.041687
-17.130976 -70.690804 -196.668747
-18.408274 -70.068069 -198.227142
98.888954 -71.184303 -200.783249
8.974534 -72.209282 -200.784882
-23.383482 -70.316048 -195.923843
-122.090508 -72.837357 -201.477570
-133.863205 -70.339668 -201.772552
-112.085861 -69.913368 -204.731430
-143.450287 -71.725327 -203.608795
19.713831 -71.730659 -198.150024
95.809013 -72.289917 -207.199829
-166.630798 -69.958496 -204.130356
100.472130 -72.002884 -204.518997
-17.747671 -71.514648 -209.011444
93.293465 -74.526779 -214.409164
89.007126 -70.262383 -217.268372
13.304187 -70.749191 -211.468735
17.049982 -72.073418 -211.197144
11.239087 -71.256287 -209.752869
-10.253680 -71.458252 -220.332291
-96.635986 -70.784134 -217.559952
-7.404717 -72.565254 -216.771606
91.182129 -70.701355 -215.532150
-92.203201 -72.522560 -220.355774
-102.766739 -72.756798 -220.313431
-93.003311 -72.461739 -220.072327
87.542122 -72.738846 -222.586670
-134.550720 -72.334244 -225.605148
-133.966797 -67.914108 -227.358749
-118.140610 -70.756866 -225.919861
-112.854774 -69.612778 -225.755264
-133.668884 -70.750725 -223.996201
-108.422073 -75.505325 -226.627548
-114.026947 -70.834244 -227.818405
-8.633988 -70.792252 -225.839447
-18.490850 -72.568428 -224.925217
-1.289132 -71.876991 -232.714157
-9.925180 -70.443726 -228.661163
15.037553 -72.465881 -233.135773
-17.385859 -71.976563 -228.680359
-164.819931 -71.006592 -224.062775
-2.289713 -70.367966 -232.656845
80.998360 -71.886436 -230.490906
8.578763 -71.440758 -235.994812
-8.150503 -70.918716 -232.382462
-156.107559 -68.999687 -235.531387
-139.946671 -72.031731 -233.343903
66.634048 -69.417892 -236.525223
-6.631871 -71.910995 -235.527924
4.548827 -71.698669 -234.696991
70.546700 -71.596214 -237.622009
77.053917 -73.142494 -235.954849
68.556503 -73.459221 -239.516418
-1.905756 -70.876053 -237.401901
56.022057 -71.888390 -240.462967
-17.700603 -71.793976 -239.421814
-16.527735 -71.100243 -241.492142
8.788151 -71.976021 -240.898483
65.930435 -72.142441 -243.201019
61.001553 -71.869873 -240.435608
51.704456 -70.152977 -247.972565
61.382263 -73.556381 -244.628250
-16.602781 -70.891853 -249.817245
-83.751045 -70.512993 -249.389694
-77.298752 -69.545387 -252.602539
43.306175 -72.199158 -250.702377
-144.447052 -69.898834 -250.681137
38.062691 -72.582886 -257.271027
-89.515762 -71.827545 -252.089508
-154.698715 -71.374374 -255.695999
-142.433273 -70.960258 -255.323074
47.913258 -72.967415 -253.349686
-125.583786 -69.424858 -255.012756
-116.675468 -70.627785 -256.459534
-94.708488 -70.455605 -256.473755
-16.019936 -73.992500 -255.003952
31.377930 -72.235092 -260.060669
23.221148 -72.817116 -261.650238
-156.934280 -71.079430 -257.639618
-114.787811 -72.792183 -263.089539
-14.145703 -71.931747 -261.253510
-134.761108 -71.470924 -264.940918
-13.464089 -70.752991 -271.883331
-165.776016 -71.061516 -275.928070
-9.994609 -70.942673 -280.076263
-163.266800 -70.472412 -288.745667
-161.165558 -70.800842 -277.117981
-146.403961 -70.813217 -285.293457
-168.936539 -71.644882 -284.086212
14.989600 -70.282982 -288.062775
-104.489830 -73.590553 -286.764618
-87.778870 -71.111320 -286.651764
-168.369446 -70.836426 -284.681702
-90.870728 -71.740921 -288.615540
-153.287506 -73.233498 -287.925659
-74.490524 -72.081177 -290.123962
-68.480804 -71.807632 -289.539368
-82.072746 -70.826599 -290.675720
-4.292779 -68.179321 -290.309174
-85.160187 -72.353432 -291.656372
-98.820091 -71.824219 -291.787933
-115.855881 -71.819458 -292.718262
-117.052536 -71.043541 -293.597351
-136.649811 -68.557777 -293.342468
-143.749451 -75.260536 -300.489044
-145.096329 -74.794357 -310.965485
25.511658 -70.342010 -17.786463
31.676060 -68.263672 -20.680147
30.403204 -71.437286 -19.222935
45.597847 -70.909454 -24.915873
25.915386 -71.192116 -32.591221
-75.887321 -67.703720 -49.255196
89.068695 -68.649124 -65.652031
-13.368402 -70.382545 -68.893707
101.481766 -69.436234 -73.198700
97.332603 -70.186050 -78.168022
71.300179 -73.359688 -80.582703
68.469246 -70.052002 -85.884010
-45.929291 -70.907478 -83.400841
61.716778 -69.854439 -84.401413
-96.514313 -70.209183 -88.041992
-49.948536 -69.272545 -87.827721
-54.994881 -75.228416 -89.482208
98.190872 -71.775627 -97.674377
57.975273 -71.706001 -98.456779
63.534370 -68.611961 -92.556244
-95.958801 -68.096535 -96.165260
108.719254 -69.049843 -96.816887
47.537472 -69.659531 -98.002350
101.183083 -69.375473 -98.987633
106.626427 -69.899834 -107.320572
102.634819 -69.820137 -106.624519
74.455551 -69.528358 -104.968910
87.607964 -70.683479 -106.840004
48.870480 -72.333488 -112.009636
110.206741 -70.207886 -107.841049
45.527294 -70.032341 -109.040962
45.226250 -67.901398 -102.167763
110.441544 -70.842133 -113.817047
-78.662651 -68.676414 -110.129723
47.612453 -69.489929 -114.679245
36.985630 -70.237961 -113.903740
105.926018 -69.759819 -110.274796
43.111202 -68.363983 -113.174591
-89.072990 -68.969681 -117.056747
-96.307289 -69.200699 -116.140961
108.138168 -68.767944 -120.968262
-93.305573 -72.693230 -117.810616
39.085350 -69.166039 -123.464676
37.766037 -69.218803 -118.751938
-79.743126 -69.850060 -124.533806
30.472694 -68.277557 -134.333313
109.353683 -70.947731 -133.504852
-49.995926 -69.824059 -135.051926
-88.562080 -70.296204 -130.377792
36.890675 -70.685013 -136.186325
-90.187691 -68.593811 -135.384369
-90.004753 -70.771095 -137.003662
-48.111809 -72.540352 -137.432083
-70.998062 -70.227287 -140.239304
-50.070415 -69.116905 -136.782898
113.569756 -68.779686 -140.161209
-74.879883 -68.211746 -140.782913
35.687603 -69.930275 -132.315430
-77.380577 -68.850945 -139.068985
-75.897873 -68.706314 -135.370880
-87.037193 -69.468826 -137.024811
-53.612331 -70.240234 -150.634674
31.615713 -68.755272 -148.444000
30.034924 -69.061584 -152.061279
18.726034 -68.688568 -145.400635
113.620331 -71.312721 -149.315933
-97.061539 -71.843628 -154.906570
16.746569 -71.146667 -151.106033
-70.991974 -70.783722 -149.682343
23.343582 -69.875359 -151.058838
-46.975838 -69.121132 -155.287445
8.614656 -68.302536 -151.776337
10.837835 -70.163101 -157.733322
18.359055 -70.694298 -164.151749
-46.007767 -70.851494 -162.957870
-40.220249 -68.039803 -154.113190
-45.423733 -68.868744 -158.692276
-102.829468 -69.327141 -170.231796
20.092518 -68.494797 -173.232239
-36.669430 -70.308525 -173.828720
14.487262 -67.837852 -179.137222
-145.757828 -72.353020 -173.537796
-33.803692 -67.723930 -174.667160
-152.439560 -68.549126 -176.593689
20.508514 -70.481590 -182.594147
-31.879740 -71.444664 -172.995880
-108.724586 -71.365921 -181.287888
-106.234619 -70.246483 -182.449814
-30.900806 -68.735069 -183.556320
-20.820322 -70.814316 -185.002197
15.328850 -70.320824 -190.376221
19.008270 -70.033531 -196.156906
15.865276 -67.263641 -187.690475
-141.961349 -70.676949 -186.950394
17.376745 -69.730263 -192.577591
10.183483 -71.235939 -197.964035
-140.297089 -68.808907 -195.957962
-117.339516 -70.745087 -196.967087
15.014599 -69.168694 -198.641541
-112.763374 -71.461113 -194.941864
-108.377190 -70.785576 -191.770996
-163.159760 -71.824196 -198.562378
-21.574772 -72.559990 -202.151337
15.912041 -68.676186 -202.432602
-139.400879 -68.535454 -201.726746
-133.522598 -69.975952 -205.990326
-18.314512 -69.523964 -207.125793
-11.581037 -70.203468 -204.357010
-15.763141 -70.554276 -208.174133
-144.815643 -71.410210 -207.057327
-17.333000 -72.070122 -209.987122
-12.573676 -69.159164 -213.015762
16.240543 -69.805237 -210.890533
-11.480954 -70.217438 -210.586823
10.732128 -68.027245 -212.649155
-8.696681 -71.222008 -217.231598
-16.710649 -71.571625 -212.624451
