# This PCD file was generated using the MATLAB® pcwrite function
# from Computer Vision Toolbox®.
# .PCD v.7 - Point Cloud Data file format
VERSION .7
FIELDS x y z
SIZE 8 8 8
TYPE F F F
COUNT 1 1 1
WIDTH 804
HEIGHT 1
VIEWPOINT 0 0 0 1 0 0 0
POINTS 804
DATA ascii
-91.857549841014148 -44.151288023557413 -53.164440928460557
-91.445707710534677 -43.575593606172703 -53.241311515028450
-44.752222831952089 -43.784220230900331 -52.784529042335855
-43.529116534826997 -43.825935740806983 -52.861249058669344
-42.307033083331305 -44.332629904928055 -52.960751424872718
-41.662157067620896 -43.641396812442970 -53.786947551774901
-40.796694256166568 -44.491601981900843 -53.899672383980686
-39.392197416819251 -43.505080442335668 -54.271379855011816
-92.945242549870954 -44.353153951919452 -53.757992518809772
-42.163220235245234 -43.381436643867033 -54.407174342401767
-40.862336428102168 -44.155135187264392 -54.261986807635502
-38.651781952594789 -44.387687393918981 -54.016287740328188
-37.105046109269864 -43.898036233529886 -54.073433257560509
-34.480485984456408 -44.609766140649242 -54.039689942067497
-33.188029585622161 -44.258631589904262 -54.552373307187729
81.126602845877699 -44.670715000080293 -53.831412600076639
82.167174934954843 -44.334169040636937 -54.043178898324356
83.109183433826161 -44.371495929926667 -53.928875886645393
83.934897389030766 -44.573181549024582 -54.631999091810044
-40.675431553706630 -43.497260116926739 -54.433171339378227
-38.367638972727150 -43.653322348119730 -54.708546051665081
-36.156490742278521 -43.568042479407957 -55.167193303929096
-34.590143343414866 -44.318756449413542 -54.826141939794709
-29.597930572480145 -44.269638477963916 -55.204039341667333
-13.600289777629190 -44.011977135640528 -54.548531415678433
82.034958023889629 -44.341510914938475 -54.644805899691313
82.813420237534032 -43.688292932946617 -54.847636097326252
84.979973020647208 -43.894963228458394 -54.453897612892391
-93.720773207237627 -44.362782079745919 -54.513373478140537
-34.584225558725421 -43.540798930195024 -55.360384023243434
-33.230699813811690 -43.672182329594108 -55.248205216238468
-31.771429179410390 -43.615631436860284 -55.197274041093408
-30.350325951800524 -43.923630617629833 -54.965215479386316
-26.728215022613139 -43.959020455231347 -54.857707184970728
-25.756220092755079 -44.323002840615402 -55.094907192241799
-24.080047646142631 -44.581546856830883 -54.374682719656910
-21.873164017142866 -44.473031222355409 -54.922645076774536
-19.805744968054505 -44.273075109771362 -54.832368317766367
-18.038823765645922 -43.724086127163019 -54.806666539613971
-17.306939052713780 -44.109727123762916 -54.780806147394941
-13.492452177877940 -43.614806403497589 -54.633103010914112
-12.544501342318060 -43.427284985288189 -54.775066122211882
-11.280925590871981 -44.180246049432832 -54.823687127909942
82.162938585389838 -43.651000534353109 -55.524572877698617
82.887980687197455 -44.008401739825160 -54.497314398532225
84.095255451315538 -43.819217745459376 -54.792631360991393
85.023997013341088 -43.442600737021067 -54.721954517688431
86.114673905199027 -43.550473664172500 -54.866293642208213
86.675949644609773 -43.716959359063047 -55.157483624942763
87.968936687247805 -44.232249817307263 -55.091847841483748
-93.909088058919764 -44.440979249786707 -55.528369226598791
-29.334718845957198 -43.562943054829290 -55.119086741007351
-28.364195460651654 -43.655561607773947 -55.718596737054554
-25.707574243175785 -43.947434647885629 -55.227283391589609
-24.082402938927487 -43.330581207980828 -55.313476875086110
-21.069043316730756 -43.481998343812421 -54.961344911024845
-11.068270214137717 -44.590000382877257 -55.773725954419021
-11.454447609583042 -44.015701207529595 -55.273833634163211
82.831203705539480 -44.191455946463655 -55.436372924268099
84.169531601488373 -44.317061208193998 -55.531964205501836
85.042982717381932 -44.285994843675631 -55.783741886455047
86.284224874765187 -43.646303316073258 -55.205035368827822
86.868021774273871 -43.763523209963289 -55.650293617168288
87.389734661582054 -43.581228766151661 -55.380004332600855
88.465101882722223 -43.929665880494248 -55.251354073589361
89.819333048349208 -44.607840138107051 -54.965790205119355
90.628598141253519 -44.335942080353753 -55.819011194207718
-10.105104933764528 -44.370430383256164 -55.563177030408745
83.710741119460280 -44.277379785967355 -55.466865896937939
84.629495884860248 -44.111422002014585 -55.849903592943228
86.536929688057171 -44.024346165976858 -56.155853612151546
88.825506180273962 -43.331929742080504 -56.018687080292921
89.505060679040241 -43.493210538069007 -55.623557450545583
91.344365621752488 -43.371581544787915 -55.763694395912445
92.708713386156475 -44.371616631221769 -55.905397656678275
-94.372396198033940 -44.249084493070967 -56.180336179841582
-9.715634142307868 -44.581699720293656 -56.295418811840960
-10.650772192401098 -43.121452004355277 -56.195263359186271
83.852731871012566 -43.864950135009877 -55.914167705004139
84.740514150428808 -43.976401812111114 -56.099928393103177
87.798970886480618 -44.241156163665188 -56.246993934803186
88.564804839354167 -43.802850401683862 -56.121204683158602
89.360558314766550 -43.807024151110845 -56.300767532552420
90.374953425438051 -43.086675806818242 -56.256400789246733
92.176826824019770 -43.692027027587983 -56.223815964922949
93.327748033891822 -44.308359770327307 -55.698487536805224
94.399309508868043 -43.884990417594025 -56.594867370766195
-10.215770812219779 -43.982983571113031 -56.349304021857819
84.181744497657334 -44.232209272738068 -56.438968039338775
85.061907561769402 -44.065874342907208 -56.499387807814912
86.720926875056520 -43.868778026042435 -56.690436384664032
88.544710769616316 -43.808823067516833 -56.594611690847501
89.840405317863073 -43.343658527848447 -56.003059161097369
90.781007621669843 -43.186875039378130 -56.774452191916019
92.811931944314807 -43.336714773536094 -55.967238559447374
93.621380860675458 -43.604615823964821 -56.335482525482497
94.183872521021939 -43.235684668951869 -56.238660327824249
95.052408114122230 -44.549004665958073 -56.751372835367768
83.834307714720197 -44.368239620458418 -56.751945421710673
84.693020269582476 -44.036504772794217 -56.662877095466634
86.945998590919743 -43.439877915336503 -56.858828661533678
93.132010752426140 -43.170684356957324 -56.887956470862612
95.620523902882454 -44.324912554402921 -56.831778884289683
95.080845291658960 -43.599782036440018 -56.776163272121622
-95.585723037627659 -44.368776771183875 -57.114026872384237
-9.769634605857318 -44.273768937682405 -57.056846427329020
84.314795227384437 -44.227798179741747 -56.914640750642967
84.761017015556490 -44.305185417971515 -57.629470887558433
86.041896152266929 -44.071391635319692 -57.517590406949530
86.431583794475273 -43.750082276155517 -57.304060220557105
87.625183120918720 -43.882628428613600 -57.864119894712637
88.745711566232387 -43.831402581321989 -57.554085423278906
89.730276940373329 -44.005611791022915 -57.385575877736549
89.938344298176006 -43.778943904630658 -57.254064590389973
91.525419887387528 -43.989114867918730 -57.117291256427336
92.360668831157540 -43.744146526000186 -57.596842469716094
94.566554263835371 -43.382518618291350 -57.317554272429916
95.046447238966721 -43.819160102400005 -57.539763486238094
96.582951537742559 -44.425376042026983 -57.286976471916979
96.487420423674124 -43.483846474237801 -57.051580213285895
-95.684881221952836 -44.214611620293539 -58.204994805675469
-10.007666634238420 -43.808275006027529 -57.636987149778712
84.957082402157411 -44.398601507036666 -57.460834431911572
85.370684918698373 -43.963545278906373 -57.929174423508414
87.996818357316712 -43.588919637964175 -58.065711523932499
89.769170751458674 -43.772153529999812 -58.227346733880637
90.505924558801638 -44.623838415504999 -57.924542823650683
91.183980238888509 -43.634720664487489 -58.110446070469685
91.467520538937734 -44.025620143198765 -58.063547146725213
92.374645930489081 -44.374428427459549 -58.055558383689849
93.284591997520167 -44.313589657048674 -58.128998459264530
92.896742636909707 -44.561408396024149 -57.719571667721738
94.158538596636546 -43.877804377780834 -57.882635092374876
95.536738337703923 -43.560796459509497 -57.859575928731388
96.333307624076667 -43.544583048012093 -57.631839171310112
97.859399996554544 -44.205278551236830 -57.735638611336988
97.148114747455111 -43.933988496678211 -57.825736264642792
98.068656266623151 -44.034622043541702 -58.189457828135062
-95.743926131829667 -43.999871129679647 -58.343452861586755
-9.915287802514429 -44.331062982456878 -58.531620406448020
85.481344547638400 -44.358287240626069 -58.341056240333096
85.558909615490606 -44.338842248539692 -58.197736073858472
86.113169113734017 -44.124043349914409 -58.251604051163255
86.800509168162591 -44.166100526690805 -57.953643419016814
87.898168273287652 -43.999978007706346 -58.150175752996844
88.916024921102078 -44.237530315697875 -57.958266946420842
94.612961543006762 -44.076430750885457 -58.084329568050173
95.275787155625167 -43.422430296605313 -58.286838072511124
96.200626641011453 -43.103673784666960 -57.989802955102085
97.264585030231473 -43.348532211835042 -57.978156784442490
98.074234201153985 -44.014209237617344 -58.053734983542228
-96.022523699554313 -44.590601786705982 -59.080129920210410
-10.535349237689086 -43.982952927826105 -58.156699265948426
87.736574582189135 -44.479927578310907 -58.390545102253576
95.438810496133726 -44.479695310818755 -59.020172211834172
96.371352825620519 -43.878542258800628 -58.848650201157334
97.336962443231855 -43.552516943024706 -58.975329339412028
99.353070696902321 -44.215748170636722 -58.474941581883684
99.120533178567641 -44.006415892811056 -58.644115691780421
-96.179693098268601 -43.889791278733746 -59.292171853005598
-12.462890051666035 -44.515095085305845 -59.629874213903832
-11.657220076512356 -44.273880247919152 -59.392105787387948
-11.457379313982686 -44.007424190792776 -58.999006196518692
96.131630821028907 -44.515492762827229 -59.082808199730806
97.223093222052483 -43.991197491195976 -58.876968729469603
98.168947880708998 -43.357715353171606 -58.955643595965206
99.282382458828906 -44.299188527298782 -59.197927398210069
99.448347823558180 -43.620127066765313 -58.855625265293348
-13.360505260874239 -44.460071471515292 -59.307646599620654
97.050242729422564 -44.170296997809963 -59.556320582675738
97.115219544094188 -44.061480312967660 -59.337580351521773
98.420059577478909 -43.469349654606873 -59.431724507148104
99.213014970506450 -43.446882040677430 -59.171963079939864
99.899696838857167 -44.267850915657014 -59.143615348039177
-17.022624318404876 -44.162085241385164 -60.146770198575148
-15.189298414626524 -44.260096718495106 -59.562815893633086
-14.727667995031116 -44.495093149165314 -59.919257981859786
98.428828181958863 -43.471004225538351 -59.591494216624390
99.191380756677432 -43.165178412678912 -59.777202807760204
99.453877483688004 -43.212808047590613 -59.700204980979763
101.096282958548088 -44.465399558950303 -59.956188722442924
101.010024559087839 -44.030529056766945 -59.551409888873557
-97.035454991023713 -44.490458630220296 -59.604701880283855
-18.944113597230348 -44.266700697551492 -60.195573663312651
98.047635608358135 -44.393322210579321 -60.612690105589245
99.621709959768907 -43.416171051350339 -60.578987079771409
101.144903164379272 -44.440590993276352 -60.115256205312448
101.149773593443570 -43.853434064785162 -60.698222854436573
-97.682301939595575 -44.078236934623497 -60.797641951062701
-97.227342339200533 -43.836991457009162 -60.437592341298966
-21.152040013532655 -44.202545407627241 -61.340305153120205
-20.002019237371073 -44.630622916870962 -60.698832415472005
98.790303573746996 -43.905302835463033 -60.709707240532197
99.946815637340990 -43.734152540447916 -60.629823575642519
101.900063772350848 -44.117078892271813 -60.736139976394298
101.152846473067299 -43.257893004548009 -60.611323755304959
-21.868758737869264 -44.210078195462451 -61.385542613902217
81.008653978148928 -44.353539994112509 -61.270913898626432
90.827937280505267 -44.355115658778374 -61.081789831567022
91.588647628173959 -43.989572358071683 -61.084443342343299
92.525509313974013 -43.776946782434045 -60.994345715771068
93.255755046202651 -43.925768896955105 -60.955055178080315
94.536190568961104 -43.551324157260972 -61.419988486790963
100.141821407720812 -43.750351731483200 -61.077935525521688
101.321476398222615 -44.036406239771445 -60.877623058629226
102.189317514841974 -44.171583995576050 -60.760024769915390
101.894699020913990 -43.421428459749954 -60.517628640514843
-98.191279070301249 -44.451125471671268 -61.376734830596263
-25.076678393132564 -44.310735708702566 -61.920364510859649
-23.710936560791659 -44.082451738211198 -61.263186728658773
79.072170222399166 -44.208535208841511 -61.770960016560394
89.336391385583852 -44.642900992562510 -61.583150596580516
90.485801605965150 -43.818623008725467 -61.103337439404676
91.607913026011559 -43.652999134471195 -61.289934348880891
92.451236980169355 -43.770058436457312 -61.491860804473639
93.353528350159735 -44.386736137952056 -61.648704355986389
93.383557806316759 -43.547701360506935 -61.278961075261549
94.406046909851014 -43.129480728250947 -61.390379229503637
96.156476399105344 -43.455546679875162 -61.280040017721056
99.462309166169803 -44.450739841558452 -61.381144476257361
99.697628178131026 -43.601989880921046 -61.200012700953877
101.125110356318615 -43.700297992825433 -61.386457328276379
102.476661114909973 -44.053895292583846 -61.178192672626430
-98.321578322783566 -43.975086138022753 -61.800003539597661
-32.328623981973671 -44.281790574516407 -62.076103470432344
-31.188020905765036 -44.165958903925819 -61.995403304445240
-30.818817633442837 -43.821724626271525 -61.698544955063433
-29.551246740681734 -44.384906556237091 -61.929729690837156
-29.530857873665497 -44.194454657948029 -61.808586442779372
-28.535348787403695 -44.438590378931075 -62.364192670005430
-28.360460498482258 -43.752009846425622 -61.701791559352927
-27.423386047894759 -44.195817000776792 -61.684914966066501
-26.622056721753570 -44.310984681307168 -61.946334031969755
-25.670990289283250 -43.954604569012723 -62.176205881226643
78.448118378349605 -44.558984403644793 -62.177641022907459
80.191578151736039 -43.775589334408394 -61.348766296594796
81.202815354534025 -44.702877655050187 -61.638185698766499
83.005716318517230 -44.697754817083471 -61.836717675049918
89.050939776417465 -44.594807424134238 -61.648355977969160
89.311971914791442 -43.451698374167073 -62.060416081006515
90.190821757392172 -43.566213993040641 -62.051666647067357
91.700451865308494 -44.492558850064725 -62.003012971640267
93.025985536814645 -44.625302818972564 -61.792303225347204
93.239600579072430 -44.272930471321189 -61.769253740458232
96.695832612937835 -43.727989599774020 -61.757863187918801
101.035124048356820 -43.586745237929129 -61.638990483511762
102.648894009965105 -44.188616630764457 -61.503234893859592
-33.962544388468132 -44.244631893829649 -61.756077863487157
80.094046899998375 -44.090334041730507 -62.234815493312858
80.331979716742381 -44.106588951314947 -62.001879821936704
82.022101485631410 -44.164101834146472 -62.298458128007987
82.501612806695888 -43.939469086703255 -62.063827224399844
83.886558439814607 -44.429636726214923 -62.346554776379243
84.809219542703360 -44.016082338549296 -62.094086564881927
85.775341990746398 -44.362327953875095 -62.189546926715273
86.639277717078485 -44.393865757476114 -62.400690075641371
87.989112203829947 -44.056993364054158 -62.367511106137179
88.388246952504289 -43.651696928330828 -62.141539092578022
89.677565080774372 -43.515977603757214 -61.965221431069331
91.583299860739089 -44.253518741015469 -62.664839486179410
92.675205899110921 -43.643235685977892 -62.422175195907379
93.289441832922321 -44.209050692238186 -61.962277056216777
97.281061162608054 -44.631300672601547 -61.645070179951190
101.316017182946439 -43.490706973254809 -61.981763274494547
103.265388433082549 -43.801042917457316 -61.967912264120301
-97.870730461438512 -44.274168863089116 -63.060124021592159
79.051498037713102 -44.181860747460945 -62.517436129291617
81.869036166880875 -43.889618213770213 -62.575410565345074
83.559697605230610 -43.845760146555591 -62.363315387482025
85.012564030396405 -43.937134008208517 -62.858037714702604
85.869501378783710 -43.734287453645656 -62.298140180651913
86.760497674019931 -43.900633603326973 -62.507692678660263
88.464003877220634 -43.433260254950547 -62.807799359049163
91.327414370916372 -44.263156759698141 -62.957276993380127
91.361623433093698 -44.386570764078016 -62.464852274141066
92.637183463998738 -43.526097072551778 -62.554655356924499
93.485176959539814 -44.034164444446816 -62.557740782600185
94.093195714307228 -43.674274406255584 -62.666723018491020
96.839137928202192 -43.568852105907055 -62.940150564546371
101.113860849524229 -44.368922803357854 -62.612942748788214
103.147400692140195 -44.317047785589999 -62.436178921944752
80.278869646496531 -44.537948762974338 -62.970292423072983
80.921675486917593 -43.879663981748877 -62.686180116038599
84.100993539360033 -43.910164936580017 -63.352198625420293
86.514075288534755 -43.612989895109962 -62.879702493401105
89.918092429281558 -43.928951441978171 -63.323946524244711
90.459944844439775 -43.699315181475370 -63.179899525451077
92.545872197224583 -43.784912165029212 -63.097563479821119
94.087607234528093 -43.971191775231524 -62.677635072443643
95.623183078511630 -43.586592719157224 -63.170334543944648
96.421127373729860 -44.288549001645372 -62.750086429714315
98.151636342826848 -43.783731705948043 -62.832556158534501
99.329199789896435 -44.027337919701957 -63.177329991107158
103.461866820004971 -44.670836673074689 -63.118546544446296
-98.458185702234587 -44.658560856872612 -63.524792021627796
-34.593388584820168 -44.660440982691782 -63.001866967349883
-34.919729467926139 -43.910142051329707 -62.983537411014439
77.785134190727717 -44.152179781998058 -63.671822064381224
79.284642863171285 -44.184662145418983 -63.510435708766948
84.720602842374603 -43.523561837293784 -63.373844165395028
85.969226197099204 -43.653460658427939 -63.855808492513468
89.478011248069507 -44.377976627054487 -63.358065083626563
90.632976515005865 -44.355737325413500 -63.115957739228975
92.776540195785557 -43.614788879837626 -63.311394275183432
93.553674018027834 -43.739929223243017 -63.246027572963548
95.184825141597827 -43.242381293243078 -63.522927654978808
96.065170497825960 -43.445221357188878 -63.259705676243534
98.295632471235692 -43.382047144274928 -63.414041851205482
101.033284686490305 -44.525261649491277 -63.232042696524495
101.998881092641383 -43.749591981392918 -63.079395250002065
103.544333557571647 -44.487448332438532 -63.911749754365282
-98.701952086676570 -43.972736491730714 -63.372713215993834
77.964166681906150 -44.387963343695382 -63.742994273650247
78.793866200573504 -44.554338786649410 -63.343026336726538
79.944524308244397 -43.749336520489784 -64.404769532581966
80.834506226530436 -43.567624046495091 -63.976204371332969
83.110115935418918 -43.636931550947828 -63.949861768900497
84.891347507225220 -43.389507492078529 -63.252809780600117
85.519864648519928 -43.712427888075645 -64.142098149710250
89.145531605261283 -44.566551173283841 -63.673336164056089
89.176022217309779 -43.658186618649808 -63.970982913825694
90.787837193057726 -44.029408772492403 -63.607685827773061
92.206948157455713 -43.915612220271278 -63.730284152100005
94.919303377742438 -43.601699106375854 -63.690908069094114
95.353663265285917 -43.768306768956734 -63.979916980623507
96.713944588511239 -43.908120942008971 -64.007176710130068
97.281913084474141 -44.020625642791437 -63.836279959141045
99.533604425071687 -44.154246256569024 -63.387782368386176
99.051314727344831 -44.176894731599710 -63.757880769859462
101.897025179918558 -43.904380070588026 -63.968811887164037
103.456615382021297 -44.341221812395034 -63.692431199869937
-99.789805615406451 -43.837620375555709 -64.053989037272771
-35.507611225116293 -44.196109239799128 -64.015621363130606
81.667123718965740 -43.958487906846734 -63.914014224766682
82.665377270527188 -43.793761446276406 -64.124418504494244
84.781581821856321 -43.703161432937264 -63.835741632860646
85.866525031311468 -43.774289030612856 -63.821652235235980
88.429041440191412 -44.017093686106762 -64.064578130694272
90.579978527702394 -43.858100604926321 -64.191688099490889
91.374108311704944 -43.864364530391164 -64.396879708847038
93.323182302649613 -43.887446036971212 -64.282281276196755
94.146481844969600 -43.393579969195464 -64.198640300885103
95.278787113382037 -43.477009025112338 -63.846540093911806
96.382100378514295 -43.808894317727805 -64.225277245634942
97.927395217667694 -44.205670008510616 -64.119434366652897
96.940405215105955 -43.257919174802474 -64.565923963406277
103.549270606891909 -44.200707202468834 -64.584844666673476
-36.134405483491278 -44.500337894494159 -64.680344378516665
77.077059277066240 -44.409941185226842 -64.174259591447623
78.974013116825120 -44.128666025446861 -64.828596634765020
80.884338918393254 -43.955297080784419 -64.099113204719259
82.917872524675090 -43.729787504343278 -64.425459593682461
84.859085899929852 -43.309541084375404 -64.462493884583779
89.932533635502665 -43.805904923966303 -64.771406797008979
92.212235064501499 -44.029770097673918 -64.574542440817169
94.848134807031130 -43.535184963531655 -64.856915512459466
95.729028439390291 -44.062597277243306 -64.727883143355015
96.268265039917978 -43.063989274342156 -64.817859804367302
96.936890631712217 -43.437367796590664 -64.531123545227032
97.937460677810961 -43.999466381390441 -64.727817805050506
100.132688197336009 -44.463568291647974 -64.762572496546625
102.154305404213844 -44.434381790931610 -64.851831980783786
103.744640895843531 -44.819392654867862 -64.618214482601005
77.554389199232517 -44.125101579703902 -64.866569148991729
80.205919512264956 -43.885669973781603 -64.847745622997252
81.918792877173118 -43.778764253545020 -65.128681479699779
84.320397155701698 -43.736111436238325 -65.040002819156186
85.869024254921314 -43.613206959391512 -65.068431904936631
88.579773756119934 -44.268162236663294 -65.415703350655676
89.801251039530030 -44.181900573070131 -64.813531956845949
90.346655618557890 -43.529738585518999 -65.077940211918616
91.492395817847509 -43.533795037908881 -64.751417517660443
92.511707108362813 -44.046451657049232 -64.622334586371025
94.402838447196487 -43.544202514414124 -65.146223971771022
96.575985266895231 -43.259348898936942 -65.501586886505109
97.421860133292697 -43.125711445333025 -64.923572287639288
97.885330599335617 -44.185762354712494 -65.133137397691030
103.822391730758497 -44.321568543378284 -64.906829327913883
-36.648460583521256 -44.437632346429183 -65.581954853703493
80.019906244996875 -43.848874167225375 -65.572904110912674
88.173599534177612 -44.116616161586059 -65.733508137525305
89.556746267733573 -44.393756470100620 -65.107621941575431
90.719130570940621 -44.594078999645383 -65.661947246712600
92.053089266315510 -43.429962600783419 -65.594354216854853
94.649262036894712 -43.840029283050356 -65.369907564602698
96.700945233842972 -43.710402343274161 -65.228612541797915
97.436929337911124 -43.445953044657458 -65.077416529508014
99.136627651230185 -44.734485903476674 -65.132210760586844
98.267877009471789 -43.617849072390811 -65.077289095908625
100.378760251992361 -44.088996180996865 -64.928502784081303
102.623391723030650 -44.703053549909633 -65.453899172482423
-98.838304435698731 -44.410491981880753 -65.851668788913088
-36.902391217139147 -43.962890002534735 -65.529210913599329
-36.918329585106072 -43.930121753811029 -65.091059932619856
79.002233583762063 -43.882568845691679 -66.045541402586892
83.124402450883778 -43.344653635239119 -65.620517523555165
84.811284850431619 -43.583991422704869 -66.103304555139701
89.055644968267174 -44.363984056157392 -64.898951116986296
89.850285524171966 -44.094515282340538 -65.466674792271704
92.346593759138131 -43.695315485599679 -65.987937922920182
93.752464149285416 -43.895118148695516 -65.555358410396479
98.551745701549905 -43.642361822920641 -65.737526214499823
100.899712980942937 -43.993066490530850 -65.784198520606083
103.219223969997159 -43.441269291522971 -65.800880159416877
103.783484431118339 -44.024255329582964 -65.501690396682591
78.359098086040092 -44.370544524222318 -65.950879893733671
82.050149555412759 -44.116381821362239 -66.255039024427006
83.802801384254380 -43.778014404551854 -66.012632570984934
84.901572136468104 -43.693314347440747 -66.146464722747723
91.448508461327009 -43.790990376087187 -66.139002051915810
93.178960365159554 -43.606124031625470 -66.289120204543067
95.385142881452879 -43.930950688497553 -66.047820193765844
96.104174878427315 -43.663545108205369 -65.900658648963471
98.244851351254709 -43.198089375268232 -66.337754576855914
99.192038451709678 -44.042544198827827 -66.402446585298904
100.850075022930298 -44.412111238711070 -66.054420949918239
102.402209518207258 -44.200919508197430 -66.311061929466817
102.783208202485312 -43.661549497994855 -66.450316412398081
104.055733912422767 -44.193537394669605 -66.156104167797281
-98.825036067454576 -43.927294917794640 -66.869089934719483
79.201972752088665 -44.195686552857978 -66.354376965998796
80.324920136993725 -43.784911964103998 -66.539396213989946
82.912218604016871 -43.611165408715578 -66.503423798479773
84.178458107256489 -43.480415427940635 -66.562348490981435
84.844159219501122 -43.220310072096638 -66.518843222983051
89.311668581291798 -44.513706857350137 -66.696921883807406
89.988115372303639 -44.337683983003714 -66.401428509576277
91.594022408450016 -44.138865862414733 -66.346817860633308
92.421701018685297 -43.890605419045208 -66.206225323258238
93.940543526792595 -44.346956580702020 -66.589960851636917
96.346558868667302 -43.752449306326781 -66.315223263811831
97.083021321840135 -43.446261489830768 -66.398959893017420
98.325774542333690 -43.244303115626408 -66.811813387826703
99.690396315439543 -44.257384077004247 -66.769754047116763
99.039796376908271 -43.582153029799080 -66.833343222885603
101.538779090638585 -44.312118620559879 -66.746206498937980
103.158725154648934 -43.959568554089586 -66.335895656901101
104.382846770229449 -44.189622335015642 -66.072464091051188
-37.653339186832667 -44.218540677442803 -66.763690138125739
77.969486176859434 -44.174283383911060 -67.307196669020001
81.324289942024933 -43.742945611990208 -67.006533198788645
82.858208537988332 -43.996922822735385 -67.080461885866939
85.099084193024140 -43.257849877596826 -66.706972562042949
94.336000983771356 -43.239105235858091 -67.034255542129117
98.491303571736438 -43.307141118346557 -67.180730606683113
99.202564171028712 -43.501340735196450 -67.323585597550306
102.741386359379504 -44.361315522627642 -67.126261461109763
104.948992742529370 -44.615718892539000 -67.157408565083188
-99.426967834515779 -44.188566997179834 -67.276140713385857
-38.000348155993521 -44.765695396336390 -67.206095073873556
77.771912109123591 -44.414529907656238 -67.728763002198122
79.136364222894017 -44.105421182791112 -67.266536561487158
80.916917573386357 -44.059637125136163 -67.167208347911640
81.865034879447634 -43.457642499546061 -67.280102574537523
82.306987504158258 -44.066194457479646 -67.289486953722360
84.143614807224481 -44.058492706720308 -67.424131313049585
85.632288964746323 -43.276015817062863 -67.491890947662867
89.636935392057040 -44.225432666140250 -67.669470969269128
91.762251565240263 -43.683145787573153 -67.085019047890881
93.022501281928641 -43.921262230058304 -67.308729096970225
94.827658321413153 -43.479530361573659 -67.198518217880718
96.533903950162639 -43.714733173866023 -67.324413551212615
96.813136963974827 -43.558989603966495 -67.670364775917776
97.962935437941823 -43.449619726898881 -67.264389772395532
99.633843331292596 -44.079924435081942 -67.624128912882796
99.183687361191431 -43.491586391474428 -67.457344744949907
101.696339162156036 -44.508121267121986 -67.430668745609410
101.223228247822249 -43.435737813983955 -67.683705072682216
103.049161889806101 -44.137463147210731 -67.348245819117381
104.164980571252528 -44.324284820519594 -67.394331559759408
-99.776352350719520 -44.430657803534750 -67.678940253302514
-38.187232638357308 -44.337461926948926 -67.964699994292218
89.173072255189822 -44.178122015392894 -67.767448371135231
90.711579107592684 -44.055897322912621 -67.528969041997726
91.202538038572740 -43.835723191431278 -67.476768156924436
93.162739356826137 -43.945950668873770 -68.017471002842910
95.389548293678928 -43.742712175151269 -67.997663303306922
97.403667740770800 -43.319896680524124 -67.344706738263937
98.172061215925851 -43.887580897052715 -67.679195659720435
99.224212310741976 -43.300598361522084 -67.551089378332364
102.068859756375559 -44.650558518329277 -67.863125884506218
104.613431030714395 -44.340034015686477 -67.593693546669726
-99.882288778440852 -44.540314809215111 -68.320195011168067
77.473125044270233 -43.955494862745859 -68.007860965806572
79.273510465472881 -44.378180130906735 -68.345434188587646
81.544213556807094 -43.568658790717244 -68.051348408177290
82.797592849143996 -43.984986396261981 -68.282275430773808
83.694022296964036 -43.452553703110205 -68.244700718590309
85.698641204490229 -43.825670348617038 -68.083462291055383
89.304862905841389 -44.722970892686874 -67.911602831599566
90.716601894245571 -43.945379258617471 -68.257421236129559
91.645229398757749 -43.774755407093551 -67.870730051297002
93.188585485745392 -43.929641499880901 -68.217625973033336
98.080577005265539 -43.073375722326851 -68.407983290457921
99.180233857075876 -43.744523951126027 -67.954743882301344
100.131725195744309 -43.915267716256089 -68.218151342377951
100.109979093685411 -44.164619752751676 -68.061388494778654
101.714053539994183 -44.344934138700353 -67.735407064487134
103.093391375413745 -43.853985552515184 -68.167889351811596
103.787295741915528 -43.239978758429579 -68.360318496261570
105.205389046081905 -44.434615815130662 -68.064439742091935
77.687193321426534 -44.458377741449603 -68.848431398936512
79.294352616121145 -44.395281051762879 -68.470706479121901
80.964526430978324 -44.081128560183224 -68.320787190475784
83.360221853242876 -43.714335936462440 -68.662582966672346
85.884140383896991 -43.129378964291995 -68.391177307917005
94.034740519878284 -43.976163794286911 -68.564974358933071
96.267889079776836 -43.991374449888632 -68.929590358933893
97.024997114550729 -43.609894600532307 -68.717234193896573
98.292863722636923 -43.706338832643873 -68.999914222293143
98.718856212218242 -43.522774236680760 -68.611215976708522
100.535883208049128 -44.733117409467745 -68.627988372833229
99.982077646544013 -43.902585506660273 -68.408598099211346
101.875506035230259 -44.122323428766336 -68.398332646836224
104.029265272884160 -43.721360268830090 -68.789258200599875
-38.571125727457698 -44.072087607014232 -69.095525870719015
77.156261839569979 -44.515895359404979 -68.727609704291055
79.825180274757486 -43.994415398148931 -68.913460914796659
81.917799178150062 -43.447641811057622 -68.723458618933535
85.665162137440689 -43.772699284571296 -68.437791626864183
89.564877667775988 -44.261823487731455 -69.202486854893365
90.332583164723800 -43.705162164589893 -69.026975266107755
92.462704060951566 -44.615869506587110 -69.026293407286033
93.319960827553416 -43.925930013679789 -69.026774623438101
98.495386961837937 -43.710256838875580 -68.944087049799791
99.016967133409949 -43.609088111642833 -69.083033381879588
100.551492255292075 -44.254552101957344 -69.400536750971455
100.269999597622331 -44.276471227582491 -68.963286034170167
102.252733618511016 -43.980876824616793 -68.846109552958509
103.664718389978688 -44.565778923068493 -69.401269367308643
105.276781302238362 -44.348999607616548 -69.195124398227065
-38.389784507429347 -44.601486426976109 -69.458014785098243
-39.013914470320309 -43.808504673006610 -69.111240700944279
77.352410763361007 -44.554061192427454 -69.401845475907450
78.074820098955229 -44.459325558354244 -69.499964115202445
83.117950284060285 -43.706120444223423 -68.964681817317228
84.185937031553195 -43.647260511228907 -69.253815759185443
89.466314160296037 -44.285075683604610 -69.140889509160459
91.477103373550804 -43.992640731917369 -69.565219537928854
92.203280148401589 -43.942962781127633 -69.282166302616986
93.744303616348319 -43.463623932572325 -69.148373885554605
100.553885688132254 -44.690085243891225 -69.012601182211526
105.163397864503949 -44.311570253628865 -69.111015453889266
78.521913587490658 -44.319406988757052 -69.761062950522856
79.386985279379402 -43.805316483148488 -69.691698863068666
80.468634288761564 -43.704485755155403 -69.271233848716577
82.394332170420824 -43.681736852349452 -69.714356981708576
83.863152966574702 -43.738949549341967 -69.978619813909930
84.624878945192108 -43.567564127267545 -69.846228416748886
86.389553832559301 -43.788073893152237 -69.863359292305276
90.636552184121413 -44.212637262930073 -69.719781270095083
91.526052391661437 -43.881770727228051 -69.681566262975238
92.574300859814159 -44.246811478932081 -69.704450185207492
95.763957998830890 -43.875299659299927 -69.744309157798966
96.230212591846339 -43.686133822411229 -69.724429560743530
97.376813441823515 -43.591195450534279 -69.582605794335947
99.351261154523058 -43.102166010386348 -69.438803878040602
100.820549366186285 -44.167860614601771 -69.532598687197321
99.960859824823075 -43.316410693309443 -69.796772505066869
102.486470619112382 -44.513574617917193 -69.806423765467628
104.006910834524945 -44.635431636101259 -69.182066978884833
105.212993757103263 -43.938253053708507 -69.664779169835981
-99.517337925796085 -44.541957984249272 -70.171830732332339
78.247768215061697 -44.405935457577094 -70.437728716631398
79.163398436572578 -43.788105757116384 -70.352162709185095
80.124372475875987 -44.116576271394848 -70.320587696782567
81.632116371515707 -43.902769295065475 -69.683090245012949
85.845408146799087 -43.531222565747846 -70.033528957452759
92.047468321099345 -44.326049963633643 -69.773926661174983
97.360201518278387 -43.209923170440774 -69.964102081932140
99.233595713893934 -44.057743415326847 -70.325521003792488
100.042949699221666 -43.355561591179267 -70.123456996456781
100.944261333682576 -44.120003274180156 -69.903383045087139
102.647806871009891 -44.490067347532246 -70.007252819671038
103.912775648554003 -44.352311748632843 -70.138672593582399
105.147045930747936 -44.303256257329380 -70.168474821029207
-99.830149273493717 -44.210724406741178 -70.636052952856303
-39.147374164156417 -44.210244747655373 -70.687823829475150
81.201985296076117 -43.868384494417860 -70.492745066556353
82.717134832546364 -43.719657822153458 -70.187945859268055
83.883256757169434 -43.789496873582372 -70.586767006825355
84.440976964023847 -44.080070841247618 -70.404273558129518
90.650108655437322 -44.434525148081377 -70.816681986031639
91.299741731736091 -44.130343184862134 -70.759819731286100
94.311496025065395 -43.866972119262591 -70.619132503781728
94.952687035896687 -43.595028170603470 -70.732862469206324
97.399211727546941 -43.691168291094392 -70.800420793605966
99.170942144675550 -43.385277785859671 -70.413336957239622
100.191884489534360 -43.348823764396833 -70.301491407790337
101.501960469538275 -44.331908265891798 -70.745526749381312
101.767353156936025 -43.851970535315630 -70.625829898943834
105.267965382358682 -44.255890084711702 -70.785265309124640
78.119210695701554 -44.328787430603860 -70.826123392761232
81.202881705622801 -43.999619198023922 -70.835718962069961
82.891796991468468 -43.738447201743114 -70.945706789723332
83.605083460004849 -43.674842021977263 -70.869635179681751
86.631324505867653 -43.393692587437791 -71.635528540436226
91.546348360257767 -44.439599238236049 -71.248001558890252
92.390617430087701 -44.042208729333844 -70.864021910151919
93.295159396513185 -44.088416625864276 -70.760389710773310
94.949226315749016 -43.934498487769815 -70.853483576589468
97.290757099142226 -43.749475726286299 -71.083161681016648
98.221237086642176 -43.953105404569442 -70.943736512444900
100.383285707378647 -43.745824658534410 -70.790392855440118
100.750367095502668 -43.575170163543213 -71.085821802492845
102.574944736567033 -44.156353680170739 -71.153257983247855
103.831595012744799 -44.813767713496517 -71.145813518295270
105.421219753307767 -44.167102996189286 -70.781485735540400
-99.929834015139079 -44.302086728691464 -71.752187647920167
82.219979447178588 -43.808331689424868 -71.532521599188456
85.776016977165938 -43.518182542014159 -71.138583216258311
91.047169279205448 -44.370742312690567 -71.579509628185249
93.253148572562907 -43.651348907096754 -71.585023623821343
95.160843146341463 -43.729484784934279 -71.534106305003661
96.423181256770960 -43.652157867813010 -71.548541198525868
101.322980552971231 -44.422865322588727 -71.265932466108154
101.247674732054421 -43.793127598077980 -70.896391737718417
102.964475444628235 -44.500924252674324 -71.315028604640020
105.431941833714887 -44.342523285479778 -71.074938451033645
-39.548534438255849 -44.640271430408305 -71.524639990866177
78.758746932108465 -44.254801016927871 -71.258849803519581
81.655229629699051 -43.624254535130547 -71.823480589032556
83.700766934629925 -43.589113021575621 -72.078812932992165
90.841865899100355 -44.229553164584608 -71.869804266621784
92.662460829650698 -44.487599001070926 -71.690633829884959
93.370462365959156 -43.531552106780431 -71.847712047414930
99.013301562409140 -43.621582785886076 -71.730346305911411
99.866740777777935 -43.328427570774792 -71.770051146916202
100.917784727172418 -43.512612921728561 -71.688062860440439
104.186594049638700 -44.305472259078428 -71.802633100150388
105.601171469786237 -44.542451139644960 -71.896676213407417
-100.317158233079752 -44.437927432226900 -72.614043897064391
-40.126504809798440 -44.017042480388419 -71.955288452811772
-39.813329432807102 -43.335579626086954 -72.066770955580125
79.865925623256885 -44.242730565126635 -72.144723457329604
82.187330433832699 -43.854467048929266 -72.237632098048223
84.000431919534961 -44.023780950038287 -72.011189262762286
84.798079971937469 -43.566372992475642 -72.206124510480393
86.085040872212119 -43.593410645228460 -72.336220729290176
87.027334473842203 -43.321096663030467 -72.215884784368669
91.895237622121172 -44.334658330056364 -71.611191610292423
93.241851556976414 -44.158765114853637 -72.380076948945856
94.056505564339290 -43.815758858898405 -72.303394065155388
96.160592879127805 -43.663722188223176 -72.358243872867916
97.236826321066303 -43.749645519004041 -72.020198944623544
97.956768086280960 -43.678848966020084 -72.429634443644090
100.109019216946010 -43.209292643831411 -72.794542995698308
101.421063514818030 -44.196814130592166 -71.959120571501998
102.786932824579225 -43.804730812004280 -72.115514911773673
104.529669760353997 -44.530802090566020 -72.008817139013956
104.748219099150177 -43.666809476864927 -72.238295342459068
105.454087019741678 -44.130396295409945 -72.258598377902487
-39.763374097160998 -44.266434919074058 -72.613457899259032
80.006979814920882 -44.122433828531257 -72.260781056806849
92.317795164835275 -43.934844349419564 -72.573726662047108
93.558750282251665 -44.016138485292508 -72.463267775353088
98.299586122550792 -43.665289890012417 -72.678814197970766
98.744205496818680 -44.051148085273589 -72.709331820881502
99.709698392445915 -43.693148004927885 -72.935996322465584
101.335826948366119 -43.272649715123435 -72.590022069050789
104.145033464584046 -44.292809776482969 -72.758162978910420
102.933518748806890 -43.820935364473883 -72.463997629068629
104.468716674594489 -44.193468545809957 -72.904100570965454
106.154518369352928 -44.203049160714926 -72.898006363945157
-40.032471045189460 -43.794762059955659 -72.899989138368028
78.510282627356972 -44.425594524871599 -73.066176808744473
83.665635444861678 -43.562142588332350 -72.976872553920941
84.746460323207032 -43.352393403539935 -72.696274633617222
85.840473931152673 -43.690925005359119 -72.882045508843234
87.237812028188188 -43.391376442046059 -72.596132267318595
94.403514311626850 -43.501812474569547 -72.828936005906613
94.835973443146756 -44.032978339024773 -72.715861999594225
96.252926756008378 -43.481396247052103 -73.354997880483680
96.989459775585217 -44.720085840215219 -72.921300134859351
99.616866403584211 -43.815741125264893 -72.871207818558432
102.825307753012012 -42.964810611435901 -72.950172669605990
104.663334194746085 -44.394363396787782 -72.982778439693078
106.491126771018259 -44.196641931238510 -72.875399183729940
79.916698231175801 -44.240539594364293 -73.077608266437608
81.917068357756762 -43.898662416625811 -73.264392985401912
83.086060687761076 -43.705960662734171 -73.109625567771147
86.647696113103237 -43.822530085573007 -73.423442102558397
93.457035103444525 -43.906197073096010 -73.449600720391786
95.384638108306831 -43.524438525986596 -73.543192161469207
98.821459641544038 -43.664856245283893 -73.344246514452564
101.909010315875975 -44.318147241058504 -73.449039862665558
101.010760645185030 -43.795161915891057 -73.738226254756285
103.290129639130541 -44.318184226211073 -73.847281291727697
104.313428173486756 -44.285224807714762 -73.523946214457027
105.910828435200784 -43.656400330255593 -73.384328586836389
-100.238646377647925 -44.346433651481831 -73.664260644078411
80.207814671537278 -44.222399418235661 -73.889146874005363
82.125348934004393 -44.170550358087993 -74.131049755722543
85.221955076011938 -43.802910266571999 -73.941232037092917
92.152290024879349 -44.131557622215141 -73.731112475096296
94.237678261289503 -43.796363363260170 -74.293369848104319
95.288021380959847 -44.011699059961757 -73.873241142374511
99.857969312630345 -43.504453425582298 -73.705574748214190
101.036813096540612 -43.302017426247964 -73.382727680939311
102.329664678729515 -44.422045316553138 -73.637555005248217
102.324765487036018 -44.019144841702605 -74.341576449652891
104.786091408429655 -44.291489211249505 -73.557218337051566
106.376342006275223 -44.637937545873328 -73.567368277234706
-99.832191067481219 -44.375157435857410 -74.051646820812678
-99.340428020440882 -43.438250149438197 -74.463601610262714
-40.627161222942306 -44.674690989072680 -73.906239329483242
78.978719319350219 -44.341035148606835 -74.273043573064683
81.072343487339268 -44.243971909020509 -73.805456939071760
83.786432595625158 -43.576971258320796 -74.162659285327251
84.765505469660511 -43.731100206755919 -74.089398041193462
85.571973476997954 -43.854925831658150 -73.547858576006931
86.801008520366921 -43.842899319957098 -74.369955810995251
93.519646046853353 -44.145285630357790 -74.221407194061655
94.401093255747213 -43.699067123115000 -74.035144222813884
95.364911788413963 -43.853200398439839 -73.783967888916209
98.211455676596927 -43.509999066798187 -74.224987465681565
99.011878648708972 -43.532209049753007 -74.296136053351972
100.784156068681227 -43.280809556930244 -74.063041767853662
102.309591833160894 -43.799003221048991 -74.188926871685439
101.610171747876379 -43.994531319445478 -73.996069233044580
-40.636932421381978 -44.360819706519635 -74.620349103930096
84.081077918970593 -44.042912757553054 -74.712043076596501
84.610295087226746 -43.772360058201400 -74.570448690694789
85.548971974618084 -43.482054931033801 -74.155969942009392
87.988425893659198 -43.048026870483042 -74.475217479717330
96.304870997478005 -43.981514537347770 -74.879981370692050
99.836107372845234 -43.386298373984523 -74.737059656314926
101.239239982088449 -43.162651980430276 -74.686504201599405
104.354108645262812 -44.587622841359128 -74.689799355985002
104.874477857665511 -44.133526878942220 -74.084462721459786
105.581662648697986 -44.608486761675763 -74.575943855020114
-100.106338140892902 -44.124619993157623 -74.841882165301371
-40.940086867354346 -44.299229890319552 -74.699376922813357
80.068913657625586 -44.063778943383589 -75.086913404786443
82.347429277898243 -44.097791189262004 -75.228897480760907
94.320446245066847 -43.928542314852351 -75.021662180602434
95.194677258058817 -43.468295291016794 -75.128833738575224
96.913045229361700 -44.381226957811414 -74.951957812382815
102.706051836695949 -44.409450385348357 -74.658848383576270
102.035879397765456 -43.352414859689226 -74.895192580229519
105.122938918671210 -44.440653343287984 -74.829435451162638
106.340276625815093 -44.458715271590329 -75.476480160961401
-100.089738117456633 -44.464313147807864 -75.445345992529994
-40.736462958605877 -44.051058755067473 -75.017512317507610
-41.077887911898664 -43.824466598803433 -75.179814503724870
82.867920702338040 -44.038913583971578 -75.254920693052966
85.950747442852986 -44.268569185421711 -75.450294282316648
87.695113924087053 -43.887988177634178 -74.970425627956317
88.586135234245191 -43.914096326073420 -75.176881565072520
95.269383756046068 -43.752418943727335 -75.318731693179714
97.417809120567341 -43.996921458612796 -75.223085241747611
101.076487849267679 -43.208341175089515 -74.856605184406931
103.648922243396683 -44.036331679007723 -75.694485303729849
-40.907554112015433 -43.782585164401041 -75.734668356995954
-42.248884791687544 -43.428850800758688 -76.236960539196446
79.904747562866760 -44.156044334907769 -76.186775828739187
81.074915745362972 -44.393398639690950 -75.560900804783586
81.829047426445229 -44.175367977169408 -75.637109025047806
85.253549191770489 -43.762360099613751 -75.960886026257668
88.802050583311825 -43.689249016313816 -75.852266255270990
94.061584593731894 -44.056222451683233 -75.770948689412862
95.200430189916119 -43.889856824504292 -75.508067546175539
96.124594143283289 -43.914695453259966 -75.452100203971668
98.133086023690979 -43.982742576618918 -75.513560016458243
99.192855972873886 -43.618237826522403 -75.815363660548101
100.273747026022860 -42.924537447688351 -75.602340024993964
103.760127256668895 -44.582455022157660 -75.612855044717548
105.381808318663772 -44.240814112788094 -75.923167425444007
106.841615920973254 -44.391008130974782 -75.493846610036272
-41.356450374051647 -44.456746716898088 -76.474117265450388
-41.952962592201764 -43.825894785104239 -76.154264616341663
80.703522203221752 -44.154342661262099 -75.897130339980180
83.688604995611755 -44.098595032607292 -76.131693009418910
84.646171671083209 -44.161974466645745 -76.154187362570866
87.496666589004363 -43.225561940026928 -76.260462858179764
93.264418433150169 -44.506427036051207 -76.107989482585268
94.311836130877907 -44.511339849611687 -75.942815584379460
97.304606764265600 -43.790588857312272 -76.288389687218725
98.244528798136557 -43.910068691193139 -75.670720593485242
101.207193744460042 -43.343792451051499 -76.782424580985179
102.717560583950089 -44.472509187993452 -75.847648161343955
102.437198437710379 -43.925786141737724 -76.472356723414663
104.872433769722107 -44.502336417089374 -76.002843698920003
-100.285123194615835 -44.448009596024150 -76.643678922714756
-42.554779866536805 -43.377571172848633 -76.308068277801880
-41.840479249083167 -44.282281815244147 -76.086016476677571
80.613223005986058 -44.306437344464449 -76.530005809486752
95.134238854434031 -43.965339007209280 -76.886435600118844
96.876147478374207 -43.884448861437015 -76.667915291911640
102.697225439477009 -44.213501776319433 -76.820717658370953
104.299887274461071 -44.417716244961056 -76.493901959267262
103.709066704523295 -43.857552736064456 -76.296822330854098
-100.623363652876009 -44.238347378861327 -76.644151328361929
-43.049764456119512 -43.838296619988476 -77.279260497800848
82.934780952163294 -43.775440564949157 -77.104114392331823
83.333119754851381 -43.716723882685464 -77.046679376412385
85.967592959970744 -43.932689904565315 -76.839187632810962
87.481414601272832 -43.810478581761636 -76.638323514357253
88.625880879748848 -43.518406194994071 -77.085533962945775
93.414170841006950 -44.125034769257795 -77.024618162824581
96.038025785155057 -43.914336809254856 -76.976817135630711
97.332938425726340 -43.688220227191692 -77.021576589351781
101.075416581006010 -43.354431552638438 -76.936368193085514
102.895484762415080 -44.184882814842688 -76.782037168179315
