# This PCD file was generated using the MATLAB® pcwrite function
# from Computer Vision Toolbox®.
# .PCD v.7 - Point Cloud Data file format
VERSION .7
FIELDS x y z
SIZE 8 8 8
TYPE F F F
COUNT 1 1 1
WIDTH 802
HEIGHT 1
VIEWPOINT 0 0 0 1 0 0 0
POINTS 802
DATA ascii
98.063564527432149 -43.596410095470752 -66.547614005310038
99.623379021564858 -44.442104049183044 -65.780414175410186
100.928458078918425 -44.989956660750153 -66.274324803095709
102.999600206225367 -44.244699996899008 -65.551179989373097
103.001809300741300 -43.485734283298513 -66.268613730098920
104.281077882167054 -44.289023513222276 -66.491198114301980
-99.006550791403782 -44.666289397656257 -66.201553539727527
79.593472258764677 -43.877678942505490 -66.045071083488750
80.657424658529337 -44.037541321453524 -66.453948581747241
83.347838936951192 -43.811545625985524 -66.464055901762464
83.284555936427111 -44.099223327403365 -66.964716009585501
84.677916657595304 -43.949300601143669 -66.993076840739050
89.318720320324431 -44.353700920536994 -66.493392111480247
88.684767758026325 -43.915145626296123 -66.271549113543742
90.770574064563775 -43.567661058390094 -66.175375042595391
92.877148170765096 -44.138624394865069 -66.201812828792825
94.397785392596234 -44.214242363689117 -65.977719976112141
95.977239919686511 -42.879442894698457 -66.444994829212575
96.616642219748201 -43.619315111621958 -66.241103310976598
99.039416418166724 -43.476400319512848 -65.886736627109059
100.021679619723827 -44.397719325371511 -66.466520717150686
98.104275674939245 -43.349412161125805 -66.168369614577159
101.029345690668649 -43.465913687738251 -66.611124654544980
102.736667280625980 -43.800236732374607 -66.315495725487452
103.680938686181733 -43.958999801934425 -66.703753361612513
-37.454350708549022 -44.401959369718668 -67.055112297829865
77.817368061344752 -43.886650059650457 -67.075102373022361
80.595831309433336 -44.903655392515041 -66.691673120367000
83.347531034249783 -43.291296990033551 -67.144621718554447
84.975004213745990 -43.110786880547316 -67.625202963182403
93.922401465104599 -43.858506967487280 -66.624467586284254
98.097993496225982 -44.363579605700053 -67.121600477051828
99.976319402447402 -42.811660161548957 -67.658525704317213
103.400642799470489 -44.819588331807068 -66.528398256526984
104.392245019837418 -44.962716818342010 -67.879640681104846
-99.544640775611171 -44.399870588646060 -67.121683729324744
-37.408584373443198 -44.549685899749583 -66.975786676038538
77.527087174794389 -44.921020792542826 -67.510173143391725
79.401813123603034 -44.057747830564935 -66.854427001869453
80.255163492910569 -43.672408917256796 -67.487731751072772
82.304816485909043 -43.667917634579247 -67.737050411149241
82.714858470039516 -43.070139820234537 -67.139627539250654
83.619956039184288 -43.635892058854836 -67.785588442381254
86.001512603398098 -43.951486378562556 -66.578138314198995
90.156369724637258 -44.051877168912121 -67.464400087483767
91.282605615891129 -43.893875955827191 -67.062127659417186
93.780949370811868 -43.778781771967061 -67.171671198354474
94.579874013621620 -43.745574174128123 -67.961522824876937
96.378186091287191 -44.286030621615502 -68.373423739178861
96.870011253631034 -43.033506933662046 -66.981453668477855
97.718002295943336 -43.735231651351803 -67.133031177254210
99.328811284268568 -44.475611419003037 -67.238078164103243
98.631617288920665 -43.973465379797261 -68.067001419292424
101.223990922085136 -44.607968724414185 -67.253360011707954
101.132162332422482 -43.436173495625241 -67.853409402186287
103.046976739339229 -43.679605968316579 -67.270299270421219
105.039932162038170 -44.835320895006333 -66.502691211185464
-100.399538957118992 -44.549778494101894 -66.971303676035916
-37.954794900660850 -44.093172855272975 -68.293028181170300
89.620720874422645 -44.895219010290937 -67.743725271343308
90.490462181962414 -44.281355660078454 -67.837552115562474
91.438108653190739 -44.016553554943087 -68.218930059386977
94.253646435725059 -43.663993872120706 -66.634292896410557
94.954833284934736 -43.135031481028513 -67.650573416022283
97.621566030811309 -42.938130128382056 -67.475573525212695
98.494463852754862 -42.934326635373694 -67.255923987103259
98.831113237611888 -44.495244256124906 -67.913341018955435
101.347495312335255 -44.613384183011860 -68.214725701743674
104.808572086080275 -44.531734809023639 -67.750787608221955
-100.454202993788229 -45.209219031830997 -67.692124226697175
76.317769809086158 -44.412728787453013 -67.561943932916193
78.798012403840772 -43.803652322795109 -68.096965909687057
82.397591393966337 -43.657212026355943 -69.048609198248315
83.042131653734856 -43.534609824532744 -67.775966150015449
82.942155352213121 -43.034185348456425 -68.228453611575105
86.295371356736709 -43.685236470686611 -68.555008081549786
89.171016063475193 -44.456945125363831 -67.718698960184923
90.841322642999287 -44.753031254752294 -67.915420773120744
91.366285785888607 -44.013040260112085 -67.723667048622275
93.555784616810897 -43.775514101056089 -68.580821999846734
98.141824568368264 -43.627026977890651 -68.343955935049152
99.543759076223267 -43.816083895080865 -67.860979463565130
99.711052266131887 -43.679162947931587 -68.055850651047521
99.200539190689625 -44.238582495475107 -67.483721929301211
102.438156963691057 -44.825853204343673 -67.946100208835190
103.753209995044784 -45.120866585496593 -67.769627062147691
104.556463250881052 -43.074876874642797 -69.014591844961600
104.773040741169339 -44.749473998162628 -67.781744803027266
77.393769041665578 -43.878651836997058 -68.560990795692746
79.465537847664066 -44.304652971900381 -68.812730397419912
81.220760656407734 -43.624016531843196 -68.915973234544040
83.832745648887879 -43.232063531482282 -68.911034455320987
85.205682270764910 -44.509774660912093 -69.079568640925601
94.011820042099245 -43.494204474742226 -68.949034208031719
95.888166890144490 -42.674629268151428 -68.208197965601570
97.371122637910560 -43.969851435100594 -67.953835312033618
98.091853929901475 -43.810126898466379 -68.555987898382767
99.705740245358768 -44.134867950357261 -68.852179910282786
100.274983768815090 -44.539598524869142 -69.413732794083032
100.238304435447915 -44.210967535746484 -68.922470480047096
101.588890511452149 -44.408886060932346 -68.122502930627121
103.840442761406365 -44.280146550656838 -67.986592190423337
-37.950091015541702 -43.867350971014744 -69.622177850182126
77.323644057150290 -44.518414698867815 -68.500745310295187
80.309528724741142 -44.377800195987881 -68.703750154539250
81.559830418383001 -44.526179864812931 -69.198043624105566
85.909335714643618 -43.680215672505788 -68.242177723588085
88.928934780017784 -44.712287351357809 -68.846993195339991
92.231180698039509 -43.714602644388165 -69.502557464612352
92.635922705360116 -43.811658527152602 -69.745419194317464
93.354795246938224 -43.261311227266582 -69.388805054497652
98.480693433803467 -43.705625143030410 -69.143349978680561
99.468597178604497 -43.506529633491390 -68.677611606923676
100.498425610266551 -44.637483706019836 -69.433812410097843
98.559129198552625 -43.507507773303246 -68.897510932431203
102.661732197854718 -44.252391507983489 -69.151018287652207
103.965011524218951 -42.726842538848594 -68.817998741475250
104.786070671762261 -44.079684608107016 -68.887634212973296
-37.828081287942481 -45.225847569698097 -69.778755434541765
-39.276868176581289 -43.417333341260196 -68.792451845851446
77.131208225430385 -44.624905134936000 -69.440992808741953
77.601350566684076 -44.420820573881251 -69.637704629682233
83.705534253256843 -44.125214522620617 -69.075188998742675
83.956765045492830 -44.066139916074491 -68.972381089597732
89.086243814984201 -44.518335050951748 -70.479955375088636
91.124828539046405 -44.194441268341357 -69.302757701234455
92.029681513365020 -44.155812558445618 -69.308459427886163
93.297733682133966 -43.854110703997009 -69.627246020138799
100.644184264529400 -44.593464792066314 -69.376703584884154
105.261301479166036 -44.711203288480831 -69.430355190579974
77.033695133249140 -43.632121482880301 -70.163510783018737
79.064175542043287 -44.072199688010194 -69.871175365166607
81.727901910796049 -43.746773951208844 -70.012266465680568
81.660143404917747 -43.313400448690388 -69.682027988532596
83.898021680415866 -43.754660947667311 -69.865435072071847
84.713296827572734 -43.203496058692188 -69.903893118503092
86.623347671133189 -43.492390591436532 -70.027547232700314
90.934460132608962 -44.438042115293378 -69.623743483319146
91.691647923352221 -44.898391335188713 -69.907852964442327
93.361030154923483 -43.069758150399537 -70.157120037750616
94.955958993640067 -43.328037378360762 -69.298069509849057
95.650391624179463 -44.201141913800306 -69.792180392162166
96.846044728970170 -44.335975718301533 -70.669546043216215
99.997914910500981 -43.901706615000485 -70.203676200998714
101.476532679005331 -43.896783507599196 -68.967935378788795
99.568818703627102 -43.647776676238401 -69.755376445893788
101.620645006810520 -44.048587977795435 -69.890375645322891
104.795439297942480 -45.004153092570178 -70.275604631302258
105.302604137540797 -43.941585612508121 -69.514508719882642
-99.375924746847332 -44.490716806790680 -70.528219790562545
77.782649829958601 -44.154300834114458 -69.559357757028522
79.572643911674589 -43.233312479997856 -70.882935466319594
79.897843624620108 -44.070225271320801 -70.130782229027787
81.051128529102343 -43.136995425981276 -70.803676493347197
85.910965015849143 -43.653090255820544 -70.130517364329052
92.323554617857354 -44.324801131510810 -70.529086166837772
97.194673268061280 -42.969210525832466 -69.934753855446729
99.291118432044357 -44.029710680787218 -70.169939837445284
100.067434129590779 -43.251853556263498 -69.594053039203558
100.545895086226551 -43.117103428921190 -70.448273519685245
102.298674726910136 -44.708039575600800 -70.844224008870214
104.389800812667048 -43.636207052400785 -69.881694264961368
106.335050275128424 -44.266825546065171 -69.433444563815613
-100.457481023043840 -44.533070414397699 -70.221059872786569
-39.551992963854865 -44.159838982224763 -70.485935956080354
81.314846248727321 -43.402545860128647 -70.875521418999270
83.049808573242672 -43.669520597213364 -70.203585902437155
84.039867567940192 -44.097157840889068 -70.513181838361589
85.222201289761998 -42.956868866300866 -69.888473239230208
90.242516340528695 -44.636273250731882 -70.719097933174666
91.381995271424046 -44.655581362833438 -70.213682146817959
95.084589562817115 -43.497299292357134 -70.860512155115771
94.864847722639041 -43.615601787822712 -70.773392486169726
96.831429109925708 -44.152925769161868 -70.026242868417413
99.306663932799879 -43.391390278667309 -69.610056618653687
100.446234577757423 -43.612833154794203 -70.965208284114993
102.179430536042489 -44.725446817167757 -70.963220917798097
100.871263129863948 -44.383162041561185 -69.996522687948953
105.558509587399016 -43.963182189786835 -71.172012098536598
77.338978948827716 -43.821291172511003 -69.495010163025441
80.978945889884443 -44.291792753296995 -71.366675382353904
82.713889551371878 -43.504012556922341 -70.739320480153538
83.717435305491207 -43.362453242614464 -71.501991277630353
86.874323626056736 -43.344324983247283 -71.373531256631139
92.244177405717608 -44.153472878347415 -71.501231278329840
92.530702215430793 -44.240839877051840 -70.764072812862764
93.756599808251778 -44.252938878492898 -71.185115504474865
94.879070142512418 -43.730365202981915 -70.790045033042929
97.234833699289396 -44.206848059546253 -71.409841771600483
97.753072726326437 -43.585614419435508 -70.803186887111465
99.967055533168860 -42.954503455745261 -70.767848934796135
101.027496416955429 -43.395632591635803 -70.868445224745301
103.061567513706919 -44.343940173016833 -70.286241790013449
104.676457621564538 -43.845731926985131 -71.561514547765256
105.256152671707667 -43.732550478779267 -71.058517843156920
-99.572142896336956 -43.909222722449336 -71.383824714554777
82.180128323596861 -43.491444327307804 -71.374286990081217
85.484021813428512 -44.094715831759508 -71.724751454040700
90.534892649856971 -44.216543739372895 -70.655510183314448
92.945488660487186 -44.658840756380982 -71.043063394242481
94.906803806708936 -44.344066837487766 -71.542449545544429
96.416689442167666 -43.910991445127060 -71.736107019032005
101.512883953211627 -44.434500498129538 -71.147442212404783
101.327167152515543 -43.211041574604131 -70.884141733837936
102.073030173943437 -44.271593091526626 -71.084634060606817
105.774728132321044 -44.854824848992379 -71.084346831682609
-38.755326534570550 -44.337067111039005 -71.575518815885104
78.282402427128034 -44.431189501355391 -71.532950768234258
82.555871282145077 -44.768773574538947 -71.884669735900630
84.014209395197099 -43.916980402490353 -71.454650325065558
91.237787784623507 -43.887777749541229 -72.849743973346548
92.184147103538152 -43.959640460295354 -72.103482692355797
93.693897485343285 -43.757721017112686 -72.279289860388516
98.814041920167355 -43.258786138074846 -71.870251488784362
100.336365178321273 -43.813064625656779 -71.869919213758095
101.070675356635292 -43.834323545399826 -71.817937454405026
105.356784137527157 -45.333211535577860 -70.695780210983244
106.284894755814292 -44.183387743777686 -71.579673861283808
-100.004550367250033 -44.635687910735449 -71.913197689014297
-39.747138841002041 -44.597609643379670 -71.912470085827835
-39.866830369736448 -44.060296304527370 -72.220090540761518
79.818191385871998 -43.987788531819120 -71.662523195807765
82.884642829452588 -44.283395268587633 -71.990889972524911
84.737875038667724 -44.070060512686403 -72.097483358122204
85.257264036462118 -43.257408373424404 -72.236505311309529
85.416043076763529 -44.263917098918817 -72.878435196967033
86.758106918035011 -43.397242881056336 -71.941398768981472
92.000017527401496 -44.315888639004186 -72.275175591280430
93.563680534993068 -44.121814303259605 -72.078527339850424
94.080538739210198 -43.581722150718264 -72.123872980153152
95.980768921221127 -44.123675028687799 -72.105772376249419
97.777186678658495 -43.792982059411415 -71.959360836557082
98.656218515452736 -43.018045685282438 -72.297131935901263
100.644744079811304 -42.845193372585797 -71.997762282393296
101.666359846478770 -43.772496498026428 -72.704438814130015
103.630348792301646 -44.038937410091769 -72.499005415736491
104.692323889042910 -45.003264009895609 -71.786634185750998
104.824859819478846 -43.208650392185383 -72.327907046034440
106.789546741739954 -44.484943967141149 -72.530982010315029
-40.098570664887681 -43.816305092633101 -72.681002377469852
79.539697214527280 -43.692613959921516 -72.643445789699996
92.436415572426299 -44.391740468102711 -72.713938361206104
93.139103270094424 -44.592253470393452 -72.885886855635633
98.260171055101097 -42.924502504679367 -72.867938495014002
99.307246439905754 -43.788322917588197 -71.863823220964832
99.579491616361096 -43.804981277496566 -72.710490761631419
101.230631803565828 -43.656725619169485 -72.271303206593004
103.425302437198638 -44.615374077539371 -71.817791154764308
103.571576835095101 -43.882738866557119 -73.523683653552368
104.797489885305339 -45.075533873227712 -73.200274362739307
105.763352720412229 -44.058643836480869 -72.843381747390595
-39.439462256011488 -44.010488685126759 -73.400805454082899
78.986460333610808 -44.166540228691517 -72.236395476955224
84.162677464838197 -44.008549826416413 -73.011303809735765
85.198854608912740 -43.691293046136501 -73.209758135764730
85.767921569608063 -43.169473184657456 -73.127563546528336
86.444904081099494 -43.624085168502198 -74.006377663642695
94.875262431632777 -44.105872157483986 -72.957928658803922
95.355587102898482 -43.710331900309306 -73.424009172890962
96.442431288741915 -43.503397421107572 -73.006033331345918
96.768074923590646 -43.907425460464758 -73.130120036470018
100.389118374871018 -43.062802004577520 -73.162764885124147
102.779796646164840 -43.183588301280203 -73.084711336719707
105.324222208408713 -44.357463259207435 -73.506772183742399
106.494720237690686 -43.982581369933868 -73.717373250933591
80.529714276602789 -44.352081831430922 -73.413952518357291
81.882853405822544 -44.481606789674430 -73.170377881105850
83.039851487958671 -43.547368036942821 -73.295391258527289
87.179105289411993 -43.513212719067916 -73.062707427835775
93.906005628341120 -44.702083000043750 -74.095606316802019
95.433363208388442 -43.641233487560946 -72.548437411432175
98.596207116580132 -43.736426542982421 -73.606206818168616
101.907435206525292 -44.722430241794051 -73.239794598847624
101.248299326084719 -43.227462144196174 -73.302622736190202
102.846767977197430 -43.827268229663325 -73.969833608712676
104.221922177297131 -43.743170836530339 -73.581177137043639
106.209268116441322 -43.799546202665852 -73.369298100191301
-99.904145288886795 -43.720369148823217 -73.570104756545604
79.870764528286898 -44.143768816991248 -72.917278312770094
82.260615649628548 -44.221032039683955 -73.998717302794347
85.760964768891142 -43.943543032404278 -73.846490871734517
92.689363430357702 -43.878111336982826 -74.144639585268649
94.730392064489408 -44.708579475299615 -73.587427296213448
94.874554588405275 -44.133849575420186 -74.520209528025887
100.018313757763423 -43.712791808636446 -72.697914595490573
100.448147547299072 -43.924754493407981 -74.325201396515496
101.789299972983557 -44.500434301493677 -73.234105004995428
102.954032955597981 -44.446273826406404 -73.915702704719465
105.224559146727657 -44.665255281915805 -73.939299636904281
106.813805670819789 -44.280039413289806 -73.765024328809062
-101.029821474483086 -44.235921900000442 -73.642969650691910
-100.472568058392383 -43.969904409631845 -73.990895048386378
-38.979363373149930 -45.651139984724779 -74.078949530021433
79.289994243919494 -44.102787927074864 -74.747389562547752
81.825977093844600 -43.720497521238684 -73.820013153777424
84.232300089105337 -44.046387159616096 -74.261335223890285
84.494963163169047 -44.562334455457346 -74.738248646511693
85.161869258368057 -43.873012916340095 -74.337741919223376
86.951076934806352 -43.258396190059877 -73.947611926641002
93.672070733997828 -44.464869351075144 -73.867458000344584
95.250330190498374 -44.487151326968601 -73.661739571955863
95.544545582259374 -44.130529608859796 -74.729965612253793
98.144450883000786 -43.863091170935334 -74.086953145793430
98.315083378873652 -43.676036255444806 -73.630421466449505
101.141254971228804 -43.891882839987190 -73.679726118746331
102.501789878670294 -44.131391318035618 -73.968771778862163
102.402714329756662 -44.257519159573057 -74.626845614518231
-40.350337591254586 -44.971875901594295 -74.188734958558044
83.441612973403082 -44.073716582267281 -74.787407095309618
85.359352121459821 -42.996971536913229 -75.251722924066243
85.610353954464429 -43.688698386773730 -74.960983017075549
87.066201202862459 -42.508814853373444 -74.034603393125252
96.445541215373680 -44.289395472974633 -74.600213964897591
99.942583241056937 -43.854559435024257 -74.534292874427450
101.747139908701087 -42.673239247381026 -75.150113749610966
103.406775423975148 -44.882620360202814 -74.484370677020593
104.785353335504951 -44.232923740495927 -74.190029707520537
106.514459905905156 -43.804038158316459 -74.767320624618762
-99.567494115681271 -44.338854846217487 -74.868086271031189
-40.215111349002690 -43.766499043723563 -74.899823355290835
80.110349587395348 -44.672894631287171 -74.375019102761257
83.430091542924927 -44.451286418764091 -74.301942408409403
93.311171760409593 -44.097929785594133 -75.888925990253867
95.621877238444156 -43.326912277471536 -75.056366484534081
97.042762868309353 -43.574604494136729 -74.483203614953922
101.981317900525127 -44.397418803517738 -75.191012008342597
102.463241367548676 -42.418177263515886 -75.495015808150129
105.205880223384170 -44.292324957744476 -74.973426501612380
106.014398111274204 -44.209733640390013 -74.649068955604989
-99.593394725261561 -43.779661443573154 -73.990857533880998
-40.655200331733603 -44.130551157098971 -75.298490060261216
-40.774221921833046 -44.249012160993779 -75.402263652056448
83.185428120360413 -44.530533564329858 -74.976186191610410
86.251437951513637 -43.614548431926004 -75.144329049717427
86.911364987453553 -43.694840206290984 -76.350415557248510
88.518980422429721 -43.621034618647172 -75.682789965281501
95.063642527932743 -44.200993541374395 -75.900776991000455
96.903234078287596 -44.607398535376980 -75.214745636493774
101.228361363939243 -43.618128536711502 -74.553745156408667
103.974091893128232 -44.877699841500792 -75.170068234341855
-41.374619528668255 -43.935231629097899 -75.231407091193461
-41.836932500256196 -43.510988625194628 -75.860268592236153
79.980748954171929 -44.310570849446457 -75.193364595632900
82.136057285937497 -43.391546999175191 -75.825891438564199
81.907637809895434 -44.597883444394569 -75.637087695537389
85.579355268221548 -43.927551340711744 -75.426196755810935
88.229197364847252 -43.715583349944062 -75.966534093477719
94.652090135264288 -43.429180897059247 -75.335794365018543
95.040012068765847 -43.483510825850644 -75.731835635984964
96.531807580530469 -43.832932101246357 -75.368273222512997
98.744085060948066 -44.059039367717823 -76.254268657644744
99.056175628006443 -44.036104224462015 -74.572162339924731
98.227790743492903 -44.225810377079640 -76.116303591164410
104.686697924300219 -43.891341491205523 -76.076599737341610
105.141289118276816 -45.231824256593370 -76.198653383103590
107.010565941091713 -44.152770260203326 -76.531458249098065
-40.567437930984674 -44.202318105060840 -76.492392826272223
-41.873830921532338 -44.308278148776850 -76.173677882551800
80.688265771700941 -44.049353852638177 -75.854892467837246
82.778381832254723 -43.728180699642564 -76.829656019521309
85.344591028736701 -43.085542806708268 -76.400842372912791
87.534698919833616 -43.345293746351928 -76.022885333311635
93.501162223508487 -45.092706015452144 -75.826608517575124
94.217073966150949 -44.803711006867616 -76.443700279376515
96.983884316289462 -44.265043207804830 -76.268359848930700
98.414223217263043 -43.532605647724836 -75.642660124996922
99.754523555484127 -43.946393274535332 -76.126492267047951
102.523906470084114 -43.367345947763276 -76.069838157698712
101.313571851160319 -44.114947353913252 -76.285215729849071
104.340581249942673 -44.070960114685313 -76.258546666736365
-100.514187423862396 -44.126307569010784 -76.415290201045408
-43.208752050481884 -43.303893467412784 -75.515648414553340
-42.341138285089883 -44.134400069218870 -77.260754965815991
81.071743085402190 -44.792270390584221 -76.140764306963518
96.409451430609806 -44.204886320155993 -76.358294371269352
96.049975047415273 -43.895578592197367 -76.354506595101242
102.587074331236991 -43.417023713730664 -76.754202951910685
104.678490449887079 -44.407150727640634 -75.636024272459537
103.919899463219963 -43.921647430896748 -76.169074208048315
-101.016210388548615 -43.538686071861726 -77.247558629324345
-42.882779024015150 -43.756752228977525 -76.928045501407652
82.610110991713157 -44.094859819484320 -78.002253217141970
82.936349803501201 -43.550690604870994 -76.819303821156794
85.950419388973273 -43.915966435670128 -77.442242062819375
88.017793758514657 -43.066845915117518 -77.148081354913856
88.504021767198793 -43.631245269812879 -76.236999985045131
93.340998436612821 -44.196089254849603 -77.333071867433020
96.576513970189936 -43.674197607320664 -77.134344823958969
97.473790219529917 -44.012912137996501 -77.258810173255370
101.142750109037408 -42.649129998932523 -76.959730524376269
103.012627370460848 -43.531097311938382 -76.828034984883899
-44.489457915182506 -43.104250850847620 -77.253149831137478
-43.036246778495773 -44.143912072228240 -77.069169129347245
-43.103265795147180 -43.642709823426571 -77.338601284424456
84.022162493088331 -44.166334880240285 -77.022016928408064
86.032852131662722 -43.723059650846018 -76.906827299597623
87.986246386751262 -43.079538026483135 -76.976640164866367
88.536731993601919 -43.434358656015384 -76.356449591296936
94.314246897910579 -44.609597245107260 -78.034174132210538
94.476497780332195 -43.726801480683569 -77.017455992087335
99.705864400470077 -44.397000858999682 -76.963707412453573
101.661715934891632 -43.093827965831778 -77.575476964246562
104.770816673771932 -45.364442639658655 -77.188009750464232
106.011297548163284 -43.966122289534503 -78.167222619886289
106.042271545123853 -45.020266678113664 -77.364300640796444
-100.330212829185655 -44.442197793778114 -77.076247249914701
-44.064494833632736 -43.844767666413198 -76.759210777572676
-43.136656487567521 -44.465153965299244 -76.999107127636975
81.968212355529218 -45.137020027964510 -77.770568185969722
81.975652803034791 -44.560359871096594 -76.945742054434263
84.239035887449774 -44.085958725106245 -78.241614985197359
88.470866808128520 -43.019610224494450 -77.876124589677929
94.711297994494089 -44.280275626968667 -78.599733583259280
95.239462432018499 -43.429227083926150 -77.687285182510649
97.810983463266041 -43.847734838192999 -77.534436083761975
100.402174017612239 -43.329260963850921 -77.638553066236000
105.025881046013481 -44.026144372511361 -78.066664071761025
106.202129937674826 -43.085215044522869 -77.443653277600902
-100.151306654028105 -44.795112946155648 -77.933937203395743
-55.617099316317493 -43.754144917945503 -78.527694898493209
-54.251660324814537 -43.479267331878091 -77.933043213659332
-53.834582407947899 -44.586041171833955 -77.540601821842060
-44.154258757282868 -43.534191094083617 -78.326599907100302
80.635350149068813 -44.444244300839699 -78.266956907409920
82.792407372424279 -43.557148414316096 -77.761126045149283
85.545337321802435 -44.174170965844503 -78.354922680320229
86.867791996881238 -43.194009985496109 -77.211708413995325
87.892597770824636 -44.287787540951527 -79.260078023737236
97.286929865582380 -43.620289288734249 -78.534959643114561
99.089591842212300 -42.958267288836950 -78.448003783925088
101.781415914386912 -43.298497746528014 -77.993142022494496
102.586666899983399 -44.838895434294692 -78.849389224986226
101.242337301686931 -43.991303411132044 -78.514932530123559
103.586303809259164 -44.657299268445627 -77.445172973760094
105.780038064938680 -43.967712242297075 -78.891027720188760
105.926657691731791 -43.854933616260013 -78.161872463489772
-54.840178667289187 -43.770285357377595 -78.581232859783114
-53.760717060097832 -44.548361477186205 -79.333174751239326
-46.170443127114879 -43.992541617514931 -79.647397286145065
82.149130080244291 -44.813237340737963 -78.346772080464433
83.594857084747119 -44.542822193159338 -78.962200440390376
84.963445951640239 -43.531873480358243 -79.152834750150987
86.617907452585044 -43.374685473787615 -78.030376158942602
87.474025121588539 -44.372009227317605 -77.415055722862562
94.808638094740303 -44.010342461565521 -79.261242928880804
99.374037997067560 -44.072336773077545 -78.657959400206039
100.937935200656014 -43.939322096866029 -78.307091590807786
101.808442044829832 -44.222221345199806 -78.463444622973952
102.280054170956731 -43.598221703248122 -78.653180407310671
103.932968005018296 -43.347723050631245 -79.340764235372490
103.337898450078612 -43.904458077771281 -78.002979594833803
-46.159825148192546 -43.714997450712346 -79.093499296586401
-46.350797790454642 -44.728337047883613 -78.472688011727243
83.496980929346790 -43.948621202356406 -79.160188662127553
90.241243230307603 -43.641128917981668 -79.008909216777042
97.043104962213661 -44.440310147622746 -79.082297314347173
102.845031886272821 -45.246499792758520 -79.235305680432035
104.017429907921198 -44.062162138950917 -79.202645293283879
103.738340976540826 -44.383506755273075 -79.278432738250729
105.961394502410784 -44.347493142821499 -78.694315224361503
105.702810918952167 -44.420690648967486 -79.311539004942688
106.928126424503546 -44.139681043134118 -79.188740972173662
-56.273833098038722 -43.306228750421660 -79.236635035575006
-54.633643516434738 -43.988192217690944 -79.641798567366592
-54.071634734263867 -44.293215852328530 -78.456781835142394
-53.376462339526775 -43.249943811233436 -79.054344408669223
-51.950662205108884 -43.500517272453003 -79.180212430119454
-50.979208012420102 -43.478670936729507 -79.380261955665972
-49.775632342398623 -43.498482799483050 -80.656134067952195
-49.274521132867498 -43.477220491684015 -80.004657465351798
-47.313745999358183 -42.895941874952712 -79.272368744722101
-46.895796120634792 -43.972319042392805 -78.416140399084924
82.930964371947198 -44.098634573458838 -79.745960118454292
84.846230489477506 -43.785707524668453 -79.208917005299142
86.844339596089071 -44.351769628004128 -79.485561224043181
88.041752132960013 -44.085391756619543 -79.222251904051149
95.830985915074180 -44.506920077973852 -79.034438927682260
96.559442440965142 -43.255311054049230 -78.989165411205306
98.564983489715331 -44.130046264102972 -79.534989733868514
99.657242935118347 -44.081818188431150 -78.326594608036643
102.806346937041241 -45.111022829987803 -79.401677080914027
-55.163529203146950 -44.316873024195282 -80.174924397788999
-47.516392884006549 -44.304192038918238 -80.626461010247112
-47.548700722206256 -44.840174255125149 -80.693079677953506
83.613325655096020 -44.795791965968924 -79.845158955296171
84.858384781024924 -43.499399115079619 -79.938740492234373
87.080465140637045 -44.124418323108905 -80.026706591619160
87.141700796404891 -43.721970765585390 -80.061783179820623
88.457799640633112 -44.095727583534725 -79.933392699482539
89.836452915755075 -43.506756418460419 -79.991832643958901
90.219003855816695 -43.360707929268152 -79.274094491818843
94.667918126619838 -44.822344082772140 -80.153822616817507
97.102208738951646 -44.246429684359519 -80.116320082091178
98.896965010697244 -43.580278469207173 -79.807800297312269
100.558970989284092 -43.569065600741133 -78.781265325638955
101.316873197072454 -43.039606966108138 -79.138147940571841
102.988077402812593 -43.699179733694720 -78.608645670118065
103.992191523562028 -43.659840904408796 -79.639418291662281
103.713308949547311 -44.843117346969819 -80.308038389688932
105.969081512777549 -44.270440428024912 -79.427692128245553
107.569842589307342 -44.948878369510268 -80.176431034019032
-50.909865723061507 -44.540137327023153 -80.477178461712953
-50.792413746103627 -44.032785358728468 -80.660915139667239
-49.034438407728693 -44.172526848669875 -80.047450721505967
-47.942328914147524 -43.794303546430690 -80.515049185382622
-49.018795497929112 -44.325358309512872 -79.610125470219373
84.499384785483485 -43.692590011650118 -80.419019966296304
95.686040791649930 -43.914408517836478 -80.397530350850900
95.622726355499111 -43.418784313599481 -79.178412189150578
96.407923847845950 -43.696116105699616 -80.098536365406119
102.417708403299471 -44.640938116615722 -79.947100331935303
103.650424313741269 -44.298605270161211 -79.934613775790993
104.797427794248080 -44.432504428502355 -80.398722596728760
103.994565921098356 -43.610108001249763 -79.250742361457867
105.287985792535480 -44.990718786418640 -80.268796885457732
105.801183690988822 -44.180632489636096 -79.596111807835840
107.268494663633049 -43.845433401311240 -79.468467580455524
-55.977716448376874 -44.231551629209399 -80.888349305357409
-56.435882180262915 -43.584741319866765 -80.625788911054670
82.158923164643781 -44.433982900015096 -80.593720553075926
82.082529947548281 -43.857756942121917 -80.584539797136728
84.774871851569657 -44.284831565653477 -79.738647759575329
88.222350293616728 -44.041942216653361 -80.382567911917135
89.445018892741217 -43.247129537229803 -80.866366822461003
89.346453791222231 -43.825150099841828 -80.058575607333211
90.968275629609991 -43.699850357781216 -80.891777735763981
95.852579627598260 -44.638116472447507 -80.597886641855112
98.285872227457247 -44.097066579528011 -80.073671383307286
101.497458123488485 -43.797140209126809 -80.853415188787693
103.184866029384025 -44.414591700228058 -80.081806461259134
105.399105639921444 -43.405444093400590 -80.274691450880127
106.070073883985586 -44.417560776243846 -80.532024573824074
104.902889423798470 -43.789930053845225 -80.659137902021456
83.239928238135207 -43.992634855803246 -82.146689425356797
84.404327339360535 -44.537785535271418 -81.129294318426190
89.419978805573635 -44.271440040685093 -79.612678902941354
89.441094075736430 -43.682264378018239 -80.707245440775438
90.236173449413798 -43.867784011550391 -80.793945010739620
93.678842746697441 -43.503200611883756 -80.463407905483976
95.326239210197699 -44.350705100287740 -80.953695888642997
99.376144749330081 -43.840801488736695 -80.919970658689678
100.736061307280281 -43.626526394259919 -80.623161596387519
101.614129519642461 -43.164359460257472 -81.446525795340236
103.186507777853151 -44.734179611083995 -80.300482177505927
103.095814710079054 -44.414610219431921 -81.069132719972444
105.060423289299550 -44.235870840253426 -80.160938433981926
103.722241659229368 -43.794265156804819 -80.410145630918052
106.371034540111694 -44.033204938891366 -80.986678988457797
107.077755674703369 -44.912654442015786 -81.408160786415451
-100.682471803353948 -44.647617649245120 -80.807903958575523
-57.307863167919244 -43.861242628188961 -81.541305283484206
85.305930120903511 -44.339670468933392 -81.711565898525791
88.081644838921719 -43.884880924112984 -81.178973207612700
97.649314764913740 -43.478450348175215 -81.299246292246949
102.557231489992390 -43.593979355481643 -81.173926824742281
103.207837852766431 -44.072051125959405 -81.351685402989034
102.199364421012248 -44.918967155579388 -80.708637534601536
104.886665012614827 -43.576153006867408 -80.818457183101870
105.498413869042736 -44.598093734358287 -81.551569215364040
-56.093169630074279 -44.314935112886005 -81.958917182229868
-57.444410439387092 -43.779529877689143 -81.609818152636166
83.801010032548234 -44.472712550722484 -80.702851004618964
85.924094729713588 -44.466688435537321 -81.646593466157142
89.245615426784099 -43.932070807704456 -81.889317006700452
90.607156045441229 -43.365983561523954 -82.103515351792566
95.310785421877753 -44.021406242709887 -81.034197821645492
98.158637605601470 -43.557263248956922 -82.867066610055375
98.342432618464628 -43.121307441067785 -82.183289062948830
101.387066366443776 -42.581071062316099 -81.706329952444193
102.477818823087787 -44.538202108545043 -81.688654977165768
103.206480504220508 -44.127592891022175 -82.257493541345895
103.952833120458834 -43.985356738047471 -81.560564602491496
104.594328672612349 -43.369393913326540 -81.582282810365285
105.945008940379296 -44.009221841075998 -81.783668112087852
105.559128571901468 -44.327886667726517 -81.383696015691001
83.633709060225641 -44.255137080392409 -81.622349173128882
87.914022492336883 -43.606154018671575 -82.105293649421185
91.352701214615735 -43.973849010820899 -82.345578436960139
96.326171530380691 -44.444988437547408 -82.113671340271921
97.365021823063671 -42.844319924789140 -82.160952815163185
97.992421448094746 -44.167777855164488 -81.793950347105493
101.207287117566580 -43.289588050158912 -82.031451817150483
102.323441775737479 -44.258433383213507 -81.177119240209507
103.568089269330272 -44.065526543693807 -82.326542891814412
102.819862142490521 -44.226401164423152 -82.105810159343818
106.165001240986612 -44.143479301941632 -82.052907090453488
107.157749455834747 -44.448433340440850 -82.303277021580925
-100.058752305525090 -44.133029275850468 -82.458431814453235
86.535537786414068 -43.432733611099678 -82.646112465212113
89.807263391887858 -44.197178171791933 -83.094179829382398
95.165104981762923 -44.340841700589635 -83.054184450109432
97.142253332910585 -44.056516113981154 -82.444145401012150
103.581279304071671 -44.299604571160032 -82.964403138089665
103.993938330584427 -44.610962093343559 -82.701709817073791
104.603077707754437 -44.133940695676593 -82.265273689701829
106.387586873160743 -43.970472785525970 -82.188811620796685
106.969388463557351 -44.460858137834862 -81.679619446847639
84.898521741510635 -43.689608730787832 -82.833237114941511
87.314332066341194 -43.984426456010240 -82.804378997306870
90.723192708923946 -43.808293118000698 -82.527358750947457
95.370096327481974 -44.682584077898035 -82.731537032097066
96.277256413838032 -43.810033645568708 -83.122806889245808
99.318805904591159 -44.402168995015735 -83.079564347894078
100.747562182571130 -43.441667269203769 -83.580263602649168
102.442401835350068 -43.939879411129880 -83.235992327935008
102.631556792900454 -43.440753393928759 -82.923800660686368
103.815325058273359 -43.341861518105759 -84.299564818746703
103.467721315633696 -42.745556606179704 -82.396174738798237
-101.720916688326184 -44.382944029047181 -82.864793496333405
-58.345221429620366 -44.552467776376822 -84.260807111550847
83.365081767769283 -43.999804203611369 -83.330709425342491
87.380789435596043 -44.091943657859723 -83.142344594158061
95.480296958017036 -43.892173499988026 -82.997428066836264
96.747835387327868 -43.461527647111737 -83.699013909660621
99.066359941491569 -44.113357417161275 -83.701129980955542
99.216633631635290 -43.189791835183954 -83.621750143128040
102.408739540515910 -43.059238593034294 -83.898780668779068
103.778883290283815 -44.970249176388101 -82.780149526662512
103.739316591147599 -44.150282499962863 -83.293607816097364
104.765302705961261 -44.570953357484861 -83.482784726355163
104.187552504001872 -43.805347162137288 -83.180156026323871
104.357472685682637 -44.092731966773677 -83.019405030632029
107.602798409849029 -44.114225436512584 -82.900066992817656
84.720238299879099 -43.424307665670561 -83.414069731391990
85.816221736656274 -44.201364578813909 -83.789096814694531
89.761389425464372 -43.885667107632074 -83.290394122380505
89.966956675897720 -44.264446404844172 -83.014242335939116
96.137497256565936 -44.064740865229467 -83.423347544302970
96.558857386232390 -43.988139009667762 -83.618482163967954
99.026108353676364 -43.515727628000498 -83.555680019113694
100.027413672024196 -44.849018968282785 -84.032317479804419
101.718119309399626 -44.128482742845158 -84.215574604132826
104.081137520264946 -44.574609562347590 -83.728577906970045
103.315232323841173 -43.791779274083005 -83.575426420469853
105.226940787165844 -44.267812999789619 -83.666982721386944
104.067168784796110 -43.062214150436709 -83.228542826066104
106.428365838403906 -45.570927304264210 -83.870365726632954
107.646176734556391 -44.200995347225870 -83.520409444740920
-100.903047627015340 -44.364898209989157 -84.130355001625887
84.789408664539778 -43.594002567292911 -83.728366156891525
86.034560383266125 -43.189589343994591 -84.101763517990506
88.932841982348251 -44.285983141593924 -84.527927498916767
89.765668759644484 -43.162450225965188 -84.441456798683831
92.561297072322347 -42.978049182626890 -84.708065559985300
96.729236355302561 -44.307773852209330 -84.266114743436802
97.512893420567607 -44.586729325390493 -84.198672984657179
101.794048245843570 -43.540629081608600 -83.448388835456285
104.067674880032982 -44.680684144836789 -84.678583872878420
103.129846076097124 -44.048335110154518 -84.625721184784098
104.952391494260240 -44.053466447459840 -84.164377928126285
104.186283627997895 -43.261337811553240 -83.550881051152842
105.732922359771123 -43.870192597388183 -84.114964708761192
107.091875160508280 -44.580298526938599 -84.275966659357209
-57.790012483958407 -45.588091379514282 -85.459811962535866
86.711314000743798 -43.801085656638435 -84.795817986718632
87.646648701200917 -43.739648583389425 -84.307306761222748
91.128118778906497 -43.564681696621378 -84.399680043501036
96.023526152142963 -44.259750591029196 -84.101373911334747
98.441313029910461 -44.340197814420378 -84.448447455440800
99.523429774835478 -44.015387035849734 -84.426958185365052
101.033700078282521 -44.150827280754783 -85.409005365478961
102.150881902157977 -42.970773011697666 -84.583302181375672
103.034405416304011 -45.058936453423989 -83.633798269180673
103.267677529071037 -43.430764864982251 -83.942361192873847
103.412612421713490 -43.225881328839925 -84.054573070515872
105.716803934293750 -44.118682172749573 -84.816191274914729
105.494453437119645 -44.188380412829744 -84.252344816843774
107.028734839364830 -43.490105226434160 -84.522918196172938
-100.165370955597481 -43.929653792026564 -84.478468000392922
-58.069412036715249 -44.414018484486654 -84.764104391484878
85.508508023896823 -44.002193212967200 -84.202187048625603
87.018800831093188 -44.430578686541800 -84.664953966376672
88.353449003396094 -43.394670482880386 -86.091602933240651
88.953522289715792 -43.729377111979069 -85.839787351759824
89.598327212301584 -44.824690939071935 -84.505191035864840
90.059949106687966 -43.651220910179205 -84.383680931005060
96.933118238951394 -44.066090829775355 -85.536173248204108
97.561057933522150 -44.958938990363684 -85.892341816240631
98.513678538492186 -43.497596317501603 -85.274972913504470
100.123899691786718 -44.200977647118485 -85.851433775854559
103.438426319485529 -44.367394062667337 -84.550645573862496
104.063955820720594 -45.664019868196497 -84.591956936794503
-100.696028398894384 -44.403086817001693 -85.541100248491816
-58.145227238008609 -43.690828821767411 -84.576599127203266
-58.699077318070259 -43.830081023091864 -86.259797474395313
87.154322773010122 -43.697190818523808 -84.997569920690879
90.614903940647565 -43.650105323981244 -84.572866720691621
96.201561851067353 -43.178831064076569 -84.922656641739792
95.488085809036349 -44.282974353203031 -85.656337558397738
97.197834472885745 -43.749619294225461 -85.069146448163124
98.270775425612399 -44.301140823751034 -84.222573159733173
100.265886576846569 -43.905447681622640 -85.568646637782606
101.688122878899478 -44.296843694117996 -85.087497157636435
103.863496264631166 -43.387263257277411 -85.567942426556471
105.810270890658870 -44.131311337668180 -85.703976696925992
-100.834295669815575 -44.133040329494541 -85.632158227483274
85.944045930811143 -44.058294431681077 -85.589145339764741
86.801639877199889 -44.190418185767314 -85.438573520719132
88.521503948312258 -43.783626316414100 -85.195390852957217
90.276243537709760 -43.777546030845045 -85.433679433672935
92.062058956092187 -44.020209552599262 -86.224535646433381
101.329635354998018 -44.227995440633627 -86.407559236830195
103.980293231121593 -44.115525523859453 -85.893610997983515
104.169590230546206 -43.349994601658381 -85.611640897080122
107.217687568179414 -45.053230594379180 -85.722869899694544
-57.805078357917118 -44.033700274867343 -86.200729902487424
91.347264172427231 -43.336263205782885 -85.823301139980657
92.236683524298655 -43.140265712534692 -86.367826084318182
97.401841034875972 -44.096261567976569 -86.425348071807591
97.901362026518527 -44.179076535417181 -86.577873982035840
98.945880295331591 -44.453337370933887 -85.640401616095744
99.343762889111630 -44.406502552392297 -86.117776080561399
102.045637471418885 -45.171572566734064 -86.172268915078718
105.385645950708820 -44.410736712640890 -85.219343464022884
106.730779840961532 -44.170206759195928 -86.171780944120499
106.882580502596099 -44.474377249309562 -85.311579386805207
-101.112751501630044 -44.526590527085773 -86.333194490806818
-57.530294182407111 -43.380611708771298 -85.736929845288302
85.175259650808641 -44.015997117280882 -87.025003078992953
86.764182077249288 -44.442500719179058 -87.195340485991551
88.446475732248302 -43.002097155558282 -86.962983124187488
90.525847558868946 -43.344716250616642 -86.509277149207534
97.932209601471229 -44.411290209363578 -86.198657442676591
99.376040107247832 -43.576310686320085 -86.653608315650018
101.817492498627587 -43.721106679902100 -87.422093428709289
104.254672698354653 -44.785549319593542 -86.663453955952690
103.838276331189789 -43.683236042546255 -87.280096333707647
107.382402089018768 -43.994052964182202 -86.328635186295571
85.089971763705378 -43.604843261108734 -86.596549564124032
87.688133821285774 -44.060375842551451 -86.864377265033184
87.980782213096248 -44.795969071291360 -87.217070277100390
89.729147987616457 -44.004414722425594 -87.620098619936741
91.293779891966182 -43.327954826435025 -87.048518457366228
92.645052865382340 -43.168393545542031 -86.529410602922283
96.512007056624071 -43.030672596636308 -86.482417108806061
98.477272782686839 -44.271948780788961 -87.384363407686180
99.769498296718879 -43.613175651173592 -86.837266484214013
102.805925997038912 -44.986549713779141 -86.852799757281787
103.731413251135535 -43.704061662623801 -86.140056752035676
104.997703346345602 -44.398602520754572 -87.425135695760218
106.302990108303092 -44.096943539398545 -87.363934581855347
-101.265005159181499 -44.836848945797577 -87.470200956046099
-58.747489086387027 -43.757692205003607 -87.507632124088786
85.285816707337602 -43.990133885282461 -87.659181661468836
87.674007613726033 -43.720841628607324 -86.307729463563774
88.506699763399851 -44.055385204461508 -87.520014704273407
91.695359575363241 -43.905459880944754 -87.943530304465540
92.350346730084752 -43.193212613943921 -86.960488632545278
96.613320060408498 -44.375365482320973 -87.331075321955140
96.854199320159907 -44.094554112082569 -87.803402804696674
98.728024261193340 -43.677037697006270 -87.382173007799295
101.429561013412993 -43.462082393586769 -87.275667623864280
102.638945797654998 -44.732554363246820 -87.297857751457187
-100.362715317829441 -44.677259286305791 -88.789280200001215
84.845890673308915 -44.691248202255963 -87.400775825606004
88.642546324769739 -44.345143897305491 -88.637407534612748
89.930871799062245 -43.761089379180873 -88.191469838368491
91.670192896457735 -43.494952173051047 -88.502136489230566
93.042703199991053 -43.311230751778119 -87.142474476095700
97.588293673046564 -43.889820144871770 -88.285112486424538
102.158973692452705 -43.109846575088227 -87.936897412518746
103.755333410033813 -44.545063888735946 -87.440446428503606
104.325996101731377 -43.234392110662050 -87.329722782062888
105.448906138181627 -43.850024999474549 -87.440782150473893
105.618959476458912 -43.319570208304583 -87.282913495837576
106.886880373077901 -43.670093565808671 -87.795595594831397
-100.494615534441337 -44.663147728593700 -88.790277616089426
-59.891022869651003 -44.718681766341305 -88.488962772387907
87.601533910372964 -44.227648861236382 -88.246190530658112
91.363772241059564 -43.982597619265377 -88.047436336989207
91.975290352872761 -43.887840337715808 -88.777994490827169
98.532363606558761 -44.389583941715728 -88.869396724807615
98.277097165806424 -43.995153977490212 -88.830090158554697
99.717418707349992 -43.945291430911716 -88.392046594539607
99.777466606194054 -44.263613019498422 -88.116657529649046
103.426951342607595 -44.175103762823333 -88.160585491276450
107.095128987558240 -44.180788565156874 -88.169394395607100
86.613546708334496 -45.576562333499218 -88.766949780363618
86.732497733029632 -44.133522990485197 -88.235062704410055
91.581009891365909 -44.131213943794613 -88.567135961544324
92.094359177628434 -43.254477500537966 -88.559060641246091
98.612543850826469 -44.542491259922720 -88.276970149717400
99.441610590176367 -43.698824683603789 -89.437965647892810
100.730629089506905 -43.825904140773908 -88.904265861389305
105.315868695028570 -43.697336985225164 -89.174129408723488
-101.148071829992872 -44.828068655178875 -88.170733890445334
-59.596004599802377 -44.210414795947891 -88.866080873646197
92.202081515868841 -43.714182123646566 -88.765573913349783
99.038622878574799 -43.927153311640204 -88.904491396111041
99.415561106230442 -42.710962287671890 -88.873749366924201
101.344886282670089 -42.831823602295074 -89.757245516017790
102.622309165148067 -44.739967287581784 -89.635948591834492
101.952520176266603 -43.763529968338993 -88.897086750351562
103.740517761347817 -43.583062340487196 -89.035996449879661
105.226853239852673 -45.136866840417383 -88.286395475311267
106.138380137025848 -43.874227979611135 -89.159665249985068
106.809943362204052 -44.206644627855077 -88.525397414972815
-60.517965228212418 -44.397821666134895 -88.394670693835550
85.696388810679295 -43.663228587353977 -90.443965134231760
86.570645362535345 -44.922234301418150 -89.163241587908971
87.609659912094287 -43.865260565860353 -89.111948580670628
90.165222376863568 -43.668380619998977 -89.206441072737888
