# This PCD file was generated using the MATLAB® pcwrite function
# from Computer Vision Toolbox®.
# .PCD v.7 - Point Cloud Data file format
VERSION .7
FIELDS x y z
SIZE 8 8 8
TYPE F F F
COUNT 1 1 1
WIDTH 786
HEIGHT 1
VIEWPOINT 0 0 0 1 0 0 0
POINTS 786
DATA ascii
-19.083768139779366 -70.730523105558731 -218.674016997892465
-89.490327233266015 -70.106101897517689 -218.452383880053446
-157.793380541882499 -73.242818895098424 -215.179131429908210
84.718230480465124 -73.051961022625520 -225.076364253129611
13.469919352718591 -71.892838223040997 -223.640341956150792
81.775501275798348 -70.725442919863028 -226.349602641707236
-106.013479985085610 -69.983445087789406 -219.207904133130000
-152.708263588105154 -75.118977741624050 -218.867599783235619
86.728209258863032 -73.162866355787884 -227.906345176941642
-164.428569682109639 -73.714196600792420 -219.394090466154239
-153.862850496807567 -71.185509372340761 -220.580035449868262
-18.352618776426127 -72.291774972870840 -228.309220947986887
75.878698134503196 -73.468033464573637 -225.502888296014447
-109.971006652640256 -73.093607605172963 -223.588775002905152
-126.146409485215571 -73.349929338209179 -223.278570800542184
78.965919981671803 -71.958890293075427 -229.522692781603013
-142.064969896003333 -70.639927260203834 -222.002437294309772
-168.061823352236161 -73.896133393089613 -223.170748058524424
-151.731408098126508 -68.406548865702845 -222.211114794848726
-18.466249256966243 -72.783346804369359 -227.181772751426223
14.209091009896095 -71.290105228462281 -228.402888173943694
-155.270062706137537 -69.087021428433033 -224.442149694794495
-0.797695854606658 -70.453039409722265 -228.657397786199908
3.275177083847417 -73.987273477710943 -229.999643400098023
-125.611412584268180 -71.728997398233815 -224.186224711772525
74.845856751903852 -71.043514385356119 -231.757811405566201
-161.070783520572689 -74.643638461820544 -226.858968409252924
-10.233290626345791 -74.229832855239337 -227.996383064793235
-112.705228291782703 -72.747774426991754 -224.448984248989092
-6.177108014891708 -74.857248146327194 -229.636305190173147
-148.732989053053416 -71.428918366750636 -229.348634512702773
-125.540845505838917 -75.989948333703651 -230.249810695509893
-153.751298492930488 -71.682116002141527 -226.844236431526838
-126.791970404986017 -69.972559241679889 -228.026124939240503
-9.339010917820389 -72.328822018396451 -233.057534702376785
79.164911004497924 -73.404413903483913 -234.382380465120690
-143.267897344713106 -72.802844161125350 -229.769197563893130
-133.911867461403688 -71.419650088549503 -230.609186267234634
-169.557623577449277 -71.109869528774453 -227.676067236333267
-155.929691349978270 -72.044072026906861 -230.875611532660173
-156.246902135248888 -71.937506021245326 -232.012666989597392
68.692952073839820 -75.951047290162762 -240.389261868775264
-1.169744585845429 -71.717580700818317 -238.283183502702315
72.435954779268400 -73.215191382846427 -239.755823727489883
7.347566681890171 -76.026685784179705 -242.084251101135891
-23.604008995548718 -72.581720208057902 -240.825854787309083
8.431425908614244 -74.806993517655641 -237.181416795623335
63.907209171613800 -72.148554564723327 -241.098460494793869
-4.133175582237584 -74.422888921033973 -244.994698289139365
-23.350454632130493 -71.668979904097029 -241.157292891454972
13.340775967707039 -72.725805146432691 -238.918597057379259
-22.132409065900305 -70.313670148580456 -245.148637660582409
-2.078897297230164 -70.384772304460327 -246.535938131876435
-12.978753815955542 -71.366819927896458 -245.498027588036081
45.823260330359496 -73.041387428795872 -250.061062012080868
-63.127843049505834 -71.790774096445418 -247.834257885973386
-13.992854440338846 -72.493953057510950 -250.830636489642870
46.748086029183689 -73.877624475182571 -250.997972810526903
16.471870969099733 -76.708779434297043 -254.244422694255547
-15.374133687897320 -75.499634466974982 -251.799813744055996
-15.741497084100018 -76.039083751661309 -253.198540508369888
19.960984439371238 -74.835328397143996 -255.649513942935982
-99.507472532640492 -75.326686436938758 -253.669671954995522
-127.668231550998769 -72.241199513940103 -253.186803197799122
-105.740175181335189 -72.560433572312647 -254.762687984150659
-86.436463671524592 -76.578541765478832 -256.721957275409636
-145.508691780818168 -76.770632867380471 -251.713057546711639
-90.190742030551576 -74.189598390497835 -257.273618117082890
-104.315965720864710 -71.713765748876583 -260.655749937777500
-110.513456508970052 -74.270674050387200 -259.999989891823304
-111.241779832417478 -75.424890799025917 -257.304847605476482
-122.178369901159755 -75.947605902662559 -261.091420379632837
-140.914372383428088 -71.717557274867076 -263.238081143113504
18.768866787862382 -73.999258135782213 -265.847318400418658
-172.623231376103945 -72.582208973560199 -259.126456971241851
-13.988152863323052 -75.352105448590336 -270.797115957682138
-150.677235434576318 -73.930683440673661 -266.166186316866458
-148.159535059306876 -71.652713894384604 -277.161790250581248
-13.027645185550504 -75.071616762497840 -286.221640133830419
-134.810074004309257 -74.118950527755018 -281.184043120875401
-147.513445341421544 -76.380605792600207 -280.731439406301149
9.979511758361255 -75.223661375565044 -285.454635123174398
-56.831744010774564 -71.675050864529041 -287.548051070247311
-126.595136670110946 -75.458501797880459 -284.073797486493220
-103.844078743865310 -73.199683972107607 -288.101775321672847
-47.875768860078942 -74.569816478105707 -288.605375576474955
-33.728366463659789 -72.934955146315758 -287.167824731825817
-172.696244010236143 -71.598481808970448 -284.101558412831992
-111.971365952953562 -73.712517642778209 -285.408905926218097
-35.235426965247036 -74.817028073834194 -288.885457196293601
2.330559433264245 -76.187299745368065 -287.980965496424062
-57.953609216579558 -74.626082849689055 -291.265728853907262
-56.510437951050996 -72.711435277850413 -292.550929808605474
-41.514409521600903 -73.217866387474302 -291.903536380238734
-22.032041430230954 -73.934578765971551 -293.138188452926215
-18.614806078068490 -74.708052434255549 -295.129856573732809
-167.285511177333262 -73.685145909504584 -286.798854219189707
-102.304803888461407 -74.061975454886039 -289.502260828697160
0.707371177578700 -73.253965811685703 -295.721321050209724
10.658672573728513 -75.909232325672775 -296.421430320918091
-139.021547791275623 -73.835616593512626 -290.758419939886096
-147.476774668067804 -71.094640999458093 -292.945080302757219
-158.437639115661966 -75.559145793183831 -293.552519421561442
-159.127902171459084 -71.437303682682156 -294.982843392889151
-160.328834858867111 -74.298849188982246 -293.140751661031402
-162.764834164964185 -77.139478356929828 -305.598724617150765
37.923387704704034 -64.282119023725130 -18.702072175223623
43.358214270127014 -64.446748690253017 -14.548843450025259
38.879700990465025 -68.026931623465032 -19.101438933603557
48.111129167546707 -67.399639619726287 -22.667661642532103
43.805215522955933 -64.647136356929423 -19.334664150366972
49.670206323770003 -67.253787297143845 -24.941990255116998
49.740769095388373 -65.926747279145687 -27.262770818943146
54.239400720412249 -68.620889503839706 -27.012838182765805
51.310155314716766 -67.013093049145667 -36.716008572954692
51.278131675414578 -65.593150568779492 -41.187101764118829
47.918881488760817 -65.283073505668199 -43.888230000818645
38.618757481674315 -67.668362794540840 -44.462082675131285
-65.571476998017857 -67.043596364722205 -47.980437757579892
-69.894600404143887 -66.986766504487107 -49.436851149318109
-37.829994747710280 -67.374374429406785 -51.723449936019669
94.123667323674709 -69.351668854311924 -75.698599636816454
85.339830333983969 -64.813782842562361 -73.773769337588874
-34.152143180672176 -68.487822374515034 -79.149375946477335
-22.967404394126461 -68.955276376429666 -77.156246723672098
-39.604166791830217 -67.727278482498122 -77.811562790924171
-49.700967194833133 -70.292407721028454 -88.828304353453774
54.053048131389822 -69.031921444116392 -90.255352248242588
71.897438020411769 -68.805375921409748 -92.059263517457538
-55.080234798858648 -70.352366260643947 -88.017646827499618
56.026437633213696 -68.752680129263240 -94.055266001817813
-65.326416855724233 -67.244733045336503 -97.279920939029722
48.230495426119290 -70.833218781111128 -99.408520495051107
110.216315073155073 -69.275302300454385 -102.342490810667385
47.567274405426360 -69.949548278808805 -99.493168727753130
103.845544086913833 -68.271953374309732 -107.718552814965420
93.491567715083448 -66.882094877510866 -106.572880704400745
45.153194326837578 -66.473972614613515 -109.545350960174630
107.260309748155294 -70.059812082116352 -113.920282469251191
49.991967857132515 -69.646854001759479 -111.208973948114874
100.865469251624518 -69.245287254194523 -113.706865035420265
109.113144849796612 -68.387814113394327 -114.865323802105422
44.849317350236973 -67.052446624841210 -115.870300952516516
-90.888889990760561 -69.635004657647087 -113.787659424777161
45.565947178956947 -68.164299962009395 -122.825754341351768
111.234029506120464 -70.475150639670417 -123.681176876431437
33.303372021504977 -72.822488249104254 -129.973105606890158
111.261295432212734 -72.263033403024963 -130.832342908214372
115.368356856502515 -72.960681401005104 -135.395589359259276
-59.543932007099563 -70.483501692643330 -131.143495071356199
111.719992005620043 -67.933223565482209 -134.660474326568192
112.330083691948403 -69.810676967650693 -134.926389658833017
40.176458984690854 -71.213568282265229 -131.886525236192085
-56.011175086836225 -69.626404957413186 -134.206373584053836
24.918710804182311 -72.818785812858636 -136.261685801114766
35.365552804389424 -67.708924932067802 -138.653967890887685
-73.385968731946889 -69.817549526702308 -137.266803238506526
112.834768026734196 -73.233016744118956 -140.225099985545825
-42.510856903840896 -68.244712490307620 -136.374064503580939
-79.722943189670758 -66.490712151337675 -139.458902793793555
-58.131435759159650 -70.900680645023471 -140.338262186558580
29.063841689210928 -68.759144039356428 -140.642092664822655
-47.548612939775659 -67.533119545663055 -139.318538213254783
112.577479011341978 -69.411858230432927 -148.282790375422678
-50.633954940955796 -70.068190465279898 -142.792361871415920
-79.904905282630324 -68.048960997850642 -144.027643344909364
-71.369925656490949 -71.073053392817457 -144.212035376105689
-41.526465204228778 -69.860343010783140 -148.515313459369935
116.900218686026705 -71.334166429486544 -153.833742019474300
-66.121311250316893 -69.006928485240294 -149.875708811422214
-69.050629239083520 -69.329158515791150 -149.544515470921965
-69.583650171638595 -70.489219290208496 -150.050773163571165
-77.338499490027999 -72.061086282632473 -147.491017682837111
-53.557738524857690 -69.049503716679197 -152.049859405685567
13.753219473132052 -70.577027439151450 -152.296131923546824
14.536200807674497 -69.750556015558701 -152.740326437580251
25.207741555904313 -69.538743331595640 -152.464663279740677
28.097914283562570 -69.146801165245975 -155.061494624135122
4.855261206554701 -65.594589105127355 -159.840340854620820
13.773840377166973 -73.840521544258394 -158.784180497714800
33.238112574516670 -70.434014486060590 -160.117289854473739
2.901861307116803 -70.032135255228468 -163.687213242752335
-63.173903530407010 -68.060428974709325 -160.343523640493146
-37.332512988245760 -70.353138884907310 -159.155902116462471
7.567153393576135 -70.092793550698332 -164.249377619061391
3.122123105900542 -69.031425519545593 -166.652606155142195
118.502427061599178 -74.418835587101356 -171.633163374339489
30.330815966083946 -69.672925930410969 -170.030776372614980
-32.826875818194928 -71.284178189753192 -171.981034566032889
18.456640766676415 -69.156706399888563 -175.490982980325128
104.266456681429077 -70.103795977142568 -179.938053599226521
-40.670795348246848 -70.816128091571514 -175.571524720199591
108.634685222350925 -72.593065221871754 -183.029625891281938
-37.703404257554404 -72.792070987217116 -177.549802867523681
-152.465646510439370 -72.097027381264539 -175.608707006277399
-26.587174957186988 -71.662460650318693 -179.377222931780381
24.518967195581325 -71.883075637960488 -183.333020301088283
-145.726671755424604 -71.507782633967125 -180.961160950443400
-36.110237261793777 -71.101784380870996 -184.132580900695928
-20.912090102045468 -68.494778271474956 -184.912870379262500
-32.956455088125203 -70.604182965774797 -186.097540857165768
-29.609184332720716 -70.018775531588076 -187.009425653134400
100.961822153248903 -72.767469484386552 -191.285823573795739
-142.564884823422346 -70.141185931034656 -183.231570404638006
24.477362648724444 -72.251187444769798 -190.673301585090456
-20.168745345314633 -76.189292119935146 -192.038551077339804
-29.242723987133502 -70.466503027987514 -191.909243922525150
10.517379598791628 -69.828724605137126 -194.470773136876261
-154.054792528387139 -68.904806696874914 -192.084017595232325
-118.596628798556083 -69.516955525522931 -191.563958443350913
-137.626824479955559 -70.577324157669906 -192.937194447918984
98.087092339454529 -74.258956378001116 -202.260969800787166
-160.046346978605783 -70.267809217872099 -192.762743652125295
-150.498446224546228 -72.041604799085619 -194.095584736531464
-124.970224784033348 -72.012801002319492 -195.747613628780329
102.212440115166430 -71.641850668542503 -201.560987809220393
19.110935117415906 -72.389808030933168 -199.369786728927721
-148.048729036269435 -69.329484979873669 -195.370770238665330
-152.343939259346826 -68.158665505962389 -196.962092073893388
8.346082376567580 -73.513905321492459 -202.767672520228132
-122.377399681587974 -71.047764041520651 -200.178971710416846
-156.310639284633965 -73.319597044516584 -196.644941427978381
-150.084834059626360 -70.785731969635336 -199.367347011437886
-117.558414625853459 -71.190213390142532 -198.226271565975480
-13.427437325779437 -69.312870701101104 -202.972321351425506
-140.782956552755081 -68.005415508856302 -198.930170519432664
-166.573324630240336 -69.669113661487813 -201.623369651341079
-154.197988735475974 -70.960134811747537 -205.016773791530284
97.044515695731690 -72.283093017460430 -210.095981754814943
-19.210425030964181 -69.541245975177731 -209.853287221394027
89.715747610805380 -71.472131651004403 -210.327033921735932
3.638548473026226 -71.227357598145943 -216.187317123376715
-152.157939905188385 -72.469324117769219 -212.781956880742086
93.695236632968999 -70.330448918562098 -218.156132163937883
-9.075663057139430 -70.526063837903607 -212.210093418139252
11.781935832367626 -70.850574615656626 -218.383008058623659
82.543323764352692 -69.929106413535393 -217.387461494637165
-105.216350929472071 -71.344830106219362 -216.574933752349210
9.403275573770600 -73.432225872865089 -217.646454369410634
0.598817991979530 -72.057829818533435 -220.747256599238739
83.940454139306695 -71.935704714684064 -225.500710187371766
-24.684553873545639 -68.584467970716190 -224.927624730035177
-7.875084908750246 -72.067392030043905 -224.344864229319427
-101.435675622548786 -73.396840871999714 -223.038677493513745
-27.589187204400901 -70.428689021089170 -227.167404888821437
-147.274631458918378 -68.316864741540272 -221.955672529120790
-13.293441763172595 -70.931335497029579 -226.776433285106407
-26.417171901413951 -74.379023204264556 -226.117170582286150
-105.153774299730856 -69.903980901943228 -224.885332753161236
-113.908675742956149 -70.303289808661546 -225.404934550402174
73.186413915377614 -74.283470363606511 -231.834568260828661
-111.019580374440352 -70.979093836164921 -227.340468206873595
79.530434042001303 -70.958186512911468 -234.981614856209120
-16.720417669044977 -72.450550672475202 -229.552299670478078
10.892489538843392 -70.722438554989083 -230.459746033779936
66.870216043330487 -71.024837661469974 -235.482572182172277
8.548472557732520 -70.193953020869145 -233.756279952335262
-16.649438415069596 -69.511460668627421 -234.524076967089172
-117.324007876898349 -75.258671581992047 -231.616058007194766
-126.112624949592970 -75.012217821391502 -229.758357843715373
-144.224941799685411 -71.182085709154478 -229.979507896122129
8.097957804331543 -73.196415921889283 -237.286416479453891
-126.272822747192350 -71.692943229018923 -230.564583188120821
-134.272927191250488 -73.392834912149951 -233.189130086939684
-150.151602726362285 -67.953073171164036 -233.355299976298596
69.578006089443548 -72.580631385036966 -239.516570482501322
-166.528823272893021 -73.375981924742348 -236.111542461805328
-2.784075533567112 -71.244639836281578 -239.380265434234076
64.394096139178458 -74.982207733064470 -245.086300494096150
14.631187956123362 -71.111917040031287 -242.107024840316654
57.984589466412430 -72.929030625356262 -244.775250198920560
-15.607008568544472 -73.996438049323714 -240.551563067932392
-16.564241472650203 -72.789716012730281 -243.424860829332545
-1.744505132894162 -73.039476160535187 -248.477120046583593
-10.854076747997361 -71.120766822941420 -245.525091596700463
10.667778369701058 -72.580848988604657 -248.968709397075202
15.777777158861138 -72.689964263405628 -250.512462801053232
-70.554335564833053 -69.461831483471528 -244.030215158800701
-75.439742178923950 -72.021580018998677 -248.800599255185716
43.669060714916860 -72.867983137585881 -252.021694583528131
-85.283186252262624 -72.246889229496944 -244.076105016817792
50.095636941608667 -69.791201168068923 -254.014756351798042
-69.670665027559693 -68.796093855862992 -249.639222785503932
-173.142393301746466 -72.423946142933417 -247.345843141716500
-97.699986589172511 -71.599301740679479 -252.741170232710715
-77.107940674295008 -69.679944253504516 -252.036747074696677
37.812908598935032 -73.377059570177863 -259.520224630159646
-144.159257670003569 -71.497605289218299 -253.982777305555771
-117.534693470983285 -73.478530542792413 -256.300905078775031
-98.284031073336052 -72.958795902804084 -257.004910143017639
-128.636504294567033 -74.862508138872869 -259.631389939944881
-133.589374544016522 -72.980876753649355 -259.000757532684872
-173.214604099312226 -73.556952994066620 -270.842154816715606
-13.569143897913690 -73.841242438943340 -281.832779528123467
-161.930821507707236 -71.357526289698612 -283.265620508822849
-85.097736928901014 -74.421655638640473 -286.166913853219626
-72.881718901034191 -75.174960172075586 -290.164670202574371
-61.017631092979236 -76.151079439560604 -284.346601977409819
-167.758720916038243 -73.703335585552978 -283.111485722724808
-14.242312250401504 -71.152351775358525 -288.340653317159934
-32.243079081130482 -70.855366560992536 -287.767946294215392
-41.862211048955039 -74.021638154263755 -291.044397140984302
-16.456467197074240 -73.548333797821925 -290.010837201575669
-47.810174096195432 -73.604817313976952 -290.001544873757553
-31.478994908004623 -72.158893248671575 -292.639587367768911
-4.659267285798542 -73.491257556303637 -293.730568749694726
-80.661575827538314 -73.507977404586740 -292.522173626074220
-1.441384578735658 -72.127362027321055 -296.560523253403517
-96.254849246592244 -72.496232807542640 -286.169176944272635
-99.220093378340124 -76.543109235154759 -290.688755575328230
-132.471480515834031 -72.993453231646939 -289.534944677235103
-136.208138475211854 -73.342972403875777 -292.333528747558375
-146.824290210391382 -70.179270278291526 -299.712900512122815
-149.436854089205184 -76.154081264888973 -304.853757350236151
-154.324191897192748 -71.064638510762776 -311.612131211837550
33.153002916419226 -64.460333542846939 -16.491320891110796
42.970042495892073 -64.058263443539502 -21.392907616713053
34.026027952648228 -65.553708591977397 -20.875855038262959
25.339801803056339 -67.881833917417595 -19.672075026866182
25.111465809634549 -67.093988160195636 -28.039529548207014
21.129790356864056 -62.270731469060564 -33.395350486617033
30.967076020667374 -66.942475075780067 -29.348795482613070
23.096225429415789 -64.248410734779284 -32.427584718814373
32.751532480934294 -66.280483757301766 -31.006487645915371
29.000372312844981 -68.792980628251186 -35.137868498068293
30.932273301516563 -66.175273700877781 -38.958797515853824
25.966396559257362 -65.962141650235623 -37.944442299194030
29.356810451887242 -65.657916683623654 -39.728010302183421
31.796931042884964 -65.460262719743312 -45.589191403083404
37.434468512576899 -64.407621768439242 -43.214092512736777
-52.523790196643951 -66.208328096228669 -49.381983765483660
-24.373681903565540 -68.130159888123700 -54.665082191899707
-14.329767661767711 -62.656508592426135 -58.013619667926427
-9.012969899073262 -65.585733060527318 -65.376660149701706
83.406966236465834 -65.702954464201042 -68.972641421500754
-88.784435896509706 -66.157917618179837 -66.172457826504086
77.834985963239603 -64.926931875808023 -71.108617526935717
75.470007756023222 -68.201470209613632 -74.861688954177481
70.343379426756513 -69.288340538710784 -78.596277969807431
-22.230341977195913 -65.342082455891003 -75.384701766023028
100.144771526515768 -69.497045946655973 -81.557315315423068
102.852257244772318 -67.348418078899556 -88.813269050124035
-93.522282069466712 -67.273912629400158 -81.689085325431677
-46.858269236686546 -67.169985785982718 -90.495096677806458
63.334103469124159 -67.748511192642525 -90.835493298823081
103.352355348319406 -67.631671925364259 -98.568220185358285
112.386037851334549 -67.263188478544805 -102.513908322811915
105.945104318579155 -71.390540412961784 -102.119650408678666
45.728546831386325 -68.177355397574402 -102.257030822592554
56.844383585710865 -70.884080304345858 -105.459459638136650
46.218127742200636 -70.580866713219649 -107.130864228634664
85.110319047816816 -68.821871282039496 -109.678399290346164
54.874923827029136 -68.028213247603503 -108.807023850170452
109.018902058874545 -64.283458268748461 -111.632747469055886
105.625159379248771 -67.876402496438871 -115.759948128409746
37.807057906318590 -67.937841777597868 -113.722281735922849
39.605028443278570 -68.819987636223956 -116.111169436344539
-79.846844949219388 -66.956744376934083 -113.938233817022081
-76.267741360994052 -67.297108798226432 -111.008208427360188
106.667722302417502 -69.604480670450798 -117.870640407092623
41.179874486917413 -71.452670911590886 -120.427033197220823
111.030419855197039 -68.431003316613612 -124.400738646219054
-92.701041230030540 -69.854633184839869 -118.541202659294839
113.919606498332740 -70.208932992746796 -123.886979961326233
34.685222994680089 -71.320797194377732 -126.092526338035981
38.700524947868381 -70.400162437751575 -122.499334447310673
107.262705192927569 -69.023204913428515 -128.451657341845959
-82.188240147051232 -67.868044784894934 -124.278141097714155
34.589866492039938 -66.844480297218695 -132.492022136173659
-82.791615357090137 -69.218539746629915 -125.952131671643400
33.653946708934868 -71.831332005373710 -129.487147432242324
37.932249625794171 -68.328056105207324 -131.983339833277341
108.565062627084217 -68.326576750803611 -138.749555189646685
-58.438925533874674 -69.170178219997936 -133.348647173306205
-50.630907785667510 -68.868463682915845 -138.627914378990170
114.100789752099132 -66.363771605206892 -142.693273173784377
31.344602877443890 -69.524803888537079 -140.306040331735545
-60.834356860370015 -71.867173270990534 -143.706590873009503
106.790277055747055 -66.803297585591523 -148.137261956042551
27.402695594862706 -69.986179906969070 -146.066131503155646
25.322989835306128 -70.947613502695916 -148.486802922628470
114.994702342684690 -70.229216190016771 -156.674186770558521
-48.432271092819654 -72.057179732561778 -151.283357785830049
22.012294966471920 -69.854304046332501 -150.139252513300875
32.321351055824515 -67.692878585443154 -150.616124044591317
35.333437832424721 -66.388945493167753 -154.226820485838857
109.811452811166845 -70.497188281434092 -157.802970463697619
27.729115513041929 -67.073718336850945 -158.558513553842175
-49.297747690621598 -69.210646443363117 -154.766251716328526
-66.798747650570760 -69.231448511664368 -154.933213481661539
-42.076904096892726 -66.140942397131639 -156.912196416790692
-68.386385891754486 -69.901228095070692 -159.298402979294394
-39.689139649076232 -72.397192549676049 -161.614780794825180
3.992941922448665 -69.474208838940370 -158.719338279974266
105.601527485564958 -70.242419242158633 -168.133028856622730
112.730113130666922 -69.348375279455837 -168.314052170533984
-40.882902739671628 -71.214332655302613 -165.962248503398797
30.300679837885834 -69.819632253566837 -168.814344454597261
18.178496276775178 -70.008533974686372 -169.699272272651626
-43.213612837009642 -66.133419757432478 -169.063508112411427
106.638542588093003 -69.213105981604869 -175.268108288715524
-26.546308861663029 -69.749209154618640 -175.048790569102124
110.100647508689690 -71.528380887105001 -176.766414068185867
26.465419691229538 -68.215280967031688 -178.631891654521468
28.336804325893169 -70.993596995131938 -178.206868810006881
-35.189553894967510 -68.901252960885827 -178.490183957304964
108.591523516579457 -67.210270413784826 -186.153719984334714
11.916097463885297 -71.269629221680972 -184.420573339581779
-31.273025307543676 -70.158029541114075 -179.167758972194292
103.719720561162944 -72.108577777314977 -184.707773518446515
107.863230912749543 -72.268693390741575 -186.417308714971625
-28.839373247113002 -69.263365435319443 -184.385965448880484
-22.182264325335673 -70.404983530163292 -183.251701747534241
-156.353653284758224 -71.239818363959955 -182.363083997554838
-25.437535802184598 -69.075506147472481 -192.125158126352062
-17.855719823547773 -68.418066350303036 -186.142839358820908
-149.329051644292889 -66.108377726395815 -187.733426617269089
98.322254634822116 -69.384423487230862 -194.783042934836885
-34.085480704381546 -68.285674988779618 -194.034690612802990
-152.643064421015595 -69.281863625551779 -190.343814141498171
-159.904560695809636 -71.229678304382560 -188.595114668130435
-147.471965229940622 -69.489570208008274 -190.804220546204220
-159.845461463652811 -64.499611727300859 -193.118004592817215
102.149534642781077 -70.774985626599857 -200.682290316654928
-19.137724128926138 -70.154219484293492 -199.258906687244064
-111.738493927664109 -70.684540684329946 -198.290843405758437
-13.173456756632440 -74.588143897895335 -198.937754509878886
-24.570291751899255 -70.967891532262755 -200.421212971243818
96.003413313578278 -71.050328082294257 -202.498134658363767
5.223724953802989 -70.143028973669090 -205.141055060806792
-122.295848694554763 -70.421038037441292 -202.882319641085417
-170.053934812509908 -68.199272807063821 -198.684662655844704
-144.072950115908895 -70.428769081565150 -204.321607884468165
-146.196462638259561 -70.367051103794353 -203.418871676806589
-11.129329108099100 -74.178363514612499 -207.570858228653066
94.759971775976226 -71.010889902129790 -215.830853017783568
9.971548449407099 -70.401140001229123 -217.419342822227236
15.802233189391501 -68.485708254813673 -218.039291558755480
14.121395770702797 -72.779427172748655 -219.882805794788680
-94.339705324702720 -69.573711743567813 -214.480631412170567
-102.351419921993596 -69.009377034467377 -218.987930134424516
-94.207098181887517 -70.737416267027029 -216.079081874782787
-3.746269102929254 -72.001761275623792 -221.984408492085493
-171.349463779293899 -67.563560230751548 -217.845021904301007
-14.816111215915896 -71.906085632137106 -220.267425058369071
7.052287163563268 -73.781590207221626 -223.541366297921741
85.086840751063463 -68.295664178718027 -227.054595636690578
-9.100731824338524 -70.208686769914763 -224.982121440489863
9.222671001562432 -71.550393619644254 -227.255671944905089
73.593771530209196 -71.686850305259597 -229.365089695826498
-127.312433796032508 -70.635169304054713 -221.571774822346924
-120.754416114139190 -71.341885850001674 -220.609191141970115
-135.348844227694912 -69.679781212368340 -224.322671908789943
14.206864687064165 -69.388994066727903 -227.982404464708821
-118.808923886172380 -70.643329728647004 -222.603557296504192
-171.268310116921043 -71.006380230751191 -221.789449572875071
78.445198266614909 -70.940519580061050 -234.313282714558198
-16.901973336380493 -72.131268256618725 -234.677985066977982
2.653174706512932 -71.132582099374247 -233.367166076085624
61.736945397689787 -73.772614359999125 -235.517321780349306
9.509579375560254 -70.248703968001905 -237.941399602995347
-149.762472821671082 -69.483123226093468 -233.725669617801685
-6.220728634750593 -69.122497334938402 -238.165282447655102
-3.798181509519040 -68.418387510502086 -238.131980437023230
-7.944668585348040 -70.093347704883385 -244.725393584258825
-4.517447415934491 -68.876261032092188 -245.606491960510652
10.834768444241760 -69.627912981743947 -243.037861758121323
7.412620180350064 -70.580295528462997 -245.787230692875823
54.252782012327373 -71.999785126603484 -246.300940504486732
6.747743226226959 -71.419896092886859 -244.240462977064169
-13.730633513464774 -72.132374745950628 -242.615757000442841
59.907573792795418 -73.227432683742762 -248.941217804668213
52.306813908220086 -71.199439749195832 -246.084182176849367
53.104289348257367 -68.887379346438735 -249.621297987853325
59.129393611382483 -72.581060467569060 -251.965888716343841
-75.472888420802406 -68.065184330124779 -248.200225828478096
-147.773302049687231 -71.408031137523793 -248.459352004379184
32.194149974507283 -71.953456254674848 -259.238997192764941
-135.839944899705586 -69.065436518201679 -252.512303433373631
-18.609241213912746 -71.462074865951166 -257.367376265137352
36.801010307203427 -70.361682796287411 -259.761136069768042
30.582702005916364 -72.088444121751365 -259.392940126533745
-159.508179889631123 -70.229548554862561 -255.855549071078485
-19.447128653777625 -70.779234330040211 -264.330044934273417
-119.640773834501175 -69.596605016118019 -260.254334782494482
-147.541709864873752 -71.983961867376763 -258.794627526067700
-116.474612706599800 -73.334341913969752 -260.301799326137939
-158.183390507336838 -67.661973736039627 -262.690582895454156
-132.373457477889758 -69.447287820254687 -263.385411121006143
-158.400224215066373 -69.578725314314013 -261.622930751360457
-146.593718455697200 -69.349746125223078 -261.859513778148482
-163.032189593491324 -71.531953362321744 -263.884601973758379
16.597685857903489 -74.286399200405413 -275.142619238709756
-18.493518424321138 -71.681178230687891 -276.485658175601770
16.515749660952171 -71.362278413227159 -279.165247135562765
-174.489162735562559 -74.071270279661633 -270.016807552455589
-163.557366399948108 -71.630662007562933 -276.917364269684242
-158.049371953079088 -71.669005589407163 -276.665618154837375
-172.849214371387319 -72.714045946319061 -279.059031596573448
-136.977228792280812 -70.125911593130539 -282.614201339718988
-141.482947019950643 -73.066757185152710 -283.237300887060940
-138.069592466743472 -73.312538758907920 -281.285525707112583
-121.703880114291792 -73.966037207546478 -286.494560598873250
-160.821518971381408 -72.113473374657346 -287.158130342342417
-109.818669056988142 -72.690825172041869 -285.764894729928812
-78.907633107358066 -71.759123069200513 -285.411212273114813
-67.591923335738244 -68.950846050562660 -287.557109292822418
-62.696240072585560 -69.915842663240198 -288.792423769665447
-55.561263443560357 -72.236762352027668 -288.277511890139351
-55.668045071588274 -69.528107089113789 -286.518706115546763
3.570270100826935 -73.340564680486295 -291.498103098952413
-75.731874205704969 -75.877033467605358 -288.699471705214989
-69.866133212400200 -70.153095500125247 -292.094660553558640
-8.190970660253925 -73.277397197128906 -292.505374115470318
-171.635575788345250 -72.716732272389464 -288.365528086309666
-98.122562673350643 -70.072316541616701 -291.151736966352360
-120.904467449342690 -69.372864060565945 -291.839373437062363
-141.222394865290397 -74.971684413319934 -290.401496289985175
-121.084738696202379 -70.099830890995449 -291.489883222573781
-160.497603095011044 -74.648758818664760 -291.148222394714651
-159.567039944883390 -71.998214461703753 -293.162535417488698
-158.464106585031232 -71.536863056977680 -309.079925291764255
36.821838640598955 -64.376507531396030 -18.076602279717363
46.597072405940956 -64.181855784850725 -18.200095881817397
27.016069321039794 -62.602061880609952 -19.830881454814172
52.739303642686124 -66.269353345775272 -23.623569103950288
47.024599844158807 -65.538393563720106 -19.752561505694686
33.360667216233502 -64.483647139242834 -22.450413622967957
55.078281837899496 -65.023860830886136 -29.145954053272710
47.766116456603839 -63.459919103974940 -29.003421741605500
49.551523366525849 -65.174913667121558 -36.207036765030914
52.492030526216510 -63.979041517930952 -38.672791293799605
43.278553922203031 -66.382009767097117 -40.022867581608836
50.123632166484683 -63.602958051401970 -36.914964460792262
44.277047360900738 -65.350500674291126 -41.205245425938479
39.939395843247873 -65.123224982710468 -38.057660720202300
38.066885335160052 -66.829952060303441 -42.741417391613219
49.088846168502343 -65.292477123095125 -39.212974380147145
35.746388106492567 -66.456926961425125 -44.132865260281875
37.755303721146454 -66.718392271068225 -44.595405249569069
34.965662710208143 -65.842272556872572 -43.097950831541247
42.454848111046687 -64.654174444754887 -47.022712934885917
-59.201135622062544 -66.345537068870016 -45.953294598998752
-39.881999250742261 -64.537197179655777 -49.166727011917487
-20.010566610440193 -63.257995028765535 -57.125236227673177
-84.369402302553880 -65.431210175402796 -57.903693470430774
72.871162313117750 -64.246074042457479 -75.492159984912490
-18.350019507470911 -66.452342503157354 -73.994270247895059
70.829766125342431 -66.517963461059793 -87.247861544735343
63.390297516239286 -69.076435409330969 -88.337369625178809
59.918254828417219 -68.214619535808822 -94.019807117462534
62.276435673840439 -67.119806188088930 -92.186738732725701
59.797183856357236 -68.145240703648412 -95.568888914006834
-61.646689072968151 -68.586251754671125 -90.932205683530640
108.042227397323217 -70.572171531409026 -104.119306948968500
-93.516159538647941 -70.624223712128014 -98.079461421516953
105.677389512340653 -65.871144037466692 -107.132241288642803
99.149532936420002 -65.924407155165113 -105.045820085511593
-72.610672203276920 -64.517640223663932 -94.793885216692530
57.182812930763987 -65.288130027769270 -103.288190820358238
73.595777233230223 -68.968227092926483 -105.880557710798342
-81.174914704645374 -64.899676947962021 -101.376620622674722
42.014954493007799 -69.075881291896337 -108.313054654672101
105.596798809308410 -66.060344863747375 -108.065077273161108
55.021614133208054 -68.025387642374838 -109.391790814083379
85.461103283836451 -66.267031642321726 -109.527556736601497
-84.265082458883995 -66.725569915094269 -107.355558444422087
46.352334745048175 -65.035339679778005 -113.458497305104174
43.944769571148228 -67.292236965989090 -108.581741019444337
47.710980023676974 -70.051919658172977 -114.574213167268198
-74.419934483665713 -65.293544464234827 -109.230389598443850
-96.027794762721953 -65.654094050798960 -109.970400552311588
111.748734788484683 -67.061752328098365 -116.496889546481924
-87.116099750968004 -67.232464814569610 -112.034037706977614
115.451377133582383 -67.769635655226395 -119.510593906936322
49.231614960621265 -68.260610997824188 -122.039167321051707
34.361921307430173 -67.178039123128499 -123.274010832181517
44.862555741573289 -66.171544560714636 -122.564996447676464
115.952854829315612 -67.504969863775216 -129.741738006922958
-75.574467599626843 -69.252018094191655 -122.922433888012307
-57.834228556267412 -66.261857319208218 -129.547505885113196
-58.038335902080156 -65.173951102870944 -129.920636505835773
112.705819652048120 -68.785978853938161 -133.756639910227932
-56.096765290499157 -66.466523838346433 -131.931609147255188
31.970690600553336 -68.433942011885335 -132.602687239338394
-83.876461954699352 -70.090415915102923 -129.993218803592583
-89.402156291668774 -66.237318394903582 -132.147247833899002
114.411035294392178 -69.263581758005841 -141.093086848071124
-77.295744853742804 -69.096293376366447 -132.626160647613744
39.131106591481142 -72.403634463698936 -135.498415187122561
-74.273720146783489 -67.010161138863864 -132.098781585592405
111.677525400924623 -66.220196799856510 -143.250565153938879
-90.511202517798921 -68.204426130268175 -134.725971603080779
-73.790879104489164 -69.779565414334698 -138.628229679624155
32.944038010895206 -67.168117120882769 -143.328960587878498
-70.835221776829826 -68.701138981289120 -143.309630505331967
111.815118156618894 -69.350542598832021 -150.924037577485535
-63.004143118541201 -69.964841824353613 -146.094698964611894
24.409755637183650 -67.029928325134051 -148.442145366874485
111.243229697559258 -68.453583763584945 -153.474893617839683
-44.078380190863676 -68.377593933060169 -149.899209206078893
119.718899401032985 -69.225200908566293 -152.640240172418828
-46.497621372080268 -64.002673927403166 -151.862516790070032
-43.886598745550806 -66.542827482099582 -152.613883078877279
13.575460558156269 -69.731120980570765 -154.107881331803725
-73.347397985505438 -68.644759559680239 -153.553415557656962
-54.836748244195398 -66.890176447323910 -153.321950876180665
16.656631223543705 -68.354563947014768 -154.391312648052889
-39.893859192321777 -69.317067049070943 -157.793891055199396
14.026854668170142 -70.427177251616129 -157.861203460375009
-46.523073965651982 -67.044686477469256 -158.917800134964580
10.676962811102637 -67.467642207178841 -161.431933643544482
10.068464983064654 -68.940949804901848 -160.173618016466492
19.536622952963185 -69.268114874350331 -161.344662804685925
25.460879075145272 -72.512545883776312 -163.322016496283084
110.700968883503492 -69.781338802117673 -167.257021498929845
23.363211866566957 -69.123533174416906 -164.562254951754483
-35.236518833593841 -66.825718210083693 -164.519667636923828
21.782463364594044 -68.580339281147232 -167.928019254676286
114.388124188779386 -68.463158992190912 -173.234047171592294
-43.810877061087659 -67.461498584652574 -168.333271723654889
25.933006557985383 -68.963805186220938 -170.141948184796064
111.766202072329861 -70.812153951721186 -178.003015126426334
-154.931028680944280 -70.103942508294466 -170.889823347797858
-139.894857586585715 -68.762242071693336 -174.706876266432744
16.854677182708887 -67.747530496151967 -181.133614342525362
15.392698324680222 -69.273032228215868 -179.239463873883750
-108.012111155456807 -68.707797398463555 -178.910480985533525
21.253722702928727 -68.032078978664160 -186.157092924845614
-24.422972198711420 -68.920406167543803 -182.165320953099638
-111.356650901560954 -69.540289591595780 -182.050424611476103
-106.331129353123941 -69.579276569228341 -184.072870067984553
-34.243776790684500 -72.030728141757791 -186.851291601045745
-146.334646817827462 -67.791745604366085 -184.722894345298016
21.180693843949314 -64.276212292071506 -188.817889952149955
-25.823936611277901 -68.842926657200877 -188.142547233683956
9.808522291086362 -68.497716622913785 -192.949584030844306
-17.449873061856458 -70.825500839514376 -194.647095242680166
9.492910543488183 -71.590041107510913 -195.386208134037759
-138.592535637868309 -69.870498654217982 -194.298334205688434
20.606667855102202 -69.253361391163722 -199.138485713174987
-144.272819549910253 -68.693562281496071 -193.164961063709285
-21.070211933519516 -70.063876458740694 -196.976116191229266
14.816175489849016 -69.699795327384706 -199.993964792597978
-167.855868797034617 -68.475939105360709 -195.790016363114120
96.645350127321933 -71.044874588231139 -201.253611302126245
-111.237051925335038 -70.311556843008731 -200.325859658636887
4.132567376452684 -70.347279146980725 -201.981686807767204
-23.324336830632575 -71.250039023138996 -199.540611616663227
13.729810935843048 -68.858622447869081 -205.452852509211880
-141.508021563943885 -70.088403546685768 -202.617090870438034
-136.161551921468401 -67.752040192506186 -201.114331997239788
-127.402955926858056 -70.387144588071777 -205.066412233172656
16.866549373746160 -68.746715567403484 -205.804561300255585
-13.080318347003967 -69.798646343619694 -208.499409995005777
96.988580053874045 -69.344638895106499 -213.939176862564409
9.896083786051637 -70.805917550772264 -210.148729612621338
-18.449155471978187 -70.682026827202563 -209.110688531029496
91.252965877209647 -71.774387353599025 -214.844828071411229
7.947229135487451 -68.541950634265746 -215.573148032625625
-24.209997912293197 -71.330424176164712 -214.352087598720146
-12.708122826895575 -73.807110847404331 -215.853839962164557
87.938557188032178 -68.408787843524166 -220.090111335994948
86.483949226400142 -72.643700701792440 -222.367402994363601
-11.986589346068911 -70.437156231838173 -219.486248543791788
-5.363530320676233 -69.674111722612537 -219.926195018709791
-107.273754887823884 -72.842236630118009 -217.685665164952013
-145.757088299734619 -69.313967767034072 -219.936425894247776
-5.876167643880322 -69.983106576967614 -224.173190608871977
78.815167268406881 -69.208908794566042 -226.572327935735359
-136.633191335170324 -71.178830440876894 -219.459579982747357
-11.688628581520298 -71.889725910191459 -225.521917998736342
-143.235024677061830 -67.706776180392680 -219.974998709541978
-138.159506147958268 -69.949937561633817 -222.565808412214665
-137.851116390250695 -71.298194875633854 -220.891415387344495
-19.859156510314087 -71.719859508857226 -232.472137287672240
-14.658516051302769 -69.205529061283443 -229.879223332773790
-10.096636074535155 -70.152966236701346 -227.854678745118690
-1.629163304566639 -71.778510686185356 -232.453957999906351
-6.830794139530838 -70.686773191481024 -231.314087080805308
-157.745170390372095 -67.559693381622196 -227.928802550399809
-10.755121509203768 -68.946048048180316 -231.592728265821876
6.999112501272162 -70.235771992131149 -237.978314670476465
3.473037616825430 -73.249374429427050 -233.684740503741352
-136.267330729931047 -70.853390360105195 -229.627667184752880
-7.427664277265549 -69.423077293213041 -236.430596265681459
-154.871418955897269 -68.917035066230639 -229.931710137603346
-129.151841896832195 -70.669906574681931 -229.799004173843855
65.673335121552853 -68.131067028321667 -237.883035996190529
73.711335977603540 -71.624987872568795 -241.809107997464423
63.023434552040953 -71.983846179830053 -239.834693499116327
-146.290950265062691 -69.971020261464332 -235.082792695927623
67.981604972553171 -67.379526390620114 -238.995482360965724
59.078425477164657 -68.766219803842262 -240.512303504651015
-160.384060609648941 -71.190730366577327 -233.055317015664286
-23.032694176316191 -69.767812185910927 -242.061808878450762
67.024216191686691 -69.235344205995247 -241.786449146974036
0.162980578730032 -71.226598567477041 -241.582487253849990
5.989098575213077 -71.950911206225413 -246.886436028069568
51.301999499345953 -72.600227631123943 -245.782992676899028
-169.833235000684084 -71.582072168980972 -241.444674297513302
61.877319497321380 -74.479115762133006 -246.063794986880112
-15.836123449259581 -71.975369343045671 -246.426493047856866
-157.297930789635728 -68.414867442085011 -245.062184896667503
42.270637094780625 -71.165430377264641 -256.776385392942188
-84.828186887424863 -67.067520990278211 -250.970300419878129
-80.249864759568368 -72.494577062649938 -251.787418041619105
-94.995041169273776 -70.452575999925898 -251.305774926968184
17.126916727739232 -72.046681495861947 -256.364546153698484
-158.817850953932833 -69.768743859036746 -247.320825330203718
-156.920097065279521 -70.595740794839898 -251.689549915312057
-160.460920778356297 -71.838234228761280 -248.999936065777604
-90.292575296094157 -70.218399658325325 -252.151997138944864
-110.393589763326048 -68.427248049922525 -253.859610202640226
-94.083423285370202 -71.924090712862636 -259.823226439323719
25.027168110296962 -70.646870110220362 -259.965132684565788
-107.675572033054635 -70.016690794361196 -261.388201745827644
-15.666749417014543 -69.643836012178824 -261.399114272601423
22.841882585031250 -71.212871663810333 -266.301001219604643
28.143185816749554 -69.833191934052778 -266.596622812261728
-127.196409356641709 -70.094235963226751 -263.305112733122598
-137.989576133683670 -69.146636914453751 -262.574741269725223
-170.992754705560344 -69.183348481276511 -260.941653969153208
-172.485231523669853 -68.707525377809986 -259.680591628936327
-136.535455403321009 -67.637793087501834 -258.022039179620208
-157.892724996535065 -70.812635652537992 -263.702569603475069
-163.265741533721581 -69.136611472959743 -259.059537817125545
-168.657614049797331 -70.428570930709654 -265.258114294174561
-149.440133820135458 -70.245201812465936 -269.524942668095775
-17.335220761630765 -71.181436262648788 -272.006483326281796
-172.093240030603880 -72.385824168547629 -274.850950670551356
18.899885925993424 -74.456706505571972 -283.356628787276463
-164.671859709829079 -69.383194439346084 -276.028256633900298
-171.396862666269129 -69.591002142861683 -278.092631974537312
-14.048517014097470 -71.955449815380192 -281.704407396477507
13.175249431317702 -72.248898248885240 -285.575815990886269
-172.859908916565246 -68.411299529758637 -282.806849802113049
-159.984050259514817 -70.543805187795428 -281.753661422572122
-131.118573405785298 -72.191593476567405 -282.039170128462047
-15.569624002093725 -72.165229317889313 -288.321522263598240
-130.075262832946663 -71.321580427643866 -282.955876589148431
-120.432580344615104 -72.007196016637053 -287.342890298127998
-118.409471741989620 -71.566324173949695 -286.655676656697096
-102.350461964324381 -67.693183097199395 -283.933486730667539
-155.025528034199425 -70.780535507336168 -284.083626726758894
-95.142011906516245 -70.110748594117794 -286.822178458535063
-74.889097701497434 -69.169437822965236 -288.381338076994098
-166.091908583860885 -71.226178831871579 -285.088553529457045
-85.974932689345962 -71.915785016389123 -287.024234781659231
-94.481105553624303 -70.844218751821288 -290.465267871468484
-161.618636912731120 -69.589854152333587 -290.359481143502478
-110.683871345741153 -69.694546955504777 -289.392208076205463
0.337167484960798 -70.052636613251238 -293.683279470217826
-159.174967037333289 -70.920754862933990 -288.759630723547616
-148.902890583733154 -73.809537172795345 -291.927488027839217
-135.956846774389930 -71.557375393801877 -291.894343213314016
-153.008591216113160 -71.148058732026584 -296.406976931456029
-162.890263362727410 -71.254048553984177 -297.281312505311007
-157.721701580033880 -71.329149003520570 -304.228432735831404
38.429118059242541 -65.520956929410019 -15.889594887576017
55.779733736124648 -65.047059060545209 -26.892107006183231
36.081444667300701 -65.298622605760698 -42.336032340599900
-72.605635441073957 -64.583900034404891 -49.146294628406338
96.855305474336888 -66.411944879298389 -76.024884644552799
-90.182611693315636 -66.237122496941510 -70.578770898829220
102.796720330542541 -63.881610381070956 -84.481967711173269
66.432266828153331 -62.920077652566007 -87.444380170752083
69.630208345518085 -66.619796264130187 -90.690192343684458
58.221975199155096 -66.108014164258961 -92.233997083719345
102.917353755979349 -68.080219356941242 -93.704396016741754
67.573759549143674 -66.308194386144748 -91.826678511471215
53.450561396391819 -63.918613357365601 -94.954439294386901
66.750298274077551 -62.800437583886648 -93.687277676418404
64.386469615435885 -66.242134848423689 -95.624219691215302
59.271635988307949 -65.283318448110109 -100.835743472709595
65.207749645750312 -68.817325287510030 -101.694802810193437
104.786912861825840 -64.285827314888635 -104.063208630724205
103.587186740121354 -64.044998584486308 -103.663043905262100
71.848942929355744 -69.796842386197156 -107.505270834342269
48.108339780378877 -66.007485969876143 -106.416266363817954
76.157634755568495 -64.530649516100169 -105.443376921760859
93.401300135961009 -68.864849055395922 -113.849059165533561
-75.677728904637490 -66.747394880352800 -115.113700907271891
45.055995538129757 -67.186325632998219 -118.728160630279518
42.076257905753621 -64.973076844107922 -121.305771453215527
106.804079251014571 -66.347927526339404 -125.047388164087550
