# This PCD file was generated using the MATLAB® pcwrite function
# from Computer Vision Toolbox®.
# .PCD v.7 - Point Cloud Data file format
VERSION .7
FIELDS x y z
SIZE 8 8 8
TYPE F F F
COUNT 1 1 1
WIDTH 785
HEIGHT 1
VIEWPOINT 0 0 0 1 0 0 0
POINTS 785
DATA ascii
2.157057380892478 -73.089759963334686 -237.073440146499109
6.770782418875751 -67.649870200209250 -242.818199081945835
26.152108584795741 -70.324141504135895 -243.693549912029169
9.117764700431026 -70.168820047311456 -243.296810319343308
66.007680738809270 -64.566460819851414 -245.428117154112556
17.351998351722191 -78.214814448643367 -237.977076609871602
-4.246980444853204 -67.720727922129655 -246.063525579686768
70.070831961427032 -61.732966327259831 -240.377132466949149
64.000828415226152 -72.390747201598003 -239.297240967477023
60.159863769684421 -66.115957019002821 -240.823245545289694
69.645182058060385 -72.294641317188010 -247.688233668142516
-61.741664172897956 -65.867214464374030 -254.426396690147158
-138.429815075138151 -75.169863078638741 -259.179117358818246
49.728108618520508 -74.861337735514439 -255.154042077098154
-126.386721688780128 -72.749287459998740 -263.988983775417069
-3.651331795000022 -66.122274007307112 -258.840776925937291
47.640130851884322 -65.803516438373350 -259.520493636734955
39.534349682329307 -72.187590841284290 -262.848367292263219
-147.823394309431791 -73.510404243993761 -258.051416742876313
-3.395935577084536 -67.828094615488666 -269.031401514182903
-103.071149396427643 -64.643502921205567 -268.230866298780882
-131.564297394045468 -74.023976236351359 -271.610540242650927
-104.211678693193889 -70.435021806530699 -268.493343802358879
-143.031093108828912 -66.814958436885661 -272.864719988174500
-114.928278398053052 -70.587446541014387 -265.320805812474646
-156.726807624501475 -70.155749894647983 -274.989742441864053
-139.476477690871121 -65.973859899719272 -275.642713163690701
-151.726832134201487 -67.376108066016940 -277.404314700529540
27.363356114365402 -76.626134954333821 -264.526567197348925
-5.628283318869563 -72.684582705883358 -278.194067302583505
30.654781546033579 -62.909008100869258 -275.232690538200416
-155.007888886072749 -72.345139050768822 -281.575439076732550
-149.174760205491253 -66.693920008680848 -288.374338652099368
-142.214304656359076 -68.716072829572823 -287.666636223759497
-152.722938865365421 -69.572364611156260 -291.673660027768847
-125.174833453668995 -73.665091019658931 -290.926243629451562
-127.240664893605711 -67.129994286824342 -290.659456710466031
-126.700842900475024 -72.899971167173305 -295.627661457228157
-110.357054309485463 -61.637738189454765 -290.474821496883465
-149.724084947883995 -73.285431811848611 -292.623919259921706
-99.914085567528701 -70.039885740081985 -286.044293775086317
-61.222100497915719 -71.840736121466435 -289.281467761387603
-54.009652642265664 -69.728422949153369 -293.237145631932663
-44.038277198084629 -69.034156062914391 -298.896194713881812
-42.366777794811085 -76.227516251302006 -296.778311272111239
-46.208589592003491 -70.977502514827279 -295.652205835551797
17.109873409616025 -70.471948448908762 -297.049692041541903
-69.265709498427157 -73.412688866043382 -291.069129122372885
-55.129390771784628 -67.290157483229109 -296.669416122569828
-0.871841955304902 -68.926349940958517 -289.447837311500109
-156.158113103322449 -67.177873808392675 -305.635766492115124
-84.248439922349135 -68.340033734970390 -289.777464278251614
-111.141483464928470 -71.234367704557513 -297.939243520784089
-126.374564703834992 -76.386871026799909 -301.934759867470689
-109.428025441613059 -70.683654549767766 -300.123800555316393
-148.506538171208035 -75.250903604213860 -304.717034236458403
-143.600471591297008 -69.415260913962484 -308.907580370411040
-137.079537321386340 -73.307737861616104 -322.675493390828763
27.807195890247534 -61.083874952651669 -11.105190555799794
43.835943660079863 -60.753781243039818 -8.589261297773518
28.498581891666880 -53.132064686638671 -18.009183663981570
45.195179403660227 -63.704615428712536 -23.452191399005887
41.284373866830876 -57.086627520008307 -12.569627708878269
29.383367045920735 -62.594679801774120 -21.217410751492874
60.404996710281878 -65.994923387026390 -21.976696530910370
41.026926213968139 -57.375798113820849 -26.474452362578024
44.318589337386740 -67.976805822859575 -32.813783796618893
46.417898445753721 -59.836959538347344 -29.963925285773879
39.882324392920282 -65.485085150428787 -35.534427962359629
47.293806937045353 -60.998697565573138 -36.648272900685612
40.495097336917823 -53.539518316450447 -37.919184329992532
33.133535633172286 -54.529274850777497 -44.475892623104329
39.354753646126021 -59.554722246486662 -32.530280025347551
38.107260640654388 -59.706489825325875 -35.447606455670538
32.774390038888896 -63.083826169605892 -42.694188528247494
31.881541775672535 -63.441440964435905 -44.069609667955561
37.074473208343029 -59.006728936395291 -45.490452781145081
41.992523281910614 -65.740357023471944 -50.444216326323257
-54.462016585287458 -61.832658030569917 -51.851955279919039
-40.077908208066589 -53.339254695962538 -51.761967280290449
-21.041290112461919 -61.356733333304504 -52.512823887601613
-83.265669578356722 -63.455994943048154 -61.347513045160184
72.639520500072365 -70.504758089461419 -78.106882061082089
-21.387754324477111 -63.843410461820397 -79.138421410318216
68.415521128765818 -64.891876927524095 -80.092843215267450
70.650637689117133 -64.242267620951452 -83.239366678849265
55.107052215757790 -64.444484884670430 -86.321331301933725
66.135613541657065 -62.733551076214660 -88.245596883415018
64.338538609398469 -59.169762035403323 -88.291356980247755
-64.941353992481709 -67.113973465842179 -91.454757449666829
113.066700922390211 -63.622950090160877 -92.547947647316846
-92.459547422722352 -63.077164798048294 -101.660012270758173
108.273705843500338 -68.505850813225322 -98.318798321551284
100.052348093256271 -57.893080037631911 -103.429338654661706
-69.008552496577906 -58.248624356011646 -105.640796635481649
61.586760705197534 -61.263874222767711 -95.758464083929837
82.874023330911172 -65.129780759849666 -97.027862030636257
-69.719508780257769 -67.616942660235139 -107.286404666701216
42.475520577062937 -62.153634669850398 -104.864426869393299
110.424328050832159 -62.068408307933893 -100.858871373360742
52.035537712452111 -64.013338142440389 -104.876181304346701
90.476449781839037 -68.949222340778945 -100.413883414044122
-85.081597204364115 -57.573903642920023 -110.111995172300126
55.085072773727092 -68.568483737292169 -100.072811809217498
44.102782321575781 -62.973093034087675 -112.797695317309916
48.443262700006358 -65.509758140394254 -115.578029969503461
-69.352485315941905 -73.725124770259342 -116.128958953955063
-90.199520226343154 -63.237001786489415 -110.399736720696367
108.274690631842830 -68.000361594871720 -109.607462620378840
-81.123282074435934 -59.650370971015192 -120.276845217063340
116.202690041911652 -62.274526643988033 -107.286590026677786
46.621891761651554 -70.007198494985403 -110.192549037349750
44.424084681074270 -65.601204984930817 -120.667918349830529
41.037191415465159 -63.470701256879103 -119.880510049789422
117.707565410505907 -64.111214022815517 -114.084948620049971
-73.096521538047583 -58.832946171285371 -131.938341313050159
-52.480084784087239 -67.280810870793260 -126.826023625662003
-51.209233456042398 -63.932546734917580 -138.015980980306892
110.422322746661322 -64.801728655836754 -129.551583318088632
-48.471945036656066 -67.973341978162992 -141.105419509683685
40.329386589387276 -60.721401841092700 -135.525440986511597
-87.586465387897647 -69.038719505973816 -130.541728834690076
-88.807201054237282 -62.473328690021461 -142.395350178399354
120.550566519802700 -67.924101587645069 -128.566682008790281
-75.964865772824254 -61.993583542726682 -139.227740049189293
47.127575744412603 -68.295735027980058 -132.780320514169091
-80.539484472352228 -63.515936943810935 -139.235357048866064
108.457860751057581 -72.522679955370620 -131.166237937085839
-89.691480036283522 -69.438518842311410 -149.102125928491205
-71.847753284038802 -67.413566412236079 -148.449356119498873
38.788445288837956 -64.446955031586242 -139.217769034159062
-64.428896907389273 -64.560573769009210 -151.826689247202523
116.768788667450465 -65.544038186906576 -149.871767130655769
-62.632384950254519 -68.458785894099634 -153.944863843590582
25.108667766548155 -67.273542998556849 -148.079313923419136
118.986672162961128 -70.294215385509631 -142.834559066241411
-31.895042889117139 -69.922732536965484 -151.773334157680921
129.486565254630307 -75.018816540450871 -145.761014312541306
-43.411659251453912 -64.604922609347867 -154.725113551085087
-45.343975550367233 -64.501280428038669 -155.578674601845080
4.608521056708444 -64.697661063403871 -150.743266319155424
-71.495083115250281 -69.050561831356006 -159.628506653197064
-45.434093495448948 -64.295330014453270 -156.397122008510564
22.745317825778674 -64.506168840997091 -156.956556948228950
-36.749491659328768 -64.676528313553703 -151.729144502665520
24.811831875362717 -57.024511187260138 -160.282449492926787
-42.492158058854230 -68.380057808165034 -158.701011291212268
20.952865197329455 -66.550178494029893 -158.471824980849192
15.872946453468485 -70.205414149623977 -164.355522466720032
36.128690769969182 -61.460276636506386 -157.885587194366593
26.651596685632562 -59.635454906150812 -155.361823351162457
124.876373646039781 -71.309077762684851 -158.886469492986976
29.895087367308847 -66.174814130994477 -166.496988246262589
-31.583331584147491 -58.333951602515818 -170.255364997249700
22.179475737205731 -65.213962908208373 -162.406972406817886
116.540568772255540 -66.128495245592987 -170.453221643426645
-35.112919375777494 -63.368639002970909 -171.713578849846101
28.378600000419148 -63.614068416042407 -163.795314429902305
111.021170874910723 -70.293219496886863 -173.488475673533486
-146.112864186226062 -64.825599945086154 -181.204354366751176
-135.290366747193559 -67.837593438371158 -183.923711968601566
28.159253588324823 -70.930631059551260 -176.664641086435893
25.694344720500080 -70.993484819500026 -184.138658991946244
-96.568663384841173 -66.121869305944571 -194.308938691643021
23.139114186478725 -67.815289077376278 -184.861733360226850
-20.712045168002145 -70.140287530506114 -182.305789605227176
-105.613693781016096 -64.241799937538730 -192.119700649573673
-98.525669063980459 -69.178930582322479 -190.353502040650085
-25.819060446030516 -61.810155435574060 -192.110124410047604
-137.943869983329364 -63.358314725798635 -202.262753735100631
26.042940887638519 -68.160094699701489 -188.480233218378373
-21.543852821022941 -63.197877589274192 -191.983882736877320
24.188255008489037 -66.215085100670720 -193.780384084071073
-16.662506882778072 -67.478550617285478 -197.490854551254273
22.664193777176433 -65.265048440743769 -192.840283880042676
-128.301930273622276 -67.725440272164320 -208.746689900029764
19.739668271908375 -71.887418074544215 -193.870434868622965
-132.040019327975557 -63.648295895067690 -208.786392297788126
-7.901319794657152 -65.047882518941506 -205.489231741692777
28.815089321978011 -69.634800180665309 -204.450882013611448
-161.589774919643531 -65.488320639130876 -205.829588255177669
107.652921135551324 -67.185733699561510 -194.312336261241484
-101.823018624828407 -72.225492394911484 -201.783710047389519
18.542994097759610 -75.235420234254519 -207.006255299130146
-18.007388709264614 -67.875862920315043 -203.347238326862907
20.988464948840740 -75.348002755358735 -204.407652735004604
-129.955500706129897 -65.876428779843849 -203.734580057550829
-120.750996173002122 -71.991731929175629 -207.462223326281247
-119.666663491679159 -65.781527744794488 -210.370645784502045
25.120043154800623 -71.860772346440172 -201.961998643764588
-4.807187636917060 -71.768511550302506 -207.495979415399432
105.621691190351825 -62.958482392143409 -207.586541238269803
21.058548405919808 -67.605763369019755 -207.201778539112269
-12.251325807226973 -71.404921976509129 -208.791422273241920
93.618552638868977 -66.886234275166828 -210.400567574981636
13.937409024931329 -68.552169588895126 -213.277388497838302
-12.434098677198374 -69.151268770709422 -213.326477568860781
1.682132585163757 -68.744244314617333 -215.330847342502040
95.227330743587700 -75.685673631256648 -214.419794862088111
103.328121939423312 -73.472719011361662 -213.777831620068042
-9.483637869455986 -72.521892343113436 -217.037656001242169
8.626695603032035 -66.138002105172660 -223.186074847677702
-97.558514609953889 -67.953432708009544 -228.743397029536595
-137.419582672473382 -66.448029774168390 -234.981685433441839
6.612469958220281 -70.965804933144909 -225.404150026497405
87.784177013395237 -73.459131164366781 -215.119514200513578
-126.722232149486970 -66.244972017979151 -234.369007953183313
-0.059314106430303 -62.926835646272039 -223.780433673139640
-132.402102784488989 -68.223341068923034 -235.788985448116478
-127.037963462509154 -63.452654284145403 -233.490837225599478
-124.410668514020259 -66.463267884237126 -235.013849666381930
-4.416232623936235 -63.106627865191641 -227.149737195635709
-4.080053751976092 -70.279333316415389 -232.384551190859014
5.200176284365192 -70.307005342214779 -226.674807965431256
6.917734457961544 -66.695834273123737 -235.755954214806792
0.765868574479768 -63.824415589707179 -233.732024647378353
-143.864381724625076 -66.222151234704199 -238.051811473746682
9.191073962309863 -63.714526894379084 -237.564250137205249
18.169114366514130 -68.259155883508555 -236.056981230911276
12.093509253505916 -74.766493968092078 -237.076661925887407
-126.490886351959020 -72.452020267936433 -241.943039017924008
9.676326755519620 -65.998516905572501 -238.196304488341696
-148.126752292566067 -64.155573306586192 -241.024940941218233
-117.360227773129637 -68.100412216781891 -244.980465568229420
72.219877784871514 -69.751994460943251 -235.962980116601301
82.230009895639370 -67.038199912968437 -237.121857129635146
72.951573315977683 -71.310897257854108 -232.668426394174219
-131.670342078996441 -67.897098716106498 -240.730603410194988
77.397274304443968 -73.512155862265928 -239.331819746388106
69.562424827368545 -67.274973315875869 -234.220683790089282
-154.376055580621113 -72.623545783058034 -246.844134213655025
0.574109207352453 -67.244080200326707 -241.645573352879694
79.737298296769552 -63.848916314875900 -240.885802137560262
11.252254716447341 -65.607515677171904 -242.800135649311443
21.767428765151628 -70.716008170569751 -236.351462135150626
64.548133103385339 -71.586011982092529 -239.105779572811457
-159.347906526079441 -69.362473974518835 -254.514389147908275
71.805224201519238 -59.559753685434806 -240.606074210941642
-5.291054084569495 -62.088302631458475 -250.521983750432412
-142.056959756126076 -66.591702913481072 -258.534506991617320
49.222925640841325 -67.529610205301850 -254.158973302471850
-73.495417117883846 -66.243049493414802 -252.710526419113023
-70.363129712341021 -60.957614724637111 -258.597235110315296
-82.091741026660856 -67.185127158058776 -253.001964015952922
29.902388872720973 -70.450341675086321 -259.937683582271575
-140.445718699866518 -73.407989972849947 -260.183368981808087
-151.463145156944250 -62.377205011335839 -260.276191655233447
-143.392588019985226 -68.618622068426276 -260.579412679652535
-81.325739367157666 -66.788622941687166 -260.233277639521873
-99.221430614627181 -65.811719553948407 -259.364050369069616
-81.620364023922264 -74.724613773089146 -270.751286211525212
33.915866126276171 -65.202287336735765 -256.887982498973940
-92.983258609406036 -67.299151049973517 -262.325447801310190
-3.791939603954511 -62.073499576293194 -266.649802629198803
33.466576260349640 -71.296730648681105 -266.339953836754944
43.521050144915293 -71.698605642623605 -261.990042255720653
-106.211132161214309 -59.488078506157443 -262.158026094303466
-125.260750690304505 -67.855156915430200 -274.480028625008174
-159.918586207926268 -67.074417832271621 -276.826672859732469
-162.044673353904784 -65.220113710260890 -271.202662206217951
-124.036956674449172 -73.187490139508256 -276.241072678994328
-138.344714181526030 -66.066776137445729 -281.573480646877840
-150.322668095095480 -64.225735863579303 -281.799881132184566
-146.736136746235957 -71.812579458961778 -273.826395864758979
-132.415611713785609 -65.646757831627994 -271.691952484056571
-0.113540217372886 -74.806492737458072 -271.428160508060785
-152.008715389590321 -67.648980361903980 -283.954945811572713
29.312387976211404 -68.122909019717596 -280.575858686418144
-150.687350695760017 -75.793725037067858 -295.633311525336637
-150.295567238338691 -69.486667036042419 -286.211042886415328
-1.869691520439122 -74.341501336597631 -286.719171624124556
16.833836164535729 -68.139670506895229 -283.706974879249572
-159.859476388215455 -68.083161728098759 -291.149193857293142
-142.127878586575974 -69.389555749539497 -289.014973366981621
-121.484707296641929 -70.830954882032344 -290.017867859216096
-1.096167994920364 -72.673881049779169 -288.798609321678441
-118.141092481752494 -72.897594742308314 -293.381404042490487
-116.797112144729837 -69.468180955626110 -296.479079348400887
-108.762937095036662 -72.473201395367212 -300.712932809374308
-82.796824814248495 -77.521464539176890 -288.408580599146262
-142.671947633370053 -73.864431564564057 -295.328483557913160
-83.750295289731980 -71.198429792215762 -299.674115833958240
-58.550023621836630 -74.596143033584184 -289.444155684131601
-151.173280639649477 -67.575230460667129 -298.401219966441545
-77.534465510376634 -71.597196411081711 -296.022468292241172
-83.059282516149409 -67.543688160830584 -298.996270755664739
-147.302137370616720 -72.380545378536041 -308.620431265934485
-103.705998641094297 -69.871516857979557 -300.266497951337158
14.506084462932010 -70.484443835056226 -291.878721049279022
-146.945670213830709 -67.644596856095589 -301.591433029034874
-134.597946662274893 -70.772598579443112 -300.331136360461812
-124.400889141619345 -66.450989944045034 -305.184447690149398
-142.624008022728589 -79.278940973998601 -311.029025979233097
-150.658766833269596 -68.295326603089592 -310.120915612319493
-148.091364555332234 -63.534777610662942 -320.171013857008347
39.525005603571827 -59.035884022774731 -11.661429978689508
53.821901335313065 -60.572383860264303 -27.731598288495181
37.217436610604068 -61.565513490735299 -41.422368179975706
-85.899643308691182 -58.168962680113154 -53.194818002426103
103.089191540721828 -61.531809474328242 -75.760467216121569
-93.499289028944773 -58.722611144726230 -84.956208415355192
105.742000602180454 -58.524062971993878 -79.121586247156642
69.959161819639831 -66.598864133760458 -79.041865312865468
65.262520862482660 -60.447284065621389 -90.860610914918709
62.737563949135406 -65.518701906835801 -84.918471402065407
104.407978814536889 -63.076386231630870 -87.870333711052240
68.232187274978529 -64.188937858994109 -87.535937635115630
50.559839043805297 -61.691309133808481 -92.868744675468150
70.881979020179372 -55.302452809259556 -92.881778381783917
63.734074615739189 -61.996581094576413 -97.560125798236612
63.999815483622626 -66.678509791345078 -87.520479160517155
72.725256101388823 -63.586460450426962 -94.576838835494982
107.437695830461635 -68.641957793232052 -97.682225790032987
109.489149515559845 -64.486926516330641 -96.372442218639378
76.617312196773284 -65.679869521411121 -99.396422287348074
48.625244858884237 -55.150764533814339 -105.018351593511397
73.694455936263097 -64.459824846183523 -105.662281254145583
91.038527589536770 -61.707617329984451 -107.090027511763310
-65.186749241444247 -59.589358193152151 -121.130135083350552
43.514538415898443 -65.826830325918266 -115.910865232498168
39.197604358799317 -64.565426224511583 -124.232265426207675
105.270162395643112 -70.610390054983000 -119.331249391452928
-78.049201626842461 -66.967982608659227 -120.921359929135832
-92.200759108767883 -61.180407521198461 -125.696192687104826
-80.241798268630930 -60.800406501861943 -129.941794521335765
-86.921521911460857 -64.821169853120111 -133.307397964945579
49.019375571273251 -66.088291039716580 -121.530926928733379
-63.021129176771041 -62.395093879352650 -131.791455578065381
109.782683719943066 -62.810138130353685 -121.584509996107670
113.224879983244151 -64.309101663163034 -128.631050732059265
-76.636035820131525 -60.720937819343668 -135.625917762769717
110.111403965703872 -67.217020477585876 -140.676962276163778
-50.197923575513371 -64.848581505535421 -146.673413753306960
-82.216872012405446 -63.457881062039974 -141.844057091393410
-62.737355981890715 -55.510743435919075 -148.718139398903389
34.447895843657101 -59.219832210593474 -134.733518912838065
30.464728021513082 -63.835313381024427 -141.144205868875389
-77.085335945726413 -65.562981519825712 -148.505978488770637
115.515955493736158 -68.150294805884940 -134.632482212007289
-91.105689888924474 -62.215786974107516 -146.603063098165762
-49.437553313245260 -67.286404233586353 -145.373928044763431
-46.488431084807218 -64.698075244517881 -151.100409904879683
-71.320025457208715 -74.601234546658503 -150.358395488614235
41.465533654144032 -61.534196663880927 -147.687616460367366
-49.525541890081840 -64.495071357450414 -146.996711021396692
-52.316487960085098 -63.029199903685551 -150.080334241924930
-92.005142632299766 -64.509808152695655 -147.571782007007329
28.557083515779269 -58.765753444918069 -148.071775257050462
32.405543182095229 -64.607225203195114 -150.489401920960120
-36.131715102588331 -62.426077603820438 -164.080227621672890
-41.987766049948291 -63.490692051444370 -155.867099678324308
-94.559354277251174 -63.226765755476187 -160.850404437783084
-88.994197341543369 -62.905294388107372 -163.873570880466190
10.802287771884986 -67.001480073277079 -151.586780484867262
-37.496913924943897 -59.798207166407430 -154.956167301303168
-35.882791393755298 -72.197429211756742 -159.953365777511237
29.672979132203810 -63.455321897125174 -161.751019522696396
38.567994449665747 -65.464346218861337 -158.558478266090617
24.680175339183510 -63.928398622648160 -167.525316093366428
-88.339253424112215 -63.948076646891224 -169.418935131828277
-99.820106915641759 -65.862720943264677 -179.242831217748972
-33.997530568269809 -70.821257033437021 -170.055343111284174
-94.705221895828871 -65.626051826417040 -174.859940606747386
25.785392373393677 -65.854263885262228 -174.271427690161460
-101.523472393438723 -69.551793823244068 -173.833211388884166
-24.953182837314476 -65.956435012756856 -174.947578308215611
-29.783829500810551 -64.645082298117444 -180.723651463762707
-143.656557406812425 -61.627973026566657 -183.922590098301924
19.143270857126570 -65.618894144105894 -169.790274767580996
29.349662218161452 -65.698387322673483 -179.546152046072478
28.531853750520387 -67.599572403487912 -189.154081056125847
-23.750417783957186 -58.095358282943380 -183.459089170350268
-24.624121041958634 -69.198997322198835 -188.293441797228184
-139.665671868809994 -61.624478820518782 -190.037431862507418
25.409593044100667 -67.510985847814709 -186.312252664851769
-17.826570772056240 -64.053734397065369 -193.752082503765365
-105.896478060104400 -65.098426542858988 -197.790986392012002
21.195896663354667 -65.194134768024540 -192.692422996853850
-20.091172267362172 -68.422515637491827 -202.069423553906546
-111.617703668198416 -62.263868364105512 -202.104906604907853
-12.754171866997527 -69.142048120328752 -196.238914985833134
16.709979287568686 -69.662046278634392 -206.012303586595067
-6.372875825451079 -65.074819512841316 -204.417543724538149
-103.499816387588240 -70.607492361470975 -212.346704026292912
18.864899897005948 -63.039299036891158 -205.056631557707362
-153.510568432770498 -69.089771230229246 -207.369154244379587
-134.180901550398289 -67.001525575589326 -216.164930897389382
-12.243634589160724 -69.291368119566002 -196.014876770456198
-8.927060217047238 -66.288995781243145 -207.630485016564592
-137.299549097371909 -70.269029871139395 -214.020060736188213
-154.988673504009910 -66.902031625886579 -220.538944858912544
24.579524721103923 -57.584639728717271 -214.102817156966211
1.708318992728405 -68.219101458517727 -210.199682063961575
0.275963852622937 -68.865141757594301 -215.513089462013426
-138.832968583889510 -53.840991301391256 -226.946522606967164
-9.040139543813805 -64.174115670669792 -212.187697281801093
18.819153783242509 -70.527002767811538 -213.433418465260729
-2.519427706985837 -75.752626969195063 -218.452434926339293
13.827423314130222 -67.851221531658908 -217.950149878428675
-2.304777963422037 -63.047895583353451 -226.504667068487407
-92.460449675404163 -65.963138970230673 -229.399264202632565
-153.802031308474426 -65.846457982826834 -228.054107138357210
16.758579533994244 -64.365074980436916 -224.340054587924470
-99.098644662676890 -68.414686553127098 -228.155145831708808
88.891718835095602 -64.040884394154119 -219.204904743391324
-149.225494406248771 -65.134323060236042 -236.342542776040460
-119.916926768524959 -63.967762298661221 -229.720703014411839
19.191526411740334 -65.304740398695643 -229.796626249772032
-151.580863223187436 -69.628249801561651 -234.060770377320466
-123.275277134275214 -66.934060415892532 -232.662947086821646
-123.893643211379597 -68.283666818665168 -227.597810355567560
-114.758232177898307 -73.695317657625452 -233.920464358245965
-103.332766457073078 -59.739232130904917 -230.870094150347427
5.550350008988765 -64.674112502139209 -227.022444958378969
17.248923556949649 -67.381940421084082 -226.752523052030199
-152.606828796138529 -68.804673912727523 -239.121265241015777
-3.950109952466704 -68.510938153637113 -231.547275334671752
14.959162202612779 -65.913755029873883 -234.198724392295730
75.375804754713286 -69.613472768191542 -228.516617019934444
-1.700565756692971 -68.548636657360845 -232.410455930660248
83.637211498194887 -64.063973280971098 -235.811556787514490
9.776586010994293 -68.090426116469033 -237.317891080313387
8.460265308498224 -72.724463817077122 -240.574136569509818
3.103471047522106 -67.790852026020019 -241.715949038772436
-152.001171512850078 -68.029999000661945 -244.982799692168783
4.930522442989719 -65.305289068016407 -241.530101116376244
-153.843276797148263 -64.702211095976352 -250.392296767877838
68.063190375299286 -72.379809934034796 -242.950055041233014
-149.879821560349342 -61.427510945960627 -251.254708291656300
18.054691098505494 -65.921573460145410 -247.903789861263590
65.889021524240945 -72.439137285564058 -245.055575970264556
-157.577924385204511 -65.402380003835432 -255.347095433712866
-150.998289270578709 -68.702001467468506 -255.991932801777637
19.066168608995341 -64.257666093161575 -244.947302355294710
56.233080013674844 -70.435159242816241 -246.858217529386650
25.030994788400008 -73.742499600315710 -249.037924045817817
-4.133847208518098 -63.625605248485996 -254.168416720664254
51.123489051381554 -71.447333546371098 -257.288206381862665
-155.589024596793962 -67.468116685178444 -261.138024911769662
48.358753469029729 -69.835104696788676 -252.353455219733746
-138.777714109389166 -66.715987187150930 -261.212308637767762
-155.965325890486383 -76.094013835651424 -257.859830710036249
-140.191880537710972 -73.772886971427369 -259.359449774293751
-80.071436344656746 -65.201018445121434 -265.232169886202087
-113.750285213925721 -67.035480507687240 -264.646504965869667
-85.302518250831895 -67.423924223191960 -269.942058344385600
49.644676754976295 -73.632851274212882 -255.251047588549397
-1.834019751661948 -65.344461499990103 -259.801344664441842
-132.839376003989742 -74.290686560831858 -260.630568422918145
-130.787930736855685 -70.209666395545113 -263.917688863330341
-105.594935002629668 -67.264854173483769 -255.034740832706632
-101.810275899168303 -67.099497449883145 -261.744499609391880
39.167688032948050 -67.982495616986100 -258.520510333474419
-88.473456575528090 -67.193086858567796 -265.165854579909876
-150.269295949150660 -64.067988798597767 -271.176005866394746
-162.584683550046606 -72.210639769504809 -274.696924562666140
-149.219912766388433 -71.163030191855682 -273.061432286137688
-157.908435435664046 -63.353386304084523 -266.362868123656881
-145.077496324976323 -67.193386993203902 -271.038640311386985
36.422342634901625 -71.220043913142518 -264.576163336637819
33.857185387511691 -68.162298525802882 -261.823766354346731
-1.895927441664707 -73.793355235793427 -273.948227599411496
-140.208436913963851 -65.406570706180148 -284.900035463627944
-2.471381093128912 -65.889746552762944 -273.969453175541219
-125.929887408890650 -70.782806188582313 -293.724333105047833
-132.186591239254625 -67.166057497445678 -292.759718932590374
-102.884581879015727 -62.442505108567246 -297.874920861021337
28.218641615871618 -69.637711412494099 -286.193541995597172
-73.052789519567185 -67.615719632223332 -292.482556907781373
-140.119100070104622 -66.200738292515581 -294.059368004801286
-93.324590667606955 -64.734665998689849 -294.763179710810448
5.575069230662450 -63.346080180805693 -290.962959094127541
-135.600125677143922 -64.601176735171265 -293.323089170074581
-84.835393930439110 -62.051396592549445 -298.763176814670032
-131.571385994315250 -65.363013455526641 -302.096655857962162
8.960915130051170 -67.496412765567584 -286.417370460422489
-130.378354421496198 -70.083385980810675 -297.779746519789910
-111.849838896206947 -65.804778687837498 -298.573589839502745
-118.017041626783467 -75.855283316805981 -297.436367670392769
-146.867542900555208 -65.117197183484365 -307.945695695381403
-144.877692542935421 -75.294036282186951 -307.439578795322348
-133.836755895773820 -72.208329943263280 -313.333402399747001
43.775997510218318 -60.175641482067512 -34.769489139820379
-30.740349297186857 -63.295558358771359 -46.939247139013474
90.794802319267021 -66.945992124345338 -59.602217588547177
93.033981582302175 -57.938196583208672 -61.381965684157251
70.632081684452146 -56.631228751680972 -68.189105619370295
-89.799933129122110 -66.034464269301822 -90.386687392782989
48.877547044421888 -58.994868659156751 -92.206153485270107
56.508627180199326 -53.281959935778985 -90.416318534692138
-44.476810349631705 -56.643187943555908 -96.666361776754897
49.144427158766447 -65.375584141073347 -87.477746095178105
62.183568422284694 -58.625428099141118 -89.873158780758942
68.382334859539256 -56.857178989199639 -86.118191379365925
51.634064336740778 -60.503234773295794 -93.944123817039838
42.188560981553067 -62.753225756260420 -95.793476362276394
105.479185156400149 -69.332415211467932 -94.157057198553701
-69.228781476098121 -64.372882158767283 -109.697687468767285
-81.724945973052158 -61.627893678619564 -108.410395389810674
57.860039449539016 -68.487588166780156 -97.122802484754686
69.212541225019734 -59.350836652582963 -99.644484119978060
-69.615665428653728 -59.312181848619971 -110.021250062370711
-76.001198002006404 -61.378959613499745 -103.617080847041819
-74.342517182142743 -60.768272926735015 -113.361790970727682
94.689773188826706 -61.027327056425271 -109.135481038049065
107.547791339183433 -66.810738142409036 -103.070628433994713
46.257931182017288 -58.653995922067431 -108.490998227882358
53.390968535358240 -56.765376524728772 -111.933175674406556
-74.929474376133953 -65.345293568990726 -116.038682904916655
107.032899736496901 -59.770564861573405 -104.451554837512290
118.601190219684938 -63.228098036130945 -110.556474763406257
117.005485469850157 -63.414688181245104 -110.880372770850599
-80.332097586252857 -63.569493237832958 -122.248482671161781
-76.529566751527412 -63.906637839929040 -122.154362829447422
-53.694759701365058 -62.207413621068405 -126.443617216111846
113.075362635183239 -67.739196448100273 -124.932818526735844
-78.926307547308284 -64.697495223442075 -137.124357646567262
-45.120346102532949 -62.435921166594646 -128.730098104105423
-56.761483897295733 -57.075193152578571 -134.994084461848075
-94.208504783999956 -64.235278803937717 -136.859313780333054
-68.654522535158137 -66.124939851067808 -132.809664130915792
-68.048746772901225 -65.269126218962100 -141.475444166527126
-73.191618267921783 -68.151035073515516 -138.756505966497315
-50.748329985791543 -65.671818018149409 -140.480474158589885
-39.059547368130112 -65.883781698832351 -144.565437158858970
-64.732761073139343 -61.875081540075008 -150.517715341165228
27.719719646001820 -60.707790783362896 -149.163199053139351
-67.797684371493986 -64.401609796509405 -152.874102073769592
-38.822151368179348 -57.257856660325920 -152.949017577157548
-86.851299214124481 -73.085847623560312 -155.303091923830749
34.276651230946086 -69.416572097596969 -144.346015652336206
-48.319142642798965 -61.912713479514572 -156.175946322700440
-36.269400465979786 -59.905609492211155 -151.473088112899404
30.369700254543687 -60.707412527956535 -159.025478810652800
27.860003461332433 -57.835071412072054 -156.508461547521534
31.042513291828328 -60.921591182171461 -166.163936074917757
21.473948294273232 -67.440217314309436 -174.367526517814866
31.847408193394454 -70.465709197578505 -178.621527040235236
-144.080100850898106 -63.963647251287199 -180.653301384332110
-97.657853115720329 -62.658116362208069 -180.131364312492906
28.684923369662418 -64.981584294481650 -181.264998968705044
-104.469960556934964 -71.516598925130566 -184.012593989182790
-103.082875258331214 -63.854643592767509 -189.335848774922908
30.733103597489610 -59.473209785948974 -182.949745465600785
-98.830190878134118 -72.752501396341955 -199.271272328526805
-143.026671583146339 -67.477804016096798 -202.433215978662787
16.900369266367775 -60.291166089288915 -196.561924474136589
-115.748740370675065 -71.451746446383467 -207.421708833554504
-135.699527169202838 -62.551780622225557 -202.912952893106251
-122.192942739005460 -66.696817520985462 -204.083793073567222
-158.486014896643326 -63.639091608857683 -205.279117467225745
-117.181166607763302 -58.022043066237345 -199.024526373708738
28.958904392441386 -62.225856629836542 -199.850150468397459
-107.756820800036863 -64.720037414575955 -198.175283923437206
-100.638220273250553 -63.198653420187071 -200.267339196377719
-147.454837985207803 -65.900359441656022 -215.274589311490018
-159.330312276328385 -65.062985570591493 -212.049481113428897
17.472290310221936 -64.615405928814440 -207.448804222053383
-148.277012604308197 -66.523393951991594 -212.005456277569834
23.389955493056952 -64.996862774229612 -204.265936643804991
-14.004068952439912 -60.911094880287344 -201.167908920293712
-118.138703284453854 -62.592455968494988 -208.179816641694629
-155.865743117322580 -66.562945561184677 -211.492119521876901
-118.122695812964920 -69.879697801273281 -214.571221855258813
-6.329872786981600 -66.718463138763283 -203.914855747469574
-133.861836962619378 -67.721364819473706 -211.808619699243252
-138.571896569959165 -67.721288190293620 -210.643052224593021
-17.703721287971451 -59.976807770502802 -217.222042554249640
20.580306654276921 -65.172202973750629 -214.179738507270571
-155.536265711774774 -72.268805280559491 -230.095631835528394
-2.758821850415675 -72.305434810380760 -221.333224108687432
-155.614277901696624 -61.899169718464819 -232.859283555821037
-99.488477682774629 -64.683344373035226 -232.576526249003336
-92.247221721785365 -63.211665670810120 -230.732272764200047
-152.235926086818381 -59.512940896247002 -229.090014217897874
-134.718047813694199 -67.569695446385168 -235.759641355497365
-127.800861812572876 -66.603576267674597 -232.643428436288985
-154.921105110072972 -68.435260507411385 -240.068882757671929
-94.119074185336629 -70.572884992556311 -233.475295304581948
-159.742865784139809 -68.863347091562915 -238.429100255717202
-0.650354640162888 -64.414850659785813 -231.079494387971323
-139.306917054810981 -61.370322154144304 -234.449256438739013
-96.563091001278906 -67.870821650210601 -236.338336686845878
-139.740310567007072 -70.230358874133699 -239.824370856183066
-100.858947589711306 -63.379837115754768 -235.423383907258966
-148.059662315990892 -73.296954813951729 -241.416451304576157
-125.603545133910657 -68.244541620219536 -240.551286020882060
17.492021364953555 -71.417847143756930 -229.923178749563078
5.119836025606411 -68.771103752065130 -224.934856313966634
-155.079637643555344 -66.704352998705559 -246.960518102044432
-117.473138855026392 -58.873693518990358 -239.449900546905951
78.378515567929085 -63.141465789867247 -242.765112124991049
78.673456702667494 -67.499233048615395 -231.547119341868637
-160.421792392888221 -65.461661209086387 -243.298957368542062
67.102926437167156 -71.727561908110559 -240.765983172929367
-0.054160400664838 -67.433795115342932 -243.106921486648162
5.494804620120824 -66.190769930329751 -241.757533162349432
6.770675218065875 -69.109646646139709 -237.658349129502540
-155.547113112939030 -67.194085281079140 -245.865235779722354
-9.732827178388629 -63.605721649876180 -242.225888548678427
17.705191288142863 -71.529250933304468 -242.289721547523925
81.883566630315741 -62.344135745145728 -240.278833077329267
-0.316626187171206 -59.308205101716673 -244.354544218797372
57.985503396214966 -69.351760607516056 -247.188030477894586
67.357736724531591 -66.174986213609557 -244.859721815996977
59.824264007402419 -66.891195757378469 -238.154986599881369
59.940357587292368 -67.815116786638754 -247.465533125484683
-157.522648190283519 -70.364734079845221 -257.649149382269570
53.216676534226330 -67.840992259274159 -250.267543805625451
62.030190964383735 -64.671576265195029 -249.838162293507423
69.039020968970220 -64.672644691901866 -254.047184341367711
54.245453086389453 -70.507041189809826 -248.555406930234312
-123.399466130408044 -66.050058656879642 -263.209373893466420
-92.195704097759290 -64.250272203157962 -262.933172374679089
-91.620334729220531 -61.580242864626676 -264.176989513347792
35.605855710575668 -65.606944255612987 -260.032658147397285
48.004220724593139 -74.577599252179098 -252.429987817455640
-124.013559438279671 -68.149659674294327 -262.027317283126422
-114.776989016940703 -69.026776668122523 -266.967185081825392
-141.878558915608807 -68.255954231450872 -264.443239065808996
-134.621019006289686 -68.451569897700466 -267.845926308849698
51.854517305691203 -63.689910392290734 -256.000978624448862
-91.793330493143259 -66.031599801307081 -263.856268385519854
42.784288170473985 -59.475997037723758 -258.329651819866001
-140.932496338881236 -65.424483140909075 -272.731810548357430
-101.828782702396381 -67.508648913600283 -266.838810835174343
33.012666625208098 -64.562931093373237 -261.684584632174335
-136.138841686993146 -68.370888753234922 -267.782630486930657
-106.927499454549732 -68.534059166909884 -267.956775376569681
-120.809593924754850 -66.404942183107806 -265.439319239691429
43.069127019773326 -72.367837297476399 -263.810421792707587
3.516478082162877 -68.884508914525028 -261.966415931258325
-128.546758710945625 -70.069996557316088 -274.925172096961319
-114.291761911872285 -69.521706818471699 -276.016242038754854
-141.565887179557450 -68.767973633009532 -269.904120392772427
-2.252925655481700 -72.886648158894531 -268.183355185960579
-144.318176059960877 -69.382016545551437 -290.367551469837963
-5.953077540125832 -67.132092653686925 -278.868582892318784
-136.214977257480228 -62.253117619477337 -297.972849338462197
-118.341767963320635 -62.208961282709318 -295.067521253321729
-125.337250158646768 -68.159060726713960 -294.379570086758804
-112.872543430946408 -67.999866302123934 -296.524764327331638
-112.135119099767095 -62.507785676434182 -286.558122174852713
-104.333450207978316 -66.486943595699145 -295.969810768915750
-99.874556343417780 -71.689107507714297 -293.116597227865896
-133.041063512444822 -68.637507964254183 -295.549770736449489
-103.629061807642742 -68.291697441508802 -299.726709532967163
-114.442025696238844 -72.692941472062529 -292.712985440725504
-114.514408165940594 -68.750598219949907 -294.264925277979842
-135.772489541696359 -62.478921247881686 -311.232683595842843
-143.218665057831373 -65.006251156470000 -302.046126263693736
-144.479623731573668 -63.345021475578250 -304.774941781786197
-141.272344795124781 -67.232164035568800 -313.627032391154046
-139.755684113869535 -68.024642057700277 -306.600856201169222
-146.349349456080006 -63.811120512854835 -318.192899801636145
-133.542025852135481 -68.957616198186642 -315.930625866973742
-141.285680902943028 -67.076516607273788 -321.783325789681498
-19.070304060017495 -61.675744651816885 -57.299581693730360
-95.701100372620715 -66.137496420455136 -62.232341828598649
74.045945742845461 -61.705140421597328 -61.361382703010591
-10.297132326828038 -59.159013159227037 -68.444971387423976
-8.633521534795175 -56.210619440016508 -67.724436640428593
100.750312364397573 -59.295946687029613 -68.556856907413376
-25.988095244719087 -63.544731760490691 -69.207966931236811
-100.042212180751108 -56.982287162871366 -82.536056426045135
-33.553046663764661 -60.050083154469014 -80.029729288651126
-38.971326510820731 -62.266887072180602 -77.817029653601452
-28.219525809039990 -62.496242573077915 -81.382661775706410
65.061356898054143 -64.569076418247263 -84.738061890028305
59.448011894672447 -59.926706880015331 -91.386622922309186
101.163576308085950 -59.010616574504255 -96.171885327856614
-60.181153698136853 -59.537448337446882 -99.968025235840599
62.338100217916136 -58.157730911367914 -103.017228752281554
97.765325142941805 -60.872951661280759 -95.522350573379057
109.658550078208506 -61.071166791676525 -96.306823598078580
101.385203554310479 -62.659787412809550 -97.945383870341928
107.424943431180822 -54.995118737962997 -98.719115822856850
48.919178587332141 -65.148688614091370 -98.435813787636519
55.648358424029638 -58.609594630094101 -101.183197708381670
-73.297519843219121 -56.232194948260023 -105.333034715135511
53.340063648122026 -58.213208257627457 -100.090239479793652
-65.970296741861915 -56.296137318193686 -95.929904170029147
-74.517525438371550 -61.120918438224685 -110.789579046542030
37.355682141004785 -62.828917868576809 -102.619061015439769
111.479606579003601 -61.399495807414517 -111.374056524076963
51.383877180246429 -57.360632110138425 -110.163793638000072
111.238327583538052 -58.735827166439982 -106.267291543557747
-92.428811149261634 -63.367131436923884 -129.216685476734483
-88.111620900655296 -69.222563360673732 -131.839123479561465
-87.568018594471624 -60.886596000225971 -127.113371151971336
-61.347712166725586 -54.509290712953273 -128.832159652222430
-75.040069549474026 -58.922071969216560 -134.188256161654294
-74.577060913022493 -55.461329279200996 -139.135748605564572
-49.863437212317621 -59.034819954084675 -134.131795834989703
-86.640041507874685 -67.517886993260248 -139.171207295315384
-49.345699727654761 -63.638573002438214 -140.430667597786339
-77.555350296241912 -60.805024983881772 -140.023891319029332
-78.600222783185899 -64.097982071346479 -141.404220203219666
-76.817221296690036 -61.237583661748864 -151.613433132908938
-97.449562745476086 -66.699004578334481 -149.491351592356182
-52.446499295049762 -59.891803635798567 -135.900256767028509
-51.770322253826748 -57.173336682078890 -155.365686678049912
-95.527830072019199 -66.402970525863779 -157.049652301864683
18.227234596307060 -61.280910936514310 -146.747685881889709
20.358662012223395 -60.000511580740039 -150.376009361571363
14.791463119940536 -62.181449165775966 -147.392679091321071
-96.589345044061858 -63.421770989122422 -163.911539858832384
-93.750170357118748 -65.452082011109567 -166.470131144071274
-102.728002237095097 -63.436188619398216 -172.729419786165323
-101.027810651883854 -65.682300477545709 -180.372232510367894
27.983029898754321 -61.715701379774593 -168.804586434648456
26.195456315372912 -68.836937686499240 -177.135714871170222
-141.696930101095433 -69.800544848105076 -187.128301504526746
27.156767933667439 -55.779435910835723 -180.772129012209348
-96.270862757622851 -65.305247540546816 -186.566722959691219
20.684753468822688 -63.713457616569656 -184.127718585358735
-150.089873444155558 -64.233024486100803 -194.769749896917716
-134.054994826497051 -67.060827788077489 -197.601575899743153
28.195237325944557 -57.445850570687078 -192.160362233971568
-107.436803439523786 -60.433669326383850 -204.833258278341333
-148.593250517684538 -64.859744566136456 -199.382225288635880
-126.321549850685031 -61.259259055202406 -197.527144015643586
23.287142688154599 -60.954740548270550 -194.483545318440179
-148.859315496979548 -66.146352523173462 -201.652372030766088
21.645978022997383 -58.182905824264736 -197.955390113791708
-15.862206246814221 -62.283839257379988 -198.581508778414246
-145.903576217396164 -59.448082921656031 -211.674470270832785
-158.987768275160505 -63.015095452376201 -214.008725542654787
-160.942058956626965 -60.996785284612315 -211.136475955947049
-149.918935093665340 -68.162028327312015 -204.100413169995591
-102.788867603900187 -59.170328828082724 -213.017691574913727
-17.145345639705763 -71.602266339099899 -205.651596249647696
-136.779846181226759 -69.711010115034014 -210.775264958543062
-152.882146892692646 -63.752887230434972 -216.108053565613176
-10.481957648084478 -67.021499090353842 -207.601789501152354
-159.387297529555099 -63.230772286808659 -216.237774117717322
-13.828849318982105 -61.102849639947095 -212.026200230628859
-7.532666157274914 -61.253171526197455 -213.353335290573597
-155.988102581575987 -62.233957039241879 -219.262998054889493
-5.320247169029098 -61.937442689554572 -221.114785437330767
-152.810652578115310 -61.289789778372516 -228.221159615265520
-134.688149044279186 -61.707659005879698 -234.375142749160318
6.691666630519602 -61.849897169465628 -227.513126559344840
-127.300670820304830 -61.308406979383101 -232.607781963386174
-96.598352068731486 -62.435375784482304 -231.743255915349778
-154.610938748963235 -61.742118803944962 -235.225065823392640
-105.421341574665675 -64.035125677801503 -227.520340605924105
17.886627570515238 -64.887501312577925 -228.331683247221804
1.159841470046487 -64.663970231972797 -232.636679906147918
-141.963178334989720 -65.630609127706308 -240.244830611139008
-125.033048678928353 -56.357537790999302 -235.894377067828202
-108.628873100606782 -56.002268952476250 -247.286065259607369
1.302483956257163 -67.341167101272745 -231.470073274297704
7.455687526313277 -62.762958465158142 -236.985019476849118
-2.512305839316173 -67.584192060432414 -242.900000726351379
1.969951103110038 -65.380328109985328 -241.445833384336481
12.950006898083842 -62.634429016599839 -241.830379362583756
73.308363334103859 -62.800178403299718 -243.753064665935398
19.731559978688683 -61.024788296655572 -240.406099861285924
20.199884372109199 -72.396439207120864 -246.934152319450277
-6.719262532173786 -72.513310090778504 -250.044394623823337
70.576190419907917 -61.554570423656102 -247.355138099947794
-3.092548531311589 -66.025185905463076 -252.376388746699774
-142.353413489997109 -62.496672109944981 -261.186549669440126
-137.741959505330044 -59.863872156558735 -262.482370775634365
45.879230048328111 -67.697955867111503 -250.344634267145921
51.713728949611976 -67.713020570223321 -261.708285861538627
-139.847916824106477 -65.582999469033211 -264.605130811363836
-98.739876620815593 -66.490843095610501 -256.722049577538996
-104.060720943356401 -59.511857066798754 -264.681138203569560
-115.051481975930599 -68.723275664787039 -264.013160607672319
-103.664396413507475 -69.683822733722494 -268.246256925773764
-120.207043390143340 -64.378235170700918 -268.451846906007859
34.217970850773952 -66.694631030881467 -263.266536237272135
-109.965772186741489 -67.754162367816804 -271.084634842528146
-3.018734647769719 -66.529805831886577 -257.950724682387886
-135.538304117569709 -60.661385890830559 -277.267316391174234
2.015943845056402 -67.327945949074547 -273.156724436258287
8.415315441417597 -60.431826138654571 -290.488921944446474
-130.200051053227753 -68.369921622708219 -300.016323267062319
4.756409592519752 -61.931721365989624 -289.024042293621733
-123.844458805226495 -66.226902643980338 -300.991929915525645
-113.954504913541726 -61.543619289152041 -304.906751467863273
-140.035065941279186 -64.247229455183700 -304.319257484441550
-139.714919057273534 -60.613106974105875 -309.534133171657913
