# This PCD file was generated using the MATLAB® pcwrite function
# from Computer Vision Toolbox®.
# .PCD v.7 - Point Cloud Data file format
VERSION .7
FIELDS x y z
SIZE 4 4 4
TYPE F F F
COUNT 1 1 1
WIDTH 1492
HEIGHT 1
VIEWPOINT 0 0 0 1 0 0 0
POINTS 1492
DATA ascii
20.692518 68.662422 -35.436600
19.026325 70.828796 -34.494377
-27.454472 71.540840 -34.000065
14.749511 71.133469 -34.320808
55.165970 71.590416 -34.621555
58.068829 71.836884 -34.232780
-23.842459 76.461418 -35.076424
13.373577 75.570518 -34.900318
-36.494858 75.000397 -34.967911
-35.549393 76.460358 -34.357891
58.278778 75.901833 -35.009430
-36.234871 77.072388 -34.474430
-27.029331 76.105675 -33.331104
12.766665 78.014221 -34.453602
-22.214998 78.016014 -34.613453
-20.281588 78.285301 -34.615894
-36.300163 79.392174 -35.094170
-35.024643 77.600601 -33.280079
-20.390549 79.814728 -33.529587
-33.754238 80.678520 -33.849079
16.889664 80.862152 -34.106445
54.849503 78.655136 -34.214573
12.033401 82.543404 -32.728497
10.229922 80.295395 -33.849575
-36.357738 82.365631 -35.302704
56.304585 84.130684 -35.192150
11.495884 82.156837 -33.849983
-19.818287 83.888077 -34.781853
56.308994 82.116867 -34.022068
4.007097 83.899918 -34.450932
16.573120 81.768913 -35.919277
-32.620968 84.469322 -33.952793
-31.053146 83.946587 -34.475262
58.769451 83.686089 -33.533688
-33.351479 84.816109 -34.929550
4.916259 84.891418 -34.932278
15.390190 82.627396 -33.101242
-32.585140 86.565475 -34.148769
-31.667145 84.669548 -34.139851
-23.617907 85.238304 -34.469151
-29.962214 87.213242 -35.530273
14.684447 86.587708 -34.365368
-34.268368 86.362961 -34.463543
-1.865282 87.341339 -35.134232
9.772804 85.924736 -33.400879
10.544964 88.855812 -35.486477
53.150890 87.370323 -34.605904
-30.930145 87.415855 -34.197487
-32.855083 89.455971 -36.083809
-15.482286 88.486778 -35.024021
56.516224 85.283562 -35.028191
53.448032 89.391907 -33.996964
-3.880039 90.336708 -34.636898
-1.555076 88.939095 -33.946434
54.557652 88.585846 -34.741844
-3.298165 89.848892 -34.862328
-15.067850 90.938393 -35.037014
-30.550545 90.950462 -35.142574
-13.640957 93.066086 -35.254059
-27.062706 93.885628 -35.618828
-26.767420 93.521744 -35.622402
14.099167 91.925827 -35.327454
54.565250 90.476494 -34.903996
54.881435 92.362915 -34.281490
54.943665 94.682404 -34.975471
6.618536 95.431625 -34.090908
9.980309 93.868362 -35.167473
-19.016811 94.936508 -34.777985
-25.564734 94.982941 -34.395412
51.737389 96.674751 -34.680546
-9.504841 97.840736 -35.178200
13.424450 96.460251 -34.299072
53.024307 96.316345 -36.108402
54.870388 96.961273 -34.668407
-74.466789 98.112679 -33.126366
53.238773 95.619507 -34.337681
-25.451178 99.233032 -34.776585
-24.499178 97.335670 -34.235416
12.544417 97.491776 -34.383877
-27.442341 96.694656 -34.019348
-16.606239 100.501068 -33.199444
-24.820148 99.937714 -33.414120
-7.794702 97.792526 -35.658356
-25.073565 100.381020 -34.459797
51.843437 99.198944 -35.142170
-74.068359 101.488998 -34.834843
-19.921051 102.383217 -35.141983
-71.257835 101.656281 -34.215588
-23.665623 101.680908 -33.028637
-9.102686 99.450729 -34.447853
50.523945 102.484116 -35.271591
-22.822792 101.972702 -34.330029
-7.364020 102.926010 -36.225170
11.992327 99.910042 -34.376392
-70.321434 103.303757 -36.097256
-21.540131 105.065025 -32.970688
-7.335818 102.837784 -35.162590
53.076885 101.359955 -34.636253
52.077938 101.729431 -33.936264
-24.940508 103.436050 -35.337078
-12.604784 102.259727 -35.652859
47.914085 104.965187 -35.489491
-74.808006 105.246651 -36.441868
-11.972334 104.795441 -34.484318
49.969120 102.974617 -34.119949
-77.112778 104.769928 -35.891304
9.059826 104.452469 -35.365807
-5.501983 104.998978 -34.988251
5.126556 104.086967 -34.907822
-76.186409 106.093254 -36.060009
-18.886074 106.739136 -33.485653
-71.042351 105.685814 -36.056496
-17.192167 104.757217 -34.977112
50.225796 104.932930 -34.483753
-19.105217 107.270355 -32.727135
48.905743 106.540733 -33.810551
-16.753538 106.159401 -34.218334
-71.231209 107.587059 -35.903694
10.428005 108.007866 -35.610802
-18.823990 109.895561 -34.144077
-9.225157 110.017632 -35.120544
45.976921 108.552299 -34.613007
45.877003 108.202568 -36.299622
47.570862 109.836693 -34.127750
-3.172835 111.321823 -34.071342
47.870235 109.473999 -34.523369
-17.199572 111.432892 -34.832420
-42.906841 110.448418 -34.016811
8.721874 110.480507 -35.146198
-38.860249 111.006783 -34.096031
2.714741 111.716156 -34.791870
-1.276978 113.169373 -34.761520
-48.163986 112.853737 -34.120441
-10.648765 112.636658 -35.017994
-75.595642 111.434090 -33.661442
-12.221174 113.050644 -35.714882
42.591328 113.527351 -34.645126
45.247471 113.257797 -35.362083
-11.611151 113.306168 -34.241779
45.059479 114.923279 -34.395020
-3.083457 117.372391 -35.516003
39.921051 115.884964 -35.229729
45.482368 112.149956 -34.629520
-49.942329 115.745750 -34.488777
-9.860306 115.824326 -35.046192
-8.436695 115.508194 -34.980747
-6.031096 116.495361 -33.752369
-74.370384 116.979813 -35.442432
-73.571480 116.735466 -35.425880
-8.288180 116.584694 -34.643425
40.487995 117.453606 -34.995163
-12.844676 114.983147 -34.078857
-6.554957 118.154877 -34.913963
-2.832349 118.538872 -34.264050
-72.965446 118.120331 -37.077065
-63.328079 118.848099 -34.135166
-10.956252 117.791092 -34.270370
-61.807503 119.846748 -34.312107
-65.267151 118.672112 -34.803490
-4.650817 120.384933 -34.587536
1.741721 119.133171 -34.911945
8.348695 117.784546 -34.849083
-63.754234 119.764618 -34.370274
-2.993782 120.129791 -35.336964
8.938723 120.984810 -34.012459
-66.100006 120.100525 -35.229145
8.429165 121.317352 -35.144478
-76.686081 120.099579 -36.834450
-62.260746 119.844177 -34.357162
38.051075 119.481094 -35.535812
-3.744173 121.051781 -34.565277
-1.040560 120.252403 -33.464127
-3.648634 121.296593 -34.801384
-1.785124 121.814659 -34.580635
-0.794647 122.645607 -32.804462
33.418915 122.677711 -33.921677
35.585701 123.385292 -34.999279
-0.249728 124.424995 -36.638870
9.311401 123.321480 -34.855843
-17.356760 125.760460 -34.306953
-14.047284 123.979141 -34.172920
-17.290752 125.665268 -34.698544
2.907241 122.930397 -34.173508
-22.581152 127.281296 -34.448486
-17.074884 124.731262 -33.755844
-15.836743 126.432213 -34.254623
-10.589476 126.903397 -35.193451
-24.056995 125.906792 -33.968178
1.932650 126.848625 -34.989414
4.250324 127.453957 -34.730988
-26.526896 126.880486 -34.705357
-19.519251 126.793915 -35.440586
1.142612 127.455574 -33.457619
-30.164295 127.522400 -34.157188
-20.822613 127.870743 -34.249786
-32.398575 129.250031 -34.523163
10.321252 127.830193 -34.924007
-34.813942 128.814011 -34.681606
10.972523 128.855148 -35.037952
-74.424080 128.014465 -35.850487
-80.890045 127.722214 -33.358219
-36.689182 130.076172 -35.551304
7.613188 129.193085 -36.804886
-80.072342 129.278687 -34.488491
-40.993782 128.667664 -33.875759
9.856303 130.186066 -35.084427
-41.479477 129.041153 -34.555439
-36.901901 131.826721 -35.626308
-43.478840 130.392380 -33.583019
-38.769672 131.348404 -33.879246
10.304329 132.288620 -36.424900
-44.318668 133.118759 -34.154377
-63.168137 131.529068 -34.903934
-71.965172 132.067215 -33.352913
-73.930183 134.342285 -35.816463
-59.488930 132.499969 -35.256847
11.073822 133.259903 -34.259804
-73.601151 133.051285 -35.647514
-70.064545 134.064468 -34.466782
-67.437340 133.300003 -34.675114
-62.068268 134.097534 -35.207355
-5.932086 133.343033 -36.494526
-78.381149 134.385468 -35.030251
-65.838425 134.328705 -34.711502
-74.332260 135.431305 -34.505512
-69.884727 134.598785 -34.568695
-67.418396 134.706284 -35.312809
-66.976395 135.919983 -34.639843
-62.935730 136.050400 -36.088085
-81.335472 136.696365 -34.960060
-63.302895 136.955658 -34.167446
11.160277 135.674225 -34.285618
-65.011909 137.258408 -34.472366
-81.481514 135.312164 -34.164703
-82.600891 137.606583 -33.659714
-74.505684 136.818192 -35.097340
-79.419502 138.416351 -34.768948
-75.456390 138.603806 -33.790123
-79.348007 138.679581 -34.125923
-73.182755 137.348831 -35.120941
-82.937759 138.744781 -34.344852
8.336518 142.441071 -37.061039
-83.788544 142.651154 -33.977184
-77.113777 141.079498 -33.917290
-4.719497 143.447510 -36.084087
-80.352867 141.014587 -34.176136
-73.569016 143.874680 -33.656212
-75.115417 143.414398 -34.535862
-2.024955 143.300125 -35.202534
6.452844 144.625229 -36.085323
-74.948700 145.580963 -34.055687
-83.191635 144.331055 -33.240028
-74.477364 145.981918 -34.236572
-4.032419 146.661865 -32.539047
-72.778564 146.573273 -33.580460
-77.727737 146.158173 -34.156563
-81.459244 149.388397 -34.795517
-83.015152 147.161545 -34.212009
-77.704437 146.076111 -35.615871
-83.335144 147.596954 -34.016098
-68.429222 148.638641 -35.992451
-32.878555 147.124847 -34.764664
-16.914602 148.143845 -34.718307
-12.956820 147.846741 -35.105007
-4.882588 149.111938 -35.668518
-2.639950 147.796570 -34.108456
-0.520506 148.812698 -33.775917
4.555121 147.606354 -36.427559
-48.835018 148.739777 -34.041565
2.938091 148.742554 -32.955723
-59.969940 147.831787 -33.730740
-55.353935 149.017990 -34.929829
-74.712402 149.185959 -33.925171
-74.762474 147.761597 -33.605434
6.980675 150.100983 -34.539753
-50.389679 150.004501 -34.625893
-75.181541 149.761917 -35.628147
-74.190544 150.247513 -35.017353
-62.761597 150.335358 -35.106152
-55.104103 150.985016 -35.377094
-41.255852 149.779877 -33.969799
-33.275234 150.084442 -34.171818
-81.115898 149.443802 -34.713181
-80.854195 149.950790 -34.281742
-62.127625 150.773636 -33.884846
-18.628555 150.665512 -35.598888
7.548642 152.152039 -34.436829
-76.785294 150.565033 -33.657707
-14.056119 150.751846 -35.074940
-67.561554 151.276123 -33.641567
-5.667082 151.455902 -34.656330
1.150031 152.084763 -34.801003
-63.371887 150.503876 -35.348221
3.308797 152.053146 -35.312607
8.089263 151.521561 -34.219349
-67.553246 150.971146 -35.656734
-72.830482 152.982956 -34.875984
-71.868835 155.644455 -34.456451
-77.715210 161.975616 -34.007374
-73.623184 161.863525 -35.615997
-35.000977 30.854984 -34.246731
-32.995789 31.745293 -34.302895
-22.856926 31.183210 -34.813503
-16.599951 32.541477 -34.387386
-12.079929 34.441528 -33.553661
-13.503966 35.107479 -33.553535
-10.945263 36.526428 -33.044132
-45.369019 37.813908 -32.870247
-10.362561 37.059853 -33.123058
43.962795 40.956684 -35.730270
38.899693 40.365765 -34.802181
44.958424 40.486740 -34.004395
-13.274887 43.513496 -34.405453
38.473476 42.477463 -33.491417
47.099243 42.678829 -33.630554
-20.124859 43.128384 -33.382969
38.801949 43.217766 -34.956894
46.276676 44.969700 -35.372845
35.742973 47.291428 -33.976051
35.341908 46.505463 -33.558117
-24.022362 48.479000 -35.586372
36.004124 47.793091 -36.120251
-45.652405 48.092651 -33.949780
29.996994 48.858891 -32.093307
34.234074 47.983963 -34.941338
-44.948250 51.076378 -35.882442
29.253777 50.991837 -33.467213
24.917768 54.702190 -35.520653
34.596760 53.186611 -32.955044
47.208302 54.628277 -34.920349
25.343281 52.290203 -33.763783
-46.187572 52.683064 -32.757717
42.530525 52.816238 -34.166492
46.539680 53.867985 -34.371033
36.846992 53.631500 -33.764725
45.769077 55.311852 -34.102676
39.263165 54.260597 -34.037235
42.262413 55.267525 -33.294197
40.412479 53.929306 -35.004898
44.565792 53.260170 -34.612778
23.024467 56.576088 -33.767834
20.706224 58.183861 -33.985756
52.724831 56.492554 -34.343594
-40.813923 58.111076 -35.754803
-47.923126 57.434235 -34.338017
20.155439 58.830376 -35.237164
51.664654 58.573566 -34.714088
54.782436 62.710606 -33.231827
54.317242 60.947811 -34.117428
18.372131 61.230679 -35.400715
23.602158 62.552471 -34.780758
15.612285 64.581177 -33.648048
23.374569 63.824368 -34.252823
54.868996 64.836082 -33.729305
58.133476 66.873581 -32.734676
55.043724 69.754028 -34.278221
58.023033 70.669212 -34.276226
-25.570374 72.937508 -34.760361
-28.222225 71.010307 -34.214481
-26.256990 71.162880 -34.090523
14.096506 68.959259 -33.743073
20.472221 71.277603 -33.691616
55.889229 71.553535 -34.135517
12.513285 73.221748 -35.297775
-23.021635 72.900978 -33.933281
18.643793 74.193214 -35.573780
54.389252 75.434944 -34.872841
-36.496471 74.255943 -34.719067
12.028789 76.299500 -34.991146
-36.457653 75.347984 -34.393909
11.896679 77.898582 -32.798397
-33.047550 78.741386 -33.636894
-27.886539 78.882103 -34.680569
-21.071451 75.675125 -34.720497
56.680313 74.557838 -34.967342
56.306858 74.493454 -34.019115
53.889050 76.446297 -33.442066
16.583210 79.392464 -34.169155
-25.691874 79.101463 -34.427917
-38.180397 78.896477 -33.641933
-20.869226 81.246437 -35.445305
-33.654312 82.047783 -33.647701
11.219819 79.843941 -33.661335
-35.727032 80.304214 -35.045338
-33.194862 83.381226 -34.624771
57.237774 80.052162 -33.992401
-24.954824 81.771034 -34.750191
-33.025291 82.033073 -35.034519
-18.573400 81.766464 -35.214710
16.366131 83.066711 -33.435299
-35.195045 81.119568 -33.203655
53.589958 82.850998 -35.011795
9.206441 85.024101 -34.112404
56.005081 81.790031 -33.755348
58.080517 85.354172 -33.206631
-33.196529 82.594978 -33.354630
-23.849983 84.147545 -35.444519
4.929917 84.556023 -34.671944
-32.576286 84.787613 -34.426556
-34.154278 85.484047 -34.468288
-34.739182 83.733772 -34.182827
10.846846 86.077034 -33.945011
-28.642473 88.555305 -34.305809
-16.327984 85.698318 -32.962021
2.245870 86.421349 -34.438828
55.661205 85.706680 -34.246941
54.929047 85.021950 -33.250095
57.187508 86.272766 -34.212826
2.510241 88.213409 -34.741837
-16.383045 87.742744 -34.554230
0.701218 88.304497 -34.938641
56.975983 88.381844 -34.279415
-1.522859 90.016281 -34.613651
14.013156 90.717522 -34.691082
55.066120 88.462807 -34.329391
-21.773205 89.356010 -35.958534
57.319992 88.680565 -34.491539
-19.793570 89.808235 -33.844597
-14.265935 88.914063 -33.456367
10.019133 88.453400 -33.143040
14.115169 89.457176 -33.909817
56.643814 89.794746 -34.131298
-27.956257 93.209793 -33.046288
-21.347439 92.612038 -34.177429
-13.928664 91.931366 -35.151482
-31.408691 89.227867 -33.924198
56.136421 92.824959 -34.207043
52.490742 93.208069 -34.914776
-31.726372 93.093727 -34.495773
14.544908 91.122307 -32.860737
56.006512 91.711548 -34.058796
-29.417212 93.991020 -33.001366
-17.189892 95.458733 -33.843803
-11.797575 94.462044 -34.684376
53.391285 94.067291 -33.356247
-72.428658 93.731812 -33.997623
-29.521774 94.220894 -34.013927
-12.531200 94.907433 -35.217026
55.118469 95.608688 -35.103184
-71.886040 95.583328 -34.185303
-26.792292 96.739655 -33.884052
-16.753065 97.923439 -34.399891
-10.042691 96.280136 -34.666924
-75.163246 96.042557 -34.237705
-72.795746 95.753067 -33.516720
-16.197220 95.312386 -34.391891
6.732821 96.910324 -34.760307
-73.846581 95.638237 -34.578602
7.557811 97.907959 -34.223499
-72.236870 98.011162 -33.966450
-16.182131 96.602524 -33.331482
6.887657 97.743233 -34.644852
7.156589 99.629883 -34.040974
12.391474 97.922333 -34.201500
53.588108 96.664581 -33.915024
-14.831424 99.047417 -35.330624
4.597954 101.303146 -33.295307
51.655418 99.315018 -34.664913
10.636702 102.656898 -33.992146
-72.873993 102.332405 -33.819962
50.522190 101.454391 -33.497715
-8.347192 102.759560 -33.008812
51.303722 102.782303 -34.023445
6.433258 103.243782 -34.650856
-66.492828 104.371788 -33.721958
48.682724 104.875862 -32.801510
-73.235825 103.011063 -34.052273
-64.958237 105.586777 -34.333054
-72.140907 104.776344 -39.234684
-70.408218 104.956581 -34.590630
-75.874458 106.479904 -32.802567
-12.699281 106.100929 -33.407669
-6.330625 106.672997 -32.011890
8.711374 108.434738 -34.323551
-20.957176 104.843292 -35.173187
9.763395 106.014618 -34.383354
48.891178 104.850655 -33.842731
50.821815 107.561195 -34.696270
-5.143702 106.526871 -34.763714
-7.144386 106.033989 -35.673130
5.610410 106.853752 -33.940628
-18.456469 108.132912 -32.972015
-75.079742 107.671242 -34.015381
-72.298927 108.183228 -34.719936
48.886105 107.788559 -33.641705
-37.489891 109.405830 -34.156322
-17.006783 109.827576 -33.959583
8.753070 108.112762 -34.820148
-15.089192 109.895493 -34.498886
-38.404800 108.154747 -34.323421
-38.970276 111.464989 -34.239868
-73.401970 111.279587 -35.743679
-38.871456 111.630981 -34.688404
-8.274850 111.731102 -32.721489
5.178046 111.271942 -34.312801
-15.754972 110.585800 -33.751629
-2.513721 111.070145 -35.209404
46.180695 111.043976 -34.685692
-44.852814 111.427032 -33.278461
-40.586529 110.753029 -33.318302
-12.543501 111.262787 -34.477291
46.652405 111.417183 -33.303192
-4.283865 110.741234 -34.150532
-46.345123 111.490585 -34.901207
-73.402184 114.554153 -34.030231
46.671280 109.948738 -33.762642
44.677364 113.186028 -33.637505
-39.875366 111.950195 -34.231297
-8.464247 113.051567 -33.591831
-9.121293 113.855156 -34.592911
9.931968 110.228271 -32.771065
-2.124916 113.676903 -35.876987
-42.850086 113.514709 -34.534157
-14.304682 114.187546 -34.226887
43.418289 113.748833 -34.591640
44.404781 114.375015 -34.034412
-8.095312 113.435570 -33.713394
-47.743725 112.813728 -34.147930
-76.006165 115.711884 -34.753941
-9.852340 113.400856 -33.536156
8.501539 113.459534 -33.344997
9.060963 115.056549 -34.265018
-50.695965 114.596222 -33.364407
-9.033399 115.088219 -33.101547
3.769156 115.498322 -33.924759
3.960609 116.018341 -33.995743
-48.087208 114.599106 -34.263004
-8.946905 115.188202 -34.223309
41.756882 115.799385 -34.037186
-72.405769 115.489876 -33.997528
1.630756 117.060356 -32.580944
-11.701006 115.137848 -32.753265
-4.736301 114.670296 -34.872093
8.209870 116.196777 -33.242313
41.079762 116.008919 -34.425617
-7.138508 117.961571 -34.068504
-65.498291 117.508507 -33.329582
-63.167072 118.023483 -33.463646
-5.400886 116.767136 -33.930031
7.569962 119.277992 -35.194965
-66.612564 117.528732 -35.049648
-70.593811 118.980247 -34.743240
-62.465660 117.862534 -34.180336
-8.431416 116.875458 -34.033855
-73.594475 118.039856 -32.357456
-9.603825 118.918648 -33.553974
35.406361 119.402573 -34.427265
-71.091583 118.715584 -34.093342
4.986330 117.922371 -33.680878
-66.300697 121.337082 -32.959057
-6.041814 119.481201 -34.583130
35.894218 120.587395 -34.275879
39.113567 117.587418 -33.794888
-69.980835 119.893738 -33.952492
35.907742 120.126701 -34.741844
-9.443151 120.067154 -34.484226
-70.329758 120.777496 -33.644588
2.484425 122.295990 -34.803318
-66.061150 120.270683 -33.251087
38.593155 120.473991 -33.931282
-63.089066 121.970390 -33.094902
3.947050 122.700638 -34.314014
40.100655 120.268196 -33.177246
-71.878548 122.191940 -34.336456
-74.447128 122.210739 -32.832027
-7.268342 121.558609 -34.502537
-81.768234 122.501762 -33.479176
-80.182182 122.769806 -33.028042
9.134561 121.542076 -33.756771
-82.503525 120.981514 -34.674812
-0.364171 123.539597 -34.406982
9.929604 122.269928 -33.195446
-7.175717 123.176392 -35.654255
-12.911001 124.278160 -36.629696
-0.424152 124.457771 -34.329300
-73.159523 121.194611 -33.302135
-0.505896 123.822205 -34.994034
-79.296410 124.048615 -33.517780
5.504834 126.556168 -34.401386
-82.245125 124.083305 -33.564404
-6.309736 123.953392 -34.658905
34.638138 123.801979 -35.520126
-12.250571 125.105217 -34.079376
-5.959558 124.765221 -34.871910
-81.972969 125.449471 -33.703827
-13.487082 126.019867 -33.529781
29.828108 125.876335 -33.530418
-13.760069 125.996330 -34.875034
32.401245 125.797722 -33.533138
-12.151730 125.632706 -33.928539
11.428916 126.000824 -33.466797
-8.108638 126.087364 -33.605156
-2.478268 124.968758 -34.285881
5.374526 126.060028 -33.053913
-1.118427 126.845970 -33.098377
3.605816 127.629181 -34.797344
-71.923218 126.360313 -33.722332
4.211285 126.399239 -34.120937
30.831364 125.510490 -33.701065
-75.927277 127.399208 -33.742500
-27.371279 128.153366 -34.361488
-25.443695 126.917221 -33.680954
-0.633057 128.780380 -33.860527
7.567770 127.793022 -34.251293
8.802506 125.814972 -34.908184
-79.882477 124.991531 -33.552612
-78.278839 126.887100 -33.889153
-26.120010 126.749809 -34.066322
-0.050992 127.679840 -34.958466
-76.149208 127.616508 -33.035736
-24.251862 127.378304 -34.575264
7.864740 127.715027 -34.004242
-27.736893 127.303856 -34.306660
-2.415084 127.703857 -33.151260
11.176241 128.105072 -34.250782
-35.207527 128.407318 -33.959404
-75.525085 127.824799 -33.286480
-82.557251 128.052109 -34.044682
-36.513348 128.637131 -33.686100
-3.364489 128.326782 -33.105354
6.545596 126.698845 -34.378288
-25.727322 128.053223 -34.473026
-40.132786 129.284988 -35.011547
-28.378775 130.099808 -35.411263
-78.684387 129.612610 -34.140045
-75.698448 131.568573 -33.921230
-31.586384 129.869629 -34.244442
-82.878418 129.748428 -34.812675
-73.556801 131.141113 -33.290997
-43.225040 130.664368 -35.077721
-34.040195 130.715866 -34.087009
-77.124252 132.205200 -32.435966
-79.990341 131.986542 -33.961460
-75.130424 131.655579 -33.155762
-36.042423 131.274048 -34.159878
-45.721924 130.802567 -34.520184
9.936697 130.234116 -34.493507
-80.555725 132.390381 -34.250309
-49.958317 131.868195 -32.513680
-47.798935 132.275360 -34.345375
-42.460003 131.835571 -35.086246
-84.362915 132.334778 -33.372749
-77.730438 132.325592 -33.587868
-66.809708 133.241898 -33.750885
-41.104111 133.554428 -35.097572
-82.275421 132.677643 -34.023991
-70.404167 132.291580 -34.580372
-61.486877 132.452667 -34.533890
-41.592632 131.985870 -33.018646
-48.797817 132.155228 -33.875031
-66.695595 132.010529 -34.045895
-59.160583 132.006516 -34.182171
-47.994061 133.522430 -34.145424
-42.891262 133.593567 -34.354576
-45.736496 133.535889 -32.644001
-75.168396 133.861847 -33.716694
-48.752220 134.366211 -34.818844
-47.727119 133.477478 -33.039879
-73.865410 133.841553 -34.331200
-51.944626 134.185928 -33.908939
-50.440620 133.829178 -33.951839
-82.185921 134.785431 -35.047634
-80.162872 134.523346 -33.451221
-74.423378 134.309097 -32.779030
-56.875702 133.262604 -34.395092
-62.773048 134.099976 -33.262508
-52.846317 135.173492 -33.464249
-74.722336 135.061523 -34.150818
-71.207962 135.540268 -33.954079
-57.469612 134.930923 -34.906208
-6.841819 135.372849 -34.679951
-79.339401 136.676666 -34.215733
-71.231323 135.230606 -34.716961
-61.956123 134.584473 -34.064686
-67.686172 137.190979 -34.489319
-77.477669 136.230606 -34.689941
-78.090431 137.577667 -34.456257
11.284381 137.541138 -33.869701
-77.245407 137.373520 -33.667103
-6.972806 138.296432 -33.419643
10.676550 140.310806 -33.840847
-72.931763 140.711395 -33.392914
-84.004639 140.892105 -33.397980
-5.220332 141.747726 -34.750679
-4.231738 144.649948 -35.395695
9.141843 143.680054 -35.216656
-73.479187 146.068832 -32.351913
-3.280540 146.564362 -33.421848
7.340434 147.231766 -33.806629
-70.594040 148.207977 -33.035633
-67.757393 147.362411 -34.015625
-30.066193 147.760696 -34.726124
-34.831947 148.862045 -34.418495
-20.446077 147.820435 -33.926994
-14.949026 148.092285 -33.971470
-38.579338 148.454315 -34.338676
-16.966585 147.339630 -34.035843
-12.526040 148.087280 -33.871746
-63.278603 147.864288 -34.456623
-59.252060 149.243011 -34.978432
-57.430813 148.265869 -34.268829
-46.498318 149.348297 -33.765469
-44.333977 147.895157 -31.980869
-51.758278 148.942200 -34.779274
-83.732231 147.872910 -33.155510
-57.872253 148.099228 -34.077946
-56.881466 148.823318 -33.414478
-82.002243 148.510284 -34.567635
-27.510017 150.814301 -34.295868
-46.820446 150.540543 -35.256355
-46.019146 151.685089 -33.254852
-39.071762 149.674026 -33.423306
-22.147665 150.347565 -33.843834
-58.241749 149.597809 -34.563297
-57.114555 151.006012 -33.882809
-54.394371 150.302414 -33.689484
-15.235849 150.304855 -33.639282
-60.220779 151.158356 -35.071918
-56.544292 150.592468 -33.422901
-52.042278 151.665009 -32.546986
-9.810972 150.478973 -34.248138
-62.515766 150.874435 -34.839413
-71.257904 151.354675 -33.776978
3.671755 151.484268 -34.189629
6.914401 151.644501 -34.324898
-78.831612 151.583618 -35.193703
-79.590088 152.686844 -33.531357
-63.675556 151.204819 -34.526608
-78.461082 151.555267 -35.115974
-76.585617 153.213745 -34.264683
-72.644569 155.248520 -34.382252
-76.936707 155.702744 -33.903545
-71.929802 159.695938 -35.134663
-78.843735 160.393448 -34.866936
-72.386177 160.023926 -34.481155
-75.088127 162.082458 -33.352360
-74.960663 160.507629 -34.160461
14.635503 13.708577 -32.935558
12.456727 12.300995 -32.616142
13.894822 15.924268 -32.916821
10.782295 16.732754 -33.185005
9.698867 19.600273 -32.748432
12.862400 16.633650 -32.318241
11.089600 19.960642 -33.814034
14.299131 20.544186 -33.841827
12.319086 22.694529 -33.620628
15.006654 24.479271 -32.392391
-31.759579 30.826660 -32.275948
-27.802973 30.192984 -33.751610
-25.392216 30.463013 -34.235455
-31.836138 30.823267 -32.165836
-23.708954 29.626219 -31.543617
-19.036032 30.652224 -34.083698
-36.841618 30.936977 -31.778986
-15.866555 32.799080 -32.930248
-40.194920 33.682938 -33.284760
-9.397809 39.846924 -34.510635
41.139458 41.212147 -33.821934
-7.287581 39.481567 -34.481937
44.666451 40.285885 -33.069645
47.024986 41.402531 -33.546619
38.063122 42.047096 -33.708790
-46.383129 41.540825 -32.811161
35.817459 42.961071 -33.509529
-12.688786 42.683018 -34.793427
-18.714510 44.427494 -34.303768
-17.342119 43.952332 -33.809956
-18.730043 42.589672 -33.065403
48.151516 44.052502 -33.867203
49.389488 43.941940 -33.008533
-46.447506 44.653820 -33.060680
48.142509 44.487862 -33.894413
36.619682 44.432583 -33.999454
-21.872700 46.211819 -34.286423
-47.959034 47.443291 -32.519562
48.853024 46.825584 -33.827724
-21.484194 48.594597 -36.037258
-25.863010 49.329117 -33.080860
49.372185 49.179443 -34.293819
26.913799 48.479488 -32.800560
48.977917 49.726822 -34.584389
-27.076477 50.735401 -35.567177
36.874470 50.848660 -33.785175
48.742744 50.851460 -34.315662
28.608177 53.677299 -33.345890
27.146502 54.921959 -34.182163
36.764580 52.866180 -34.927929
23.934309 55.468704 -34.095268
51.878651 53.861797 -34.022816
-38.182587 54.498234 -34.530869
50.403484 53.541683 -34.152634
53.364716 55.048504 -33.652012
41.760990 55.711178 -31.630724
45.256489 53.321449 -35.361668
43.786819 56.282539 -34.136002
52.340187 58.093571 -34.083160
56.020088 58.622383 -34.277184
19.328341 57.840084 -34.192036
25.318071 60.335632 -34.117981
19.685276 59.946362 -33.387222
24.700346 61.600071 -34.135338
-43.969662 61.754948 -34.284538
16.276154 61.963631 -33.773243
55.953133 60.832096 -33.138348
-46.450531 64.004822 -31.443504
53.749718 63.121971 -34.178497
-46.442646 64.175453 -33.745922
16.202204 64.445747 -33.526974
54.247860 64.838608 -33.617290
55.665699 64.605492 -32.774303
56.848675 64.772453 -33.884460
23.383957 65.933968 -33.007393
54.615562 66.883087 -33.822124
16.028704 66.962746 -34.066036
19.981297 67.425644 -32.438511
15.668633 71.789726 -33.724041
20.311592 68.476479 -32.897335
57.915478 68.302048 -32.617130
56.534279 68.296661 -33.211956
20.037828 69.886497 -34.475285
56.441643 70.327728 -33.064857
19.532070 71.192841 -32.353680
-28.596745 70.717903 -33.170681
54.923786 67.132034 -34.091236
13.090067 72.567421 -33.285706
54.492470 70.755653 -33.046280
-26.957569 72.947304 -32.942898
-26.359127 73.626892 -34.869843
-37.304886 73.711365 -34.110027
-26.012585 72.638046 -32.837543
-28.780203 75.862457 -33.632660
55.725029 72.138084 -33.422039
17.023361 72.939507 -32.977890
57.713627 72.526711 -33.564827
54.505791 75.388550 -33.407505
57.976582 75.688934 -33.607296
12.596836 75.353706 -33.087257
-35.404587 75.492073 -34.372581
-37.227726 76.425301 -33.936604
-29.142508 76.642433 -33.497452
16.473265 75.557159 -33.062763
56.164455 76.617294 -33.317272
-21.605713 77.371490 -33.813828
14.083091 74.078285 -33.330475
-35.831219 78.045357 -33.160759
-34.492851 78.676102 -35.250668
-22.783745 79.215607 -33.861309
-38.895020 77.410919 -33.157280
17.992270 76.774147 -33.981888
11.697995 79.109245 -35.044529
58.367451 80.012383 -34.222141
-35.127739 78.405571 -32.063526
-34.500233 79.016380 -32.700680
-26.217743 79.799904 -33.734573
-32.042473 79.736938 -33.288250
56.352951 77.834511 -33.298828
-34.663486 80.464897 -33.805439
57.357353 80.309280 -33.992558
-22.502020 79.758537 -32.830257
56.554184 83.394829 -33.588844
5.322902 81.351509 -34.128506
10.128444 82.875267 -33.024036
5.578499 82.954666 -34.264347
57.653271 80.900475 -33.186840
-18.798134 80.775116 -32.790688
-34.418648 81.470985 -33.615379
2.229944 83.788162 -35.370712
-36.354424 83.460014 -33.314518
16.094458 81.950630 -34.113937
55.564037 79.665085 -33.219765
0.440817 85.068840 -35.132698
54.319279 83.875687 -33.885540
56.296009 81.808701 -33.901642
-18.563606 84.019585 -33.300407
56.823204 83.321342 -32.715553
-30.868702 82.549011 -34.274437
-17.722206 83.640099 -34.720409
57.072292 83.280807 -32.897968
-22.191938 86.656624 -33.786865
12.515079 83.670845 -33.090641
4.596673 86.447304 -33.214355
2.160665 86.940186 -33.499752
-31.704176 86.561348 -32.191097
-21.138828 87.072220 -35.045635
-0.573480 86.678444 -33.566299
56.797192 85.777794 -34.094738
-0.131579 87.827507 -32.768383
1.947283 88.115295 -32.384560
-32.180145 89.519051 -33.525841
-13.714957 88.928795 -32.407070
56.686184 86.479973 -33.267502
53.669460 89.629349 -34.592541
-17.204649 88.951317 -33.474445
-21.141783 88.950745 -32.537552
-30.236349 88.194077 -32.487419
-30.118294 90.880188 -33.206486
56.282646 88.625198 -32.816624
-20.389784 90.692955 -33.719685
-19.044964 92.892769 -34.844646
-16.582010 93.021523 -32.716835
53.528080 94.457077 -33.423210
55.666164 89.405289 -33.890537
-18.088818 94.760872 -33.519817
8.897866 92.915565 -33.440166
51.526299 94.652153 -33.540344
-72.747177 93.638802 -32.355618
13.353683 94.326523 -34.853264
53.194878 94.619804 -33.718948
-73.938721 95.772354 -32.971321
-13.277673 93.334389 -34.052586
-10.828552 94.779411 -35.496689
13.753645 93.836121 -33.445751
12.035554 95.594070 -33.564384
7.359799 95.025650 -33.449150
13.273205 95.914780 -34.204117
54.040482 95.774040 -33.401260
54.644253 97.259300 -34.621178
-76.063377 99.217743 -33.065727
-10.505177 99.530075 -34.139309
54.386791 98.393143 -34.560722
51.511047 97.112442 -34.594902
52.265732 100.401161 -32.933952
53.773613 96.820625 -34.090992
-74.079979 98.541908 -33.357620
-10.376862 97.900307 -33.986301
49.461819 100.747276 -34.395351
-14.803764 101.592880 -34.629112
-12.439653 101.848961 -34.661972
-73.287361 100.995384 -33.042191
6.416936 100.246666 -33.195065
-76.116577 101.681068 -35.356571
53.324505 99.805992 -33.225338
49.491436 100.372292 -33.720558
50.991940 103.703003 -33.631130
-12.867035 102.745941 -32.399586
51.205246 100.779686 -33.752209
-61.259296 103.763863 -35.051651
-13.717999 101.633362 -34.691910
-74.184799 103.224586 -33.765385
-71.071121 103.970406 -33.235508
48.617287 106.703201 -33.761982
5.589459 104.039902 -33.441833
11.274261 103.000954 -32.923183
-67.288849 103.030388 -34.392460
-11.842038 105.335342 -34.874878
-66.797028 104.513412 -33.700638
-63.390976 104.756241 -34.296787
-72.302155 104.750587 -35.106270
-70.868980 105.449020 -32.991940
49.901192 107.348488 -32.093502
53.041527 104.996178 -32.907806
3.661344 105.445549 -33.774620
-5.855687 107.868362 -33.651306
-65.758507 105.638718 -32.702965
-61.322289 105.517609 -34.232956
9.837036 106.219978 -34.450016
11.215322 106.798637 -33.018124
-71.016571 107.204979 -35.388977
-5.146009 107.030266 -34.334568
4.140494 107.738930 -34.917442
-10.011079 107.648026 -33.775085
10.286752 109.110550 -35.130043
-5.659828 110.060936 -34.974747
3.952939 108.568558 -33.547989
43.820732 109.002136 -35.070545
-72.490028 110.191338 -33.044445
-8.375810 109.940498 -33.882668
-10.198956 107.770676 -34.573368
46.976563 108.501816 -32.542671
46.291542 109.802536 -33.776546
-76.055832 111.679924 -33.601425
47.859673 110.763145 -33.357555
-82.593948 109.732933 -32.074562
-38.937641 111.092514 -33.783108
4.102874 110.386139 -33.939350
42.724113 111.934891 -35.260822
-7.696663 111.479797 -33.153919
2.121803 112.160957 -33.591576
-15.683410 109.120552 -33.003944
-43.172867 111.504097 -34.653065
-41.353554 111.654289 -33.625900
-72.568771 113.833496 -33.497375
-16.560415 110.360977 -34.555759
-13.706972 110.477448 -33.782085
-77.715576 113.270493 -33.351288
-11.339689 113.438683 -32.723156
-14.322473 112.460236 -34.610912
41.753590 114.636330 -32.793694
43.814728 111.676773 -34.755089
43.563091 114.228539 -33.607224
-41.898399 113.342842 -33.963203
-2.165939 113.484543 -33.083355
-48.523514 113.870071 -33.419010
-15.416734 113.120361 -33.358292
-76.278992 111.321503 -33.524441
-42.586056 115.486977 -33.566952
46.105732 113.843697 -32.718006
-0.651918 113.712906 -35.696819
44.323521 114.421196 -32.567383
-81.661980 111.954865 -34.559242
-7.429148 115.904953 -33.087055
-48.199574 116.045845 -33.850952
8.081876 116.268013 -34.569355
43.596073 116.656731 -33.150269
3.227486 112.455376 -35.060303
-76.159676 114.811226 -34.139690
41.045967 114.908310 -32.718491
-81.842049 114.130684 -34.524136
-79.265701 116.553192 -32.880829
-76.537872 115.961807 -33.815609
-49.827801 116.154480 -34.427780
-9.834442 118.562820 -32.586117
-75.616798 117.922523 -33.772694
-54.124496 117.184128 -33.286575
-1.057293 114.925552 -33.229309
-51.493809 116.933029 -33.943371
-3.947463 117.353127 -33.563080
5.868610 114.915520 -33.303394
-83.223396 117.442162 -33.988731
-6.433979 119.338005 -32.212448
-80.494499 118.187721 -34.540829
42.286419 116.938118 -34.883347
0.728689 118.188911 -34.440128
9.125687 117.628204 -32.016720
-77.078568 117.279556 -33.348072
-70.728752 118.366386 -33.314781
-61.955944 117.131691 -33.023251
-53.163113 118.470291 -32.881432
-8.253121 118.735786 -33.544506
-53.911541 116.618332 -33.414276
-80.505981 117.792854 -33.248249
-71.338943 117.769554 -33.717899
-55.578983 119.140297 -33.155125
-51.743587 119.426437 -33.013550
-6.967225 117.740654 -33.409267
1.977127 117.941612 -34.582169
39.550137 117.601990 -33.156551
-82.273354 118.447456 -32.868198
-79.536270 118.211777 -32.915234
-73.940018 118.691544 -33.710716
-60.903748 120.265717 -33.131771
41.606976 116.565498 -34.023239
-57.472435 119.681007 -33.341690
-75.155510 119.580925 -33.316124
-74.479370 120.512505 -34.279438
-74.228027 120.019279 -33.121544
-62.033497 120.178650 -34.431816
-3.514142 120.599220 -34.410091
-77.135277 119.535309 -34.265282
-62.573586 120.369095 -33.348309
-4.188050 119.372536 -33.070251
-81.885002 120.559372 -33.331219
-70.340309 121.795715 -34.021873
-68.248543 121.007202 -33.510960
-75.922562 121.673920 -33.203026
-66.355843 121.980133 -33.139236
-63.271301 122.280670 -33.609520
-76.638115 121.032890 -33.493210
-70.719765 120.598480 -33.384354
-75.810715 122.584770 -35.898010
36.632210 120.529816 -33.328957
36.129360 122.279961 -34.453945
-79.460617 122.786720 -33.745197
-76.174919 122.476311 -33.215218
35.562374 122.143204 -32.132755
-9.249239 123.244179 -34.687534
-3.468326 123.860649 -34.305759
5.573919 123.206726 -33.212395
3.841198 124.280685 -33.804710
-83.361084 120.058807 -32.874481
-75.280975 127.036057 -33.962719
5.833030 125.593010 -32.740215
31.749743 122.619003 -33.536362
6.319872 123.559486 -33.518692
6.992731 125.573837 -32.637371
4.383762 124.997444 -33.719322
32.577908 125.351425 -33.298485
-2.863634 126.477310 -33.427067
-11.036193 125.539612 -33.245373
-10.113967 125.954750 -33.326797
-9.732248 127.019539 -34.450165
-0.998815 124.866882 -34.016636
1.814619 127.170532 -33.297920
0.324692 126.363358 -34.626884
27.512997 127.256889 -33.057209
9.717063 126.487198 -33.099888
-27.962250 127.583511 -33.423424
9.586689 127.930748 -33.338360
28.964857 128.028427 -33.316399
-31.765202 127.056694 -33.881886
8.339942 127.753510 -33.216305
-36.888092 128.972260 -33.515331
-28.571337 127.963501 -33.272087
25.844650 128.187729 -33.587452
-3.214804 128.628021 -33.935226
-29.879688 129.118515 -33.438110
-29.059034 128.699066 -33.177986
-31.875185 130.236313 -32.771065
-5.370467 129.516739 -32.348873
-7.016795 129.788345 -33.663647
-43.597687 129.637741 -34.250961
-42.767090 130.553711 -33.027027
-36.397041 130.749832 -33.935932
-5.933079 130.831161 -33.493481
-73.140633 130.721069 -33.713467
-40.759823 133.050110 -33.836323
-61.306427 132.645645 -32.289127
-48.490948 133.103760 -35.298668
-7.461847 132.046555 -34.204262
11.410773 132.610275 -33.639343
-57.831303 133.610138 -34.951351
-48.379299 134.040375 -33.209949
-56.573299 132.997116 -33.730858
-51.605412 133.475510 -34.015282
-52.127728 133.649765 -33.028999
-50.716976 136.267715 -33.847885
-57.177105 135.087753 -33.480370
-62.454121 135.330399 -33.502087
-84.318741 136.234879 -33.603760
-72.432884 137.733383 -32.127602
-71.432632 137.267792 -33.666122
-6.240420 140.085495 -32.765556
-83.046227 140.026825 -33.631046
-71.647408 142.652390 -32.848850
8.473756 145.747955 -32.335670
-62.569210 147.834976 -34.483963
-70.727386 147.437775 -33.318401
-25.287474 148.620636 -34.397396
-42.831932 147.983536 -32.394184
-32.865170 147.049362 -32.233570
-22.110121 147.628113 -35.360001
-57.924095 148.467331 -32.915287
-14.565875 146.876007 -32.779442
-50.932476 147.979385 -32.802483
-14.634562 148.607422 -32.842903
-12.999237 148.458817 -33.601334
-1.050531 148.346130 -33.952995
-83.593895 149.033554 -33.639866
-6.297913 147.468475 -33.820053
3.811824 147.833496 -33.734673
-13.537523 149.015656 -33.375996
8.235512 150.546432 -33.902634
-27.260847 150.415909 -33.704430
-19.460707 150.458450 -33.477566
-14.095174 149.669388 -32.850323
6.665005 149.468018 -34.179977
-35.896034 150.268509 -34.522614
-32.798954 150.187912 -35.197159
-18.270735 149.446945 -33.456154
-8.750730 149.812119 -33.874844
-43.443855 150.815186 -33.478691
-7.305359 150.619843 -33.229382
-5.159238 150.383057 -34.159767
-46.298672 151.111221 -34.021252
9.234860 150.028687 -34.485748
-3.166621 151.008560 -34.403332
2.641814 150.424332 -33.025204
6.557206 149.511795 -32.094028
6.713619 150.568787 -33.501804
-66.655945 152.606033 -33.950512
-71.961006 157.794266 -34.748447
-77.858437 160.983215 -33.816021
-76.684082 160.145309 -32.754810
-73.242859 160.151825 -35.007210
15.345528 13.472006 -33.557774
18.563761 10.979814 -32.943123
20.270708 13.415151 -32.638332
16.356068 11.563749 -33.338634
17.365833 14.167121 -32.152725
16.634478 12.926906 -33.854858
19.052935 13.603914 -32.238041
20.805426 13.472177 -33.430832
22.257561 13.510678 -31.293694
10.103745 15.185857 -32.620731
21.794155 14.813407 -32.480583
23.265186 17.334963 -33.022511
12.543536 17.937084 -33.405727
23.820635 17.487947 -33.166363
11.139855 14.641257 -32.373230
13.962317 18.869778 -33.642982
11.695002 20.989363 -33.281746
22.800613 19.283247 -31.974096
22.630121 22.013021 -32.474319
14.321837 21.626217 -33.420227
20.343626 23.420467 -33.007961
19.810545 23.157339 -33.446011
23.305708 23.191044 -32.614658
16.801723 22.851109 -33.518509
18.750999 23.200975 -32.290005
15.397640 25.318922 -33.797688
21.150545 25.069874 -32.685577
18.253098 24.897146 -32.946518
-34.886135 30.794170 -32.510948
-22.581718 30.203413 -32.279049
-20.243158 30.391806 -31.189600
-17.242664 30.151474 -33.880383
-13.306842 32.810139 -33.397678
-41.828678 34.477409 -32.355247
-42.756985 37.745064 -33.838722
40.331585 38.963772 -32.760166
42.610958 40.266499 -32.524441
37.750763 41.023590 -33.172913
-8.138811 40.774277 -34.106533
-43.850964 40.577808 -33.582363
-13.618601 43.306618 -32.109539
33.482586 46.776073 -32.466221
-24.711809 47.227245 -33.308647
32.583412 48.421711 -32.096069
27.210020 51.107227 -32.060871
27.499825 51.251835 -33.434795
48.259781 51.346241 -33.406151
24.642080 50.221443 -32.982212
29.911400 52.402355 -32.007896
-31.419945 51.385815 -32.631653
-31.447399 52.586784 -32.559795
24.151081 51.663258 -33.813099
35.486195 51.757057 -32.597187
-31.860176 52.353390 -34.460430
52.825985 53.641293 -33.552402
-33.434425 53.775410 -33.441631
48.060780 55.093414 -32.772663
23.018179 53.921482 -32.639626
54.271652 55.643948 -33.607319
-37.255890 55.941933 -33.512096
40.553890 55.745075 -32.720295
28.297441 56.039993 -33.775787
50.357182 54.192734 -33.540627
52.331337 56.402695 -31.749229
51.184956 54.966751 -31.228325
21.981026 56.405052 -34.237312
-47.630974 57.182907 -32.894196
54.028179 59.090321 -34.033760
20.018410 60.494698 -32.315292
54.626976 59.525791 -33.732536
24.869623 58.778645 -32.537056
51.419796 58.690426 -32.974319
-43.918777 61.170883 -33.386868
22.390860 62.237701 -34.072895
19.331095 60.567600 -32.740547
22.265596 62.031517 -32.427753
52.702343 59.870502 -33.921261
53.719639 60.423748 -34.363098
55.410332 62.174908 -34.214062
53.278130 63.917244 -32.437717
54.863724 63.377174 -32.507629
55.630733 63.098537 -32.378723
18.363598 62.967682 -32.912788
16.998371 64.155540 -32.813183
22.015369 62.555172 -33.330788
55.790745 65.390594 -33.590530
20.443193 67.084259 -32.596157
21.875101 66.095573 -32.992435
54.436035 68.161621 -33.457241
56.152306 67.753456 -33.032238
16.843676 67.111778 -33.530399
56.103741 67.674171 -31.580402
-38.341709 70.720909 -33.475300
-38.002003 71.866364 -33.378075
56.919483 69.205917 -32.623444
56.027565 69.803970 -32.862110
57.861317 71.738953 -32.982124
19.811726 71.159805 -33.508034
55.775185 70.659492 -32.262852
-28.275751 73.075745 -33.801762
18.196068 73.298370 -34.287022
-35.941444 73.708328 -34.432789
-29.666075 73.201675 -33.185619
-24.882410 74.645927 -33.689648
16.537764 73.153404 -32.878868
19.554665 74.578491 -34.182163
-38.791603 74.084152 -33.934731
-22.757231 76.618820 -32.867161
55.983612 74.347527 -33.079617
-34.944244 75.264374 -33.590904
56.379757 77.699097 -32.744473
-36.910389 76.965218 -32.255299
56.516125 75.924759 -33.944077
57.795341 75.758682 -32.349957
11.700406 76.523651 -33.850746
-21.975859 75.080788 -32.828613
13.416708 75.005348 -33.209747
-35.149879 79.484489 -32.874393
12.240260 78.738754 -32.385368
-34.015484 80.831863 -33.524895
11.473935 78.713791 -32.113121
6.659839 82.229317 -33.616180
-26.962370 80.610901 -33.678612
5.834075 81.433136 -32.278378
-26.874550 80.627266 -33.559994
-24.052195 82.823738 -33.888123
58.267712 81.062126 -33.704185
4.245128 82.327820 -32.414211
15.432518 80.685562 -32.606579
54.769161 84.223389 -32.313522
-20.534155 83.980637 -32.625374
-35.537239 82.209358 -32.576881
-24.317501 84.328194 -34.273968
-23.247971 85.084000 -34.524887
5.960341 83.171799 -34.225109
11.707490 81.017822 -32.484016
-32.004269 84.307144 -33.334312
58.244549 83.980293 -32.524784
16.359911 83.526306 -34.606113
4.765642 84.445396 -32.615910
7.539836 84.629555 -33.872925
15.708432 83.192520 -32.712162
-17.073847 84.592918 -33.614876
1.714607 85.507515 -33.781796
-23.668863 86.261696 -32.801456
16.225046 84.598289 -33.941124
-33.562843 84.587013 -32.987453
-30.659624 85.874901 -33.227684
16.019308 86.776024 -33.580032
-33.177841 86.739174 -34.693748
57.970173 86.225616 -33.772717
-21.699614 86.401787 -32.352207
10.494592 87.892029 -33.438602
-32.065250 88.271812 -32.354103
54.263657 89.407738 -33.186741
-30.328344 89.144791 -32.564480
-19.505554 84.725029 -32.869221
58.348114 89.993027 -32.682377
-19.170256 89.398491 -32.187878
-16.185234 89.701080 -32.972237
-16.283400 90.794403 -32.598854
-13.564702 89.683594 -33.245304
53.092979 91.413658 -33.050720
57.064922 91.941750 -33.620239
-15.032560 93.520355 -33.073597
-19.224804 91.454346 -33.782623
8.890920 91.291100 -33.616520
56.701523 92.680054 -32.744980
-72.691940 93.770187 -33.623428
7.609653 93.258202 -35.273945
12.980492 92.729073 -33.520893
13.737581 94.817482 -33.961758
-72.584785 92.901733 -33.237820
55.869179 94.650391 -31.385416
-12.638829 92.791702 -34.081394
-75.106468 93.297462 -32.689098
-71.827568 93.765503 -32.827374
12.007601 95.686501 -32.286983
-70.626068 96.243614 -33.404312
-16.169470 95.794571 -33.357716
-10.283904 96.268471 -33.112858
-14.663477 98.704765 -33.435173
-12.715340 95.751404 -33.075008
6.367658 95.833130 -33.883801
12.085686 96.073257 -32.541588
-71.008728 98.285515 -32.819023
-73.226166 98.902504 -33.620842
-10.849974 97.926376 -32.292595
13.380363 98.008537 -32.078331
-16.269430 98.856407 -33.476952
5.943634 97.892509 -33.401775
-74.395081 100.992729 -34.060356
-14.210371 98.900078 -34.839195
-10.921597 99.405533 -33.390327
4.953535 99.080727 -33.065193
50.492542 97.633797 -32.906990
11.002474 101.180016 -33.265347
54.530930 99.346039 -33.729298
10.913346 100.924011 -32.890099
-7.366976 101.229637 -33.424583
-12.740284 102.778786 -33.118244
-76.410728 101.831619 -34.127098
-66.730194 103.481888 -33.037148
-62.642490 102.440041 -33.670044
-8.089472 102.465210 -33.580727
-78.668617 103.102867 -31.908552
-60.028931 103.876251 -32.641445
-13.224093 103.346634 -32.916977
5.434239 102.471596 -33.047199
48.425629 102.147751 -33.926819
-73.105339 104.116791 -32.669678
-7.276949 104.404823 -34.069828
-77.942787 103.903847 -33.298107
-73.093994 103.986237 -33.237682
-8.126700 104.330719 -33.215435
-74.129532 104.773972 -32.512997
-61.799900 103.875198 -32.054180
-55.276783 105.338844 -32.639046
-77.103165 104.946632 -33.060917
-12.689048 104.648979 -34.167027
-74.232513 105.434639 -33.604107
-73.463562 104.971458 -32.804592
-61.391087 105.227875 -33.062927
-57.135078 105.324707 -31.938911
-7.091804 103.694199 -33.983749
-73.837784 105.008919 -32.972069
-10.364861 106.300064 -33.806282
-8.262118 104.790421 -33.623253
-81.079796 104.085907 -32.866745
-66.841553 105.562202 -34.189919
-71.252853 105.636955 -33.198128
8.446115 107.309380 -32.213890
-62.356777 107.535370 -34.545910
-76.433022 107.280441 -33.289474
-81.921013 106.864479 -33.457142
-74.906723 108.219513 -32.468090
-72.337044 108.485886 -33.932110
5.304346 106.189537 -32.504414
-77.020416 108.200981 -33.580025
-10.559106 108.464218 -33.152073
46.641331 105.484779 -34.701733
50.036373 106.487617 -32.521156
-78.812134 111.030235 -33.674694
-4.814931 109.494659 -34.723740
-82.975906 110.873390 -33.074169
3.328824 109.755569 -33.646809
-40.431824 110.600700 -33.963047
8.719057 108.636940 -33.241615
-38.591911 109.585915 -33.056976
45.285950 110.880119 -34.311756
-38.715771 110.208755 -32.159950
3.677644 110.407845 -32.913628
-3.087300 112.605118 -33.310371
-75.711021 112.946991 -34.562279
-47.471333 113.415390 -33.657597
-42.648167 112.378792 -32.512447
-3.223289 111.847977 -33.675129
8.173904 114.609833 -32.736301
-72.512161 114.145531 -32.298225
-4.752778 114.245659 -32.685528
-46.467564 114.232384 -32.216179
-0.927173 114.861359 -33.407501
-12.746310 113.967415 -32.391312
-6.052270 114.312454 -32.476318
43.622196 112.317009 -32.525723
-10.570428 114.692589 -32.896530
-45.639107 114.910011 -34.373585
-14.039869 112.794937 -32.667103
-52.840374 116.294029 -34.405396
-8.664777 116.199303 -33.193626
45.290600 113.303497 -32.630280
41.353924 114.989410 -33.197598
2.886208 115.473442 -32.116241
-48.558640 116.194893 -33.234726
-4.655769 117.565147 -32.647835
41.432365 116.366997 -33.233150
39.397308 117.259407 -34.011440
-62.787914 117.908020 -32.206749
-12.186486 115.929741 -33.264870
5.440585 116.503281 -33.917469
42.331318 115.708153 -31.387564
-70.686424 117.933319 -31.921530
-49.993523 117.823174 -32.775642
-52.291344 118.360580 -33.236607
2.294653 118.144516 -33.691689
-82.485611 117.411758 -33.152340
-67.539017 117.889259 -33.477131
-3.349509 118.260246 -33.521744
41.385853 117.478683 -32.379078
-62.358852 118.928810 -34.181652
8.406397 119.032051 -33.409187
5.720726 117.836449 -32.551456
2.086586 117.693733 -32.397301
-56.674023 117.756874 -32.559418
3.705223 119.133522 -33.531887
-57.670380 119.333244 -33.778122
-5.409568 118.919708 -32.884781
38.093090 117.727150 -33.172413
-5.413135 119.284546 -32.868385
-7.329700 119.601990 -34.028690
-1.961376 120.096329 -33.219570
4.565645 118.772446 -32.220638
40.489616 118.348465 -33.137657
7.040236 120.329956 -31.591047
-61.271652 121.226982 -33.566200
-58.092575 119.612930 -32.929443
39.207279 119.096169 -33.480328
6.413862 120.349258 -33.575138
3.246462 119.814369 -33.999092
38.195999 121.923050 -34.252468
-70.102516 121.436180 -32.937977
-7.077020 121.603928 -33.507572
-3.510305 120.697311 -33.413105
9.117311 121.297676 -33.146339
-3.103441 122.464920 -33.003075
8.225425 121.981277 -33.146049
-6.430107 121.540581 -33.927948
35.236076 123.832504 -33.205723
-8.794382 123.154213 -32.739414
-6.011027 123.651054 -33.752785
-0.868544 123.628235 -32.058910
36.421387 122.643242 -33.211777
-3.873142 124.016510 -32.072731
-10.272679 125.062202 -32.677814
8.810950 125.113007 -33.419613
-4.892502 125.016884 -33.890903
-1.314340 124.393105 -33.625797
-81.740211 126.994339 -33.791702
