# This PCD file was generated using the MATLAB® pcwrite function
# from Computer Vision Toolbox®.
# .PCD v.7 - Point Cloud Data file format
VERSION .7
FIELDS x y z
SIZE 4 4 4
TYPE F F F
COUNT 1 1 1
WIDTH 1490
HEIGHT 1
VIEWPOINT 0 0 0 1 0 0 0
POINTS 1490
DATA ascii
25.003202 58.157330 -29.739271
40.145348 58.335075 -30.431520
54.085442 55.102379 -31.107424
47.433632 57.289143 -30.405029
22.524437 56.274174 -29.726837
50.273018 56.984989 -31.469507
24.279465 55.985199 -32.186813
20.593904 57.310287 -31.211967
22.133747 59.627892 -30.068254
53.014359 60.148113 -31.010227
54.688122 60.234524 -29.928144
-35.996956 61.043602 -31.401957
-40.622845 60.064205 -29.895302
53.304024 62.643150 -31.036581
-43.752369 64.512154 -31.857321
-45.216496 62.402969 -30.572144
-38.545860 63.785419 -31.799841
-44.294113 65.176598 -30.410429
-38.630428 66.067291 -29.922926
-28.615221 68.430664 -30.289801
-28.643137 68.294914 -30.954884
-45.195724 72.408401 -29.341639
-35.789669 70.665581 -30.843435
-24.343494 68.741501 -32.817753
-38.202755 70.507698 -30.804565
-41.503319 71.378334 -30.933605
-31.033533 68.833839 -30.423176
-37.644672 71.145515 -32.309483
-38.012154 73.388550 -30.519106
-39.337513 71.783875 -31.155005
-30.495907 72.085625 -29.001764
-30.122255 72.872063 -30.397337
-38.014793 74.461670 -31.981564
-35.819901 70.893150 -29.360792
-29.412790 73.986061 -29.257998
-29.282860 75.694260 -32.870468
-24.897282 75.547005 -29.517054
-27.776417 77.601898 -29.812227
-25.567936 75.351463 -31.552994
-48.804943 76.423866 -30.641886
11.415744 76.755417 -28.600973
12.239352 74.771759 -29.583092
-45.670502 77.682915 -29.697041
-23.796999 75.605736 -31.711781
-25.337976 78.950905 -30.820179
11.506145 78.705650 -29.198597
-50.337734 78.315735 -29.538137
10.447511 79.859428 -28.617901
-49.457848 80.328819 -30.365152
6.144608 82.400810 -30.563118
7.124151 84.041901 -28.731600
6.800725 79.922058 -33.455841
7.537165 83.461136 -31.941954
-46.392498 80.342651 -31.845444
-46.980770 87.025284 -29.389091
-51.224472 86.991219 -30.423796
-54.329189 87.666298 -28.881165
-50.132477 90.328102 -31.318710
12.936368 89.060699 -31.007442
11.742667 89.737404 -30.890774
-49.884739 88.451530 -30.602728
-72.960533 92.123550 -28.959211
-53.881721 91.484367 -28.529440
-73.146530 93.801369 -33.274155
-75.762558 91.080811 -29.116055
8.574892 91.321106 -31.144535
-74.751167 93.028023 -28.902332
-73.165680 94.367035 -30.429289
-74.276062 93.503075 -31.997175
11.535296 94.586754 -29.181040
9.376709 93.306198 -32.771912
10.083014 91.743401 -31.493139
10.044435 98.387329 -29.429482
-76.702141 98.005142 -30.762924
10.218394 94.375305 -31.517847
11.993717 94.435715 -29.686968
-70.012306 98.257790 -31.319418
-55.833652 98.287407 -30.540665
-75.458038 99.541069 -30.235321
7.492228 100.288200 -32.151051
7.928836 98.903564 -33.052067
7.436360 104.474228 -33.419968
-72.841080 100.837044 -32.089973
-52.898121 103.090698 -30.395439
8.154575 101.087898 -31.246088
10.307958 102.167015 -29.858152
-67.157654 101.254387 -29.686432
-61.498619 101.251709 -32.017967
7.042353 101.099197 -29.160814
-77.309692 101.408806 -28.826622
-69.223755 99.229317 -33.367027
-67.319832 103.330544 -32.045013
-79.064011 102.330338 -31.518143
-82.772362 101.650169 -30.441454
-80.077827 104.946671 -29.730276
-52.554897 103.021774 -31.550451
-10.064361 102.079269 -27.704922
8.480000 105.878822 -31.249220
-82.260574 107.075256 -32.002060
-12.714984 102.133514 -30.856405
-75.451073 102.975555 -32.516651
-9.388472 105.445656 -32.683533
8.294233 102.911621 -30.106871
-79.206795 102.949242 -29.181459
-71.954109 106.959007 -30.689011
-55.814205 105.055458 -30.258003
-70.516747 107.519783 -32.434441
-9.971207 106.164413 -30.228405
-79.145103 107.098671 -31.542894
-76.734924 106.381676 -31.224974
-68.622826 105.381935 -30.771027
7.252277 107.222160 -30.317244
-82.037918 103.389961 -31.944300
-60.289131 105.464111 -28.535582
-57.725578 106.657562 -30.703913
-63.110481 106.393311 -29.122808
-9.685247 106.478760 -28.802504
-8.237404 110.121986 -32.189049
-6.724397 105.796837 -29.572069
-73.788223 107.865593 -32.091896
-81.467743 109.013435 -30.418392
-76.501625 109.626785 -32.444622
-4.676546 110.101433 -30.528713
-82.300575 109.707169 -31.946362
-8.897362 110.364960 -31.387985
-82.039314 111.735252 -29.065214
-79.649170 114.332794 -32.800838
-80.770500 113.060417 -29.231102
-74.593872 115.105682 -30.750179
-5.925584 113.840599 -30.725996
-3.855738 111.176559 -28.644056
-73.303551 116.262192 -31.670135
-50.505447 116.710106 -28.944170
-4.598786 116.057083 -31.780794
-4.770092 117.168983 -30.840271
-51.047943 116.265907 -30.377396
-81.672775 115.157784 -29.992817
-63.178349 118.265884 -30.316261
-51.387344 118.304977 -29.929752
-4.038566 118.637337 -30.797169
-65.753159 116.522888 -32.528885
-82.577034 119.137657 -30.900114
-53.877762 116.602608 -29.747385
-52.412178 116.440773 -27.635944
-81.407318 117.653465 -30.047401
-54.539173 120.278946 -27.200996
-2.435871 116.446625 -30.136936
-0.306425 115.893211 -30.607044
2.207983 121.563148 -31.629826
-55.623833 120.297081 -32.404564
3.875561 119.753792 -31.047331
0.078743 121.268066 -30.414299
-0.837976 123.558014 -29.117878
-0.387730 120.278481 -28.909479
-58.055618 122.382019 -31.007282
-60.554420 120.873375 -30.737421
0.891061 124.135864 -32.188091
-62.043118 123.367226 -32.315548
-4.622612 120.081619 -32.436352
-3.359152 123.956673 -29.480494
-0.683188 122.253166 -30.342056
33.409405 122.090485 -32.133129
-4.559063 121.237755 -32.919086
35.236115 121.484634 -30.311573
2.925296 123.334770 -32.210411
-9.526049 125.045822 -32.107307
1.154107 125.921013 -31.281500
4.989822 125.553711 -30.174934
1.529539 125.230659 -30.533142
6.932570 124.836563 -30.564777
-0.251525 124.359200 -30.814260
32.838448 123.056885 -29.639744
31.572344 127.126732 -31.160351
3.751623 124.965096 -31.734072
33.500801 124.122910 -30.782738
30.081820 126.000595 -29.371336
24.275530 125.855812 -31.108812
25.195385 129.671783 -31.517281
19.212976 130.784653 -31.406078
25.658535 129.712830 -28.619638
28.120285 127.995132 -32.731422
16.726387 132.906952 -30.812086
-6.639254 130.249680 -28.522009
21.155489 133.479233 -30.282293
-76.394341 133.243362 -32.211899
-65.585365 132.780594 -31.933630
-4.194989 128.962708 -31.798286
11.576731 134.309036 -29.675539
21.358225 135.301010 -30.048574
-58.913181 131.993149 -27.881475
12.240726 133.127731 -31.148302
-56.106396 132.522919 -29.966261
-48.978119 134.247467 -30.607990
15.768659 132.889542 -30.251410
21.120340 134.206406 -29.619638
-75.241150 133.262009 -32.831074
-57.998814 133.465668 -29.666883
-54.626572 132.189133 -28.730556
-50.032413 137.219620 -29.340490
-3.946072 135.591782 -31.599300
-72.831017 132.803207 -31.087311
16.848791 133.832825 -27.766409
-56.655216 134.251068 -29.437632
-53.595341 134.693802 -29.651566
21.770500 135.219284 -31.386091
-58.837273 134.017548 -32.346210
-54.652279 136.062256 -29.980461
14.156312 133.259903 -31.445543
12.927766 135.804138 -31.384604
-74.445045 135.827164 -29.418091
-69.254990 134.896255 -28.528091
-57.291988 136.670914 -29.473928
-53.911964 133.471283 -31.412043
-58.686977 136.027039 -30.397823
-67.139153 134.120605 -30.874649
13.077712 135.408310 -31.180990
-73.527252 137.088913 -31.863087
-64.055428 138.359573 -29.909781
-67.814346 135.631653 -30.838308
-61.057457 137.262238 -31.882893
-5.088385 138.225891 -29.721046
-71.881546 139.036469 -31.871468
-0.907791 136.791138 -29.310835
-3.801841 141.275833 -31.458525
-1.584969 138.696182 -30.806332
-77.681732 145.414688 -31.072025
13.483459 141.466125 -29.794804
-75.044220 146.306778 -32.247360
-72.048592 145.925400 -33.801460
-2.947844 146.977615 -31.581461
-1.837926 149.283127 -31.792887
6.193854 148.738312 -32.558773
-67.560524 146.837067 -33.262421
-63.925056 148.253738 -29.496710
-67.776878 150.246140 -31.534166
-2.913248 147.215500 -28.853195
-68.001846 149.647400 -30.953102
-63.422440 149.146149 -29.610830
-58.785507 147.729767 -31.132675
-57.862286 150.204636 -28.654022
7.385447 149.026138 -30.552210
-67.602280 148.422302 -30.413164
0.239278 151.769165 -30.601004
-65.455872 152.144928 -29.951700
-65.320984 152.092743 -32.306873
-76.437798 152.971100 -31.569658
-76.716515 155.162735 -29.211529
-74.241356 154.384964 -32.269852
-72.936325 156.642776 -31.699717
-74.341820 157.242676 -32.474365
-74.683273 159.575302 -31.597561
-73.658073 158.136108 -30.402855
-75.671059 158.962433 -31.734352
-73.383423 159.981567 -31.179848
-76.055542 160.683411 -31.574833
-76.760101 160.313721 -31.769085
-73.281715 159.174911 -29.586739
25.476103 14.102397 -30.558050
21.745720 17.708416 -34.537365
11.310449 20.622507 -31.774529
23.128540 20.066879 -30.994932
11.869581 20.072275 -32.508904
23.825966 22.070679 -32.521763
18.901875 25.367619 -31.729145
15.318993 24.852156 -34.298313
13.079984 24.899883 -27.589117
16.567238 25.992060 -31.831150
18.414297 25.541536 -27.877861
-36.033852 28.021442 -28.701694
-20.984337 27.773582 -31.858158
-40.043049 32.712502 -31.583740
-13.716420 30.687597 -30.247370
-13.202765 30.979609 -28.911936
-6.744629 33.140823 -30.008581
40.249825 35.007614 -31.554539
41.701637 37.436100 -30.115841
38.932556 33.224480 -31.321901
34.462334 37.782520 -30.505972
50.606441 39.396145 -30.843824
-49.194889 40.662003 -28.784084
50.438332 40.331593 -31.501492
53.365265 42.827839 -26.572863
-22.100899 43.028797 -28.441484
-15.260914 45.434380 -28.638279
-20.852398 44.206577 -29.929657
35.722672 44.582623 -32.120197
-19.810160 45.786228 -30.960979
31.342506 48.463654 -30.935759
-23.095201 49.049473 -29.161266
32.113567 46.880337 -28.907600
-49.688957 47.434589 -30.131586
24.475389 48.305729 -31.687836
-31.018038 49.540951 -31.828896
50.826862 50.330002 -31.217983
25.504646 49.734772 -26.340624
33.547722 52.323227 -29.804688
33.228981 53.762211 -28.278179
27.188005 54.405506 -32.144360
-48.415012 51.688091 -31.836813
23.207176 53.638248 -29.398756
25.771189 54.055786 -30.711565
26.859505 51.851170 -30.674988
24.900461 54.022961 -28.802649
28.894716 54.904484 -30.639656
51.989212 54.007938 -29.208767
49.852303 55.713898 -29.893099
-36.965080 54.616863 -31.657045
29.543709 54.307758 -27.708616
-36.540428 57.039349 -30.997278
36.066025 57.383564 -28.118132
50.081970 55.518269 -30.758520
-41.649803 57.354328 -29.759378
23.986031 58.898540 -29.471395
-40.877274 58.931004 -28.474224
-34.676701 58.054123 -31.736332
39.413914 59.304279 -30.254858
45.364883 58.882614 -29.243704
-38.570610 57.590576 -33.077534
-44.254658 61.593132 -32.336624
-38.682751 61.767864 -29.053947
-45.011887 60.047714 -30.330292
-49.940220 63.019154 -29.360037
-40.783730 63.969139 -28.650217
-41.782143 61.680077 -28.335058
-38.288174 65.128456 -32.399567
-29.216654 65.802757 -31.938431
-28.367777 63.392956 -30.016888
-40.424229 65.569328 -29.018625
-29.423956 65.861496 -32.082001
-41.446114 64.924660 -30.084728
-47.586357 66.949409 -31.063786
-39.102047 65.492943 -30.784010
-35.989189 68.451157 -30.002462
-38.130219 70.317551 -30.725025
-29.393486 70.765755 -29.230396
-29.330608 67.938286 -27.859797
-37.513027 69.632278 -30.636374
-28.575989 67.181732 -30.944788
-40.422752 68.390213 -30.512648
-47.391670 68.856636 -30.946575
-24.991848 69.232613 -30.618065
-38.213169 67.994545 -30.091120
-42.106064 69.881706 -30.207451
-27.021685 68.920311 -31.482031
-31.492737 71.140869 -31.146143
-47.039021 70.851814 -30.391882
-44.668221 70.815842 -30.049046
-37.254108 69.200432 -31.661819
-24.590746 72.588882 -30.415869
-25.418135 71.033043 -30.027529
-26.534525 74.400810 -28.783094
-47.710220 71.630363 -30.758934
-49.315788 73.025200 -31.545887
-35.844952 73.631058 -30.210621
-45.049850 74.508316 -31.929733
-35.739483 73.287048 -31.624100
-25.989536 76.185982 -26.725744
-27.471766 74.996788 -31.272306
-38.137188 73.251114 -31.064976
11.195012 74.095695 -29.483948
-23.316662 76.919456 -29.094440
-29.330067 75.241989 -32.426338
9.743481 77.478523 -30.539890
-27.033957 75.162796 -31.814724
-26.619534 76.575211 -28.609472
8.457813 82.088425 -30.022472
7.853195 79.922371 -29.822344
-45.819931 80.673729 -31.292202
-51.010017 84.435966 -31.350615
-51.997513 84.586021 -30.417242
-72.157791 91.405243 -27.255056
-54.852684 93.849396 -30.427212
-54.410908 97.915504 -31.125679
-55.335812 95.760651 -30.543154
-71.170998 97.084045 -29.069202
-54.160137 99.996407 -33.993107
-74.834999 101.196587 -30.732616
-56.839699 101.052940 -31.628120
-80.312561 103.104362 -29.561935
-72.244431 104.545395 -29.328392
-55.121162 103.666473 -29.858925
-72.942383 102.725258 -29.277843
-74.387100 103.217110 -29.996889
-74.117897 107.337570 -30.725948
-73.710526 111.464439 -31.127167
-76.529259 112.951744 -31.471153
-74.000847 115.538704 -31.183613
-75.148888 118.173141 -31.630680
-53.669586 118.512215 -31.645813
-62.796677 120.075203 -30.495251
-57.926594 118.104973 -30.407164
-54.882824 115.826309 -31.303577
-63.448994 118.013306 -28.373648
-54.554272 117.930756 -31.428316
-71.329567 120.802742 -30.268713
-78.700958 118.680122 -31.100288
1.495241 121.085060 -30.409178
-68.799072 120.572319 -28.965796
-68.244545 118.675514 -28.224257
2.272448 121.434402 -31.947256
-77.117180 123.181915 -30.496756
-67.020653 122.350708 -31.730227
-56.393631 122.699562 -29.430557
-65.830376 121.047119 -30.540920
-61.221313 122.533585 -31.087013
1.896677 121.214401 -29.989967
-4.700814 123.059799 -31.478733
3.525322 124.897415 -30.163773
-3.565563 123.456207 -31.467939
-8.156781 125.322807 -32.302601
5.814493 125.771683 -30.200958
6.563742 126.048996 -31.079679
5.704300 126.120262 -30.251499
-7.716005 127.393707 -31.356567
-73.510078 127.582314 -28.850262
28.464771 126.343788 -29.520298
29.426998 124.283951 -29.973545
9.100934 129.797928 -28.959211
27.877264 127.781784 -28.940554
29.439104 127.483841 -30.255569
28.421047 128.471558 -28.686764
10.002761 130.451050 -31.115740
24.198135 129.413864 -29.599834
27.839312 130.662079 -29.472530
-74.660309 130.454102 -29.088547
-2.793072 129.211609 -30.197905
26.179361 131.508957 -28.245289
20.222683 130.919952 -32.413597
-73.673042 132.524948 -32.855072
-72.054619 131.471344 -30.561653
21.807892 131.341827 -29.310858
-65.567169 130.651489 -30.049540
13.866531 135.314041 -27.610506
17.288683 134.446594 -28.555418
18.651293 131.898788 -30.567019
-72.990746 131.761932 -29.344704
-66.724548 133.329529 -29.920006
-63.411343 132.838226 -29.957493
-3.954773 130.815887 -31.570026
18.620291 133.714508 -32.222904
13.960037 134.794022 -30.800989
-67.671410 134.463074 -31.091158
-71.208221 132.608292 -28.421141
-71.139336 134.413879 -29.036118
-64.963295 134.157684 -30.299221
-2.367705 133.214401 -31.941517
-58.045208 134.457413 -31.473858
13.157136 134.310577 -28.766273
-67.786110 134.009155 -28.364336
-4.074091 134.432602 -30.311483
-73.527000 135.505051 -31.185345
15.893779 134.628036 -30.251953
-69.042221 132.328369 -29.554453
-61.201515 135.844162 -29.320099
-63.533600 137.316910 -30.198547
-58.951420 136.228088 -30.917421
-64.162239 135.958740 -28.798313
-63.665932 138.174988 -30.497927
-57.079231 137.281479 -28.809235
-59.483002 137.238724 -30.322123
-1.806828 133.237442 -29.981028
13.949660 135.248596 -30.840900
14.011838 138.336563 -29.884737
-73.569916 139.075104 -29.684195
14.395106 136.583252 -31.218739
-0.376711 139.355453 -30.673014
-2.741704 144.812973 -29.470413
-1.732210 140.114624 -31.664747
-1.649420 144.292435 -29.635393
9.645324 147.273865 -31.907124
-66.833466 149.474792 -31.643013
-63.942707 146.166336 -30.093517
-70.864365 149.649994 -30.544600
-62.884777 150.379776 -30.517637
-63.521385 149.097946 -28.251783
-63.277241 150.206299 -29.653408
-67.940758 150.525192 -30.477213
-78.460419 150.969177 -29.850321
-72.315475 149.802032 -31.095037
-57.216404 148.157242 -28.694632
-76.543579 151.634552 -30.071548
-74.561142 149.460052 -32.340614
-63.588497 150.099716 -28.995333
-66.415955 152.103729 -29.197287
-63.716175 149.097275 -31.861582
-63.402962 150.204956 -31.287415
-59.761898 151.661789 -29.061056
-74.163765 149.952545 -29.018066
-64.233788 152.649231 -30.263117
-0.302575 150.226593 -30.873077
-72.482193 150.620346 -31.247568
17.464214 12.729352 -30.071508
11.313180 12.819981 -33.375637
17.983820 13.510847 -29.847404
21.269049 11.523929 -30.583666
11.873617 15.714178 -31.598408
22.553614 17.059866 -31.502911
25.990549 19.010166 -29.325272
11.282639 19.411833 -32.050117
11.658517 23.035118 -31.492054
21.703342 21.367289 -30.739016
19.276497 25.096451 -29.904947
19.898901 26.805092 -31.286161
18.227724 25.030359 -34.925396
-27.959278 25.934292 -29.736319
-38.579952 26.922256 -30.410782
-19.853455 27.710079 -29.969973
-40.229443 28.782724 -27.673187
-40.536598 34.637821 -29.943129
-5.234955 35.803375 -31.106930
-43.601311 32.308640 -31.861208
36.393456 35.640320 -29.940653
42.476139 34.345264 -30.309822
-4.345311 37.148499 -31.109793
40.693996 34.645061 -27.954638
46.057587 38.405796 -28.805830
33.425705 39.013481 -32.158092
48.687553 40.853184 -29.206602
-10.375880 38.808983 -30.638187
-7.729877 39.883438 -30.795910
33.852139 42.265667 -29.133484
31.885113 43.579021 -27.079159
32.254845 45.250469 -29.271441
29.362766 46.295166 -30.515354
29.648935 46.764553 -30.559303
52.921711 47.255470 -30.166069
-26.315540 47.980175 -29.963522
-31.291189 47.842216 -30.544960
23.654543 50.329288 -30.355852
26.544178 53.141068 -28.566977
29.533787 53.574425 -30.958273
-32.379799 53.320873 -30.327240
22.215204 49.187771 -31.353163
51.197140 51.779282 -31.632414
-34.043018 52.776550 -28.977360
-49.573784 53.620167 -28.610834
-34.882362 53.495396 -31.102547
-49.842796 55.056957 -28.333233
-37.929909 57.210861 -31.830885
22.898142 54.772438 -28.360405
-35.510189 54.060883 -28.305786
25.399549 55.334976 -29.892902
-38.838058 55.289097 -30.607079
47.091217 57.165936 -29.755014
-39.471786 57.368587 -29.982307
43.346455 57.762608 -29.009134
-35.883129 60.101048 -30.860542
-37.995327 62.537846 -28.012175
-42.689079 61.713123 -30.675358
-33.322350 64.309746 -29.472826
-36.692799 65.952065 -27.359570
-47.238983 65.520950 -31.127108
-40.897797 66.448036 -29.246302
-48.579788 65.503555 -27.317184
-29.002390 67.340096 -29.826691
-30.269567 64.479660 -28.747316
-30.043964 65.289291 -29.173826
-41.956890 70.215858 -30.489096
-30.141653 69.401016 -31.047314
-39.220779 67.958183 -28.798912
-45.016510 67.692757 -30.913139
-41.809040 66.433792 -30.268408
-26.250744 71.387543 -29.929117
-42.170338 70.132683 -31.475155
-33.415413 70.836487 -29.818777
-37.111412 71.085213 -29.223976
-31.036161 72.071213 -29.873022
-39.035988 71.718117 -30.908041
-45.304726 70.257607 -29.561577
-35.336128 73.938095 -29.089624
-32.953503 72.358124 -29.657846
-38.907642 74.573532 -30.107632
-28.939354 74.807228 -29.160223
-42.896187 73.527016 -29.048515
-43.068035 70.845772 -29.323244
-26.644863 72.682121 -28.773920
13.285951 77.131775 -30.551506
-45.662815 74.251801 -28.099998
-48.418510 75.264168 -32.359756
-44.395420 74.207420 -29.534126
15.772377 76.015350 -29.061897
-26.796379 77.257500 -28.714146
6.843678 76.348816 -31.014744
-43.742641 76.014015 -31.426168
7.325792 78.953415 -30.911331
10.693584 78.231133 -31.333387
-48.892151 82.665573 -29.522179
7.414701 78.530464 -28.750267
9.132872 80.307434 -28.294296
10.018567 79.270653 -30.743769
-48.118210 83.979439 -28.945972
-53.357277 84.297485 -29.190155
-49.746399 87.714592 -30.540403
-51.510551 89.644798 -29.824369
-49.885239 91.686752 -30.399525
-53.065151 86.565674 -29.644442
-53.128796 91.326843 -29.596689
-69.405533 91.167267 -31.088869
-51.456936 94.067047 -29.891352
-74.976494 95.947250 -29.969208
-55.797485 92.004486 -29.948391
-71.506721 95.989288 -28.433798
-69.598030 99.627335 -28.736876
-75.196815 99.664268 -31.031857
-53.439209 97.066299 -29.817053
-56.577488 98.143440 -28.960386
-55.851501 102.054741 -30.905361
-70.934921 100.638115 -31.411600
-60.801395 104.544487 -32.674110
-56.860958 99.410271 -29.319422
-67.052895 101.589722 -26.713488
-54.999332 101.272926 -28.376135
-56.905254 104.041733 -27.908659
-74.088264 104.436966 -30.082165
-72.784737 103.637352 -27.061068
-62.979282 104.216866 -30.033514
-78.605408 104.189293 -27.859356
-57.112343 104.780754 -28.916586
-76.316788 106.134529 -31.820047
-60.700203 103.861755 -29.478199
-61.512840 108.520821 -28.447121
-65.373810 105.889519 -31.476591
-56.768661 107.487328 -28.140598
-70.956070 108.090294 -30.804949
-64.446739 104.830872 -31.119501
-62.985447 107.024368 -29.205467
-60.470898 106.910889 -27.631573
-59.527172 106.099648 -31.011646
-74.388420 114.690567 -29.975712
-76.089867 114.185959 -31.069370
-71.336479 116.221741 -30.914211
-65.599457 115.698860 -31.267693
-76.354721 120.739754 -30.463833
-66.734337 116.713379 -29.469641
-78.009254 120.216850 -30.980444
-67.207520 119.782089 -31.127562
-56.357430 120.863380 -30.349123
-59.072708 121.388000 -28.651180
-73.350243 120.390541 -29.463884
-57.291534 120.017220 -30.494154
-62.195713 117.868042 -29.960386
-56.322666 120.384155 -26.843784
-59.536686 122.595375 -28.894238
-61.457840 117.412758 -32.344543
-62.216877 120.853249 -29.446848
-65.588104 121.887856 -29.916328
-62.621136 122.679504 -31.940184
-62.965332 119.695419 -28.814272
-59.216175 121.391144 -29.112984
-71.587822 119.781097 -31.149179
-77.258072 120.877762 -29.031523
4.734353 124.108719 -30.478325
-76.286690 122.446144 -29.217472
-71.860497 124.418968 -32.015873
3.968134 123.525116 -31.351133
3.353627 123.411034 -30.092026
1.741016 123.796623 -28.927839
-0.201215 125.441124 -28.738178
6.305087 124.787743 -30.624113
7.550517 125.402306 -31.447233
-74.873711 123.889748 -29.562948
-1.195030 128.500534 -27.900370
7.970840 126.411377 -29.583275
-72.855141 130.106812 -30.265171
26.870905 126.604996 -30.771086
26.929865 130.707031 -28.890566
19.276501 128.922867 -31.272041
-72.711685 129.271622 -31.097229
24.120396 130.529373 -29.106131
-1.093735 132.111023 -30.572454
17.900414 132.030823 -28.162441
22.658115 131.380264 -29.052622
11.312825 136.074387 -30.082607
-64.283218 134.962601 -30.097807
-2.432941 131.354675 -32.903484
-66.952721 135.244247 -28.456228
-66.115654 134.657349 -27.683914
-65.675491 134.208801 -31.621519
-67.197456 136.444733 -30.227688
-61.860378 135.499344 -31.278316
14.410182 134.652878 -29.986502
-64.511497 136.503250 -29.397530
17.497953 135.394913 -28.941505
14.796272 134.866669 -28.598013
12.675694 137.080643 -29.232037
13.794771 137.975662 -30.073429
14.103974 137.487564 -32.391209
-75.860077 137.257690 -30.872513
-0.048156 139.019394 -31.386177
-73.844627 139.694748 -27.939877
0.490863 141.104996 -28.543032
0.019418 145.744843 -30.223349
-78.230980 146.561859 -28.934137
-2.579225 149.271988 -30.269186
-74.619041 149.788956 -30.002686
-76.817795 149.229523 -29.102709
-4.409157 150.432358 -29.097546
-76.599472 152.016357 -28.832691
-73.003448 152.360245 -28.108675
3.633293 149.684830 -30.354370
1.782534 153.563416 -28.787163
-79.354576 151.941360 -29.245417
18.195087 10.351891 -28.473902
19.890577 11.274300 -27.173561
15.439472 14.446317 -30.890467
21.587017 12.909528 -31.253063
21.024147 15.032348 -25.328470
12.777213 16.411758 -29.954571
10.224881 16.763458 -29.117920
23.546999 17.549475 -30.571594
20.889311 20.833757 -30.398224
16.926289 25.027437 -31.582012
-30.881752 28.122608 -30.682716
-34.737385 29.394110 -29.036713
-42.682365 28.501318 -28.863560
-12.494449 28.492611 -29.688437
-6.136821 31.668110 -27.398626
47.327259 36.811348 -30.443012
47.690907 38.824604 -30.708879
-46.895180 39.321136 -30.887163
-4.625442 39.766171 -27.383953
-11.744187 41.419651 -27.863720
31.508223 41.359085 -30.176390
49.753990 39.795639 -27.237106
-14.655009 39.709644 -27.787338
-50.105122 41.262497 -29.246449
33.264122 43.914978 -29.994446
-24.729553 47.663174 -29.850115
-23.565912 46.962788 -29.830492
-24.267944 45.015629 -31.123215
27.051035 49.145103 -29.828384
-27.084087 47.747501 -28.846516
-48.725006 45.147766 -29.147154
27.407528 51.136192 -28.748045
33.085983 48.135590 -30.608469
52.289558 49.643852 -27.687708
32.216331 48.900990 -30.424313
33.786049 52.441032 -30.624947
-47.351948 51.922340 -30.432009
26.836622 52.134754 -30.013922
25.994740 52.619648 -31.090416
21.906248 55.307682 -29.060974
-34.498428 56.130543 -29.023764
50.895435 56.711456 -29.225895
-35.719234 55.273506 -27.913616
35.404419 56.785393 -31.091961
-39.717422 54.292068 -29.802998
34.210175 59.458904 -29.552299
-31.638597 58.134865 -28.668150
-35.074127 55.789307 -31.128304
-48.519108 56.277409 -30.121250
-34.773537 56.537548 -28.760033
37.807304 56.280636 -29.521767
38.093830 59.309139 -29.278574
-39.799603 60.321114 -30.575710
-38.034317 59.930275 -30.301378
-40.084457 61.375591 -30.095659
-49.275894 61.673359 -28.851377
-41.776653 63.067371 -30.237696
-49.699818 63.968754 -28.895412
-37.504997 63.241505 -31.236927
-39.346310 65.137695 -27.276371
-43.869034 64.754204 -30.080967
-47.410789 65.885880 -27.815727
-27.240198 64.647087 -29.781187
-37.907078 68.111481 -29.300831
-36.211437 69.288216 -29.431355
-26.406708 65.105888 -31.040422
-39.001324 69.131294 -26.287388
-33.395512 72.302719 -29.131468
-42.587692 71.856400 -28.981375
-42.275532 70.014618 -30.916447
-44.559883 68.963470 -29.541462
-38.096642 73.650185 -29.190975
-40.734482 69.337791 -27.433056
-44.380333 72.023659 -27.317938
-45.375736 70.068672 -25.987764
-30.112452 71.589737 -28.877066
14.397888 71.115219 -27.961315
-45.911743 73.866455 -28.804787
14.933606 73.625252 -28.906994
-25.967331 72.132782 -30.404144
16.026491 73.523178 -29.948603
-28.339327 72.067123 -28.718069
13.897678 74.134392 -29.362583
10.750566 74.304626 -27.628038
-28.534883 73.794495 -26.583628
-27.173389 76.647072 -29.509844
-45.547958 74.741707 -29.368996
-46.405144 76.177330 -29.594860
6.963264 77.732903 -29.981319
-49.922115 75.991951 -28.073584
8.837107 81.979645 -30.854528
9.597474 79.455963 -27.316202
8.173325 82.211014 -28.395456
-50.153828 79.439186 -29.732258
-44.942474 79.200600 -29.568438
-49.256348 81.860649 -28.792248
-50.894485 85.569939 -31.778912
-47.906158 85.956985 -27.977980
-52.681881 88.630669 -28.385508
-50.191849 90.431175 -30.321646
-74.856400 93.361549 -31.711393
-51.745220 91.925774 -28.279388
-76.314789 92.682907 -30.731014
-55.801941 94.126877 -27.651234
-51.296886 94.998917 -30.569046
-71.520355 95.495934 -27.537201
-54.994381 95.046715 -28.966192
-52.421879 97.633858 -29.075762
-76.577904 97.549980 -29.790054
-56.701420 102.435791 -27.774981
-72.704742 100.562500 -28.795460
-55.380577 100.130112 -28.972628
-74.325775 103.481216 -29.804056
-70.682808 100.517975 -31.763664
-67.849190 103.871811 -26.877625
-55.840977 104.957436 -30.501913
-55.109936 103.599213 -27.771452
-57.196304 104.714439 -28.825008
-68.248161 104.249550 -29.736052
-54.457405 106.504227 -32.767273
-58.539158 104.257866 -28.362669
-57.057308 106.581619 -30.054264
-60.935505 102.794952 -29.899485
-58.320484 105.569016 -28.878647
-67.220795 103.093178 -28.023643
-53.933414 104.598885 -29.177408
-67.766945 105.597435 -29.930054
-67.115959 109.005630 -29.608727
-60.598549 107.653473 -27.702648
-64.643127 105.585693 -28.446350
-63.224842 105.159683 -28.637665
-55.142632 104.640579 -29.130220
-59.022221 106.438362 -28.425238
-72.989166 110.326126 -29.791916
-74.986977 117.436180 -31.232935
-76.201050 118.368500 -25.414270
-71.566628 119.298187 -30.201981
-75.342232 118.217422 -29.125677
-64.590767 119.223480 -30.731806
-67.061340 118.534248 -30.495621
-62.958916 117.613670 -30.365763
-69.932701 117.766945 -32.153954
-73.130424 119.301407 -29.502985
-62.399380 120.067848 -28.299677
-67.313477 118.286102 -27.712540
-67.006516 119.440895 -31.284384
-67.010162 120.444321 -30.257536
-74.020660 119.631104 -31.624649
-68.576332 119.661728 -29.089487
-62.398296 119.603294 -28.597761
-3.064808 122.331268 -31.329969
-1.950865 124.065163 -29.321331
1.395165 123.292435 -26.723083
6.645662 123.968018 -27.678167
-2.197366 126.275841 -27.493048
6.946394 126.003456 -27.497967
8.896769 127.147141 -29.403700
-6.757186 125.255608 -31.719496
-4.975826 128.394943 -27.188278
21.325380 132.550400 -26.398321
10.719650 131.581940 -31.421911
20.615061 130.959518 -26.612566
18.376097 130.368973 -28.171251
22.098639 131.353867 -27.462700
-72.848541 130.366898 -28.285494
-71.728661 133.107330 -28.441301
-76.456802 132.962112 -32.803009
18.071407 132.781723 -29.220625
16.572845 132.515411 -28.580868
-76.611534 134.549316 -29.028328
-76.300850 134.421768 -31.407732
-72.622879 135.706070 -31.519316
-77.825584 135.537323 -26.748276
-76.372192 135.596832 -30.504305
17.895096 135.755219 -28.651892
1.120890 134.952774 -28.583704
-77.001411 136.508438 -29.271362
-78.421776 136.783554 -27.888546
-75.058388 133.978577 -28.600456
-73.012009 136.190445 -28.073875
-76.628433 137.056976 -30.422668
12.102686 138.763840 -30.385271
-74.841049 137.787430 -29.606718
0.163371 142.317871 -27.834831
-73.827408 143.262421 -28.667931
-72.453346 149.313828 -29.795698
-76.444153 145.738815 -30.329569
-76.404526 146.019333 -30.161806
-72.533966 147.952530 -27.587763
-76.946342 146.185196 -31.090101
-70.940269 145.898819 -30.786146
-76.931587 147.166153 -30.488804
-74.183189 150.311905 -28.871332
-78.318359 148.200272 -30.620842
-74.492981 148.817047 -29.549438
-73.019119 150.102890 -29.599358
-72.405312 149.851593 -27.174728
2.463972 150.157639 -29.010605
-72.467133 147.930084 -30.079443
-71.542717 149.693420 -31.469439
5.897071 149.025894 -29.837233
-77.035934 150.191940 -29.918184
-72.118050 148.307037 -29.920490
-75.538063 151.479004 -27.622772
-74.745201 150.991867 -28.711918
-72.977623 149.971588 -28.046101
-72.794640 150.142639 -31.462872
-79.486366 152.343033 -27.916729
-77.767159 151.069107 -26.508387
-75.972961 149.785843 -29.115089
-74.226540 149.278534 -27.638506
-73.045166 152.314636 -28.519560
-72.917809 151.253708 -31.173420
0.919254 152.775284 -28.583839
-71.949104 152.507477 -28.946140
-73.419350 150.961380 -28.657074
-72.387474 150.882874 -30.054543
-75.568390 150.903183 -26.575796
-75.439850 151.518051 -27.692364
23.787012 12.588394 -28.842447
11.061455 12.051658 -29.274261
12.464387 14.034474 -26.614662
20.821285 14.924220 -30.092775
20.612104 17.033207 -29.574163
13.313123 15.228777 -32.977131
21.055971 15.921500 -30.921829
21.368906 18.400602 -26.994576
11.716890 21.042179 -32.448982
13.802198 21.360109 -28.133205
18.618671 23.985077 -30.680908
18.215721 23.034895 -27.099762
11.731702 23.667030 -32.587448
-29.415470 26.325001 -27.947523
-26.090359 26.663349 -28.207067
-38.330566 27.907539 -28.283417
-16.346224 29.990250 -28.589743
-3.654958 33.715405 -30.301483
42.459591 36.284492 -29.322008
-47.355431 35.518497 -29.362274
-4.214885 37.674900 -27.730062
44.937798 37.483120 -27.464437
32.587879 38.556133 -29.081238
-15.943958 42.309956 -27.119265
53.026299 42.213676 -28.164606
32.891270 40.184124 -28.267427
32.072777 43.423203 -30.546305
50.812405 45.544662 -29.937292
-23.026533 44.669575 -27.846878
-19.975506 44.233326 -27.751095
-49.615055 45.381638 -26.839952
33.916382 47.716537 -26.874298
-29.078114 45.212090 -27.016888
31.561253 46.905529 -28.736158
32.048145 46.229588 -28.198965
52.944279 48.144718 -29.353022
33.055431 46.820343 -30.106895
-31.981171 50.765522 -28.116062
-49.341427 47.779316 -29.534777
-32.450394 51.293213 -29.766582
24.989563 51.225296 -28.265474
-30.631184 51.629349 -29.751764
27.394350 50.223858 -31.758928
30.944513 50.127125 -27.346952
-33.780762 49.343773 -29.075081
30.333401 52.872124 -29.329838
24.709684 54.453617 -25.776669
25.956629 54.009216 -28.620197
31.763189 52.156734 -32.498722
50.543156 54.804192 -27.862339
-49.659348 54.179459 -29.206234
-41.268955 58.154533 -28.677660
35.346703 59.358955 -30.181698
41.888073 56.653294 -29.523981
47.816647 56.136223 -27.810755
-41.010548 59.638317 -28.367136
-38.118301 58.597317 -28.230520
-37.271328 58.338711 -29.427536
40.561283 58.216068 -30.768341
45.521233 60.747112 -27.214272
44.779549 59.210316 -28.148510
-38.763588 62.469986 -28.030815
-37.076893 61.500107 -28.811054
-42.517838 63.316662 -30.269688
-44.614185 65.118034 -28.040365
-31.993067 61.934460 -30.928560
-40.021744 62.857059 -27.849951
-45.436230 64.324333 -28.756815
-33.052288 65.312332 -28.935871
-26.580690 60.733124 -28.526224
-38.906689 64.817657 -32.072647
-43.892696 64.702995 -27.837818
-41.371132 66.012802 -27.659834
-26.986610 65.805801 -28.976107
-31.408022 69.016594 -29.116661
-27.188187 67.839493 -31.650476
-38.423950 70.419510 -28.903395
-39.469612 72.146393 -28.721106
-29.731190 73.009293 -28.585472
-27.903059 70.570168 -26.774406
12.899727 68.630264 -29.254915
-44.298103 73.768021 -29.575706
-26.413763 72.440178 -27.326227
-27.756584 74.983345 -29.297029
17.602676 73.205032 -30.503553
9.092400 72.690620 -28.334187
-44.238804 74.805878 -28.114920
11.653389 76.760704 -30.061855
-45.466759 74.438118 -27.377930
-48.964680 76.541824 -27.501249
-44.868759 76.314545 -29.758362
10.164515 80.310059 -28.847206
7.512313 82.197075 -27.802792
-45.586952 79.986855 -28.263474
-47.450428 77.659271 -29.802275
-47.083138 78.442932 -26.602753
-46.260201 77.843445 -28.001686
9.741880 80.954758 -27.421381
-47.571915 80.660049 -30.207180
7.576843 80.611191 -28.250420
-48.578384 79.702568 -27.906595
-50.256050 81.432892 -30.138670
-49.029018 83.105782 -28.101751
-49.580494 83.763832 -30.083527
-51.338291 83.809853 -28.157011
-49.811108 85.153526 -29.031288
-48.986946 84.060539 -25.913635
-51.804695 86.478363 -26.591347
-53.236618 88.882057 -29.301760
-55.501446 91.119965 -30.944347
-53.675705 88.054863 -26.253803
-51.501049 94.319992 -29.384857
-53.990078 91.150146 -27.421204
-72.326378 92.741692 -31.177187
-52.642136 95.297951 -30.589329
-76.923973 92.969101 -28.101627
-71.366356 97.302345 -26.384953
-73.289597 94.858406 -27.525011
-70.855644 94.625633 -30.083023
-72.505478 97.789215 -28.589813
-74.465141 97.232628 -28.785738
-72.822540 100.261467 -30.119932
-73.864342 99.304619 -29.552694
-63.877689 102.785988 -28.863609
-65.033813 103.177658 -31.394825
-63.850960 105.012756 -30.487471
-64.181961 103.326324 -29.562471
-59.534798 105.596573 -26.676773
-71.384041 106.009697 -29.868961
-69.351189 105.406403 -29.782791
-61.967327 108.109901 -28.854786
-74.696571 107.925941 -30.383291
-71.804085 107.996902 -28.872923
-74.659935 111.198456 -29.910316
-75.034050 109.326004 -29.290770
-75.302711 116.198227 -27.473408
-78.829636 118.600815 -30.071472
-70.641151 118.931961 -29.976809
-71.351021 118.376617 -26.568836
-63.009933 120.015244 -28.743147
-74.921783 122.545189 -28.218107
-77.210197 119.636963 -27.844116
-0.581024 121.930336 -29.215790
-0.388700 122.270798 -31.045271
-72.882324 122.593338 -28.693733
-74.335060 124.273117 -31.231701
2.955118 125.398582 -29.712105
6.712863 124.994476 -29.883633
-2.198768 125.570427 -30.289595
11.714254 128.373688 -30.235302
-74.770378 128.843338 -27.320969
-75.873787 123.099266 -27.489964
-3.896700 126.981514 -29.082132
10.737055 129.978439 -31.305506
-73.360718 129.083618 -29.410639
-3.114663 129.920914 -28.532711
-74.923378 130.897812 -27.742195
9.996430 130.977722 -30.590551
-78.727493 131.876114 -29.285536
-78.366592 132.225937 -27.354240
-74.909149 134.962738 -28.958778
18.351809 131.398804 -27.489134
-78.112038 134.209717 -29.201786
-74.990639 132.900406 -27.503561
-72.850983 132.975906 -27.995459
-74.466637 133.615021 -28.424118
18.977926 133.290878 -28.953573
-76.582191 133.584015 -28.787821
-74.845833 134.915466 -28.800314
-0.634939 134.867386 -30.837425
-78.532967 135.290131 -28.246714
11.488459 134.475494 -27.398695
16.158024 134.452393 -27.519260
-74.529167 135.004929 -28.531610
-74.137688 134.512863 -28.445475
-72.015999 135.332596 -28.473907
-77.571434 134.895721 -29.469654
-70.808212 137.466812 -27.491489
-77.583885 136.149765 -30.945776
-70.553024 134.693512 -29.376429
-76.103119 135.459824 -29.342686
-77.942810 136.724640 -30.245274
-74.679749 134.436096 -27.203108
-71.818909 135.901199 -29.363359
11.235266 137.102615 -26.503679
14.472289 134.925522 -28.864429
-72.270905 134.838547 -29.532700
-73.087608 137.355347 -31.845512
-76.689537 137.026627 -28.428366
-74.720009 133.799988 -27.894047
-72.978989 135.695328 -28.038748
-74.245941 137.223404 -30.374952
-75.021797 136.978210 -30.579531
1.410612 140.486603 -26.577698
3.170986 139.658051 -28.269075
-74.201424 137.286041 -27.393663
-73.886047 147.760269 -29.587193
4.202785 141.828445 -27.700502
-76.019707 144.552719 -26.860588
-72.572754 145.728958 -30.915079
8.002492 146.538742 -30.021275
-75.390999 149.168472 -28.701801
-76.994156 146.737289 -27.438168
-75.069443 148.126572 -29.118979
1.012051 148.098480 -30.036839
6.681430 149.399994 -33.148632
3.221169 152.160690 -29.516077
-75.193802 153.709488 -28.440611
15.046841 12.120763 -30.604809
20.575075 14.794883 -28.148886
24.919104 15.000834 -28.339235
14.100791 17.432775 -34.169746
24.858833 18.493601 -27.150848
21.612837 20.015888 -26.379522
23.261137 20.372887 -31.911022
19.163616 20.006544 -26.926695
11.258222 21.025490 -26.491455
13.343583 23.010689 -30.359972
20.400209 25.708057 -32.826000
18.072027 22.775589 -27.871817
-25.242977 25.311043 -28.463810
-21.667948 30.437153 -29.341726
-45.247581 32.674458 -30.737970
-44.278515 31.426058 -25.306087
-45.720592 31.117922 -28.558275
-5.076972 36.864750 -25.703089
40.058361 33.464367 -28.169613
36.131325 31.858372 -30.135414
45.238270 34.010868 -31.499838
35.135132 36.289063 -28.310875
37.647598 36.548191 -27.961737
37.096668 37.800022 -27.675766
-6.875343 38.367920 -29.219732
-46.999256 41.286205 -30.474991
34.403400 37.058044 -27.973675
34.520138 40.738609 -28.295773
-14.841257 41.956409 -30.694307
-14.863264 43.003677 -30.125864
-26.481739 44.708599 -28.501541
-27.213512 45.558880 -28.622154
-27.512064 45.991135 -27.588842
-25.685869 45.366608 -30.084051
52.600468 47.687939 -28.411608
34.906269 44.628887 -29.823383
31.821613 47.082367 -26.648956
53.708843 49.865005 -30.963947
-30.606394 46.838581 -29.026115
50.113724 47.753960 -29.805696
30.282774 49.096001 -29.266697
34.326405 51.265278 -26.314371
25.539989 52.519211 -30.889029
28.312613 49.402092 -27.346642
31.559830 49.424427 -29.418718
51.241459 52.516865 -30.148582
25.425085 50.002068 -28.972401
-34.369431 52.314548 -29.570507
28.000511 52.913513 -25.759808
-31.624283 54.865948 -30.381218
-32.590073 55.695595 -28.673912
33.537144 54.076385 -30.188519
34.047012 55.988831 -30.870243
-34.653683 57.636337 -29.482435
-47.368988 58.221596 -30.131702
44.835823 60.781612 -31.940372
-32.627125 61.094418 -27.671989
-29.656450 60.091137 -29.355726
-33.926476 58.943005 -27.147964
-41.534843 60.534256 -28.209026
-32.233757 62.517921 -27.415575
-43.308681 59.736362 -29.338680
-42.501343 58.647728 -27.955229
-30.215626 61.212719 -29.596109
-33.269058 60.003120 -28.496809
-39.870598 64.001266 -27.179205
-38.737480 61.160175 -28.417105
-38.916794 66.322037 -27.423704
-33.726501 67.299950 -29.566603
-38.313976 61.246208 -29.601063
-26.546215 66.416245 -27.473757
-45.282204 63.823223 -26.510111
-33.982445 64.123047 -28.496426
-43.930260 68.810509 -28.260515
-37.539165 68.066719 -27.955324
-32.715687 65.922607 -28.969910
-28.068264 68.704796 -28.813511
17.389219 67.190544 -27.238720
-34.950260 67.114334 -29.367567
-24.536926 69.544807 -28.759535
16.169146 69.752602 -29.189182
15.211599 72.513725 -28.871067
15.861048 70.802284 -25.773022
15.221130 72.378868 -26.902569
-29.488295 70.501404 -26.908146
-26.111349 72.006126 -28.593428
-30.354784 73.398346 -29.027489
14.189717 76.934433 -26.174738
8.395677 74.813995 -27.040253
12.196962 76.806114 -28.656704
8.669367 76.679955 -29.606133
12.668116 75.622192 -26.711123
13.771800 73.542969 -29.086420
10.359204 79.090599 -29.833767
-74.532692 90.460396 -27.504351
-72.952103 92.924660 -28.622026
-75.409973 92.734497 -28.994793
-71.874161 95.358231 -28.986101
-74.674835 95.004105 -28.152884
-77.425797 97.386818 -31.731905
-73.911438 95.321411 -30.312437
-73.835075 98.415115 -25.952948
-73.877754 102.580353 -29.242590
-74.364807 101.302658 -28.488588
-72.298851 103.904480 -29.307152
-72.625374 103.162491 -26.922792
-63.135387 103.782845 -29.933325
-67.674767 105.013626 -30.111479
-63.339943 106.415764 -26.997528
-61.074940 107.294479 -29.231182
-71.474655 106.356812 -29.496582
-71.402061 106.794289 -28.375000
-75.715477 108.413651 -29.801365
-75.803673 105.794975 -25.365551
-73.136871 109.214523 -28.730488
-75.463432 114.533134 -26.545349
-75.010880 117.120239 -27.520069
-69.224380 116.320999 -26.706863
-74.056732 119.377930 -28.201704
-75.737633 118.526245 -26.618956
-74.472473 119.604477 -29.171633
-71.673851 120.388672 -27.612101
-77.805214 118.136070 -29.428822
-69.672409 118.044289 -30.134178
-75.834938 118.437447 -29.079329
-75.947899 120.123909 -29.833761
-71.424637 119.154762 -27.816595
-75.380562 120.095764 -27.072361
-73.491638 117.860596 -28.351984
-78.708580 119.310730 -26.121149
-70.195801 121.762917 -30.407614
-77.650650 122.375641 -28.313442
-72.110519 121.527115 -27.506495
-74.851654 121.534973 -29.619350
-74.484467 121.094933 -27.662832
-73.662704 123.417496 -29.463928
-75.811378 122.082458 -28.369930
1.686175 125.865181 -30.374411
-3.634111 125.403877 -29.742842
-76.614105 122.510017 -27.454596
-76.293205 122.286026 -28.999689
4.766112 126.112228 -26.270182
-75.768562 121.842041 -29.303425
5.575619 128.108322 -27.869230
-72.939621 128.466446 -27.539848
-74.975540 131.275650 -29.870453
-71.718620 125.211639 -27.022545
-75.853821 133.578491 -27.717806
-1.721335 131.521439 -31.269184
-73.081177 130.852890 -26.272078
-73.832909 131.515915 -28.498848
-75.963158 132.721451 -26.809767
-75.102287 133.399216 -27.230482
-71.259552 133.728882 -27.033346
12.379696 134.186066 -29.890156
-69.765381 135.556137 -30.339729
-74.029900 134.479050 -32.389404
-72.480934 132.141556 -28.973944
11.872255 134.936020 -29.647181
-73.787407 135.635574 -28.615091
11.885936 140.133591 -30.588804
12.416201 141.499130 -29.668428
3.069492 145.052811 -25.949905
11.650447 143.841476 -30.068670
10.589514 145.650757 -28.263653
9.244047 148.288818 -32.125767
7.355898 148.212494 -34.457260
-0.979542 149.906830 -29.181334
4.653499 151.941528 -28.021013
17.786104 10.843295 -29.589796
14.238159 16.342079 -26.513002
21.508064 13.750571 -28.297499
14.025858 14.132066 -31.151718
14.659569 17.846495 -29.094402
12.262196 17.087706 -29.444340
26.513815 20.844673 -29.769567
23.030872 22.397909 -27.809771
23.708094 22.303711 -26.585354
11.248689 23.668686 -33.642220
22.679638 22.975780 -31.425510
22.939106 24.576277 -28.973988
18.047989 22.522673 -30.230453
17.225647 24.502834 -28.301857
16.726749 24.290680 -31.459318
-34.851040 25.523413 -30.424391
-20.173582 25.263922 -29.518524
-20.648371 27.459967 -29.077017
-44.910225 31.213026 -26.767170
-46.506882 32.944344 -26.542366
41.990974 36.239170 -24.986284
-3.395305 36.175465 -30.202251
-9.881843 39.514977 -28.982603
33.183987 38.309196 -26.828028
50.875778 36.533195 -27.121758
51.394272 37.839622 -26.963743
52.907146 44.179401 -28.601343
53.866459 44.420303 -29.608316
-21.847315 46.001606 -29.732544
-24.602970 44.216312 -27.819893
-28.612795 44.591480 -29.426947
29.867107 47.453972 -27.466354
31.690262 46.285080 -27.222950
-30.786793 47.170559 -27.056362
52.861305 48.822411 -29.245195
-31.418835 48.601231 -28.645718
28.866493 48.261089 -26.722284
29.533337 49.187000 -27.577604
24.774778 50.269157 -29.219486
29.727230 50.941635 -26.765837
-31.953918 50.746803 -26.903988
-49.148975 52.255501 -26.209536
-48.296532 56.355232 -26.916441
-39.331123 58.002270 -28.226561
41.087616 59.700035 -28.276497
37.889027 58.104378 -27.222315
-38.616734 60.022079 -29.609175
-34.423553 61.612789 -28.636187
-37.591675 62.951824 -26.123150
-39.003948 62.687664 -29.468975
-31.687189 60.116341 -26.212860
-49.855907 61.988323 -25.704502
-41.532707 60.303173 -26.428085
-33.291195 64.081421 -27.963888
-42.190277 60.685955 -28.399559
-34.373905 60.271645 -26.887365
-39.986900 62.338764 -28.333284
-34.488304 63.239758 -29.886866
-34.564064 64.658989 -28.805050
-43.936432 62.464081 -27.908541
-41.039959 65.881454 -26.009682
-40.423237 63.132797 -30.359165
-29.781160 62.122540 -27.795488
-30.668072 64.918564 -26.751493
-41.876263 65.785652 -27.743763
-37.096706 64.889671 -26.349947
-45.653282 65.803581 -27.253908
-47.651390 65.269791 -29.225105
-40.659481 65.697731 -28.329243
20.562355 66.971214 -26.739971
-37.074669 70.133400 -28.252951
17.220907 65.417625 -28.584906
-40.731853 65.350304 -26.899405
-40.944450 67.282272 -28.107218
17.413900 67.043610 -28.422724
-37.731461 67.486053 -27.848030
12.498718 69.720352 -26.408340
-29.183100 73.643013 -28.757681
12.759139 69.471832 -27.853579
-26.596109 70.529305 -29.098063
11.558660 71.758629 -29.550066
-28.707684 73.440971 -28.406630
9.491646 76.052246 -27.743605
-74.222847 102.209160 -27.016964
-70.498360 101.605621 -26.392570
-70.031189 104.224747 -28.115393
-75.374023 103.444687 -26.316689
-73.154930 102.601524 -27.276827
-71.813515 105.182236 -29.720209
-69.665504 105.068924 -31.597916
-75.846153 105.483833 -29.332767
-72.780006 103.610359 -29.234058
-77.706116 104.720627 -28.693005
-73.135742 105.683220 -26.469412
-76.129501 105.830978 -27.618708
-76.437180 105.934998 -25.584517
-77.765511 107.304771 -27.362675
-75.253220 108.964806 -27.180883
-70.625702 107.521172 -30.646427
-74.213310 107.064674 -27.385180
-72.792290 109.598618 -27.605520
-72.775253 111.760101 -27.785187
-73.755371 111.827103 -28.637882
-77.555313 116.002945 -29.464457
-73.718826 117.020233 -25.927629
-74.299805 114.811203 -26.683311
-73.042343 116.417595 -27.854326
-74.425064 117.947647 -27.638700
-73.106773 115.836189 -26.539894
-75.616943 117.852333 -29.054916
-75.920319 118.016785 -27.842039
-72.377792 117.015121 -30.980455
-72.516548 119.190491 -26.983961
-72.111870 117.477951 -28.824261
-72.053268 117.793533 -27.201096
-72.417358 119.277618 -30.374506
-70.591057 121.633965 -28.653200
-74.105598 121.903900 -27.656595
-71.200157 123.672516 -29.008446
-72.924026 122.228043 -28.888737
-72.619385 122.564301 -26.497843
-75.597549 124.516960 -27.498201
-1.555378 123.783768 -28.715023
0.915966 123.392044 -26.878794
6.712193 125.430298 -27.193443
8.439632 126.043961 -25.933971
9.088217 127.795166 -28.418482
4.249203 125.779037 -26.995567
-1.884045 128.175308 -28.665478
3.297778 128.312943 -28.468639
10.503889 133.713287 -28.417587
12.935456 133.807724 -27.518768
0.823461 135.451035 -27.001795
2.427127 139.150101 -28.825710
12.870103 143.114746 -27.439720
1.614872 144.439423 -26.795656
10.602773 148.403519 -29.044649
0.593396 146.801651 -29.167280
0.684717 149.641586 -27.600882
3.211157 149.015656 -27.337420
21.574057 12.349522 -24.675554
21.719311 13.200357 -30.865627
24.553831 12.533149 -28.076666
11.217473 14.211534 -27.057068
23.847588 17.919815 -29.131302
15.766530 24.315233 -26.542036
12.668933 22.858501 -32.091812
16.866575 24.786884 -32.717796
-23.862156 27.243366 -28.252796
-39.163643 29.379940 -24.825146
-12.512196 29.076105 -27.210081
-10.202856 30.343103 -26.981804
-8.302642 30.780285 -30.405861
-6.039982 33.287472 -28.340794
38.027378 32.779503 -27.657816
-46.582867 35.771599 -27.904657
43.153378 35.660435 -28.439474
45.393936 35.038509 -25.443069
49.575592 35.182938 -25.446596
-46.453213 41.194027 -29.655191
50.668308 42.227901 -27.783428
34.951210 39.230541 -28.123821
51.781540 42.104576 -27.760593
-21.065453 44.587864 -30.186077
-25.159033 44.255936 -26.378254
-21.881380 45.962948 -28.709414
29.041723 48.145302 -28.711931
-49.822575 48.642693 -28.454107
32.336487 46.036526 -26.599560
32.743923 50.435234 -29.525381
-31.166264 48.735855 -26.533995
28.925699 52.283421 -26.182919
-34.611965 53.490067 -26.242725
51.740162 54.413715 -29.123674
-32.287445 54.445107 -25.423912
-33.667118 52.841999 -29.341454
-33.684231 54.464787 -28.705265
-34.552582 55.319225 -26.609760
36.497383 58.648075 -27.811363
35.896202 58.963440 -28.945829
-33.658848 57.705944 -28.124184
-34.260956 58.227993 -28.669081
35.848358 58.589970 -27.224211
-40.826801 61.021400 -27.835758
-31.537893 57.826534 -26.191038
36.938065 60.828503 -26.738283
40.528610 58.226871 -28.474928
22.628365 61.460903 -27.185068
23.016817 63.257042 -25.654745
-41.361046 62.936691 -25.568722
23.839783 61.144234 -27.939312
-42.311295 66.794365 -25.018461
