# This PCD file was generated using the MATLAB® pcwrite function
# from Computer Vision Toolbox®.
# .PCD v.7 - Point Cloud Data file format
VERSION .7
FIELDS x y z
SIZE 8 8 8
TYPE F F F
COUNT 1 1 1
WIDTH 810
HEIGHT 1
VIEWPOINT 0 0 0 1 0 0 0
POINTS 810
DATA ascii
29.404877381793863 141.689120353235637 -50.855845659079385
-2.708323056562801 245.035225307320900 -51.437375927582458
-3.525448844697965 245.124115706719749 -53.489604876668956
14.207669542270670 248.464692538915671 -52.098241397519317
12.868142309835870 248.016807859182308 -52.484176293851057
20.382581500483717 251.752232295292401 -53.215482265927498
5.852262115885824 255.294345697912007 -49.920676615200833
20.095459418483312 253.082582489006171 -48.658780810119659
6.066281473934741 255.975213901208519 -51.399545768734775
26.451493352961631 267.544005264055386 -50.583429258702019
-14.444278237742022 270.849193388782226 -50.635538658857357
-18.868669458204941 273.716897592508928 -49.049356267958871
23.573112192349971 275.142377309784024 -54.390651652140377
-11.145528570095180 273.599762715701218 -51.396322967334747
-17.063965870271513 274.613470787638505 -51.216419488165378
-9.994849676695164 284.081483565798237 -49.796747553793551
19.218332968377567 282.162327448069448 -53.679136863461103
13.751925837952216 290.931651646945625 -53.643521289409449
12.474533432566282 293.588320680093602 -52.196896821731769
6.612460979325010 293.768103049156252 -49.968106520854732
9.098159674182595 295.803480156931528 -51.141259226810313
47.959843166058612 23.783911256181906 -55.691274756492916
43.001544936080158 26.986473816575156 -47.827653475631820
49.479394180516742 24.437532433173509 -51.394408073709243
30.410163716173795 40.261231328923969 -53.367498006781858
22.219904807288515 40.758120293144870 -49.286392433410157
24.128498893529741 41.840030794742191 -51.528685898257820
45.922494560353371 42.220021006820168 -43.399429551578066
33.808587696253326 42.727719979819874 -56.302200998576936
27.600017342823691 45.175965358272272 -50.965357112164646
34.908601398612554 44.948455568181878 -47.608200232234950
-53.626838554729389 46.768011023199207 -51.288621550377279
-74.891862021526222 48.493591483071434 -48.923205308238245
-81.816251300313866 50.501820909529805 -50.505513158793065
-83.395775141764219 50.495824316142468 -48.617144380307913
-82.938591944819876 52.864066100988325 -53.021398129042268
-31.463844372270845 52.442578667970317 -51.684817022658770
-27.304011805495435 55.939688837029955 -50.811821579784592
-16.042876099800147 54.754099263664074 -51.777914744335646
85.257805675258112 65.922134849367538 -52.364244897754070
-8.320704387129005 64.751468303641232 -50.673654181661796
75.015208156800682 63.943250086114688 -51.818826384663936
-11.724978919852212 70.539616715491988 -53.252507948868896
-16.886493352750101 67.174977650124589 -50.959670426427564
66.304309794869340 72.001074341514766 -48.905839085196000
102.344907874357261 75.778015209344403 -49.809985338542688
65.534989641507011 75.967243165572881 -46.826133034360808
-66.709118598114017 75.118986123885747 -48.855403253531136
-64.798579218096478 74.659219696980657 -51.278432866761754
67.012961530601444 78.474967338564397 -51.770390216314269
104.200718846749396 82.122635423607946 -50.335558870823746
-101.064876493739845 89.662388368638148 -52.804997237896664
-42.142222113158184 85.010478832412161 -49.977277644958136
64.626380226769413 84.278918999684905 -51.316961840369174
105.898395509601016 85.232315006513076 -53.203378641488058
-51.959130475348125 87.199341833873675 -48.323605860975242
-58.334940646868432 86.809793584297267 -49.268356750827103
59.668822327472277 87.637985588921708 -48.345657909690303
62.067591739035151 89.255895378718137 -49.877084482432714
79.354666878375241 94.597576962598481 -49.059957624620395
59.138200137202951 94.048595625077908 -49.373855307541447
58.542454943766515 95.787080584146949 -51.046930867840516
84.949539563580160 97.021472077826985 -49.124607939921759
90.889931837209048 98.937877267361941 -49.717755798987582
105.662285705640670 98.702975011157989 -51.297832785878910
81.391338840210139 99.301523258507160 -48.853433860707462
104.370179016589972 98.828833845878535 -50.424198295838515
74.512704545138618 98.908061204304474 -47.873441984747160
80.096688482235919 98.759317756149784 -49.709421283937530
65.181834479710645 100.401548823601146 -49.877964023040136
-99.756393627335072 102.278005829816564 -49.938392506823355
76.800481391921622 102.088519984162943 -50.216852359059637
80.946199650201407 105.206587469824584 -48.292399815404494
84.292247693929255 103.901356422011915 -52.052103724161469
103.743135567709572 106.789613626155173 -50.352671690775487
76.685972211504250 105.703709919930404 -48.949061603220926
66.278083286641319 106.789875799435592 -51.981449657519583
67.999117061671086 107.345004575735601 -48.198508343605241
71.232951882390211 104.228699262614313 -48.802886666784431
-72.981271353656965 108.101904587176847 -53.938058734943034
76.657240757553154 107.623690245205523 -49.416807777335102
87.149287575835700 109.513449891047600 -49.005079562945454
72.807635026406075 108.504098186171220 -46.888884667991277
76.336298564050551 107.599834433442112 -49.946361350828177
62.047409363494914 110.038639771306578 -49.424846678254539
83.633166495945233 107.666980333996136 -50.338643179181133
55.584261235598092 113.568156622683347 -51.278964209232434
-100.633137122895846 112.210204783604823 -51.504668251302249
87.403971449125379 114.838172898105242 -52.031570744743682
-73.698805337782417 114.974183161789583 -49.585302907506005
-71.480619389044321 121.840138782529237 -53.735833193814791
-61.358535548252995 116.763635874902150 -49.320640559622561
-80.739243650483161 122.171748617067692 -50.556839298776403
-97.825679822183218 121.905394517375797 -51.444903366745514
-83.641493073912983 121.673644787263100 -49.557517233590673
-84.506707430371975 122.775148028102251 -51.294188916123993
-59.349744557130833 120.053198357168966 -50.478439537307182
-96.706393256226164 126.438272328583054 -52.234703587297460
-66.349075074544018 123.828333795280528 -48.119252138719389
-59.838153249846251 122.716082494353387 -49.122434466194704
-57.030157361104422 130.520434297415818 -49.036701574971190
-66.913896882256878 127.599724770231830 -50.438628008176373
-61.194234203945051 130.728985670420059 -48.211607241675708
37.592771228450999 125.157746783227850 -50.222612678795997
-64.145871513247585 130.763611959285953 -49.322872003214918
38.498871117289120 132.634437624007091 -50.045483031308883
-63.506824550538703 132.027759293564145 -50.502018131529852
-56.315472783890058 137.315258496681253 -51.826272639654292
29.183149864158182 134.185203734356293 -50.833896616198501
31.261796383133092 135.798940807544199 -49.421113910936874
7.594395650088819 243.962297286920261 -50.400783415540829
19.982011991494669 247.041833770945715 -51.642309970518923
2.360623530908088 247.985722782047787 -48.760046365402644
4.584868386319186 248.123567696364773 -52.372004454960532
10.917777827435918 248.680653095121329 -49.762742777476838
7.992682718648266 250.853822878114471 -48.319188543656423
22.686586791789850 255.298975162936500 -51.421571936702065
6.399519239997458 263.100644297551412 -53.524780757291460
-16.174340162141366 265.924840971426192 -49.185426337958283
-13.907688652182571 265.321246342118627 -49.395784600615563
-17.179054735917799 265.901394409791521 -48.376071137376265
-14.966100860511505 265.745131524920282 -50.893209597544200
-17.286708028291894 266.517012593024731 -51.885584150769319
-17.232353830546259 267.907340224450763 -49.443748742812794
-17.100023307234952 267.021783266956163 -49.313503743287896
-17.093719251907373 267.271665730287054 -49.224033831672983
-18.593315390445596 268.966140980735190 -48.865888469979751
13.533753193797901 270.640416387832488 -49.037513873022526
11.977720994148090 273.162623906048339 -50.385939018315497
-13.620791514238888 276.122688937920714 -50.651355000105859
22.459481117332242 276.424415486565408 -48.835326821525953
23.108358102315989 278.423275148081757 -49.067143021418673
-16.298564880018716 278.592083105705058 -49.762652789363990
-14.442083376569499 279.367342856502660 -50.902570550490516
-9.861507725966211 287.133486302892834 -48.388235087765921
-5.703508790681100 284.635545731783111 -49.946948742736794
-7.440726550088861 287.334325964282868 -50.612037191226953
19.389999636768657 287.203756429697648 -49.439447101100185
17.006483640405108 289.434533051348012 -50.441527546384599
35.147448762025249 17.391606402957585 -48.387487335215098
39.363991920060300 16.386736359701295 -49.179930086048792
42.917774178972081 19.948238905734463 -55.170762503046198
44.909854426271380 21.282005812976276 -49.452710785582511
21.694460869199514 24.787167910936034 -46.439956572839904
47.869354385471034 26.013910224476600 -47.955858172994319
18.388185867025609 31.975997426693805 -46.521944775068860
50.329035285300314 33.272430238390541 -51.775097503792018
45.965212155680248 39.886356338970344 -53.064783109065509
35.745219498546533 42.168686200514713 -51.312875899033763
44.169149730413892 42.789104896811892 -49.259275408867076
25.912015607129494 42.915059066286133 -53.311250339707719
27.359471598549579 45.807122417769847 -57.388036083020680
42.832552709969960 44.131272761999710 -51.517937880965299
31.992698456719580 45.959585641016041 -57.136258567242194
35.272810512988087 44.482836279173455 -55.127461274748683
37.826365034866583 46.569999449917532 -43.615193342309119
-59.279276313397432 48.470520123313726 -48.636885236137722
-45.690415401051631 48.599938783758880 -52.045192962692653
-31.836804999879117 53.481080515088117 -47.256898795818181
-85.815859513374164 52.426121017674951 -50.404732463552527
-10.516655767953667 55.917235497790884 -50.478594014076776
83.512574381827292 63.287024714516491 -48.737629756875030
91.951831797922708 63.685716189902962 -49.776808043495500
72.534251879454771 63.895609164158572 -50.187085472748137
94.127378892432262 66.100958480755949 -48.642257059494185
-95.301722904185269 66.962508531489050 -52.150231181352460
-20.909843038356268 67.949185017688421 -48.176718617703102
98.094648128349121 70.042371605951033 -50.298303055088326
67.348010927404957 68.811790000059503 -50.830824557271605
-97.842181192169207 72.850056087904306 -48.294265666413921
-62.848413546261966 72.566805652209524 -49.497667717156681
102.645130371096968 72.498166238494690 -49.712845153486448
-100.598881892991614 78.094576348072934 -48.151050420188135
106.821458075773990 80.089970102876109 -51.502693996287626
62.820882960913970 83.564450128148749 -51.502059569231783
-46.913200527567518 81.786816659069757 -50.836045825252704
105.221191490087136 84.340290097713918 -53.008999974477049
-49.104651717536427 80.320711436910202 -47.323079087175358
65.728917544680769 83.211737125469114 -50.444445431135172
-53.873373468625580 85.646975735494635 -49.265173888638870
105.240264470300374 87.625305348613793 -54.563854815007900
62.538678852352817 89.402240874482686 -49.762662903061120
86.655418362911021 93.597513549839945 -48.584137736887342
85.766509840634441 92.174694000980665 -48.533965505036171
75.437076644069776 93.924310576621423 -49.295472219578045
74.992473395859008 97.951021430745300 -48.831246005010371
88.345860673560196 94.548624516056719 -48.934148807551651
-69.775989455175207 99.523121012564559 -52.985620228013481
85.320740729948341 98.125025254570787 -50.188541465221313
68.637344526659518 102.882962698444786 -49.400382271129708
66.119387643753953 103.435866832200404 -49.124610923022367
63.947859055740132 102.239609134411353 -49.373712096530774
82.605061070678644 102.233413213319466 -48.086042345428822
73.635018672788846 104.533289755879963 -48.170570605252770
89.969323027284076 105.053433066290637 -48.368411133483868
94.509706354827813 106.628964725872294 -49.741982769315548
71.502767920393978 104.794802186989131 -48.178764950623588
101.148371777455807 106.609900543048468 -51.665170756342427
58.485788846587141 105.711828026567289 -47.626582185588703
101.877383667111872 109.687777213475840 -50.002780386739730
90.519372149625639 110.213430695242764 -48.376607346822638
-64.042577971971028 109.562602470960357 -50.195671191423628
-67.020286901425109 107.657833011802850 -49.604971194099114
86.864965642502852 110.173237862746205 -47.773773883979530
-61.359926389345198 110.273805061881063 -47.505395208974427
-64.138239360903526 111.056396352980798 -47.365880465113115
-76.494057113774929 112.734010999454853 -51.437640221058501
49.897357887710612 112.799241357951374 -49.479955803551690
49.306386389256573 113.946749781774017 -46.003920282622637
97.429482331680887 113.083156053754593 -49.010825440005611
88.019387908584960 111.144323980839175 -48.735760130341305
-60.035517501321962 111.390169471371763 -48.192478651186860
-63.955622646378828 112.802311084165751 -48.746573077554203
-75.164824025018831 113.745194628422411 -47.904146011587940
-72.885116354286723 117.205621583768547 -47.378584315923938
44.875966194967440 115.923270729582299 -49.325436753683682
-59.272135411758207 115.213776853359690 -49.174962721293639
-61.544746065159281 117.481672405716054 -47.101754317926009
-79.962335807268175 120.310918164286122 -48.579373883404450
40.023762642814546 119.535796936488737 -48.188266295002322
47.913756760252831 121.982796922963686 -50.630796498673753
-67.540915575207322 121.974322995185361 -47.055217505536028
-54.702773944712199 125.620126213432982 -51.267360624402436
42.962782784535371 127.634320918371174 -51.592717954180500
-58.516189336264546 128.393994182092626 -49.155697433079418
36.965823433803536 124.214644010643013 -50.267396607274094
34.018241165412654 128.833491269738829 -46.123401317730107
-91.582138192042748 127.022284195001134 -48.927306425391606
41.519730131990485 128.545006742507184 -47.540736603669032
-59.092309765696463 131.695419128068863 -48.156310830572814
32.496061927454313 131.360438092511231 -49.425842453979378
36.191575895991321 132.458563998227760 -49.011846612341564
-63.301594121561656 135.445000824682893 -50.896349574227841
31.955956479724410 131.738279736403115 -49.190165259075485
35.636999570510135 133.241580003739955 -49.356309790739083
-61.250892271528997 135.885467695200845 -49.925687796413030
-61.823127245032090 132.929326973424480 -48.470859184760045
-1.301500445666462 243.785818643097315 -51.978011811610330
5.704143392538608 244.724863420178906 -47.289221398706538
17.824401915123627 247.428845415412582 -49.346125146328369
6.806018923048406 246.377142724889893 -48.702449152663498
13.817390692834559 250.359279924954109 -49.193173603815779
12.158801959658863 251.068820505454198 -45.160526722201979
6.116420808490169 252.573895681435744 -49.292047401800602
22.017136669400024 256.426290055663799 -49.284273223063110
-19.448286375047768 256.676696952335192 -47.406560347745625
-13.674386714840390 256.602308660528251 -47.948423761609064
-18.996662221440932 261.296236392386049 -50.645169980720070
23.753591327846348 258.772437842821603 -50.663565839766697
-15.253930367458590 260.887750199105426 -50.139952135156754
13.931664311886580 257.189074298566652 -46.310368634008370
22.292049219249474 260.417090789079509 -49.907229847553502
-17.804825330990241 261.938675915835063 -49.570902270408574
-18.434492930278985 266.144091016044968 -49.468436299912746
-18.491735668604232 263.388528923054878 -49.144049276264184
-18.163183564379018 269.475771173482599 -49.983099185634423
-19.688013470584853 266.533783375832854 -48.886522881351951
-17.636240915737815 272.838239578334480 -49.117402103998977
-14.564594719350822 271.147835717177998 -49.460529916223230
-15.164020694117170 276.684755703066173 -49.307353356888484
-11.739613403810907 274.894556455018005 -50.481797678148588
-16.289532209434501 275.616953014149260 -49.145166317324922
-13.091760930695285 279.209145761290415 -48.584883642271834
-14.008599120182755 283.047994772631000 -49.706014195320520
-9.369022066854104 280.990810016818727 -49.287084842098828
-14.131631292937907 281.241921639934105 -49.259619115283293
22.088803647581834 284.176580962064975 -47.757803658354689
-14.047553436884462 282.250098136421514 -48.292146523569841
11.018623155813412 284.806979645433671 -49.650631318284510
-11.916123599472867 285.542795451691802 -47.574116469829505
-10.792386357228082 285.826748809376738 -48.105070635421654
-11.279671042276474 286.483431044088491 -48.419587778197418
-9.547260878528240 285.529446588737585 -46.141957576928512
-10.525955145056802 284.535510809122741 -47.758565757844792
-10.805286786794422 285.954040787926374 -49.274532087001020
-8.931808353545836 284.020767296893894 -47.943777996666228
-4.340021815684032 288.698178977807800 -48.570012556611466
9.353267650853773 290.015336161347534 -51.047809363659191
11.636745293190987 292.401199850461012 -48.603630247168567
11.991890217883562 295.666565869072031 -51.084246595634980
-4.533086651473904 292.836217368128075 -48.468157687974291
-2.370550441006430 290.991842838434025 -48.430519594451852
1.115575082771271 296.733769751184468 -50.526511962171796
2.877838513067601 299.126208241627012 -48.944841717184289
33.149139125168681 17.701464574030332 -52.774595913061347
28.329532900712454 17.904079584242069 -48.647023569076751
35.420311360280678 20.868556308370458 -55.294905276633131
38.352780376323658 22.800396527586205 -44.855915240419428
46.246576990628547 22.894130050444886 -48.188731228090127
49.233419096240475 24.241794877089088 -46.609070900272215
26.093356879773349 27.927051581464053 -46.383527962623511
24.925989418766363 28.246551857057185 -45.521645126946204
42.513833073012698 35.805566752673329 -45.765571449151501
20.344261937396119 34.726186373641667 -50.719510931997760
22.039750042608627 36.725484942622941 -54.464312142579502
29.574737247682851 38.334385785862843 -47.426999207120502
45.586723306880650 40.183732245503840 -52.169983403253006
42.311169879996143 44.672934790564007 -49.397784422651583
-75.703569772294458 48.708811435397770 -52.872979318858349
-46.265011927722355 49.309480187699009 -50.222029584188604
-82.181289805657386 51.571184732290732 -47.799560231661516
-40.420076531468219 52.464030749225344 -49.917516327300419
-94.304685660708031 60.494663281631965 -47.317653783850204
78.220609742493707 61.574547741788585 -47.415305799580707
80.600218218711390 61.810538061621017 -50.340666411848417
91.242682450389651 62.574516338850067 -45.551696427729105
-17.514894607086514 66.687451992517794 -48.686697963015106
-12.350363136757075 66.566148857194776 -47.524433171866661
-27.099147086857087 69.072311595364283 -49.716671803513506
65.780468653025025 69.196836613588516 -48.193468512703312
-30.374854483214882 72.212399696889619 -47.855882026308386
101.324952796972951 69.018128131358935 -49.540151486222264
-34.446535284119960 73.551611301470942 -48.874549907424822
-65.511218630663777 73.919528761551305 -49.277415239068965
-64.590657321175826 78.525399694665950 -46.676436728387621
-66.486585828833910 75.631995053201081 -49.749842059479796
65.132145174851715 78.716979288597571 -47.565853374394074
-99.557897326471007 81.374074086451699 -47.389495016986317
103.551290915233736 79.603523373186860 -48.984487692460021
-49.440739521580355 81.612587752654264 -50.920117159127912
-37.469402144394621 84.185348688747908 -47.623318465323031
-47.679723148642758 82.537413035353850 -46.757609327774304
82.886632100573081 87.527426356668087 -45.125330995510112
80.751273809961432 90.939200850752982 -49.692660092991140
-100.696940737431518 94.297608516904617 -48.104444828495261
75.089219167226034 91.082498377782343 -47.403611626172548
88.111476807730099 88.337457667914990 -48.563695625619033
75.456920640828343 89.521345308849931 -48.421720716324934
-61.740404668511971 91.155915138097669 -50.754600856395832
72.567698590729066 94.235001388854883 -48.085138524229464
85.951305196191669 87.463886332815875 -47.341130195520826
-63.866480676604453 91.986511395287835 -48.092214368104344
91.169803416031471 92.269713629566454 -48.216727807618888
-65.628562739678244 92.961380851901794 -50.170782958897831
64.010826971307438 95.758490649147433 -49.496602412337651
69.780839973499667 98.464715607140718 -47.187129126023819
64.747717654323765 95.616160602683820 -48.829006765416075
65.379183719478632 100.684541096976872 -49.354905270610672
104.221527597384437 99.205351204286487 -52.297985840382800
65.544670157801249 96.873231183821659 -45.199614580658050
-101.171079279617942 95.100573737120584 -47.699836010748207
64.998715954013193 98.994766626939608 -47.200761132269307
93.725833679031453 97.544591478585716 -48.014285063064335
95.322030835664464 99.695562109571995 -48.003637144811009
70.228901428687678 101.924980514409569 -49.008036091727462
101.797334905462989 99.017223542745910 -48.595348014541329
-99.391045112991492 104.675829458511799 -45.538323712081848
61.683171040044030 103.830523623851178 -47.403924164099138
102.356382101207188 104.716289151479415 -44.224906841900200
74.879116660410375 105.683204292902744 -46.390296718234559
87.016915898962921 103.446542251120817 -48.053937672679254
57.890940976008942 106.534252463344842 -45.633911709076600
101.219894319995888 108.770550104660614 -48.117792101870037
95.239656887022349 107.494797671814155 -49.316444221461843
96.676580716861636 109.165802022625272 -45.534324364123641
65.926026038106471 107.690095801695577 -48.999591261417187
60.762576866803272 112.068226129090462 -48.297680965780287
91.026346682727279 111.343953290389564 -48.530961713457984
87.708363158893462 112.217469895168563 -47.381019578868745
95.321853281011471 111.601630943952031 -47.058708236777001
93.854523629623344 113.315982535113392 -47.411387747746616
90.448871539731087 114.351107875451603 -46.573574457183291
54.366653108046513 113.468442455353070 -50.290921569628409
-76.586423887019563 114.247290626222124 -47.835690104564371
50.592495071917995 120.505705702541604 -49.124530910815366
-73.144601426475589 120.296699252160238 -49.895927187799877
-98.748550093635274 119.732446880699285 -53.397458207095355
-78.384895944553705 117.859477210022888 -49.692852150161940
-67.827280076261644 120.575551125614751 -45.770193655708162
48.950739034444709 119.950099560252340 -46.769752562930648
43.628311134126037 117.252616060799966 -47.208328621924046
-82.546754831487760 120.890406967122289 -46.597732646954690
40.678901638901742 121.242717328066718 -47.236472486798135
-69.970229013801600 123.713642897758646 -48.616267611578600
-59.966836388365650 122.292923640088759 -47.775454793365640
43.175751664389480 123.598074275533463 -46.403267948501302
-66.015796602089125 125.026281371072344 -49.406537595022968
-64.633798319313129 127.040258927375220 -49.117442432017036
-59.419482140517545 122.367444261892558 -47.330478545493939
-66.137804315040427 126.538774101026448 -49.747742929328894
-63.979209907122097 124.716573502815478 -47.600941549428249
39.717705094734605 125.676556321403822 -46.644197503310018
35.702743225952766 128.092353760463254 -45.643668831320120
40.008604213872999 129.285598366817283 -47.496022436448492
-61.957716726309094 127.623232617550755 -46.337666245909887
-65.266646629654531 130.942272922146458 -49.648903424187843
-62.640401043575459 131.559986200921458 -47.063812665111648
-57.892113090775666 129.366814673164356 -47.781270046488764
3.321911460235975 243.504728986436049 -49.529597247127079
2.626959987278410 242.284270741232035 -48.090962553536343
6.704818274948352 243.478328353828630 -46.939020331341460
5.676529186953836 243.677422601617650 -47.928705842917999
0.099178408856526 245.545380715845795 -46.614149950144572
-12.622333613717155 244.337890500127287 -47.349387153933471
7.624216135512378 246.447389915569744 -47.528385922951678
1.381691349519862 244.297107086810456 -46.677979187638527
0.816746960764428 246.511866659081107 -49.862090367896720
19.523064518080268 246.830842377941934 -46.926722453768470
-17.024695662216860 247.224166544157640 -47.758546715717401
14.108681696546441 248.367991246946474 -51.180502911034871
23.531428765350505 251.812304400357959 -48.768888287252082
-17.615400216852819 252.045392278861101 -48.772961078458991
8.971159922401919 252.494147196372410 -47.253729853597193
-17.574183004034843 254.813655230175698 -48.088055061889690
22.747832066619729 253.710495118455441 -45.499408282973036
-16.494297324262863 254.743686941123542 -46.256172842613715
-20.574840375498631 260.345147246935881 -47.191210738359402
27.600722545492683 255.831546861211706 -45.069280236171863
8.323385276381725 258.823689218994559 -49.467515286894333
23.499250054229954 256.411171369673639 -47.023135091874273
-16.667529795660130 259.372007528019367 -48.926997919518030
-19.229247047929512 261.254568922149303 -47.509129424900522
-17.430411149966794 261.956154877582378 -49.191091378880046
-16.664198864976914 262.217924350549481 -47.804680638112387
-13.998833906659224 267.863971523384976 -48.046343211427562
26.061542094425672 266.008923782269335 -47.201200126779490
-15.274957937256952 263.873425006787443 -49.259343595554327
26.588322285183267 268.310380876021895 -47.317598461770913
25.487887352280129 271.759067018821156 -48.167065424118867
-15.111772735790183 269.750721041344093 -50.431761420969515
-12.186022657522622 274.185429085640237 -47.871850976142539
21.481405118571828 281.538776973942277 -47.753761191227461
22.213911829806012 282.601516085410083 -48.401250343110405
-10.932882778691864 278.929176889793553 -49.909625962858009
-10.612984073174569 278.795930272892974 -48.850943481847217
-10.964394302852806 285.959426494302591 -46.494005399639754
19.859252774522332 280.879213820136840 -48.007075013496859
19.414591982341957 283.846778476153702 -47.723901968246054
-8.412764019051762 283.285853014256872 -49.855379146519923
23.020245455620231 283.944349626228131 -45.588298645950410
10.256765582097744 289.999957952471675 -46.903118160557348
17.747371144200937 289.334170946430277 -49.567220350571766
-6.305078015757994 289.308102538758192 -49.811848301529018
-10.045370578051221 288.859654114617229 -46.237001116338497
-4.306540181674468 292.388878630237457 -48.320865271672950
-7.038950770455935 290.954939432736637 -47.018391454672454
14.459712251781768 293.339062903044180 -47.490622207563170
16.684352781023037 292.483117517683638 -47.138946158480039
-0.822605915735829 298.007880982063739 -48.276291049215537
13.287847084055134 298.440943728569607 -46.804259919141302
4.257543212389288 298.637260051129545 -47.571422476447680
6.575055550385821 299.191092332937217 -49.850088728504915
10.457904073764567 300.583862152719007 -46.640786386671891
29.171564242634670 19.953498453791319 -48.522758884360279
37.015810867447136 22.689131226190675 -44.398640561045092
28.337869830862527 29.146705636651383 -52.681999019410100
48.665383565123726 26.049600308834442 -50.656503842615592
45.065247875346238 27.799547934481538 -54.534282072643911
19.656054443752520 33.335670180657345 -47.342759199233214
25.411285492047192 36.203954805117718 -47.962532688683453
27.273255032549368 37.334357820991734 -48.610639513577212
48.325893115911121 38.974284771753396 -50.637188633054997
41.138405703247955 37.718364282267650 -49.116939931750373
22.132245625225597 38.111366976738253 -51.941990312851779
40.471118761123584 39.298693939858182 -47.275612720038339
38.957123312838625 40.763507811198195 -47.197578459801861
34.988949817428683 41.901450131818478 -56.241174946989929
28.666517753228820 46.126911857056122 -48.115786595413979
-64.959718392617617 46.730137633506502 -48.105968525937698
-72.517806384707697 47.178192262301025 -49.265457864758559
-67.288552944233444 46.376281848477213 -42.423526145468337
-79.713013028418686 48.383813684332466 -49.574739121721819
-51.590976876948233 49.566033892149598 -47.522870448617951
-50.391226602353328 50.009712548321637 -46.476471176964225
-86.473634634961300 54.972883543034492 -45.107890622796127
-41.916997237313332 52.857577727937901 -47.878389515254945
-89.413306799619505 54.283939268370936 -40.544993287784138
-26.066269158468423 55.840875980474301 -48.760644202391298
-90.259944673585096 56.376891518689554 -47.868863462415973
74.175560941456510 63.304791641748089 -47.686083353314103
69.982125074151014 63.661774800467008 -43.976403535311761
-97.424238515709206 68.361762276811035 -49.150769731382425
67.458148984466760 65.422177601682179 -46.467908026844874
96.283360053622545 67.196148874795909 -46.589039322995362
-63.202133211962227 71.402075859232511 -45.190028673814886
102.294722180366165 71.408307908763476 -45.788563888823916
-61.238711880119155 72.418337755439254 -47.825318484014865
-63.068527158467987 75.608689698462939 -48.615785835918075
-35.695466799032289 75.790537449816227 -47.318146239736059
64.304641445403504 84.319754801815819 -47.867135275033853
81.184138742442840 84.338031046786426 -46.212293616623349
-39.427009414059285 83.571205994684050 -50.293060625743792
84.197687789614946 85.550005037267525 -46.118907030942921
81.087053792840422 86.495439517733601 -45.007937901834232
87.321402535449735 88.584305358913440 -48.977623105836358
74.761870823974007 88.662979304859277 -46.309334563789861
104.516682745852037 87.641201399050544 -45.112119237410930
62.657481428491472 88.898003658956455 -46.825577895685626
70.465400445457689 90.752892907082682 -46.438926258351074
104.361755873533255 91.494631156252808 -46.544150554953589
62.742192866696620 92.523200118934426 -48.196717665747592
93.330525435641604 90.848263883589027 -46.584531639088198
63.590114235565217 93.680387869289547 -44.345821575086113
69.136476377629918 89.007253392229302 -47.217507311341429
66.920570884854783 96.485835901546011 -45.730534732575578
71.490928718522127 96.763453776205907 -46.934367297540824
92.561008009196655 96.224937488940995 -47.567568880298111
97.622434835497614 96.017623945493668 -45.045329449582354
82.416413154004829 99.090647298191570 -47.210240731678383
89.223468885726874 96.248675539329554 -46.155353130941819
94.438824036532480 104.646154823978179 -46.251742851562199
73.382193175835155 106.732867803712708 -47.485225091568878
97.329853257364562 104.376778574302691 -47.282326628718721
-101.187770892642334 106.300875676147427 -45.736179041701369
68.568150016599887 106.354667152478612 -47.389327636829506
98.243217094542459 108.138618655425063 -46.335657245814808
64.495951448296353 109.654078756764733 -47.935983237919999
51.495030247294579 111.955357067375999 -47.724222637060478
-60.572523154011463 110.626422701331038 -45.345187034024562
-71.670483369305970 112.921040886566459 -44.635109689861125
-71.693208934126517 115.675400586409481 -49.083045199473162
-75.610591982327136 113.777581876468901 -47.027505435282876
-62.953536990962284 110.351712461303478 -47.264514481027589
-74.729724507929888 117.450665327704428 -47.417331583326956
-71.499385861800647 116.422705013161163 -50.337132843862634
46.544134188720669 112.919924916955353 -48.198525880020426
-61.663578052724951 116.463639858821054 -47.447185224963135
45.872866885882438 122.169831558396552 -48.325900956208386
46.535730098817375 121.384663163523385 -46.644274261941987
-60.249083301607740 117.672885966665646 -47.714421445866677
44.815780009817431 120.384846445655867 -46.731048074154842
-62.642425212810913 118.528045709470248 -44.964455113961129
45.539001541653448 121.881483089166721 -47.491191785271674
-65.146462519715627 125.621760948624015 -46.382553317935454
42.716526025246630 121.511392259416155 -45.017161116527298
-87.674008068900875 124.837901477476322 -48.560727437535135
-14.332176863209716 242.379796069803831 -47.963285769271543
8.702143816075315 244.925011413197524 -46.600709520746236
-3.272987704316064 242.666628498517866 -44.631536215386724
19.237090051082589 245.744912204599387 -46.545708571781581
-9.447650971377909 245.768907246746153 -43.399988801207797
4.885515163978202 245.046412215971117 -46.467074411140246
-13.036294371787449 245.599005336265350 -46.774326592156676
-11.173016297569600 245.201459803076773 -47.489403126227089
4.134215504299472 249.170150661907684 -46.058995465377258
14.642902767627715 249.288904330181140 -46.364386005607962
16.808485026602195 246.128121695039113 -47.808090821285717
19.831132879609779 247.047255484584724 -44.554037103229277
-17.580385504426609 247.577485047546247 -46.401534647423922
24.417340986458846 250.372675949057822 -46.008173704751158
20.899743554389662 251.310538955542171 -46.817211645602214
-17.224777997399809 251.897909334220913 -47.945030051639293
28.407235447986622 255.752619540185606 -48.510338703191771
-15.129135112510994 257.569775447611391 -46.991668990976429
-18.343952791964831 257.653231494510749 -45.257222392797786
25.921371644837741 258.024488544538826 -46.194738871723068
28.816578303206619 259.727738855356449 -47.554390362019902
-12.827285169092363 261.463979270404877 -47.447702800749894
26.014808883912494 261.245684694329157 -47.183411641687222
26.330106137680779 262.896748533718835 -47.728959092738052
24.837268507576280 263.564342179323830 -47.654868775257569
24.287528467997415 263.690805872305532 -47.369074698621226
10.958032558142246 264.242198399822144 -51.519534970883562
27.406448836529343 263.851105400019378 -47.942390333689183
-14.957438005043509 265.076745185777099 -45.957506959801570
-13.763358630477246 267.373863576627457 -46.451075877684673
14.794000981390850 273.970237995755781 -48.080990942345863
-13.448500615179254 273.215678318939410 -48.710190699584338
26.200449437694289 274.423019822963568 -47.428313539954388
23.690612956232666 272.782772555511087 -44.484164612402772
-12.131241396344453 276.191153500905443 -46.514179674479557
-13.949070704598435 275.144314522443665 -48.445581733217345
12.013281614608154 278.802690664857835 -48.691433504163129
-12.288940970524267 277.447082899619772 -45.923153066462483
26.205394192008399 273.678648037284745 -46.531046598163591
21.208179237546002 281.479402998525416 -47.674427725785954
25.455138542842153 278.314551564075941 -46.922346311054390
25.209392312759242 285.957348594442010 -45.064813014970944
-6.451035643626228 283.219353919488185 -47.641174434444473
-9.937340387794467 282.322553730656125 -47.954243878555751
16.207248722177386 289.365429726488571 -46.524047029848546
12.576118091072079 284.488252986231942 -45.957828503503315
-8.992256708254265 284.426846180374810 -49.195532723865753
14.360339404005334 289.888439317417919 -45.582638935425543
22.051205745906604 288.422857212499480 -48.309726520304721
-8.147889862094299 288.068363050189021 -47.480803299826420
17.570465125477341 295.267766147873772 -47.917212569279961
-4.805479827033230 292.182461063986352 -47.340188325442540
20.235409733720246 290.806592132573087 -47.543667735880142
2.258347238633037 296.183770663569419 -47.000901358630117
-9.739704718562257 291.145022946056145 -46.403521560599415
-7.618942119721451 293.098828644203138 -45.977590948626165
-1.150317648282241 295.113366883351716 -47.248665293797288
-5.128273453553833 296.297014621489836 -47.867577169803617
0.746553556883393 297.806107178195134 -48.273649614942030
12.698451816405585 295.565269720071115 -49.103203722429754
0.558899523388908 298.576411387262851 -48.552946893415999
6.524252274783035 298.769050456547177 -45.514318094976268
25.588615929321012 21.726570179103348 -47.449943957621365
19.874852538079733 26.563587572103437 -48.230759659924587
26.943731562470003 24.166787771545390 -44.398119744752684
43.133833587256404 28.861584249367564 -50.654109894194605
26.893285283116164 40.422861938851426 -50.044507433850725
20.467321449741007 38.489640324757438 -45.372188187748478
32.978913914869139 42.600216285516090 -46.793134433684671
33.752857839290357 44.645614782422051 -51.030383640079442
33.191441335142841 46.243260492411395 -48.232468363261809
-57.708177229593424 49.122894743389928 -47.493848839528546
-41.899776773328114 54.192420455609252 -46.619165997480245
-20.572753506018763 54.147946321722365 -46.225289800124031
-6.460110307181664 57.731131544315495 -45.603920733802624
-95.094449046514015 59.955850118253743 -48.233287555390369
87.362988773070313 63.252958646006505 -46.258320974422347
86.534650227762242 65.669459270128172 -46.497501083807087
-95.702537349541004 66.764201465552020 -48.266889224015010
-12.038715131446411 67.428772665679233 -50.798331228338036
-16.980497099510441 68.060389860248421 -48.879572067955706
-61.654274199823732 72.113619917012841 -47.783209947148556
100.559465006507750 73.041077971690370 -46.054815132493694
-98.621273818132963 74.924157007627571 -48.436539220239297
-60.785159348416109 75.526226787277324 -44.989960753422061
-66.451767183379602 76.037866859317873 -47.691504672663044
63.512511418363637 74.342786806366988 -45.670378240068928
-65.392185676101931 77.058541435446514 -45.215235031078876
-100.621468651569685 76.207785228911703 -41.864104957139141
63.313636683210106 75.264928620376949 -45.593884674507294
63.372404227206502 79.602293866094129 -42.577475936229852
-38.638851813873508 82.559626756833836 -48.229986375046870
63.085196514239762 80.624212068730714 -44.631211222096482
86.056206907488601 83.396282760920059 -44.943271738507740
85.712696615659979 79.992009866019174 -45.291643331602323
-43.340978343712621 84.399688120790003 -46.871683644809941
72.136838990443621 84.432438519700227 -45.053328899964256
73.441755064992876 83.299767282301460 -46.743777500835058
88.769689388742876 82.860691631599678 -45.551548290630471
89.557522514929602 86.428009090391058 -45.765919378977074
107.124045117064227 81.740001858908528 -46.286806130611275
64.529587511949714 83.941949218124961 -43.966492062752266
65.382981336071552 89.448290943971301 -47.126594967762735
92.505251850918228 86.239087618536217 -43.727154224740225
-53.491850465882102 87.260678614381050 -48.731439225083179
65.555040625865402 89.007146152716416 -43.869206445672653
-56.733881659867194 88.831215106090170 -46.621077030283338
102.414215681821005 92.626888277917189 -46.110923291456437
104.488249005901849 98.059500444724506 -47.968941137734497
84.021942083543962 98.986980261598745 -44.524084267429537
75.279119644424782 99.000481525215662 -47.831207382183521
93.786589042276802 100.192643236912104 -44.020991482189011
97.332006482137132 98.765895583491684 -45.831189322241443
-70.686892650025356 103.826241091614904 -47.627853141673633
97.937277596761859 103.678570938883496 -47.053590599419003
66.023793026389754 100.509964650108643 -46.506447549905062
95.655595725635308 101.225826381944373 -43.252613168707363
79.464037755462172 103.055841562397475 -46.393817763598115
87.282949238374599 101.997005354994940 -44.643940532142935
100.048376074205578 105.228465645456737 -46.167801836369790
61.356695761940706 104.892257485286123 -47.560382282566088
-100.228590590603616 108.320198968114809 -48.994823118959559
56.068950735144220 107.341397840686341 -46.786143158810532
55.465320552089850 110.286981684642910 -45.931301615298864
61.854413737159881 111.184715426651323 -44.992672779358529
56.423325953597029 111.755118364408844 -48.007063322958736
-71.330654957367202 112.539352392931974 -44.737874272564227
56.026275173254994 111.189187256322271 -45.002059461669617
-66.164074170751775 112.903783966718237 -45.930529280835216
54.701378739716226 112.188845430588245 -46.185331092851243
-68.896744950466086 117.574084166330621 -46.506778521583094
-62.284309076245542 114.052353080792216 -45.911060122235959
55.074373816942959 116.152312932245096 -49.006602300562776
51.145493770566532 114.680471847374690 -45.177356249163878
47.148679172987656 116.836011305647787 -46.470162930846350
-76.241169336907888 118.965271153571280 -48.177567273732471
-68.455906527395641 115.759475941545759 -45.193628938666230
-66.730742314794142 119.380435523962333 -45.326426634233137
-69.761004687811791 119.047165103700635 -46.862053672581290
-86.480706443208462 124.161298099382165 -48.720165448431196
-93.661855434127332 125.840682680593204 -49.626603042901870
-67.619520806029797 123.256078761580014 -47.183100340210373
-58.158307272804947 130.026428701632142 -45.621380845829030
-93.914528718009620 127.531261875058362 -46.435284774590947
-60.913439191881508 126.931955010734171 -47.533474018176285
-66.336410398645299 126.466774826626690 -45.957537829678941
-6.804102089816261 242.965227981063947 -46.277249289599446
-12.484828296773305 243.895046685607980 -47.192551554174621
-1.141847665235562 241.200481082805709 -44.379220865648563
10.332624702744937 243.734955682062349 -47.176586678725947
-8.441512685927314 243.928841617705245 -45.487198673233920
-7.798387182033528 240.576101816316879 -46.343789893999613
4.614855901088009 244.621978147247347 -45.565640835658478
17.219306641218196 242.649112114565469 -43.918291260751779
-4.186558768671301 244.871130582803602 -46.065099319237376
3.194659551412838 243.864554529511935 -47.394794320746769
7.744895974708817 243.828461136433276 -48.300469037617489
14.684677554943981 244.389194673467102 -46.142654460892437
-13.921400113931487 244.152434406268867 -46.283507236473874
-11.027656260373051 245.749358196664645 -45.145870778471874
11.170453492407423 246.032837689382632 -46.014369728075415
-17.230507034595313 245.297909039435837 -45.609370559886088
-3.989224843757253 247.481163186289734 -47.836157207956852
-13.860281678307317 247.461893330043608 -46.014440568295051
-12.194567082586719 249.613776539768537 -45.618402404218536
21.380608704034280 250.007405016730416 -43.726533270854297
22.633134040109532 245.327048439028630 -46.499911308344103
-16.713449966176285 246.884787954126921 -43.818393141953955
-11.560136315017354 255.559291124152310 -47.162148001087814
5.889606006433477 250.598914078399559 -47.472293606783026
9.201975057184429 254.799830923488202 -45.077169851155460
-16.218376109868050 252.670319091988773 -46.241002931445486
23.455460181776623 259.605353198304783 -46.033505735155209
30.921549588009920 256.432306089315432 -45.841921064677301
27.553093947631023 255.001695518121835 -45.308949869165147
-12.250865804613104 256.575537580238120 -47.989024535321562
-13.504948391815732 262.134851270997558 -44.803822233301112
25.228013518384813 263.572665196845321 -45.581459797038157
15.295660561981830 265.355628212485044 -46.069895685308467
24.016361259612740 263.378222392624423 -45.395241426813953
28.859608759427395 267.369758371313878 -45.483847375304826
-12.840406865784605 271.935316973308261 -47.627246788280090
27.424718126481146 270.578123560962581 -47.492763193384654
-11.201294703149706 269.505061904585148 -46.890792120484818
-13.470671431731784 272.420506998404164 -45.322154386675216
26.286574934983442 268.750142549117811 -46.271297311782085
26.596650126480718 271.117373065362870 -48.644979630223609
26.321536379956914 276.539563683770552 -45.368146773072503
-8.718636520508557 278.172558215291645 -47.301432938404815
24.344709708311157 277.788194776858120 -50.946639458086388
22.394142834366466 276.227394681667874 -47.827537102664365
20.898023612918255 277.786248409304335 -44.556191772751589
23.081504273964246 280.417264175609091 -46.052655958848270
-7.779352708986906 281.550384408943444 -45.528121069838065
-5.772398492183446 285.604165067223107 -45.173048927011322
-7.518579762529006 285.592065527595651 -46.075816205073671
16.770220782826684 284.202318772280933 -45.919333592297683
23.782090739931917 285.438376935027065 -45.869998526564892
-5.374394790431393 289.441023606861563 -45.771407193245288
-7.068197821726553 285.234295524224137 -45.571424536438784
-1.277444622489753 287.836492539563721 -45.255503697817552
20.362335794540442 286.445771134251743 -47.946838090243695
-5.317838927638527 287.584818919917893 -46.720280893938693
19.931236802567788 290.364977409566166 -45.427945262820522
0.226298225405241 292.350943164862997 -45.662474869312476
0.548169718065453 292.703802761610234 -43.770914690460828
-1.561843671021293 293.373915889198372 -46.326513246515844
16.151784458027574 290.734776438191602 -44.453415761436226
-6.935338396267344 295.339178714319701 -45.842378556684203
0.686500779811119 296.119120225926167 -45.727603382509635
4.298388701911470 295.177243260399791 -44.983101660229707
11.852609190555391 297.244194998488808 -48.234440535272519
-1.184087734341432 298.300200898675541 -46.924431965192120
2.482370553248376 298.268534583649284 -45.358603689621859
5.318890355290523 297.408820084417812 -47.639612760574984
4.804921143769258 298.254572407795365 -46.796320465724641
12.983315266945734 297.702472952933135 -45.842415275369504
33.653499076714375 16.641881803028923 -44.535433838872990
28.461189552262741 17.134928493806846 -45.579166965777603
24.034274887424559 18.959487038669657 -45.654428911023821
30.171218507142303 22.195969708187857 -43.144898264713831
40.338669721540739 22.325500841320554 -44.052656402089603
21.583395166353537 24.380771086536168 -45.431794422801879
19.420593902047827 26.492901683833828 -44.234459928488640
20.976480775626694 27.458206020519221 -43.471213220694310
19.102751423150394 29.907306001409296 -46.209625924326950
44.473284818816921 30.395769020806370 -51.483648266013446
26.155616100218868 31.058833721015407 -45.839548090362420
19.608412893066490 34.704976792077403 -47.263347216514674
26.910358230796955 38.528653476237778 -44.369447061633331
29.218290848161704 39.092697198152642 -45.420663653662402
46.543390480129837 40.628706004058287 -44.912867423280794
31.422719071200039 40.514224009558788 -46.617690968883899
25.254938016431854 42.775480646230150 -46.031367761643821
25.446433179828034 44.435267319195056 -44.865949554693245
35.237534239962692 41.936024903892019 -44.930245588334941
25.466281753012794 46.004842505608487 -45.303988452537169
34.749085284454438 42.909889360891434 -44.396214775872004
40.729538929430639 45.708332449501924 -45.266042615365087
31.793806691466461 48.036005149410094 -45.348308894578715
-76.945409516167729 48.208498409641486 -45.378807330237905
-73.373344104261818 48.836166269593967 -43.595678130965190
-38.777690344638927 52.267672438158620 -46.534905986974842
-11.435566218310475 55.623656771223821 -46.229526002443947
-92.295104210437358 57.696625114614115 -44.539052273951903
-8.887251875807310 60.539589346633662 -48.240165990385918
76.051800828357329 61.435668148929857 -46.865319983598958
84.356605712613515 63.457573130920899 -46.181794094530517
-62.001200127123070 65.691282536990883 -44.666001397015016
69.319088869788317 64.311688432672781 -45.052628505190050
-63.072733094282022 66.724887633706672 -46.702955339623337
-97.704563349071549 70.395688021857154 -48.033255668558027
-30.559567176475792 69.540057784110004 -44.149014319435189
-60.149296574159202 69.781825900016528 -46.286255156655223
-36.017337221655957 70.945257892353141 -43.235844455507703
104.738825596920790 77.207401244587061 -49.470573080956768
77.540601430572039 76.616060097617904 -43.848775655105172
-38.653088181224355 80.933595755261891 -43.260872146940805
77.095905828357516 78.476358064486973 -45.423697447195373
81.320617912918877 81.689048828448264 -45.780420168304722
72.372340195775934 79.844224219109279 -44.733384338418759
73.122582240065256 82.941244139562045 -43.669850968450326
101.670119855146012 80.567246260432810 -46.654230389977286
66.291268570182709 80.223084795609495 -43.746576010447477
67.145372521344868 85.132167294686468 -44.862989249274463
89.019183415961351 80.357341590493107 -44.081971562548233
-47.032900639016184 83.496583994864423 -45.768725036795743
64.618252353587863 85.596179006100300 -43.885751047993288
65.722711118025217 84.414483059034680 -45.520876377049113
104.720865837813889 86.451111078090420 -45.648489989967558
-48.025820537357376 86.179706589118226 -45.733679483728842
96.433382491110237 88.799033897442399 -44.911912030559336
-59.594367545086591 89.148369776619575 -43.731591045272552
-68.334218068298512 97.758407588891785 -47.460003531311941
-68.810692761038339 97.697573174835654 -46.366279655031811
-68.937386343172449 100.791708281715430 -46.646961435930834
72.463844998814793 100.482524907440791 -45.139445667675730
86.733591884695613 99.807981125289416 -43.548859147917746
90.547162127691365 99.210720350483342 -47.069590075985722
76.296064929346187 101.882010334361496 -44.093587858185728
81.142263235428260 100.467776364254817 -44.829074867496999
102.420463525385074 102.548002654449405 -44.187989626029584
-71.772787944461783 103.643091324217565 -42.720287219506275
71.635838367735801 101.781040465193257 -44.577041610156108
