# This PCD file was generated using the MATLAB® pcwrite function
# from Computer Vision Toolbox®.
# .PCD v.7 - Point Cloud Data file format
VERSION .7
FIELDS x y z
SIZE 8 8 8
TYPE F F F
COUNT 1 1 1
WIDTH 799
HEIGHT 1
VIEWPOINT 0 0 0 1 0 0 0
POINTS 799
DATA ascii
113.294217525184806 118.986264004854334 -63.659042494125885
-91.946786532372741 121.646907316013809 -60.134255727261163
106.016790207329933 116.239005794158643 -60.724183354105051
-93.075898049557125 120.173642077023260 -67.396225999924070
29.018003845905170 129.195825046921755 -63.525897782061293
107.679725811411416 124.067570944532974 -67.359818895663921
110.166066077806121 128.630436477638455 -66.082325047701914
114.325503094108967 127.101767800684215 -64.889241665176215
44.280924461863762 127.918295103614582 -63.811168842759514
110.079281294253960 126.011205279446315 -66.934030373198155
35.208651433489813 129.620865574717925 -68.456914203685756
40.150596423264808 126.893549625101087 -66.462206978124115
29.964968715280431 136.111171665498432 -67.452792558883360
44.159435568959481 129.172428845289460 -64.889653768385315
118.488674907203901 134.483662720339879 -64.892862372907800
115.766861885059640 135.117814743426322 -65.827847115091075
37.141707117897020 134.990054258779821 -63.963877252848377
112.802708864947817 138.827794916129989 -67.299216705659717
38.039109470907718 135.233798638696868 -61.330133015109951
-57.455252163829272 136.174866657914947 -64.459552709123585
113.395735355866819 130.390116858532309 -66.947657987439626
29.273341804142493 140.813888585271627 -69.368379140862771
107.610441037957330 135.653103140653258 -64.081530096507649
-47.786874542404114 145.097692980743119 -68.469955259830513
-56.647915027936598 143.942805901466045 -61.773561003880587
-76.578637670378313 145.238919206046859 -65.525206192409343
-51.147740675939900 142.194831196210714 -64.040351573042116
-53.535843128013283 146.676312442783086 -65.902704169437669
115.697910037149128 143.991772273378331 -65.295915947056841
37.271229313529332 143.062410337355317 -63.013662194606766
118.788371367289216 138.556228764123176 -65.298173644800059
109.728398260559956 145.223442969541793 -65.834594792851135
114.855854469269659 145.965596281820240 -67.332532774192202
24.016588329840946 147.508780572668911 -65.468719226539733
-70.780666124702080 148.231206217004996 -63.554655105467390
-77.537371972394425 149.382235451626457 -65.144178128112443
-58.560886818608367 144.820698620777961 -65.788675007158446
36.196498561730742 148.751880424417408 -63.461070764211968
110.598457545463191 148.768264603489456 -65.927845093815506
-43.718420666246146 150.981123884363484 -64.260618624442259
27.880732336910896 143.939306257723644 -66.721725512027120
-72.872800278103185 150.552133462158480 -61.514219124468582
-68.879678604900192 150.770847740110270 -66.736882472412532
-40.484265357520385 152.591929430455622 -67.287641981215984
-80.662874772434250 148.191761022308810 -60.725571710605109
36.861043199776724 149.540276381943613 -64.425191385481057
24.492057672221364 154.550358180449848 -67.537155408718874
118.545718296657071 153.836184038207307 -64.248188209044173
-69.584658182944779 151.404771539291318 -61.610550876452152
-70.257087120077159 151.062162593343828 -65.898343815891238
-55.954587580226004 155.853310204766558 -66.040399207204175
-66.477537078469652 154.009878886014263 -68.531082915760422
114.173358362311532 149.341202201774252 -65.589557932744228
-73.032009222951928 158.879713110914054 -62.127253631624171
112.290099718821210 151.896361916002434 -65.791714513978519
-42.025079069279435 151.566472318766614 -67.034304642766841
110.031096152500155 157.903436022003604 -62.350025684039778
9.589350231172892 157.806749606960494 -64.059872471157746
20.480478373003780 160.245130203940988 -62.030525227109194
10.573704141024722 160.659377038997235 -66.505821547100922
116.461179306570401 157.792767727850901 -63.932398522672116
-41.910160549671041 156.453425413374447 -64.055871511453375
-72.508171027118038 160.710307713221141 -60.200110296684244
6.926776196657924 157.975542484811882 -68.370009976611925
-75.158988814076949 157.898563518613827 -65.841136094022275
30.433942527930089 159.670036542963118 -65.673462124594053
107.904872162716657 156.831330484553632 -60.923112440957325
1.707362670257207 165.619949500501264 -64.974753450766627
109.375278068384233 165.077325809588842 -67.653735760667132
112.857135282661332 161.533988439924684 -66.183772591099768
-38.125395657036250 167.590526446067543 -68.082326302040457
118.240935889916926 164.334932173001391 -62.337873563722425
-63.882413564861849 160.991149425024020 -67.707448130289038
-38.752951412839920 162.731026276729750 -72.034752276243339
113.242907053859724 159.329056028424048 -65.204025332541562
-46.139724233863404 168.248693248846024 -64.683104862641372
26.274412962301763 167.400816912481162 -60.447942330240764
7.550460269578100 163.056928417429873 -63.063478054066152
7.517556691799854 167.543329628653083 -63.844740991005381
-61.051229486084537 168.718493497867001 -66.178320974109866
-45.718029866873415 168.838094131391159 -63.306111494170693
-4.224767569206652 171.455175254537608 -65.737814160393384
112.239599586052421 164.945648902886830 -63.848532926032078
-1.562603798293243 170.247437560225251 -64.538237135055979
5.584382717495824 165.500410126685125 -62.128855506849547
-62.341051528782337 172.956157311127214 -67.822698236001742
-28.058983666456399 173.449176322117381 -64.136618886775366
114.482666428545556 168.798822378455498 -61.674889570541282
109.524106592798503 173.199023824724662 -65.265964236289037
-35.402454616426269 170.838899413674369 -66.964710070678407
-44.297648174583742 170.897631499943657 -62.173563146604891
-61.272835890643080 172.712837564446687 -60.997298745562134
-61.136574727773429 175.914070552526283 -63.172656243516741
111.425808703976301 173.391664850350423 -62.799197611866688
-44.386356242430381 175.744970361902034 -66.451212849367295
-38.809420802711330 178.543190391703632 -65.435290871505188
-39.350538407370806 182.753528972869645 -64.051044357851637
110.250695374402284 182.916615679470397 -66.091988739765554
109.727704686257525 173.247227179989864 -64.219922273704753
-36.052008324673800 186.787343255026116 -60.633686863207316
20.620141248259930 178.477796953892806 -66.902353638607721
104.400667569171688 184.672947972762813 -64.917768008737283
-147.641417032780254 180.493877879084152 -66.073019672691814
27.870017038544425 183.685609404303193 -72.653492543108953
110.976891807281604 187.871250884827305 -68.412753446739956
-146.035247690449722 185.205839186958002 -65.533426769136298
-23.778573528218356 182.375322293218090 -67.139938004421950
-22.108560502953946 184.929716891265315 -68.979580369224450
27.153516662281788 179.770709639791107 -63.257743671689482
27.341239727802947 186.648830424473005 -67.109090749217145
16.809147508956528 187.451419538222041 -63.475823869263280
27.462167995550786 186.862462976120099 -63.102503810966610
109.374973885619681 181.249222433057128 -65.835115138787586
108.389262837287163 183.439305605312768 -67.076449455651513
-151.030372222008197 191.591392022658567 -67.223713434071229
-20.321518876219546 191.171482744607289 -67.888520029023013
110.176622150137462 190.639868729681297 -62.972845370023634
101.558369995995989 188.406712545159706 -64.920436904495190
104.399073961923804 197.199061570583126 -65.531735800886622
109.503504734440298 184.637704522865960 -63.973800827959181
-149.130731830158112 193.359463246482107 -64.180123286296848
-16.489376639026670 191.244595433354675 -65.363108072936569
98.599496734011069 197.174529986872187 -68.268919254845784
-31.765212694704839 195.807030432795017 -62.673310490744271
-27.804543735637633 200.649559412136540 -65.409626585482741
-148.541601164259248 201.001813796581104 -65.021948928831677
14.356715744953268 196.913872250368740 -63.832030099691494
-150.453429794178135 200.509095124415438 -67.813745713486171
108.432381144641226 195.561875612711503 -65.525592497986636
99.356693554033100 198.350520428384698 -66.859887848245620
105.714721583266382 201.485958461972217 -63.229580536843585
-24.950222755559142 197.027847930162011 -62.589136414695588
99.497264975769994 196.611215443970877 -63.773789812131525
-123.339680416978752 200.436377224753016 -68.445304937381920
-28.427371858279237 201.242533172521973 -72.231350018207849
-146.341588890280036 201.134712467579476 -64.599676608764497
-139.796411542281305 201.436778509376694 -63.258766663686643
93.293004903738975 206.829793012404025 -67.390161397689397
12.452420569631620 201.028924604707242 -68.784477368796331
21.477975581988311 203.163303085057549 -62.894126034334349
-133.504367508933456 202.465401588814302 -65.228587842116355
-21.632898306249075 205.588320549072193 -67.362240173336204
-131.589192199012615 205.496088254752436 -64.364257230499717
-126.553773029915476 204.608891667488308 -65.910705091943441
-147.763275157628186 205.859090565077594 -66.070687501067141
-141.439755932474242 205.854980852575267 -63.659850616090239
92.216646681989900 208.971264671526512 -66.661392979313206
104.138337858058279 204.296190297280532 -64.031583684035098
10.769096497920080 206.523075004136388 -64.106297603709805
-8.862802258069083 207.702931326563998 -63.461851178447716
-133.275639656652658 203.915835903914967 -64.832430999942304
-124.098737104569452 209.263706859938395 -65.871195649393968
15.809936855255629 207.848047112254704 -69.034361724973763
19.250784933155280 207.136527031247539 -63.281984359366533
-143.223073217150414 211.725575790223274 -71.153980716824577
-10.914307988323209 207.823516049355106 -64.314871209904794
5.993175057554870 213.900349907923498 -64.264539551779762
-17.712091873497904 204.830557411823520 -65.275457960785133
23.331217672884293 212.955081271968965 -67.231869450315926
-10.553956457429761 212.863356321877092 -63.861360208328648
11.335987203459732 209.536538900139220 -64.777748733752446
88.902107662148268 214.015682461022436 -67.021595693941705
-144.805724511933732 215.773009285901566 -67.116879908172393
-19.944924810353712 213.696565967982167 -67.827593486829571
-19.769501415680178 212.834709259779146 -65.349061084456878
95.323526645309272 214.106342528760621 -67.778370128581798
94.541479536344639 216.175630664585412 -64.886186388041367
-147.532715907679432 220.196765220991438 -62.137567240313274
94.086442183782694 214.053620106997244 -66.539182538883864
-166.979478284717715 215.213002781265686 -68.642829419444212
-79.992767110705600 217.179348146065763 -63.951963112952356
9.169019288434464 218.164837445304499 -65.584533148898842
89.402218218007150 216.949682562944304 -66.298608939288584
-13.998454098942842 215.710697333389618 -63.864348529285280
7.925384711853154 220.643820125842097 -66.920894242361555
-32.551824426037257 217.300472998697671 -62.667562498839558
-87.743856612607658 220.714916806286539 -65.118017507842211
-86.083446853987141 219.730647272022168 -63.544254350948805
-144.397505408612830 222.709038855793125 -69.177666038440961
-31.959851861795499 221.359608740395686 -66.971721584603785
-26.068695210972727 221.201226325653522 -63.322878816060751
-155.558668184035611 223.047529475185655 -60.844655681796709
-20.224731902263805 223.871173383077888 -60.384386247261276
-27.772686071488199 220.327961668717165 -65.537147057004546
83.976805230195595 218.960913039689189 -63.855636527086460
91.053184324950706 221.353778489852999 -65.736919830937708
88.617606734004298 225.846167186191508 -66.452301983880901
-84.540144231049382 222.805218685141540 -67.391864149852253
-2.163772789057347 225.789329114397049 -65.155757002178333
-100.297300922325960 222.324275926195469 -65.953183700188092
-27.732464656633692 219.945517335211832 -69.184270294853391
-150.565055859303982 218.150593655300725 -65.720980371841975
-85.231504364734533 221.372654364162031 -61.961296294816464
91.023639525224695 221.100809711027267 -68.026923857676877
-0.170717340939062 224.995384317953949 -71.250916804584989
83.702346473094394 222.991567765857155 -68.580118092228005
-165.816975272605248 214.034234110077165 -65.304450106881262
-12.390746155121839 225.645883532727737 -63.570683566800213
-95.037781955754326 228.427928951209822 -61.991327851022206
15.501223473975374 226.296710051286084 -64.068641479197083
84.792084023271315 227.914573619358805 -66.859565419450135
7.565213621775253 222.844147596575198 -65.767491637625540
-149.344578251329921 226.878235778659644 -65.933933554438482
82.653731216755702 223.796068350587859 -67.214849042372208
-166.376066520062295 224.201657310199579 -64.976153708211143
-158.347231937450118 227.379519389806035 -65.693990770190908
-151.077273915258672 229.916252833893338 -67.320021464539110
-99.440839011721749 227.163835681430726 -68.478542870746907
-18.285395346044215 230.025827315064333 -65.719749463958237
-151.562145808724750 224.036911064234516 -63.291136219628598
-110.097335883468503 230.829453392985755 -64.559746482379936
-2.711589400044792 229.272596786045455 -64.116114009290669
-102.822095261050009 226.435102674710436 -63.185362191356234
-5.683762133639911 230.312614514349860 -66.901828731500942
7.741366217569883 224.909122468620154 -68.510796534090318
-161.609539053740463 234.333770852163610 -64.347890897005456
-11.656805829065286 229.950759259688709 -60.718886425706728
-162.577296362775883 230.656191551594475 -62.466561737113039
85.481142645114517 232.596921997375802 -65.118375559886857
3.107484971944549 233.331254296419473 -70.026880250313710
18.211239037628676 231.560072741745842 -61.561180414588804
-152.743343447011398 226.514708213873490 -63.963568815980878
-141.635532262698064 230.955060958081447 -63.752696853626134
-126.334923742008357 229.998601757582549 -63.305970751903871
-106.197143786208230 231.387110685194330 -61.614660188245068
-13.543656097129158 230.193179340033339 -67.663944318366973
-108.156653999132175 230.674954210837626 -66.133440750255247
-160.366701044459518 230.805982435618517 -63.283808904351844
-142.972653259878740 232.684919378007322 -66.751651771481448
-111.764545187903465 232.517690432284525 -64.717234337355450
-104.144107275623853 233.697919288943751 -62.059742789990182
-12.603830709002503 226.405137412790623 -64.566112754643896
4.309270218272684 229.223412670314701 -64.418544385531433
76.638290062564138 230.506035755374029 -69.292642904093015
-167.704984762170739 231.493640718969914 -64.708879086470418
-160.049938785986086 233.978764907257130 -64.044094795787927
-144.609676997349538 231.028094877260031 -68.212840006510703
-124.212724043048340 232.961389892630820 -65.343694389465753
80.967105607212574 229.681475831137163 -64.141490811077503
-119.189646468423362 236.031566093940057 -64.029271206297508
-150.851423205745817 232.732273690057013 -66.760928515843446
-150.838656718497930 233.513940731070932 -62.246175105909828
-150.784633960570972 237.835470370153416 -65.535694684100790
-121.029728635906380 231.905563152745287 -67.060832153035278
-9.281808592307318 234.271802770934983 -67.914607774800785
-151.993812408199545 234.454143724850496 -64.537849117242800
-119.997674370444685 239.968675581430318 -68.276732068424536
-10.875329645334105 235.202822030537249 -64.751089527859833
-162.386150994725995 232.526549102284207 -66.425801009535789
-139.534185928918731 239.328192086332024 -65.027397827992232
-134.969850520223673 235.516789920922548 -63.063765743526929
-157.016898370231985 238.295221502149644 -62.612315483664304
-136.204602802699981 238.641269546553900 -64.749232100781256
-123.610132231592672 235.152346835473111 -64.156017952406899
-152.924712643206561 236.135028492789701 -64.838185106655501
-143.631565455090140 239.068286355623172 -65.116347580407890
-153.075339384978179 240.803401461484611 -66.472106975900687
74.832688554258425 236.837179419337048 -67.371196969854623
72.656694776350307 238.071956442943161 -62.675606311813297
-160.368565112527193 241.179862885638670 -67.501332446546485
-149.181769898185365 237.113544452428641 -62.780388037292923
67.213955257284184 241.002160397788884 -63.638604268381599
-17.869950820915495 245.226978899823933 -63.960839555668173
-3.753059028039185 240.970804588662048 -68.123380131465495
10.631120439158110 238.988374852377575 -64.187784042281905
7.344105681373570 246.251234493365530 -67.348639684146249
-168.558661188731122 234.524529212872977 -65.564863702056300
-151.956437283566174 249.164496700842989 -66.233650785887392
12.357094879276948 247.710787604009823 -64.326375901894323
63.442895716233906 242.063967972818773 -63.571685840394622
16.388510985150376 239.204443944882058 -63.474117568202502
13.818866331308877 242.656939571282095 -67.469334752785429
9.492670097812029 243.344702154337540 -65.204535856980343
68.290952650631695 249.351659022689716 -65.682898398144715
-3.931328432319382 243.884301727743861 -68.839940626488115
-22.113529564779316 245.173575747899719 -65.722411256987883
-19.510869243263596 247.160120543529331 -66.431785075782017
-18.198033873095035 248.185448390402286 -63.647830061703900
-1.853141755265491 248.486229435648966 -64.654027900160955
6.502232815745908 246.952747899931097 -63.920468230676363
-0.874631656257087 247.728923808388487 -61.418627020956819
51.900634441768254 247.124727796966937 -69.713150501307794
17.891410079943622 246.475010125250208 -69.019566167772567
-59.093776447575742 248.664705183839317 -60.822316324919669
17.607923829278523 248.132072408098679 -66.433124742795115
59.487559370650423 246.509570036845105 -61.173899043490195
-62.249627191215779 246.510471303561474 -64.273257561906391
16.082375744546834 250.609633080302331 -65.216589667027662
-77.345969767479161 253.014180213067476 -65.144774931625719
-57.512289422450422 251.239357068584354 -64.092602154598580
45.487091464340644 256.232098427273911 -66.225657091144470
-8.269750998366371 252.734538493015378 -66.525009437370414
-57.614641854094110 256.607996335322582 -65.247064452144755
-55.485281548568516 252.983402591646410 -63.672121894467409
-64.382974925312865 257.186014293247013 -61.981512924399269
-7.994307584173571 255.265772183559733 -63.931943786063513
-13.436889950292310 250.434539705785596 -65.488612307442764
-90.063062798921138 259.813766290966100 -68.326404986396696
-86.504634839157859 256.207921661916828 -65.497878457763861
-74.990712856157273 255.126735495199966 -63.368922772822842
-10.289173403740421 259.344707649611678 -65.177670902389025
-147.498369403588043 257.299065677233784 -67.513137141867318
-81.152096278085907 258.422739506945504 -67.432462163921230
-125.011178701152929 260.301147033862435 -62.351062005200859
-97.276942724420735 261.120854771485199 -68.052067335499871
-13.831485157233310 260.249387888854699 -66.730096722205431
20.503200650763578 257.844662942490970 -66.377199856423289
-114.677030020322533 268.757778574394479 -69.214245438839853
-95.122068101795691 264.794491975128096 -63.674728175987113
-114.585872375914903 263.106455811448313 -62.881321006445020
-103.677012144268417 263.457964622967665 -67.255675765085499
-108.334470664984764 260.700483986851964 -65.553034263675869
-102.830494939032121 265.474150991704619 -64.297557187511927
-112.191788023958026 266.140680111934557 -62.233417943096526
-124.651787488410690 268.628631026300468 -63.403346696273289
-165.542809907870208 265.642770327397670 -65.901420423736838
-147.008625073259509 266.952214032263157 -68.110952267420629
-145.269057219453941 270.980596707747281 -65.681506974208915
-11.428057253228195 276.618266676603639 -66.975703224274667
-165.668994302194932 275.345409307817249 -65.118727276686172
-146.211083110208193 284.822589572515028 -64.005094950898382
16.730394604979619 286.347655092739103 -64.074946791682791
-125.328552070339853 291.094104264184011 -66.873075689719158
-142.498085685668229 295.470369757095000 -63.893794934071394
-57.205046709744224 290.068672971466526 -65.847911656878864
-84.917521604748160 289.653399615824355 -65.586424546829036
-61.781985419560563 288.513084767259443 -64.136087543455460
-42.374495468069874 292.383739362511562 -65.756966517026214
-117.333707111095478 294.964286497203261 -64.392092363638696
-26.457530459360250 288.706337216844474 -64.736452145999422
-101.328545210381250 289.895706053414870 -67.224897133348648
-32.246102895317399 290.640906050987383 -64.490222618848705
-25.139905135952173 290.711968963008133 -64.105215588021863
-7.151956169630233 293.050751149554003 -69.659555571203484
-164.106384194654282 292.626078196764070 -67.102126539991573
-11.883301023460199 292.608825260792628 -67.667400924464488
6.799423928161424 287.436142343402821 -64.514206426084087
-31.140366321668335 290.423264688629899 -62.702915293622354
16.729286963535060 293.304352617848735 -66.512768008757547
-58.838927349277910 294.429233615529142 -65.502439760348821
-38.708596876129718 299.045768923165610 -65.154024465296246
-24.038944082415817 298.604903964671507 -63.199574170782526
13.403394411387465 295.372988948448779 -65.130469154260737
-69.954032698778647 293.444359584098606 -65.035357875823550
-64.704283599722359 298.981661704526459 -67.621342687954836
-37.116616458519637 292.026313452428155 -63.686793686384959
-17.600742564164307 294.521262056031333 -67.403251478026718
-88.934084721300422 295.140549899526718 -64.003226737323018
-15.292164736560727 297.781883286922607 -62.633558411120802
-9.093000571460500 297.044020243457567 -61.978639978250570
-90.248388328788522 294.225266391118737 -68.246908782994282
13.592000607870357 295.572095467070426 -65.179781158502436
-5.993932925276001 295.638695300558197 -63.973557539593884
1.814329588962385 299.022182667617699 -63.153728511623868
14.224574117205730 298.138492960145641 -64.700445827404934
15.619995875072179 295.706309814149051 -67.765420728133236
-132.257487698367100 298.329409451978393 -62.743551052690563
-141.566026815464966 306.356625210566790 -66.631842723589699
-155.012910351426484 318.020451964690096 -64.439541013074816
-154.204156433295253 316.549350321912982 -60.287880564537005
-145.704500040368998 317.730421444940134 -68.118230216221235
33.138148597786035 19.082326186802028 -65.406975343080830
33.106107646599469 15.662951260794465 -61.111185184629448
36.412050775358360 17.350750319243069 -63.018006239804848
34.279745267108581 20.474344810617165 -60.639132813457962
38.423018272404200 23.485537062614419 -63.126105074807683
29.841028003451370 21.475724112664157 -62.883539187606488
36.295415803084964 21.529813359667504 -63.797520874020293
41.792091230949865 21.404915585155340 -63.256667300640018
43.857526901038085 22.802363943317694 -66.046354093380600
22.188691205027773 27.472990992431320 -62.905170870593324
45.376513094599105 24.088853948883205 -58.636786269345066
46.656699610331110 28.992287776055523 -62.792356437619219
23.130504332031784 26.730491032944968 -64.008157884065099
47.394909943452582 33.459386984923810 -67.817816776453654
20.959031053265416 25.885263835067541 -63.714662668443808
26.568536721480758 33.860799641659511 -65.684605062658278
17.041175389725641 36.486669946939976 -63.114386505427291
46.146914043576103 35.921990658915192 -64.396858602460242
46.580084741939025 38.305270338840216 -64.591928587418423
30.177410519785752 38.334760509535236 -64.150441173729064
40.375086310863210 38.754627206138430 -64.495915026547976
39.673675777954571 38.687207831301166 -61.062470403851066
47.202930732368685 42.213313759472392 -62.396295595533374
32.954271010908350 41.724869986124531 -65.090445344027458
38.850429576986862 41.415086450557745 -65.113607055580701
32.176895304999057 40.948613498641507 -66.295583109388787
40.453284284979979 48.232862004134702 -63.326422640323671
37.504999204736571 46.259353751783202 -60.550681907445437
-67.869153156462232 55.751979772765203 -64.433254281413554
-46.573345175281105 57.194397412474082 -62.723973934361737
-40.765758158427005 50.433598952541075 -58.835446220275173
-35.400633417341339 58.383293495983061 -63.000383369190715
-28.120274516545109 58.222268365878101 -63.875787711319234
-80.699454797090283 64.561294102348910 -58.189606837759754
-89.333081022629770 70.600091658559563 -64.309286168302052
78.108830103199907 70.343069964373825 -63.814880950457294
82.891322865357964 76.702155677056865 -65.099484779573928
76.177613172299132 74.892382196906354 -60.999270659709225
-18.078401956669904 76.584849367258741 -63.463736615084215
-85.341788292192277 75.359401427562517 -64.640451638396129
-26.825834376717868 85.060625679930851 -63.547818094094097
69.597294373106365 86.453119629062328 -62.186226961952059
-49.762549129023860 92.015071979914538 -63.495189329422885
66.355559964233308 90.839410431380443 -62.572691570668681
57.412495080610498 96.691398874217839 -68.092010623017330
56.767672263606237 92.406505216186375 -65.484485428402493
96.354009504545374 93.706724995963626 -65.722925088318760
51.530957548327038 96.268665454970332 -59.442844358377315
57.388209964604982 98.007137674370185 -59.815425431707354
-64.626870087844452 95.086284141265580 -66.565199439608506
-67.118616851431582 98.488734414349580 -63.608336330291195
46.284939328373000 100.075403286801219 -67.586041247167941
68.241212530906253 97.657471696580586 -65.028168066471181
-64.727810855416621 100.960448465604699 -64.184744097388801
110.822662332244832 98.387633743222409 -63.083927023177836
-63.212596857362847 102.096498672793572 -64.375849042139748
94.079478901076854 100.980439829958996 -65.691536010785498
44.069945026844898 101.787730080703483 -65.447789722797140
109.799982792219680 107.958456352009378 -62.851451322808757
-72.936349516397428 101.363107333703539 -64.178952160452170
75.845284637402727 109.939583673935758 -65.733522876976380
55.392429632238823 107.926520063888901 -65.544897853780725
101.037296142036070 102.030107471054663 -65.442461130638137
107.393040457991589 107.078519401557372 -62.210861657295268
99.503424360067058 105.929765638418644 -59.518500885739144
44.634289711393052 107.443873164706361 -62.152119493513311
-94.599872933749353 109.667664663561368 -63.934288358984546
108.750820369493013 112.439728310873690 -62.739130351260755
36.963022554443874 116.320354334471759 -66.022453484802895
106.365232202284517 110.796647140850538 -63.493087275686534
48.180100479529990 115.049620231030588 -62.953541054433884
103.280088439942332 111.539285169259898 -64.182784124065719
-86.297605660230118 117.303728826761159 -66.777231986165120
44.371817267904660 118.635337962573558 -64.742223668048197
34.160378143853968 115.913420704203944 -65.817497610631307
42.238883531645619 120.409565438914100 -67.498515976928772
106.872548592372496 111.874094242804972 -63.909204323726712
107.191497784488192 116.544576485257437 -62.103489493157667
110.251574843891703 119.188839795763599 -62.534344528008376
104.411409985111050 126.699840853600946 -61.817551602892195
110.753789489173911 121.809300698913475 -66.341932639447066
111.283683411548537 122.318720949005453 -64.786476744971424
34.765807545275791 123.036037910963486 -63.146765666986909
28.031502498019677 122.140667190349376 -65.844593036325747
43.988760850068076 122.360190680904154 -64.759221229402939
109.328252478453905 126.275528133107116 -62.404966001296415
42.392792453566180 130.354278253840107 -65.211500174650922
45.384238043102634 124.982352742173546 -63.181237944472144
107.011725541849358 131.104971228962057 -67.475047845543827
111.410503411409024 130.298061130483205 -65.739686163808429
36.232896382331894 127.382459580295219 -62.778373645150140
110.173925600263260 127.546008118189803 -62.526125376077843
-76.223250368375872 135.212792762392610 -64.539745262417824
-78.784243663618085 136.791006252782893 -65.091360604419492
109.792438281335350 130.068963704338557 -62.628308231590893
114.126715710738878 136.197103304776164 -66.015435589559317
116.438759893280476 138.454474933041496 -64.145511429901674
35.883275199995069 137.055562949864793 -66.654568342956139
113.291392795616858 139.924106726570756 -64.991838352765498
-59.179801419559475 142.846801170249250 -63.960439254697420
35.878175003361697 138.047993966629065 -66.770954786002775
-71.565051999133885 141.862346888348412 -66.812181173833622
-58.599470202074151 143.649720729085317 -67.602853074064015
-49.200772957278566 142.297652378776746 -62.107093647930682
26.738827095476964 135.691655907108469 -68.138443018914629
35.810454361316900 145.196525261628636 -63.445422685834373
-74.979616232272363 143.598165257753891 -66.345040529704391
-46.703136327863717 148.018705481132855 -61.988289220023034
112.750912943588105 143.673156487465860 -66.706613049475891
-73.392805096051831 144.833486237612590 -63.691238354625483
113.888119058630949 151.913417239053672 -65.869653681858622
-72.552324604320546 146.687110222951389 -62.094547062554227
110.687556209434490 143.894920042283758 -62.907880001157295
119.381928827900083 147.904329778334301 -64.666409386624480
21.408990925382110 148.608868483366166 -66.377965910109182
-45.779144522068243 150.326585118471343 -65.244618537615523
32.703591122486358 144.692821927850247 -59.501381717289576
-68.234865071314374 153.650259745700225 -63.650470975665399
24.779467240755892 151.634558435037007 -66.098174837244912
-68.273734047128769 155.842954125603541 -66.349183027691765
20.000990413487600 153.121861923633105 -63.752340263178226
9.071997395429687 155.870506590883025 -65.572272909843704
-52.797727951972291 154.981897360921380 -63.807218830379227
10.139819793446406 157.746669421743405 -62.147932337173671
-53.072950750070795 154.620848097467217 -70.027001762340504
-49.209296939629972 161.003597550278300 -68.189974508230605
118.294802008279120 155.730082659033002 -63.955827933429802
8.398667157212971 157.353363606715334 -66.437026101979725
29.353574749482529 154.353558220803791 -61.350258363477380
108.611485556432626 163.273529836663386 -62.242517693944293
-39.969912238120742 160.044716787400318 -64.312966464571119
-71.130929921048590 164.607490698460452 -62.256752111872373
-51.585238905980596 164.986640977675705 -62.523010277340134
-48.180213603694433 162.948087745619830 -64.868707026927709
12.418413301967382 164.446004235817014 -66.193140754694696
24.244474704317437 156.254001960432248 -65.601464584089754
-64.473979155112588 163.271608802203502 -61.053807684186737
115.473771531803180 160.620620438822442 -65.299533892222797
28.818771550463921 160.788397237759000 -63.617810553373886
8.003489280410175 166.716973560065952 -65.886749969617469
10.308494408471462 164.969628072711970 -61.465926351135096
33.433507203736895 157.511729154988984 -60.164392282530400
-33.619004519033979 163.741966112624226 -62.036766385082629
1.208005416144726 162.448333408759083 -64.305096809701439
-45.529954798814863 167.086126293784019 -65.239270797135944
30.908888597080498 167.481664478718500 -64.920525848991417
-66.995205061805805 166.235264252635602 -59.113276786294279
-60.461772864430166 167.629409268425320 -63.274252377578776
29.021263782155042 171.307558994795443 -64.272061898308067
-67.139611598405537 167.431885828154122 -64.849500087002980
115.995140257501177 166.265999097615492 -63.871613546741443
-40.461533885982938 168.169128823447465 -66.000220948147060
22.062642278251683 170.814780357813135 -64.402401657180192
-65.934899393754790 170.941711830584751 -65.064816702962688
107.214667752999034 171.426779729949857 -64.481402891734319
-59.401374495905102 173.646896792792177 -63.105665354046309
-38.202256459598395 163.097993776382793 -61.578145083646831
112.992251723382395 171.519300857845906 -61.711627393597411
-35.926494369359190 171.883031436952109 -61.302349762975794
-33.939792417442838 173.509669752854052 -64.211294328307545
-31.785465856924855 175.112812263157593 -63.194263616009891
-25.992178274270803 172.887878026332487 -65.588003983017956
106.173839449028463 182.532967249099926 -63.428974798727964
112.090910891103022 176.243658146143616 -65.557647892904455
-24.250684144481145 182.657737816306252 -65.002314152391634
-36.490571265249322 177.343649683256587 -61.651927218064330
18.458631946433684 179.743916488854097 -64.048743859810500
112.159185976099238 179.019313457426961 -61.306811613622301
-148.271658680441902 180.258917333821614 -64.365920697315332
15.734015656063315 186.468952427838047 -63.609711010842474
27.861067148214492 175.655456034466994 -65.241676854768613
24.985297099353474 181.529415522745182 -65.155288457358722
-144.009814671443678 178.228523830945647 -61.768358562740261
115.024442846401357 185.479792402635979 -61.372239249296697
-23.259194593762444 180.538661498119097 -65.331387477529333
-156.148161522066658 178.550772612656459 -63.400393722787129
-142.378349612864554 182.374544513779767 -63.634967569390128
21.849538763077859 185.078109576764376 -64.552490111669528
-144.405198676333441 186.214543217871153 -66.657228807266364
-35.299214459447086 189.795892302492064 -61.808171587563109
-18.812304807959521 187.262401008672327 -63.412449903669497
-26.087664204254722 193.443512957640735 -67.603697443278364
-22.274386201913874 188.692616445602056 -60.597650845327806
11.161878712246988 186.807936930193875 -64.565889071656997
23.900418760669190 187.491052003620212 -61.023392189195263
-141.088651777026342 192.680750989352930 -64.923859572678907
-149.017039612220685 195.346342361950178 -65.077442831583937
-20.670912483158364 190.811423222645317 -59.879459185823947
25.455943070512514 191.242345839092792 -62.286267035955646
-28.455208885159422 193.477281151872177 -60.773948947281326
10.835842541819620 192.580746424995169 -67.143263687287131
-147.108504582831728 197.329106064305563 -62.709388897670252
-29.438497082635187 192.375031812224819 -67.271539265084883
-20.223406285659962 192.946615422258702 -64.041314557220403
12.590732795935413 189.961099362131449 -63.458008232275361
101.757949079597040 189.817953472896846 -64.634005008616313
21.769619490916583 196.320482023422869 -67.618451343907410
108.504535994444112 195.336411615183920 -62.965192800897412
24.576889057256810 197.117380604000203 -64.129985586682608
-15.519710931964950 199.981361082434631 -65.944764171855667
-23.397550947893301 200.559805579984328 -64.699550478268364
-157.270109389911966 197.612385554728434 -60.868860824915188
-127.463805712551704 206.367052329354919 -65.183300406414602
-128.263197924954881 201.024217590246678 -60.280036637138224
-17.480947540492060 203.411210832367743 -62.747155333753327
-158.435441448731069 198.848141123976575 -65.959470989120760
-123.133770491905423 204.049328389350421 -59.841579081594560
-21.253163308350921 201.477904989588325 -62.558058070135104
12.970124226004103 199.608738836603152 -64.674422830097967
96.592178479871947 199.495462292646351 -66.661601990648862
-146.854256397383011 201.965353541175631 -63.873440136024200
-14.919743253502153 201.819530549100563 -69.365545164121954
-153.539974002448247 202.525740341406589 -61.054940417938255
-145.700437558168204 204.462537830609961 -64.027369941578542
-17.135140569970478 202.771208258141428 -63.404673870893973
-148.608949869500208 204.897318047103653 -62.299243282544268
-121.731128900052681 203.813610860320296 -64.324172412184481
-113.447022897977575 205.238212378913630 -63.868293471298287
-152.331847672591806 206.170517569679504 -64.557382938229807
-26.871738771930225 205.664649578335002 -64.161355529417193
-151.067115070190994 204.690395673772855 -67.231696794243675
-153.015565049713103 205.434669127914759 -60.836185301600722
-123.092770388453971 205.908734724507269 -62.806232423939903
-116.140011628924597 206.352863254370590 -66.373601276432652
-11.666754710057120 200.935435182775024 -68.429855952352341
-147.902399480714962 206.257597205762352 -61.989922691108262
-19.292693316023389 204.074582671151774 -65.235104542702729
-14.116671988652158 209.153395324364453 -66.646702038065897
-160.811697035795305 202.218625915071868 -64.633977280222027
-133.363733620922829 205.848027484790634 -64.957355403848794
-137.279123239470266 206.222429392579414 -62.283345130195542
19.114419977454887 208.331210312036433 -59.490794276551526
-122.030111531591686 210.469043129421834 -61.167190213389418
-153.397467466941379 206.725587230739137 -62.538135797564593
-160.435658287932938 208.321180972654730 -60.305671684340552
-150.197733685175081 210.227960073979489 -63.325045727928995
-141.491068420321142 211.692089485700535 -67.329517830790593
13.820452464905454 206.612448714518479 -63.821256702946542
-154.866174852712930 212.072728677480512 -64.161352290411941
-20.622517375362765 205.363586158719869 -64.760930594217200
94.614762937079874 207.992855323201439 -61.465616452494217
101.796202599677983 209.374274004432948 -64.714416530768204
-156.177952537936193 219.018124854735760 -64.417358078295820
-11.530423640894750 215.259043637986025 -65.373496077020022
-164.875944681299416 215.793393410169045 -64.795534143871336
8.043239873437857 210.124448400096895 -63.065012435319446
-79.206017588515749 211.409926000172533 -63.586052243914693
16.647197932032494 214.283450390488241 -67.327873601504621
-77.518190107911380 212.412326712022633 -65.225068293952248
88.430510808947105 217.953194983408650 -63.235505217346756
-76.200956924019522 218.709722288592474 -65.881119072075791
11.477644571821934 215.465802068842208 -64.833607498658992
-2.835545953735135 218.028739385791198 -67.593699347797994
-152.969156447538893 220.040740328438488 -60.951145035529905
-95.666807958163190 219.057292573208258 -69.455548315638254
-86.061705308014126 217.449791385097313 -62.189981984498075
-8.867157852900597 220.349512816198114 -65.491029174460607
16.347242607380380 225.593491982782012 -67.674683413143939
-147.641882745901682 222.982593227125079 -65.481046440758249
-11.321914522703972 225.684949429817237 -66.052064490406863
-92.520876737377364 224.015969336347268 -61.467170524256048
-1.654007849976351 225.137817781452071 -64.959532021572841
-22.984506647847450 221.992580863524665 -62.943052768174127
-11.514512497354248 225.711083991096103 -64.266918603871389
86.106100052851843 220.755478410655314 -64.329037893600287
-20.325604355971024 222.434739786655967 -65.748614356495040
-88.521157730892043 225.587837563193403 -66.907689890695650
-30.843381748782960 225.692550640642168 -64.440017443023621
-109.265741020567845 228.677508224387651 -65.767176892714531
-14.110681540494456 224.802599294667317 -66.160038376140946
89.211161981772051 222.793341231931862 -62.348890723350607
79.546804664046888 222.311463190645185 -66.662976888887698
8.737114199709175 226.315890151964823 -67.707531473006384
-97.471882344250460 228.140568796873850 -66.950039332682380
-12.148700579462494 230.995801008642673 -63.332518982507480
84.530178090392738 223.571505487626609 -65.961992169461951
78.268621889699673 226.865340743130162 -66.678965001433355
-124.878722237321071 230.728102575007341 -62.504423614060798
-24.404767816209816 224.859311590366218 -64.054922154109860
16.668201416934924 228.515993842626955 -63.946129884457278
87.327317265569860 226.128791338062513 -62.358098866050881
-137.899982579986556 231.808035639673562 -64.321775142554813
-98.042557443152390 229.847190247510071 -65.825176763930443
-108.056683203097663 229.804980285421436 -66.516082455425845
4.727708649518271 231.631640174969192 -65.278791149554337
-167.497501003214296 232.033978177031400 -66.147851827157879
-133.863046170340482 236.643000068884646 -68.745188371955578
-7.380572661816165 232.175320629587532 -66.273721216483466
80.766785250497918 226.091365656200225 -65.620000978243439
-122.186755673886722 235.132346676922538 -65.629133564568718
13.696456719824459 237.705283046296472 -64.870892253940625
14.057846033938763 233.124651097897100 -67.313711327731454
8.191362536824705 232.436161772445359 -66.886718071044257
-115.840772621106780 234.222371474380566 -63.707765621758568
5.130605046181515 231.860090800020714 -63.960539637536158
-109.744271453678365 234.610344265665560 -66.101059348980982
-15.120823117701272 231.525892420794236 -64.256462783475243
75.795963408048863 230.630020449725038 -64.738171050076957
-9.623521998746183 233.364418902609970 -64.134911989100701
-14.406832700010279 236.557371348641169 -68.482036550240480
-5.942699047306066 234.846127041492878 -65.884377006925291
7.813578041525621 231.220840396095809 -58.920072545708180
80.458950837000828 230.468350480695875 -65.497936684941536
13.585761754764061 235.807298070723249 -66.049786068857387
-121.807881271863877 236.965088141228563 -63.558556860171237
-114.681818971567523 238.912624381978219 -62.781053840385695
77.208609702741157 234.334738173525352 -63.781859355706771
7.899779504279902 238.204966145946429 -65.501330944076727
4.744883394311858 234.617517820266727 -64.221612815238458
79.398245536430878 238.663550566496184 -65.384197416646302
-140.091487340134307 238.898830028773972 -61.853386503013709
-14.456538355683950 237.322539668285515 -61.744176654332477
-4.683491594678978 237.865329532024873 -64.168600764814585
15.141928433495082 237.866546697147470 -61.721651506919912
-4.444271446309589 237.906732031274714 -62.734512461732166
19.136668482189691 237.327365186009018 -63.349085313239399
-9.562949583855566 239.439098843681137 -67.681417121434251
69.201032116851536 245.486371317717328 -66.844851383478357
-17.756260667024048 242.339200060041065 -65.500034921962651
-13.715195265174458 245.252579617744942 -62.548710699287028
-1.088208416838440 240.678210116820651 -63.275289229482567
69.273730498943962 241.727205919891077 -64.182584811421862
-7.003427547510280 244.739449522510000 -61.180745668381860
-17.743772037522003 241.037101231086638 -66.285594166601825
18.692678088734556 244.757088879452141 -66.932516239644301
-10.284013793704711 246.067318220470895 -64.902483116530178
-4.136420716305281 243.247724351490632 -63.185681947189821
-166.629078317174020 246.736282714426608 -65.625266266663886
-17.489776172905561 244.094933813292386 -62.890903189229491
-0.314113491866391 246.057692762631376 -65.766088509704161
70.072655755393924 243.069700727207561 -66.205324104298867
65.194666992584345 242.163731724236641 -65.726435370374446
-11.201963741740004 246.141971247945150 -66.321839656528667
-8.968906886182781 244.589570253611669 -62.423057400659474
8.406511441166893 247.258986785186067 -65.286442181926262
15.451739842331074 251.021458024585684 -65.825703580487811
65.156371093683774 250.079640773753681 -63.330867869652579
-165.962250070458623 248.856360285630842 -64.987748144377406
-61.624430936192439 251.896194002364723 -63.471117457916080
-8.272719892791024 249.361231258193556 -63.003578826915501
16.471637039119244 254.776773985454980 -64.998480868297250
63.053527438795655 251.190879874643656 -66.459719222147157
-65.109864115700915 252.655893056118572 -67.454057365587460
-146.224827993739638 248.069707917058849 -64.148284486189226
-70.797105923767319 249.683216297379147 -65.383343018470669
-66.813933501197624 254.901184806859845 -63.834674336546740
-66.405884528316250 251.715347487792798 -64.786831478985931
51.795457071446755 255.117074970363205 -64.006056384614567
-80.257589330565779 249.053274950935105 -62.999486619417993
18.058960201468459 257.786084549328280 -65.359971574449347
18.938652033494964 252.417561282593425 -65.296396645609377
-63.238955940507182 253.960519832964081 -64.928958846764473
41.174553818989132 252.868611034081937 -62.658170479033288
-90.959409561486822 257.672761916500519 -66.162949205158156
-67.015692079370851 254.427449870701452 -62.975233086123112
46.432567539188518 259.846617369733394 -66.804268797265763
-17.218263356590146 253.989882259760094 -64.104521552235681
-146.507240976248937 260.861788047393929 -65.041815796962737
48.174185228148581 255.895342442647291 -66.991189433158937
-75.646633552820703 257.791018691466434 -69.316066419486631
-102.962457936681929 260.259622665399320 -63.822514048596304
-138.689799929796749 262.851554458096757 -62.249551584053748
-99.560602643255947 257.848439015734584 -63.273647888574331
-118.443746572688269 258.259372004150009 -64.770420681197422
-117.403758267119343 262.664217896932428 -65.864945710640384
-104.798622400250466 262.753178778866982 -63.838245699502963
-110.223827280745937 262.310374959434967 -63.182789060427424
-106.497763002616679 262.475992599556946 -68.042770874334153
-143.020978510391814 268.284552813185087 -65.172102279664401
-137.882207519886180 266.487603635384744 -68.223822600074485
-118.720113853003426 268.004677619242955 -64.347474639494465
-134.774276107763797 269.024824762639696 -62.197558426393130
25.339850887141214 266.583300025273218 -64.543714373611465
-136.658320844946786 269.310341236862598 -64.084401661834121
-131.622275121525007 270.995335222089295 -63.122688822287756
-14.556125704869489 276.335540142643936 -69.986243648295314
-14.112265182136962 281.968603218649889 -61.931026544209971
-165.390677882451797 281.892430252038650 -68.841939916237209
-146.453020004306865 288.645064762794050 -63.583883474659643
-133.104635300098238 285.977988378346254 -65.366255851392339
-11.824484943496252 293.732372006475202 -65.327582137406353
-166.032687069165348 286.154546811415514 -61.487953884738886
-123.572007372004862 288.529277678215294 -66.489575110902948
-97.990455701740814 293.128775781546892 -64.884055279414270
-85.286421803140172 287.990016734934954 -64.557404509242247
-69.962679203465584 291.171469057244167 -65.965908620018510
-61.162908330698464 291.843546664817552 -67.896756316244321
-106.238879101258348 292.635398387720443 -63.513132998455731
-48.081769269339311 293.986618588222143 -65.449725699020547
-39.548039668041845 293.023270251422218 -64.325289351243399
-16.050095682182800 293.147525242565393 -67.823672537617284
-154.507570453082394 290.473495785614830 -64.608316594055111
-41.919166631404721 291.234974996004212 -64.498531317849498
-39.572643331220384 291.129231925387728 -64.205815212021562
-24.582078960864074 290.298317467356412 -63.772922569987927
-29.098994831769136 297.102173081038643 -63.155221425839926
-28.480744913434638 296.951182506986868 -61.570323708839112
-14.345001461269440 292.716669838932319 -64.269820036405306
-46.241920418889514 292.523138016502173 -63.804757002291169
-42.111426110179202 295.092393400271988 -66.158710823011688
-21.991184507457234 295.208839223271127 -63.665769665249215
-11.802962896634641 294.960043944779102 -64.589141642658163
-5.974182003070557 293.559542865262699 -64.618207337807490
-57.316898800636885 293.045216590424161 -64.006393454103758
-16.761594656130050 296.230179877778028 -64.637571250772112
-68.779534771270178 295.050602725935505 -64.061936067316324
-55.361830204324882 296.040256069776035 -65.573748443595733
-53.232516962914232 299.954369146338706 -60.021762297188005
-12.135171068386946 298.779513872916027 -62.205855245501212
-14.022018911571040 297.609434918414024 -65.199964934001116
-7.020954326393474 297.247668327746965 -61.765994523894705
-6.567729414420167 295.670287357350958 -62.977516834321520
3.999824923999036 294.905113051780290 -63.170598551340419
-109.866567123001261 298.519379733390679 -63.527919501513878
-95.568915020037792 300.212793968840515 -63.317918810122109
-91.030087230782669 292.141511774203366 -64.431985139210781
-161.361328905577977 301.069647824503136 -62.984608951900469
-141.915769716659952 295.382592758732812 -70.839531149702211
-116.012422141201853 299.663590683398752 -65.347951702590393
-139.681532386875546 301.313507380005774 -63.375509536609613
-143.448890636979201 303.229159079632439 -67.303327995204427
-152.247308590388002 301.598513336553765 -66.146318119562451
-155.329544337257090 305.334836236962360 -64.831576492814662
-145.259249094953930 305.232281903957755 -64.632933294954327
-156.670273901900771 309.108027332650920 -65.024708389030920
-141.696624368485317 308.344099634595750 -59.579287590593935
31.854116386471102 23.354481891783934 -63.280495903281064
41.990201773715206 25.977498158185973 -61.720323854832671
48.778331242221938 24.089268728637677 -64.707770017111486
43.104934403364474 28.243611068688100 -66.095437202381319
17.268154150314530 24.940458561614861 -63.793526047017835
45.765016183345729 34.812452765622282 -63.146661416540553
47.211895605747209 28.336124355912080 -61.832390905805454
21.249865978391949 34.646327423054004 -59.646544644491527
50.663455521130615 36.864081616639623 -64.621665701573832
29.971435345318771 39.777273364347352 -65.034912101048420
41.920441561958690 38.491477957919948 -65.022380159686094
49.764416283820417 42.167650165346338 -62.117723320724267
