# This PCD file was generated using the MATLAB® pcwrite function
# from Computer Vision Toolbox®.
# .PCD v.7 - Point Cloud Data file format
VERSION .7
FIELDS x y z
SIZE 8 8 8
TYPE F F F
COUNT 1 1 1
WIDTH 800
HEIGHT 1
VIEWPOINT 0 0 0 1 0 0 0
POINTS 800
DATA ascii
-15.496319833433830 230.616813079341199 -66.759088864167936
-158.408620531182009 231.619817100505372 -63.116147828424403
-103.977146300352786 228.671300261278503 -63.321433403219970
-2.175800605674640 231.126272679965922 -63.407292469445906
-100.854444978935305 226.898857002717307 -61.234232623075059
-12.361102010222231 229.170346911963520 -64.846160896454350
7.982188881882677 226.134100197474368 -65.617472860249478
-164.169282446251884 228.157791843847690 -65.811820346692457
-15.435480722992343 232.559978055601476 -64.631351465644414
-158.647793495272822 231.252292017352659 -64.827685639371623
82.113831753443009 227.946451024852223 -69.222917820662047
7.210211495776591 231.131448107646577 -67.747831310453748
16.251601485137797 231.476389291185086 -62.125055512129947
-152.598712906938033 232.972460800793158 -63.607079253766003
-143.345270909962863 232.345860745524817 -67.774634355303832
-126.707171963582283 228.169815803596919 -65.830541403288308
-102.055725927179353 231.978408317494655 -65.216059284987622
-17.254979555652369 236.023761831835344 -58.221299678333409
-104.511398962692994 234.975608966777401 -68.339670712501999
-162.976243663278211 232.796959691374894 -60.916265906973692
-136.094506221974427 232.377235851366208 -62.233746682562057
-110.649841101928502 233.860253063262121 -70.553734873444469
-106.101079805750203 230.872233993556478 -56.360994985866654
-11.009233712215508 226.586761413717852 -65.256640455346968
7.698947819179132 229.693610861670521 -68.490395017046282
80.436451454264855 225.841687354060156 -69.223386541306951
-161.839083221209421 232.497799630611183 -62.277233824011745
-157.352110969591507 232.973041085820000 -67.937570100855510
-148.197558383288737 233.439645976435799 -67.264489843911505
-120.192833403386686 235.496830362599042 -67.097037656731416
80.865942695345225 229.696886706573935 -61.698016311974797
-113.419440488978481 234.488160268504714 -67.164265633390144
-149.602235724613990 237.781776881778086 -61.832715657069741
-147.518992348547187 232.118641794189159 -63.437251857220403
-149.541053436252838 238.932971734317420 -65.813117231902467
-125.440712479491793 235.979187132290491 -62.761192708502890
-6.278622918146811 234.234337441004584 -63.101990812734684
-163.960202089811418 234.742686653891269 -66.561772827389007
-120.095969106369779 238.778607557767231 -65.808088224304598
-12.186545350209206 232.627765761315260 -60.733222068187430
-164.190672770110837 235.567038611763167 -63.534349338482428
-140.962815914720210 240.486768434841821 -64.655598979639521
-138.259156144020153 234.461999214666974 -59.089883940520124
-153.096144463433404 241.759799843048370 -61.663805610443873
-130.579386397041418 236.508045993866290 -66.174639996302744
-130.002124769282943 241.111683003930807 -66.292523073547201
-152.794744646622604 240.532426672708937 -62.440970919869159
-147.663042959730944 236.713486846679274 -62.700614857286737
-157.298502057677183 238.976555487342722 -67.107790850319063
71.234831919102675 240.004687894427434 -65.955146521310596
73.267876470742607 243.438108158629689 -62.381746928226775
-156.125186714253374 236.455554640195203 -65.503328022480190
-157.775196030301259 242.211186400227490 -65.328721655608746
71.308426732170972 243.122537192453649 -65.560373102394252
-16.733304696217594 242.487998798252306 -69.445647697680755
-8.239879890152656 239.205181555109249 -67.195268939061549
6.015733008367443 241.272561535996260 -68.082460527111920
3.453490037507126 242.669571341624476 -60.468412890484203
-168.368775074652802 236.830342243968630 -66.794542348979434
-148.612314301376983 250.302305414874752 -67.387286584495442
13.840190985156708 243.920736145821479 -62.129171423915736
62.363251171798851 241.943197504036050 -66.967264510748180
14.621684148179474 240.483693622515347 -71.572552905135936
16.552316180377403 241.089559549201397 -65.613498695897832
8.786808000909941 241.071892559401988 -64.718029297191052
61.319476634638626 249.352133333665648 -68.889813574526983
-4.152730461794251 247.189115031373177 -67.734856124151250
-23.241406426474008 249.050562045831583 -63.107838383074977
-20.449717443845824 242.120872481213354 -61.935461174513733
-19.414068096489949 245.096322119047528 -73.138747777939599
-1.856041359645367 246.816856712212427 -66.848163687137728
1.489899662969953 250.861972845623058 -67.342744606474284
0.731228809438052 250.312798770646424 -62.006481918169953
50.373979567843612 250.816224895762446 -65.250719719509874
19.944757081416807 250.182610446031788 -63.261240856760892
-56.160757955343477 251.941237582334281 -68.715402234682585
18.852976345347031 249.613378853867630 -62.909378529937200
60.180003829422503 245.167123810653891 -69.855917710361780
-57.524575588898706 252.683928636728865 -68.066540229155279
21.899533571591824 250.976831804735639 -60.444834094322289
-78.647586271911919 255.924143022433526 -65.312830130143993
-58.220511217671827 250.100860072960188 -59.269381810317299
45.693537088224979 254.972412064823203 -66.122307649678930
-10.174749707830273 252.316793408172430 -64.611410999109950
-59.829833851021576 250.115085834899816 -67.717289906568652
-54.685462859654336 253.210448903205673 -64.910952958115956
-69.952605195676341 261.980486669320214 -66.234402813874922
-9.774353954070975 253.966633892974528 -61.588008026418066
-19.902331085400085 254.583448312196879 -65.627390292981147
-83.519206870458333 254.669868310258067 -65.473539185699863
-87.269758884588384 260.577826364566022 -70.373013930104406
-72.422183322513732 254.971668600289661 -61.474242889213286
-11.214098122374244 259.492080433015303 -66.653625702996010
-147.307116630875470 257.885679822921247 -60.138565171371738
-88.180728154452623 255.269926313062200 -65.088820303682041
-125.874063375892007 260.271582548698973 -68.057143239049068
-96.497534326219210 258.829614424810757 -58.961946773689078
-11.484428785204910 261.938456324527863 -68.428087528496107
20.965108446372266 265.760358004354714 -63.456596423405173
-118.555225749113376 262.463767937485784 -67.474733309647789
-97.662841582127740 266.036793046567652 -67.446045711879890
-111.182264070674378 263.035625446232473 -66.736812278705784
-105.629049445122433 261.406723124254256 -64.408691786135321
-101.022180591547340 271.463293794451374 -66.817330431316691
-103.030976447189673 271.153838720498413 -68.874419580016564
-113.086850282320640 267.905863399478449 -61.115872430311001
-129.712922547651573 266.414853143006951 -64.100099944118114
-167.708669365112058 266.084159384929194 -70.872336281910989
-144.216709262656764 268.036376677632063 -63.904221887933318
-146.731116338180499 275.229543344821195 -63.949304791861607
-15.727529933064773 281.186917587892424 -62.547473541377670
-169.102055104999948 273.123309106741146 -64.143274259494802
-148.603881845737135 283.153759440668921 -68.140639078588748
20.236292023843223 281.650161460855202 -66.143466912153372
-126.000232879971179 293.765200199965989 -63.486026548773467
-139.198811134715243 292.400553202506501 -63.186391496059045
-56.246678688481097 285.184661709047930 -68.243482211470720
-87.241382452345150 291.471663105151492 -68.828724315037960
-64.177186424555600 295.483188554910441 -65.189368275852644
-44.077771314063767 287.816899179077268 -67.299484341685215
-117.263109077007471 286.623947840352685 -62.180931378036675
-34.549554624733894 296.904902591143639 -67.334637481453669
-101.346244055930271 295.360159238592871 -65.660462720611761
-33.425549347303182 296.515450030346699 -62.897455059210628
-25.491782724292673 291.964844667366435 -66.768315504911172
-4.449433587317634 291.903165124368911 -65.429318365232902
-161.681070429387717 291.694999831609493 -67.175022587917695
-15.605101603854107 292.157181024035594 -66.008741664371115
7.633150166776964 291.857043458211024 -67.688839823642112
-26.684200658364539 288.448171728425450 -64.035334605352972
5.913621338550934 295.923634754323359 -72.318324177143268
-60.961522011934029 298.781965469999079 -60.377222731430308
-32.678531414478151 294.483892977802100 -63.289962061104234
-31.950831764362366 295.055171764388604 -67.897107306269632
5.825486170877264 289.244939638046333 -63.134807550787713
-75.206509240916972 295.727406641846869 -58.454324697761194
-61.079486501977300 291.756310002095063 -68.477275083987408
-31.647162158704703 298.294410089194855 -68.049836810848504
-17.189828272786677 299.722926241542211 -66.577743270874151
-84.871038047660434 297.220821286497369 -66.265713156622823
-15.896787392745587 297.092181461565815 -66.233795369297567
-14.380858653611124 294.950724387085813 -64.186941567208265
-93.640053610255293 301.404924913823663 -71.367113690605592
18.388615997616245 295.207690386571528 -61.089538576104189
-10.206889323366777 299.127848724282046 -66.794622656282982
1.330631398025578 296.401149664643299 -68.038081130180402
15.251100448436176 296.136548058506605 -63.007679849787920
18.269681331580170 297.848024626848371 -65.135569694418052
-129.700184814973824 297.161090922200628 -64.552771695402512
-143.848789905302709 305.005463690117097 -64.940288655116916
-160.764984595207892 316.567021470009877 -65.530059028550156
-151.422951371375945 316.562185208965332 -62.186991715257506
-146.684457339842510 311.965747591175329 -67.617562732025831
25.722434242823347 21.348563564547010 -68.421171875030012
33.359264571451646 15.619503316099230 -66.302728234339369
39.449030500615926 21.222507448667773 -63.813288989107960
28.498182972653396 14.467061084123255 -67.257288689155175
37.592293357546275 22.818012003160632 -57.438528994498213
27.109497377212353 19.543455374113350 -66.068945021856223
38.314482183637473 24.077240450159731 -60.895657895203087
43.543130031533302 23.350433800390260 -62.574366575944609
47.053241612392014 25.366400723676279 -60.094447478869014
15.319018531845298 24.785563593689879 -64.717491573354138
47.414057099417128 27.587614801612631 -65.743058717895110
51.455790074561122 28.884732685593011 -61.109775707162086
22.577431779387247 30.465683908061674 -64.729202278920027
50.189901079448347 32.817684771886192 -63.228282624816345
18.852957020094227 27.127865515606743 -61.849605347812499
18.285222128966250 37.030961153534086 -59.057749595611455
22.750732694535497 36.610190640156247 -67.667747955672155
42.672496730160198 31.348680179102658 -65.977027063843110
45.137922922746348 36.297282026280115 -66.818560533259770
33.617086363399416 39.245039333603764 -61.713898435907979
43.146303821993442 40.068348050713411 -60.640413896562649
42.317305183768212 37.795383613194602 -65.872527064271594
44.086566563163892 41.239881226726432 -62.963299849711802
34.556943109588815 41.044750714874077 -62.839110243315176
36.295580541245961 41.739144168256750 -67.619294204109224
31.517402558271350 45.303084635442673 -71.005374450094351
43.638461975236361 46.606187698938726 -60.647305472147153
33.235778021382224 45.939767763218150 -66.681162591400181
-68.904668491049335 52.027549295318558 -65.778224272634617
-48.582040353163492 55.347588839605422 -65.679763996727914
-38.237592059936581 58.133832677658113 -60.795229591263748
-37.821484495530427 58.743998326385501 -64.289327015783030
-32.141268076628059 60.590726541569467 -69.049204407575345
-85.061727548172271 61.547373556474106 -59.275053888376803
-86.580061377343853 67.980773255745888 -65.961962811298321
79.696334825211281 75.234854213135833 -66.251955775550272
81.279164131743087 78.469038752712237 -65.052467485943893
72.892465217534721 76.580707452139990 -67.105139530879228
-18.222728621372585 76.852146803167116 -64.180751227971882
-86.612015799904356 76.264222122978637 -69.874382339915229
-23.518128827648979 85.613172936955522 -59.097671348902310
67.166605730897345 88.367737063609937 -63.102846038211453
-49.655191702882142 90.087607496132620 -66.504167550369672
67.806637092275082 93.515266477634853 -58.927439407038023
48.439272141839275 93.065157763217172 -63.606857872697361
55.395094253783896 100.619585408624431 -65.608977952974854
96.619013231520057 102.086534192647250 -71.832434462984736
47.773506655074627 95.429243577488933 -63.395349876811991
60.883899021307052 95.682666859608332 -59.880052306780684
-59.044217951125709 103.466698420575497 -63.695754694610841
-64.346682739843388 97.237185669343290 -61.890349095802534
50.441544386267800 107.386522177418513 -67.780867738084410
72.651854081673392 100.157456420190414 -62.043105681851969
-69.356793028428626 101.098056967771583 -70.356384546686911
111.289586116516745 105.008214017585530 -64.747812961404065
-62.974598153863134 100.243189347934944 -59.566306353273845
96.720398128085975 105.481290551095086 -63.525967355501322
47.771624340165353 101.486919749264118 -66.229353927119661
113.172095268264897 105.832294727066127 -65.164061907941317
-71.500314142876931 107.460609080268654 -63.617219580487642
80.492936923727981 106.798796049856918 -65.381562652904478
55.634869100602941 107.851539678503912 -66.936014799282006
98.539772855175826 103.973963599353809 -59.515605024296278
102.087596586457934 102.440732438193763 -59.504240480896726
103.586924733516355 104.779198708507508 -64.549885070052810
39.269925523400303 104.074369736834200 -63.718012681702305
-96.176451282752055 110.003022646197934 -64.931009252324003
106.980673392418296 113.418460229345001 -60.642036534510964
38.937916231451823 114.887851677721045 -64.449672732810669
110.087838750681740 114.541532397754082 -67.971075386163562
50.729493099382381 112.083592607298414 -54.675348400146106
104.922825287651193 109.955767539130548 -63.084125017062931
-89.142079716417840 119.853777977476511 -63.325698761747645
44.652298200992966 116.061315698359550 -62.659370027886567
40.706699057367835 110.021689765497683 -62.509139259871887
45.760906137796162 116.471728461840556 -59.836448249015689
108.273518147478072 116.202831317517806 -58.719195822037392
107.732442230263189 113.851197728568778 -64.204106319648872
108.600800934792346 116.385340223099533 -66.179725517039770
103.891329229828244 121.878364288376460 -64.125123645752325
111.410276068344274 123.460407504843616 -66.181889204173260
112.327202788882332 124.778008498158101 -66.864457084846876
40.682741213181757 115.386777674384589 -63.076030802838858
29.919203275111560 120.541235470094804 -62.654818913392589
46.221909454993124 118.920418486918365 -61.181449245373841
110.553286347602835 127.147505485741931 -67.776500674228856
39.075707754243275 124.189140428982952 -58.726422322924407
41.372350176058049 129.977237833325034 -62.649061670634822
109.747595384152319 131.364905173821796 -62.436336604656347
112.983124446485462 129.638893378755711 -67.207916685283593
33.627107942569481 128.039544341367758 -65.829694076348119
113.846839325423872 129.990107798372605 -61.103220545098750
-73.944979078585533 135.812884271059090 -65.992806884066269
-74.017392178191997 140.827756483093054 -65.937999806190689
113.561756026930965 132.129625075100591 -64.399713036025204
113.638549489020235 133.900419529585520 -62.701014015137829
117.496530762872553 136.994684140632813 -61.543649827982634
40.118867287874181 130.292190237579405 -59.239488047979734
114.292408749724146 137.305874484831236 -59.780859148845437
-57.548140166384051 144.814078548393326 -65.756856763685036
36.311621204822117 139.247393953909551 -65.536014564928450
-73.723954957605201 139.571807986402177 -61.769426956468777
-54.537835629805841 144.008009148249812 -71.387491608568524
-48.300881307410414 145.224635627565732 -64.095699067270147
30.970419907241499 137.108612617422580 -62.715660439469104
34.853411436354946 142.408368023300937 -63.888443283108842
-74.402344565843947 148.596400651994458 -61.730188567330572
-43.425093818269850 138.659172812757021 -65.710386934201253
109.253905430051134 143.161389245172870 -63.629001152883191
-71.839734129054207 144.111139444088138 -68.259073364954645
114.086687378129639 151.775196138659055 -61.465179963957510
-72.295779031750016 150.461671047550084 -60.286156954126497
112.360130264712552 144.126195115425872 -65.557802885737274
114.852112194109154 148.996052514805427 -63.963723642989791
25.209193950285623 151.820334925478903 -66.625763755415917
-48.319397619313911 147.806074544745883 -66.183728688228825
27.365888815986949 147.427723642541082 -70.811311655486023
-68.091254338449829 148.418242948295955 -62.929550297833956
21.946533548229390 149.145141295688916 -62.319349562127627
-71.105407517394710 158.673203172127501 -64.801358308420248
25.928418532413712 153.272701571966081 -62.771592390900054
15.220978779756802 154.600760947418792 -62.987384290648706
-51.409952543360582 157.071854355589835 -66.646363063332529
11.655475798565909 157.244052904008953 -58.430932736769549
-53.834542442388781 158.729179158796597 -63.367722314974088
-57.446267776058065 154.197164003507027 -65.760118449874625
112.087513874255549 152.901833395497533 -62.289021812763579
-0.065684140112303 157.631133414893213 -64.190202477508009
26.074726140372249 155.646092355650069 -61.330133548592556
110.201236937428959 159.573794192335413 -67.034145328120886
-38.355919123467352 163.555473348888455 -63.723489701556232
-73.756228428557961 159.876315734643697 -69.260301297799671
-48.174513175364922 158.381636739596132 -66.347166082988764
-50.815233006296673 159.914594009696827 -64.782921023213831
7.456153635944408 160.360460106381225 -67.967316181915280
21.757301707907661 151.870783717786054 -64.143821041698885
-58.735950321983985 163.704073990609061 -64.308606107714837
120.315219918851710 156.794621055555922 -64.840740598419004
34.906286607270786 168.339129026570276 -60.405793968686226
9.671647652488543 168.095995742508279 -60.422690967680509
15.048825513028619 161.711430149099755 -61.597484102830038
31.251828961329672 159.542615450551295 -60.154288285400213
-33.545670727054549 164.774134895924789 -63.831984541404623
4.573272164906556 162.624129617978724 -59.213145008907873
-45.074206641003762 170.125219349794833 -67.479048022280736
30.711837285241415 168.416591597226756 -64.589858185932684
-66.742939985912869 169.518813090309067 -58.636081174347296
-60.717733549382515 164.670367047714791 -67.749827108680904
28.308265656605403 172.704237639038666 -65.672593748972460
-68.785685391462536 168.420948176690985 -67.480992418463714
110.955861568139724 163.728864832076056 -64.623588862144487
-42.406766889635520 170.855140748101689 -61.936213854841412
21.129539398641356 172.816676242432038 -66.469807730458754
-66.289217547719886 174.309549501433651 -59.756798200122432
102.959023816816455 170.647370890306377 -61.708986748795141
-60.850543153626667 172.395320330042381 -61.595238266657134
-39.637851358601125 165.716006032092110 -53.459946621106468
114.324940688855847 171.435502079317871 -70.635274924756914
-35.674575084722584 171.148910368435082 -68.761807036903150
-35.500853889186345 174.307125846135193 -67.179101295472037
-33.703276678999110 179.565340296897887 -67.985722557463021
-28.745497968628193 170.048814306176837 -62.990496299492861
106.411628934127464 183.545694098021642 -64.747850750357955
114.623476877737588 177.078044147515072 -66.220893961629841
-30.105387763752546 181.594839616194974 -67.012474544740996
-36.522778469120162 175.551860939005138 -65.124043324131904
19.822837449734244 176.293309397925924 -65.047737359838493
120.324012829422543 177.518666182992234 -63.591489456210979
-147.217419130153473 181.898129097368809 -64.914599520031430
14.205266202251458 178.911078677981436 -64.178167431726735
33.165942299704923 174.368643015465977 -63.811972968711103
16.887869819743809 180.017210622325422 -64.209133998655730
-150.060866544190901 176.548278889815833 -62.222717005887404
105.148947464717310 183.964208116559973 -64.506472932545591
-23.559971095729775 181.389814095953938 -63.508031805881785
-151.300157895542924 181.999821737540657 -64.233247099208342
-144.963038479002904 187.296976829644024 -58.901461578941479
18.597643457861956 185.021020794807924 -62.179437562041613
-146.474261410071477 185.505590823314776 -65.142536315372880
-34.472785908455279 183.549181896486232 -61.637867320451150
-17.147722600339396 186.880893776819647 -64.718084698943073
-33.491466364393524 194.675038848311772 -67.628736681101373
-23.412383182758226 186.256043019975579 -65.930903234727325
14.171871810776521 182.881798601517062 -65.130828792389309
22.538385584929728 184.516083584091774 -61.807023367733080
-140.599951182772656 190.577699541526584 -62.068441570038289
-145.908407771606647 195.860881780917225 -62.207608484371022
-19.446501872072336 194.977672843081251 -62.732294743280420
27.221423405527666 190.749327406652270 -65.198391293021359
-36.418666190727201 192.236884880252830 -62.433240099435153
12.205706103973935 191.277319980143403 -63.396388569289684
-150.024373307150142 198.338556809273229 -63.409990749090738
-28.494626686380265 191.205742232820967 -71.455343157056021
-21.097428841040436 195.890939649020225 -65.635480258095583
14.273178182799121 191.651918130817421 -65.104198426016666
103.070340628994188 194.021253046037515 -63.935168577166834
12.917499179404041 197.280057527805582 -65.899527846614419
109.895865390905655 190.094481476548111 -64.689550081401165
23.462189423271180 202.531763267388470 -69.895876217953642
-13.772876352989663 201.536046960429161 -66.162929515501204
-27.907389440518372 199.917733639847540 -67.510709800179981
-151.290009380816599 202.950315302981664 -66.501971154231256
-129.132077664766456 196.572521204595233 -66.852936003459703
-123.891950444810064 199.039206496049871 -65.092596237079334
-18.678133985144093 200.281442219079167 -63.327447965467400
-159.177120880363617 200.656384950422677 -63.547061498653932
-119.808687780636234 201.355732020854163 -67.304981249704142
-23.395485828523363 205.494160553492719 -62.341413892750396
11.730475970665246 194.302535986387340 -64.568097957117388
96.752078830023166 203.933082233664265 -65.229783603038939
-150.387113336009946 202.449175870420419 -64.697039874577385
-15.483824763137434 205.147624834550612 -67.120595996197267
-157.307801898357582 205.998524098199482 -63.877044412276646
-146.854016426963710 198.391641233533733 -63.281857011944965
-17.660345118050788 205.210078441103263 -61.713695285128452
-148.311867255750116 202.246176436408689 -67.701997874819170
-123.292566895667449 203.175355733419195 -66.478958360723936
-112.626402152075997 202.554777937396921 -67.714525268948719
-157.789670188734220 207.706162033275518 -63.718520215175133
-25.073136432400020 206.199845882285473 -63.607787065777970
-152.253187919791998 205.693984119669267 -64.843952586028990
-149.258056063827297 202.981135365939991 -61.672129754732651
-122.706917765914241 210.243634490177016 -61.300328487569274
-120.205074879118897 206.351727634180520 -72.781025113756058
-16.292524176051181 200.785962140329985 -69.573331385162390
-148.375481159385288 204.646763212609670 -59.986280365497834
-25.111486982416533 208.209721022441471 -62.517239187504714
-10.163165225498169 205.669722169164345 -65.717687863322325
-160.376045380520424 202.052352890453335 -62.883163968997820
-137.641954669607173 204.315968944757770 -61.787835616690103
-139.449135248076971 206.814785059622210 -62.864877231372475
19.339577617254282 207.022161444790953 -66.161332847559720
-121.599462920595656 205.663604747253089 -66.361682146514212
-154.219965470580348 209.786008653109178 -63.980107869990547
-163.394758766420779 212.245288465480456 -63.306267656127460
-148.528206316001842 212.063513278676567 -65.740491881228877
-139.624223033288871 207.663989419329425 -66.029657452164571
11.852707346905092 206.856351839028719 -64.528987953023957
-150.228041652484990 212.129227227875731 -68.071669547544744
-14.267761162803515 209.186945006944285 -61.562776497486198
97.878268511766805 212.532837246943302 -61.200717751064758
99.942915294797103 208.756974667583876 -66.397637379496572
-154.837537171903023 221.391074526088914 -62.559683808071469
-14.836565562481002 215.907308647323248 -64.831827589434653
-161.972380735203785 210.488343956713720 -65.819423652099459
2.096501252624043 213.889061061837168 -64.376525239225444
-74.656067392405305 216.540596000614812 -67.899025273057063
16.430136833349184 214.472177605195498 -62.561691642596145
-79.009448316440029 214.114809990374795 -62.817912567782741
87.173016337769099 217.386349109209874 -67.472038138347997
-76.004696139907992 215.229631608588790 -61.237527231123451
8.184480078822054 218.559203211569780 -63.831037351191270
-9.947132182634370 222.531894430956754 -63.819784123326372
-146.175313789234593 223.401442303780584 -63.740383371188813
-94.318956907964505 221.237957178779226 -68.062427375337379
-82.734645369999200 215.042171356357358 -67.417232297099758
-12.211424694272072 218.759751518599387 -64.598862664408330
15.502227972417234 221.677181505066301 -64.397303347453203
-145.277909690801209 217.820200589319256 -64.489127873044183
-15.637509389644512 227.155457195152138 -62.381204234175613
-96.206604782648114 227.471530000850919 -63.114847760893397
0.410399971748560 224.452975133491464 -66.496999782523972
-22.367258692213735 221.470743257804514 -59.893424863887446
-16.432064637408303 226.593863437321659 -61.905193311421712
88.407344286303740 222.059603673198581 -65.941898703168405
-19.888173291440019 222.236124189542807 -60.803020432588482
-90.502184079513924 229.220805558647726 -67.774867362621762
-25.295516066941495 222.010155989025321 -63.659985807346914
-102.670427523434498 226.483585963208952 -64.850554502347890
-15.572765060448756 224.241443871280410 -57.117601004482751
96.426758762697105 227.034724066202358 -65.263687980238032
71.723516814655028 221.530180531173158 -65.565149049693630
3.890198393221202 226.165871080346875 -73.065676616212841
-98.131126676881692 221.289330751094809 -61.895720220412400
-7.371446390265204 232.634462903106112 -68.861032884150035
87.365665865098649 222.742307603714522 -67.482026684055498
74.508653208893051 226.721449900943043 -67.560494019046416
-127.414627107093651 229.002653915079378 -65.160735261403374
-23.041360004820621 224.803359196863966 -65.448302244988710
16.587573895496941 230.588044127374559 -62.779357884014914
89.596111762804625 228.220311016243642 -62.350958064888957
-139.726655387599862 228.137920354314588 -64.178106964410816
-98.342364588526351 228.824354162423106 -68.014025797409104
-104.422389894010536 233.954618135360988 -62.098715991512719
1.484879814342036 231.682873407867021 -62.163798886715668
-163.360492851634291 231.377048171047164 -67.882808450882180
-135.216564260778568 234.741400014092051 -69.246036305130701
-5.911354442235229 234.049632897037185 -63.927226696946988
84.642262907509320 230.668548072035861 -65.741416221822092
-127.720155393490089 230.659539216505948 -58.749976512826436
13.195641236072296 238.739416340030886 -65.475742639534090
11.098078092492388 234.764460068255346 -61.905754445872887
8.288877529679084 230.696296718251830 -61.497108697347045
-117.289474244883564 231.698310286255719 -61.063155520076052
5.600274765607605 234.285640499292811 -67.794073871504281
-110.962397042097479 231.404874772973244 -64.040782850167687
-15.054973637401460 226.991270869713276 -66.901877597263692
78.051993073478457 229.461145310022602 -59.714458390538525
-10.922640495009436 236.377500418705267 -60.272453072797930
-11.474689262985159 231.012677801431352 -62.892085675052542
-4.096304452931884 234.303144373391802 -61.125396075356903
13.387933757353526 235.244271034209248 -67.524713895940408
79.289643775337680 239.737151759219984 -63.161561450659505
13.459772064933409 240.989414954982834 -59.579883784024318
-124.979409438266273 236.103144960304235 -63.049072323751062
-121.952448412464193 238.308946455309410 -68.421762657177183
76.172819222995386 234.198015094123861 -66.422626627381575
8.125583877183860 238.831100585577616 -67.269145228932132
3.047131911650755 237.925283099900582 -65.531562757456598
80.277380159541892 237.961964863012668 -64.351406107761065
-139.979752948960140 237.420736027887386 -71.640175456075696
-8.929741359924527 234.096757934132825 -64.221113619445902
-3.801523171755231 234.562158171104386 -65.762266925591533
17.925547039165071 237.915522647408153 -70.279843447367909
-7.182212625847974 241.381736802048295 -69.266555502767048
15.530083033939819 235.538117636165254 -63.212014112996343
-14.994210609966167 242.881512036617835 -65.552053571823379
70.193303318292948 241.654097914334955 -64.122274464095796
-12.894769600499984 242.841550681153052 -61.771985288705551
-10.062481086432367 241.726049231384337 -61.844875261910559
-0.412804560843887 240.625514674255641 -65.551440627408653
73.123450919504847 245.819074342279947 -62.692014132283148
-7.865006819119491 247.109702075186163 -60.485932841132666
-21.705152125339051 238.207775188238372 -61.946879776151263
19.958887783526077 245.738685255434632 -67.226472316501344
-6.905286130423164 245.376495528077669 -59.276780778035160
3.150946856073209 239.291457638913329 -64.558785466152727
-168.719783806017858 240.657811032528741 -64.760989096856093
-17.677155298755256 243.732251195119574 -61.655575302895215
-5.893119689007285 240.073027981589433 -59.899665703017021
56.338098436246533 245.929892934623211 -67.947824188396197
63.151716875185734 247.520296850933079 -60.732141228233687
-16.029651631433495 249.514143590222716 -66.337853656879503
-7.578538038153625 248.148469676929778 -69.077458782766655
4.088762050471123 243.901630188835242 -59.641029022236708
14.146552227358404 254.631744174711912 -62.956383027349204
67.264534076269740 246.996848908985015 -71.077345462416417
-162.126906660679964 255.949935457949948 -68.190999295580156
-64.613004120666020 255.742996958589714 -61.862849539590428
-8.212648691637741 254.211795791412868 -60.483703852791066
16.966597916318310 250.244999907838348 -63.448853916866426
57.971025105141685 254.887799237775596 -62.581606514394267
-66.362505390415109 253.880724589918572 -62.744011196719072
-143.796458617719594 246.681226383886553 -64.072531701121250
-64.169261570937977 252.679187866124352 -66.383586658514560
-66.605164225660474 253.976896770695220 -65.717853135328511
-59.600258433046491 248.837579151097515 -64.612758295748321
45.909058281898027 254.742080851500447 -64.305641561791603
-76.567995408207580 258.440735225898948 -63.959362721881476
17.185734052382106 253.504084379437046 -64.502211278037919
15.004476027059720 249.630778320544948 -62.766360531117755
-59.517153302746927 253.496937762065215 -63.776718124763349
44.784949049240232 253.742233877506351 -67.985150527442869
-89.889525927052318 256.055323479212916 -66.601799618436743
-67.943069796723591 256.448658163593677 -62.636961590176298
44.895406045387993 257.737574414172968 -66.254421946848367
-19.895814055977354 257.894443073139541 -60.620578504215658
-148.027980866320320 261.968830797893702 -63.371683117155115
51.678366587249826 254.742696891447707 -61.204061087342168
-74.476897728551009 259.021907551620359 -67.321585687647925
-106.718407904408792 262.488427919452022 -65.615653352049179
-142.927352411927330 257.220685621909979 -72.291336718588838
-105.235165628085028 261.317574050624614 -64.764841918225940
-116.482448750785409 258.268443990640776 -63.703514302439686
-114.090474647167710 259.574275632818399 -65.071431950061040
-107.208889154670487 261.938665838456814 -64.056873979576935
-110.411562873634850 257.392921155355054 -64.376958757400232
-107.758538353386101 269.082785748736967 -66.704430210557135
-146.424953052170224 266.965474784487412 -64.685188907185804
-137.810872283094909 264.476256396984468 -69.709508559228368
-120.802773677336290 267.827477829753207 -69.148996263194874
-140.582150504880275 264.818910909777230 -60.797132759305782
22.294643218515564 266.435416744935480 -64.079691015710097
-134.907842717090801 268.019486375522490 -61.597095268638611
-133.561506054683065 271.855308522284247 -61.120943788982245
-16.826041726670375 274.179684712216783 -63.369474665800425
-7.293640458280506 283.543760127161647 -57.840198567981005
-166.697394085365545 288.883110381617541 -66.379072907771345
-143.409538144101560 289.589249111281276 -64.052682294093216
-130.304081632932451 286.131199739764725 -66.409249110459612
-2.565668941333362 296.530531982823447 -65.807071257270835
-171.602324901305423 287.855218548547043 -63.563829597812017
-127.841183345459555 289.374679181744341 -71.363937081662954
-97.549570418510569 292.198587147926560 -62.324957950063052
-90.305778020513571 293.295746198317374 -62.883368823082051
-70.241213103570743 291.303668131498796 -61.502238968505438
-58.586242827384538 293.173940279561066 -65.771007916489239
-104.848634109577318 291.482892283883928 -60.208142222591491
-56.694283885302674 288.905697147728688 -62.566286418992988
-45.787353725586314 284.529837940894254 -61.583595164317813
-17.629481433858572 292.317455892991518 -67.707578836906436
-159.150913063603667 292.209900419763983 -60.074097516099741
-41.384689981298472 290.505329038346702 -57.762221367880613
-40.576263628363854 290.590326956198908 -66.525821540924923
-28.357454226601956 293.678007732786511 -63.544366898664308
-32.527174737297315 291.366283730144744 -61.878035662026065
-24.442342168863846 299.985059567265978 -69.739255525665953
-15.571345379000523 294.901605015963071 -57.607314927620138
-40.580008369630569 289.673840165063666 -65.655387370073328
-38.490236720207562 291.830273381133338 -62.846873773109834
-23.268817551511457 297.869477704195333 -60.599989413355516
-9.994718672544227 291.497422034434408 -60.169508283543394
2.394864519114537 296.070694343708681 -66.237720281954978
-52.912807881205836 297.164615760973618 -63.943417131198032
-17.341332938134286 291.797131447649804 -64.249287309310418
-70.074468470923222 296.663988359793677 -64.500780301460225
-62.025316605580926 292.510613744553837 -62.742445241105926
-49.622776747270422 302.325580714162584 -67.787692526229350
-17.523135244052234 289.402838097711481 -62.112230931666033
-15.079748867520799 295.993587451185192 -62.066704406326423
-4.861665717083866 302.445758247282299 -65.544791811691098
-3.035806318292436 297.498452021800688 -61.945028474298127
5.966261681713196 293.253233864503159 -63.068390700833973
-111.277016942074354 298.977462459730759 -65.528365606894369
-98.592700775892965 298.214814378957783 -66.914863611025041
-87.854313525620228 291.617936096584060 -64.587699573608774
-162.207732516462670 293.164177248297676 -58.601154744139919
-142.139385503074237 299.926405634149603 -64.915382012995295
-116.720772636185728 296.313027008825770 -65.416555889531011
-127.067168387427444 298.061176966291100 -70.505862853459845
-145.355652929413793 300.609684951531563 -65.546186814573986
-157.970946845736421 303.691961988457706 -61.472868276700765
-156.946154112877224 301.960202918620382 -64.117009578894397
-148.215342304121975 305.188404002864218 -63.326899188738778
-153.167500133792458 308.838861821468470 -69.816708109676483
-141.220047261733413 303.763570597636146 -62.546317433377837
37.789548773535827 20.440375017122385 -63.033945637194719
35.822972672818118 22.032678041140251 -62.413503779259614
47.688568581462704 26.544996059482134 -69.139596910431479
43.690545276010162 28.606724552249123 -65.964335775674485
20.656116160400636 26.924798864447926 -62.917644957467630
54.584922765493836 27.682863533698871 -65.993146868088573
43.993591595586011 35.924543503860349 -59.870647672980567
19.458815610457791 36.355892342545808 -63.470258393896032
48.608202352256704 35.391886494710320 -63.537335010728427
33.444780862452632 33.500993711170167 -63.276596491228730
38.647273626150735 36.208880597062773 -60.724539070600031
49.357361063977713 41.872774780793463 -67.094050085251197
43.156281636117768 38.132014608412916 -62.042030711928149
33.397745903059260 45.159183363957524 -61.484310344065079
-62.782370962576096 51.161267916037389 -61.866532605404444
-57.285808486224809 44.474491535969470 -61.445107705594054
-54.547662755826750 52.203921061563648 -61.288612368033398
-78.301001617338528 56.076269106801497 -59.724612100214870
-33.977437181699969 52.516809226038447 -62.139234893128830
-15.269659549400842 70.532306380393095 -67.374827314615928
84.305447277175759 77.587926376941482 -68.012282961646065
86.008581186807859 74.899001285896475 -63.084846282152611
91.551050595185302 70.674702576194505 -58.794845236931934
-19.216644294041167 81.224317492554107 -63.535302415450261
92.199718806627502 75.610124076670928 -60.456934457912212
101.316830765410188 88.084084253627694 -61.579415797194102
-41.782214091697867 76.961624396142511 -61.665554996203454
96.512654894886040 86.462889216801699 -65.347853185668882
100.915036063409417 88.559340005628286 -63.089488631705308
64.202073618008569 94.788224820739117 -60.655481656608544
67.154671082292467 90.428524561676440 -58.062976578633567
54.656252099325457 93.195624598827436 -67.623675275141153
54.487126959164584 91.634095084194641 -64.271516113290716
66.508923463236712 97.636301019854045 -60.828001667795476
100.519669919622586 96.719914555435892 -62.941791959230798
-66.743570777568394 97.331667476819220 -58.930917836492355
65.138415752763322 90.200400623366278 -62.550902810347239
52.241800627559570 98.719762358977448 -61.892849517453769
55.057577169388921 99.225228647492287 -70.194502583845519
-70.415089138146769 106.392043348455999 -67.920828862874458
-74.633249148366701 97.952342815993831 -63.060301426934430
73.763336938883299 109.938856031193140 -68.695741592656617
101.467849226199377 101.162757908554255 -61.905193152861386
79.012578209650030 99.210856762668072 -71.023869340976233
99.151089729484681 109.673772648973284 -65.332452156411051
95.421043882932196 100.619937548138452 -67.161005433129048
-79.721266444788839 105.227511982532135 -65.980261052367382
46.421948467445517 102.235196253911539 -63.234480436064018
52.782704907446337 111.827842672457408 -64.243588193352366
78.044914515167136 109.869631398132753 -60.275271616534994
88.242211855232554 112.468352505348648 -59.946628569842005
93.320838839169639 107.726816882205725 -58.216594330057362
-81.922852824303476 112.138482379598258 -64.482512247025667
94.255581831741424 106.653365611608464 -62.029222855526442
55.563203063348560 113.712053528925082 -64.780154489790732
41.284101081138218 108.470286056082301 -59.118545168235528
40.829009883178784 111.588298885276060 -62.070233692053378
108.882611026440742 106.425864108590275 -62.136086184909942
-81.636244257828295 115.761555273765168 -65.856774926479929
103.356550599200773 110.627754087553910 -66.063727270576180
106.808871466479260 120.416516023060893 -62.757859758866473
39.495344423535151 114.475668083834165 -66.279394836733587
40.329977592383187 119.380164547780680 -64.568923977990579
42.776563255947003 122.620631669418856 -66.697174538175048
38.897731307320093 127.708289409965545 -59.890013519907868
-85.716106573715734 119.437635354148640 -59.859550103337583
45.252287569763368 123.688708156741797 -62.345967817222885
39.145138208081860 123.265524930597508 -68.537979253660751
109.699564462148032 124.248703685155249 -67.812565001512240
110.210592067260691 127.051230491433159 -62.504820816243821
109.641898134062544 124.010244918895765 -61.472759808717555
111.098826709621164 126.371817269854787 -63.585756443204076
-81.389471432397201 132.322711052035714 -62.747804720779797
-82.705614233033032 125.298625244480377 -60.914557487789679
105.492775867015112 130.198160803257736 -61.472632720351370
35.334082599987241 125.317989745283114 -64.932403320275668
108.867195745574975 133.149643948103858 -60.376446220366773
35.539873868573956 132.937898082893639 -59.964833036173388
46.371893448451679 120.489890974702789 -62.780583437964296
39.014060864064525 128.357357687623278 -68.479849112047461
36.001829284085176 131.962036748672119 -64.324618765147676
114.224428242804493 130.557654270002899 -68.420541374505405
-73.001222505986547 132.967549278811134 -67.115924253636010
-57.982869083411927 131.690388984775382 -64.595259662721176
32.661878350994257 125.972199355890424 -61.260707615602612
-81.326031874943382 130.575238157126080 -63.491804943134326
31.608857956361700 137.636844712211342 -59.981847523141539
-77.384833639078849 137.911023068754020 -62.996326142188380
-57.718576830225715 134.784467893122837 -63.320746657601688
35.395859124940728 140.642052186089558 -67.363069135014925
-50.793181364456245 138.930424733546403 -69.597792306992844
-52.706039668206024 140.358042777449782 -60.051119528932347
39.081691211592641 136.162161925892320 -62.071429584353410
-79.006967875630806 145.107213535769745 -59.546895154990281
-66.239171257502136 134.322649880287742 -63.448604477578414
-46.466490657612944 134.482474025624612 -62.137815704756406
33.185710095785069 136.054346519543316 -62.224502988936038
-77.233683814756674 148.284733143579928 -64.179257009635677
-56.322323351451907 143.899522390518257 -63.998338146256970
-46.362745528573761 143.948736343700972 -64.997468124234729
32.964807415650498 141.282410606219713 -65.931364530768036
-72.800730635543246 141.754900251181709 -65.914497689687735
-61.384680849983994 143.615016437428523 -63.568650405400064
30.206335867836980 146.309162720517463 -64.084828111611699
114.577165651648045 145.363255129468740 -65.089656831067614
-60.078452226814441 146.236635968853079 -65.610938194279285
119.270047899430935 146.054454893583284 -67.126785678536947
-61.579037046648736 143.191827441155283 -65.419022781179081
29.420332953401452 143.017270051775256 -61.815581622056783
-71.793933175874443 150.303092783922523 -67.397153298500271
34.344078204893584 144.955578660235062 -54.563101262963045
-46.513403872361003 152.206821764035794 -64.886406190603680
110.387846905133344 153.503658957602426 -60.514304447229151
30.163800899647910 150.809543986309762 -61.910004315734511
-71.309155415992294 145.115764754693828 -64.211209429952135
-56.325411001547572 149.573237691719243 -60.662859771395588
33.896554114245241 144.548148349539815 -67.502634434556697
-75.199047762919093 153.281050925291908 -62.639136038820595
35.018828235038512 154.170267219206863 -64.828451424075936
-77.813432004430467 153.950426928568959 -60.017105755125854
-77.732421819687971 151.691223904813882 -65.363970223700875
-76.658096047461555 150.229595088224727 -63.828610532596159
119.225605552353386 155.695011693045757 -55.212209319741703
-66.579201265441199 154.912068247575036 -62.721654235254178
-44.353979827501362 153.231381462924929 -58.560064981253717
31.107229504869167 157.319094409231298 -62.061825260860047
-76.581933618309648 153.907606000259278 -60.455130975642959
12.978239240464475 154.375090282056021 -58.519876164792720
32.066733710011178 146.360388739921859 -61.615929334608808
30.921714298103034 158.192899505097586 -60.542506530990920
35.943038871851130 154.234131690867827 -59.372103245149404
13.584647839100249 157.223874330076427 -64.449364476913829
26.008973978014787 152.786817686492270 -69.174401759173335
-51.924052004368420 158.483714873128122 -65.000857843210028
-48.922925618651789 155.908891596108901 -67.190507573250414
-66.931088871502013 155.050463038246704 -56.804683293461437
120.056246561258689 158.487159666226717 -59.887903249811103
21.737167087642959 157.933697535559190 -64.393404198420811
26.722525954729363 159.843580044892860 -61.465514018187420
-45.209638971587069 155.048768357758462 -70.290709160555906
4.832060287912130 154.384178011411279 -70.447256835034239
15.784661571550854 161.844169741663251 -69.277692616015898
19.678426413848889 156.633192273311096 -64.319437852906759
12.380617418300108 154.266453322858723 -63.840746594052320
-36.842301312087571 162.862403387015092 -60.162774992361662
9.885148336361922 164.130949436877643 -62.344165136553300
-72.052026178976291 169.147298846610681 -67.492717698887205
-43.742501604802726 157.892453826839954 -65.275660236641698
-67.238065871339529 162.698409113185420 -64.597234609189684
15.243391731822367 166.014877817824214 -63.657159419809815
104.452208073415960 160.669652632285107 -65.649244446824866
-69.485894152142635 166.091562494127942 -61.551974334562502
-50.689942767310271 162.279758397981254 -61.633368852601251
13.011176326066558 164.109197837422897 -61.472986444338474
26.128609603676004 155.858247235147530 -64.517580930722133
-48.473447041289894 162.533262442906533 -65.740629610501443
25.399266216070640 157.468998580056393 -56.400746515805636
7.630421989709939 174.472558512569208 -62.363829894339659
22.844776081180850 164.331271755229096 -69.181700260914681
-42.348084552538857 163.236652652026720 -60.357158827203648
31.547753459389241 165.906405679360489 -68.457933273712044
-43.186507322244488 165.992999898159979 -65.147957195297394
-25.445307684916205 161.235053699457126 -61.204132061527844
21.160566496960175 166.267827586010043 -61.046897489877992
-38.711122458123668 166.370401297219189 -67.891696135510870
-34.679621006964886 171.281509187950547 -60.925257749945757
17.392394915231289 166.146251787795819 -66.365322181415550
31.146218160511275 169.732235315300301 -67.056250523565879
-40.136930006813976 173.030692082452418 -60.543228357815082
31.458271789715837 171.238854486988032 -71.437840088689626
25.288012985423173 171.649014005993422 -60.909787255471755
-35.698049042821943 173.206472342923178 -64.810654548517562
24.523856149639229 175.388378428107842 -61.893757587532804
21.589097687812874 179.096865208647330 -61.747317870296698
113.398101476083298 173.375716951574532 -63.618505983737563
-40.211767837074376 174.534561240516183 -65.765300602007869
-40.842708599417662 179.347622725175341 -61.615841703237777
30.173514843582712 178.427725668253629 -62.905213587724262
114.133076179043741 179.492053848311173 -61.024153055830467
-31.087891979216845 173.661262392236836 -58.947795505058011
-27.272544457561047 179.283045001938319 -68.164195560704826
104.113795466963708 178.422359224611910 -65.431419537834756
-38.532862173572227 182.550121387025655 -63.777442344384696
-32.945043443625096 188.975688213450667 -67.420397010270833
23.567884899747714 185.814915066577811 -58.181898607992338
-26.032261615102023 186.050202276601823 -63.140256982716224
15.303618799252561 186.937373303561799 -63.117360869688184
-25.348883272004876 191.269615466324069 -68.332615555391300
108.125196436193548 185.330291886840769 -59.835830753915062
-23.713056039281092 191.693387140298512 -65.190854759298801
115.111972776916801 186.007418024988340 -63.746086692588790
-31.777738962279781 183.061892549680920 -60.327865478538470
-152.250930286261934 193.734888515877998 -58.380653917052442
106.841222814032164 194.852959927388071 -64.660596545944202
-24.528076776712272 186.136771337197928 -62.034535074157318
111.348069615406217 196.469628853245723 -58.450619583605402
106.630544733878438 190.482752026211330 -60.614376707701553
32.606183287126939 196.519235177302392 -64.883575914753749
-25.494814316509910 193.124318736637321 -57.101298674043662
-25.579632036408839 191.516907737068493 -62.518562407986209
-18.463772680575463 191.894440413079849 -63.373938412647831
-151.845927816556866 196.751202753899378 -68.304640388987863
-144.458810785852677 200.571592958533785 -64.608653686018826
21.987668936019904 190.130571395447703 -64.399751131864392
27.009182012103434 205.250557520715319 -65.671602615346018
-116.637520041167818 194.708088717818725 -61.068031948521366
104.237057142265058 191.554741461233704 -62.122621849042957
108.609679144171750 198.873433118414368 -62.619371703089953
-158.511651286652352 201.494997141342708 -62.881430012548094
-24.282168979746327 200.639256770654924 -64.054047913348427
5.219151425777093 198.930683659874404 -65.118702363588000
13.311821869164735 202.738806602735679 -65.828251752327105
-126.146032589414659 202.173894166196192 -63.605131683767638
-115.493810064393685 199.793490638967739 -65.701695441719309
-135.851908607829756 203.052728826492284 -63.361422926350173
-113.743431587270052 203.317788821748593 -63.933498236983112
-18.235153689037492 199.181343545437500 -64.595070237156392
-117.408668006911313 201.297128559893594 -62.593248764512893
-111.617133213472144 202.356047612448322 -60.306347990598027
-9.494105857448126 202.325278053552637 -68.394618928105132
9.331505788670544 200.392433784636182 -59.269487958092327
