# This PCD file was generated using the MATLAB® pcwrite function
# from Computer Vision Toolbox®.
# .PCD v.7 - Point Cloud Data file format
VERSION .7
FIELDS x y z
SIZE 8 8 8
TYPE F F F
COUNT 1 1 1
WIDTH 798
HEIGHT 1
VIEWPOINT 0 0 0 1 0 0 0
POINTS 798
DATA ascii
-57.983600075810060 186.227528559411894 -69.237410611320186
-50.506979258268139 189.016811470635332 -69.162368207442768
-48.286666181694613 188.207510886470885 -68.940207446135773
104.496828904936521 193.834218729237335 -69.047088939772067
21.670285173110738 187.921258436785706 -69.520849169384746
-142.522151948715617 194.396403189479457 -68.435183510279515
101.581101690176567 194.157184367542186 -70.041460910865879
-31.982576964647549 195.517301475529962 -68.859342245126982
-43.174908119099854 198.945458123083171 -69.235960874404739
19.123949018864863 193.791376228069140 -69.625531109771984
13.331069193150558 195.007882045489424 -69.376860018327505
-18.470787236399193 194.020721277480845 -70.296492538222438
18.360912478107419 195.042695752140105 -67.908576319783307
-20.448718324755063 195.776358805848645 -68.999889271817267
-26.830110350525885 197.664732295826923 -70.339203895737455
-49.771685223817393 201.664011971912316 -70.022282841671412
102.519802440875765 196.505023982943442 -69.492835766005527
13.867355955969751 200.631021363597910 -68.530226352008938
-137.521330531927305 202.561890173012273 -69.262334347870521
-147.628400528320213 201.369090458260928 -72.380273680707290
12.652786380311449 202.608928158144124 -69.296366115979481
-43.414817552991671 201.017883498401545 -71.034691517073114
-39.612696950144411 200.714288319032306 -70.392492067658864
99.436911017131010 203.920780969611286 -69.166359747010262
-151.123821590756961 205.490625028119410 -69.687600894110929
-148.775520798269525 206.532044501553969 -73.297409430971953
17.482262688519413 200.981924018964833 -69.365243469845126
-42.266618492368323 209.462702861087251 -68.040771724491762
-31.553426589767515 209.385476951338660 -70.865261737634214
-23.104942539490544 207.551315087221695 -69.098614908518073
21.737754764526105 204.217841064801206 -67.144866958922819
-152.006613848156775 209.855066304611483 -68.976171533012916
-39.021596398548901 207.346944837379084 -69.540933926186725
-37.855160564280894 207.748201948697357 -69.675541959489237
101.941379237705718 204.874272494712045 -68.948058784564765
-17.860626890953583 207.016810079843083 -67.579634906711462
-149.364551377457218 209.951171687064715 -68.535518652999315
-36.021645669489672 209.828405419836287 -67.665150879849804
14.898448045282638 210.497774081494015 -68.566568214629413
-144.187150739732544 209.634345882210681 -69.006021917226477
-36.252053347574055 212.109530423469948 -68.880344235615851
92.068495473441359 214.297467296482466 -69.391628022627387
-30.420892020769607 210.899885901466888 -70.323293321867652
-76.843893412054328 214.730849240319571 -69.467985687546928
-152.425552821940357 213.744111040364260 -69.873414216024202
-76.546933332298792 213.690709448698527 -66.732023634462422
95.640071579936716 212.458528664956248 -67.839200480377301
-31.144081743243323 212.391609604855404 -68.071475174880433
95.571430635896817 217.288374707581539 -68.240984203221686
-69.454636695806059 214.965507908036585 -69.908679027179716
-31.915367437616066 217.581790480406539 -67.727140996579209
-13.537954290778668 218.540311090573340 -69.902430679135847
6.828393345125007 215.287706747499584 -70.135745746891700
89.494678472102407 217.849918832373845 -66.495820340190775
-76.716603204320776 219.762964278551323 -66.570485160706340
89.885838083479413 216.047089561298151 -67.510110976620965
-73.908883246550332 218.591085889231209 -68.644819573061071
-27.472202706857129 215.935193827986694 -68.181070276810686
-4.140883442513122 219.841264451815732 -69.240690792434634
91.813732571022328 217.032029871354951 -68.850012842465006
-16.041347688916570 219.178349394445377 -71.691358413523403
-76.670808563086567 220.172644454505416 -69.665189830829902
-13.866315449892927 223.459769459634657 -69.274040102363017
8.739980711108664 219.485946440926313 -68.779728810452085
16.903346755180305 221.260390895881244 -69.396164465744448
-148.334063785277067 220.695300485572943 -69.846209019172136
-30.629005642031849 220.750479309164973 -68.540177804876549
-10.164285014473871 218.175747014428765 -68.681785490009347
-27.183208043895299 219.782815853853748 -69.815612266125285
9.337289863235238 223.002198919223900 -70.291614773924351
88.334704193487966 221.684621173607212 -67.943511355557405
-6.366384626962293 222.554506328117867 -70.195668920842536
-91.282092082586928 222.969426686350289 -67.283189571973750
-25.790038126122177 222.854131681954158 -70.296829185330566
-90.803016691650555 224.029384497769257 -66.890900661950937
-23.727128819607877 222.854707499337053 -71.039469976775834
-21.104338569227352 221.023639594327221 -67.922678703393103
91.227367325135447 220.436510484036177 -66.516326173818470
6.445484326877848 225.666994555380484 -67.627692848319526
16.130420608978110 218.947749842214449 -68.441801406051212
80.676297792796092 226.875742680261965 -69.137922118168433
0.810356268091105 226.899594429412446 -69.368843581784489
85.539466521120275 226.026713987422625 -67.644366300965800
-18.284251952220593 229.566358536666030 -69.235820526249029
-16.545397369241680 227.553281557783777 -69.482950909526238
13.585199886888786 227.036318467157798 -67.858870434671346
-145.183469950236514 227.523168495489159 -70.259139229376984
-154.212008507643304 232.341124096613896 -69.561680811812352
-18.515926239105134 231.608867724499419 -70.210545468016505
2.212328068082146 234.714869468262606 -68.493638201252551
17.934739762193857 232.374882395498162 -71.787746825269551
-155.100825979837452 234.226071245959957 -71.589198412803924
-136.793056729002473 233.398672337859608 -69.743500810651739
-149.110175895514317 233.988832656262758 -67.968771130366790
7.370800042555059 231.183369146154689 -69.271915058261385
-7.112199496337595 233.755903422221820 -70.626082126128992
2.280390215232141 236.346794960979395 -68.698539407120450
-9.706505868650785 236.260009652619260 -67.794675318200376
-141.255877864723544 235.601314458852670 -68.152283946296961
-135.628521035014103 236.744178277973475 -70.118796553126472
-2.632847728722039 236.061331191603131 -72.386055480654122
6.918077254131099 236.955988008201302 -69.002592924747645
-136.007209859411461 235.786922071361317 -67.945149695776877
-140.695966837253735 236.112023634198721 -71.014361184237117
6.277381739074570 237.424208304308763 -71.448796588648847
-144.226143508847485 238.187004500558800 -70.992413484548806
-148.837508062405533 241.246198931940086 -69.105919367784423
-145.294538809530138 240.699710817084821 -71.511123578013041
0.815545467375434 240.345638910096852 -67.899577278281171
16.629071496267105 241.795884676729315 -68.248016768632112
-148.052980225038596 242.159355049041523 -67.714077345954863
3.735967766641063 241.371750466991074 -69.360887937530080
-31.776549641667472 242.556841162801447 -68.156040777273489
-145.363590403753591 247.240992276901409 -69.713241823856066
20.158510304588457 243.785347805182823 -67.563296610354641
0.939732341698732 245.949626477995963 -69.195780960668714
-149.080979711714065 245.121814207393811 -69.543962802771972
-149.650199299965919 247.804703846518521 -69.615803782812094
-41.779361682226451 245.060697829162280 -68.940540666833641
6.643511305787542 245.261444345494255 -69.938823000208870
-48.184064150734379 246.741539095985928 -70.612594946774053
-31.438371382653003 248.683195449702566 -69.726877407415685
6.566295767995571 248.941596819237816 -71.496666804453938
7.807441368252001 249.852981820586677 -68.156627291993686
5.827893925014764 248.800636019295581 -71.073180417393161
-42.187848535197723 251.465248464524080 -68.599713631029402
-37.134197994894528 250.663890375569338 -68.316347309449782
3.923473668215733 249.937260755543178 -71.842023210672821
21.366411351354120 248.964094281075290 -69.055974195432114
24.927709355570393 252.577894943233446 -69.154440450018043
-46.899678731548704 252.141735508980418 -68.735271405160660
-5.843267066076472 252.210221704412646 -69.307779272302227
-151.157064978244335 256.589783082810641 -68.302947473573482
-53.648927592342439 252.423393386811995 -68.608393829169714
-6.522065779747633 256.072124773738892 -69.181287619032730
-146.463786302805318 256.997062529752156 -70.361417379873956
-67.989003837842532 254.493787103101596 -68.661292363728947
-69.534906134668390 256.216322445448895 -68.306330287173012
-12.534934849922399 257.727067707895912 -68.369208608192153
-151.360883167230241 264.854974459977313 -76.305595773766385
-129.667699820791853 263.136065629443806 -68.095647362636981
-148.029268718843355 265.750387605856076 -66.304561721589010
-14.507938086586716 270.565068545220754 -66.187609948085040
23.610125595087784 267.572767056737291 -69.210965133254248
-147.840806518214663 271.213388159682211 -69.368712120392175
-149.274254143172044 272.520791226066876 -69.870069006690883
21.019233105142771 274.206246521662649 -68.034042095472060
-11.215177104347086 277.711282768997762 -70.048608356267806
-146.059505311759636 277.678913216692763 -70.117881837130184
-3.949122438711938 286.448141918791521 -70.824305143094151
-1.181554338823427 290.349882040707485 -68.563701551301079
-42.660008649390250 291.917981346785155 -69.654285019807602
-132.981866341305448 292.897682614231542 -69.426291876157677
-133.470906749202612 288.317353637769031 -69.156837121129556
-125.332723658876077 290.881714566382925 -69.208166203396885
-54.977455175279687 292.794181717807078 -70.297867256738726
-14.177611344319075 292.568814246243733 -68.131493313437971
-61.148952862829177 292.525235578929880 -68.525225026877578
-11.368584984789397 292.613670544824231 -70.904354397963218
-127.473632642354133 293.641540175978719 -69.122967585771377
-69.985847527955016 292.051222656486232 -68.847023629706143
-147.115438576300733 292.900058387342710 -73.602862505912910
-116.840297374514989 291.964936248880065 -67.581924739240762
-78.178431593460715 294.944756881393971 -66.083533852730213
-67.243867257464160 293.041536833662406 -67.781513665943507
11.194983756878321 293.795203973088917 -68.512160559667763
-59.797498263467880 295.754245940170506 -70.269085059101968
15.158756853172953 293.722717564748734 -68.958079809516690
-142.387679149764779 293.433633162954607 -68.370313065000957
-117.545431147235163 294.351397829743632 -70.581135373193604
-61.497761963475938 293.348960860469219 -69.453477188176251
-141.663181584335945 294.592716380252455 -69.457673879982167
-118.620703537909932 294.512597481103626 -68.870671989844325
-47.770394065543528 294.994338360542827 -68.669367854206016
-35.452441285841296 295.955034478149969 -70.399989947409523
-24.906236301012253 295.169384405270932 -70.541075913244967
-132.366994167072988 295.525294836009152 -68.168305411133403
-127.530399771670346 296.861000622914901 -68.722707844999235
-16.102244914140183 294.874896507480855 -69.851513610162428
0.597403614109538 295.729015399554328 -68.904132947925589
4.999043753363730 297.591783753190441 -70.495401150113622
15.338802394948390 297.016623556145248 -67.609564494052847
13.492380821255484 298.309938907574121 -70.350433850564826
-151.040553986272414 300.482610753653603 -69.293035048795119
-147.350090625264443 297.617427294053300 -68.372602930471487
-151.909506100127146 303.364703606569662 -68.776274151099187
-150.023599244750955 303.034248053108172 -69.245810317413216
-146.777180238590148 304.888235150367962 -68.170487928521538
-145.382113107570149 305.614514544321366 -69.516851224589956
-153.781995375625513 312.003442956670199 -68.446317774780894
-146.373362599569532 311.213837287530225 -70.861462486573686
-46.642606835080727 60.713008183471153 -67.734299136628891
-58.212992287261798 60.138766440050318 -68.905903653312649
-71.630483981480069 62.121954997971393 -68.164657873786680
-64.223422219986162 62.655949924431290 -68.850663842160031
-36.677498776133120 63.975737071520804 -67.509698101365260
-79.013208359055639 67.255005854950809 -66.835676557689524
-27.064461953634645 67.438530759377244 -65.818169355824963
-23.003484094075269 71.759360237343259 -66.985364797632329
-87.599114803374121 75.244318288299283 -65.942234308663544
-88.188645516762321 81.321292062408105 -68.584521739389402
82.092669718263039 77.787672062054398 -66.020190584691292
87.490944804400257 79.705684467306625 -68.596620275294498
77.996731408515870 79.482245796855779 -68.055565009202581
82.153159895112466 80.685700078828532 -70.052113073301442
86.779078429829823 82.685441838770998 -69.033929128207276
-26.083694378818894 82.797997720862014 -69.007041532665880
85.727919623318058 84.127291832436697 -67.755073013371174
-34.420459864315362 84.181106973305347 -69.467174158535272
89.236662707131273 84.109733967614147 -69.860579631580677
76.856367904876933 85.107542621763713 -66.899906424939388
92.373102009945953 87.181214057180725 -69.062839401453118
-88.799158910182243 86.546389929009024 -67.139225578482709
-45.987035318736609 90.353676111555885 -67.059287114370846
95.438930121626811 94.751340025180227 -68.583603079587107
-63.873487577661045 99.351927871925639 -65.299421124437359
90.718960044421209 98.465985544347689 -69.822355998705092
74.942874387469388 99.620888759386915 -67.289443645809143
-66.149523966022272 101.520205930246618 -64.496366268819472
90.943782777076848 101.354847707926297 -69.955966190505492
79.191988537177565 101.988170153362319 -68.216619918536139
86.177836505811214 102.000495741907272 -67.942788552619291
78.203577413120527 101.478683260424319 -67.259301468316991
87.865069879535355 100.841679945609968 -66.967021049447837
55.255826014486800 103.576689391308122 -67.705561386076326
-76.483197222002744 106.544589192291483 -70.700516219189325
-80.740236442249923 106.749435842837457 -66.947682579216249
46.886785981517143 101.602139246323816 -67.626374498483216
-76.916876618545800 105.755621128958438 -69.099866542281035
53.222987706988008 109.142115340419537 -66.316095403502530
-90.859392182126498 103.306282781387253 -71.411779826653628
50.404893111846178 107.903576673288285 -68.286434335214395
42.305641503316465 115.371485286877856 -69.488108828572351
-82.146305900490461 114.728637487080121 -69.204522172808339
-92.203627796137070 109.830841605027459 -71.759748695350538
36.224497622750725 120.289365453098455 -68.601980907401582
-88.918489780113589 119.630076499837003 -70.466434747368623
44.364768541317709 120.316224807355169 -70.185502989868226
111.378163375567254 133.694953236915950 -67.718220727178732
33.902252255558565 124.520017900285524 -67.500929265378318
32.696942055044978 129.956877580559961 -70.056725592957633
111.700132035429036 124.438316210171521 -67.043319003561180
113.677794900434705 134.597065574713554 -67.296591547438041
112.574068322536945 138.793428992780974 -68.503635562062584
41.598559453674625 134.260524007339967 -67.910986713218392
26.960675781134132 139.493464074430449 -68.631748880861053
109.418809337969037 136.085904189043958 -68.043595063375363
27.944978135623352 132.960946134095991 -66.856042170838094
115.032490951999293 140.514792699832498 -66.704284297324577
-56.419073757502318 140.251363669936069 -66.264915497834224
38.088036518986605 139.862914940568487 -67.790330920192673
-51.239854711932914 145.519811734539275 -70.517288065833256
34.642835627895060 146.147688947747298 -66.277591966455773
-49.975472853374491 143.393769292386509 -68.912174163911644
111.341439087434196 149.349353189200400 -68.991830397809679
-48.912947783777476 150.801002682055412 -69.882394208293377
35.096780314190596 151.324310230399220 -68.686688004325632
-56.064877955689653 146.142941918991482 -68.310693694987776
-55.741494126415589 151.702447600577472 -69.117692530554464
114.451203508115853 147.259736698327117 -67.626875063960398
-50.585388269942385 148.477461613566959 -68.327839246504382
34.257190032752824 152.794637998525985 -65.349416558000712
-73.229327259390274 152.264465930963212 -67.616252737249383
-51.439310354509090 152.555874903910251 -66.503901064986806
31.905135058573158 157.377377062179505 -69.576969752357670
-43.442174016993221 153.337690567591437 -66.660555013150827
-64.711551140245561 155.674874884630867 -67.793296084786334
116.286183146524451 156.196281941443601 -67.106393094447881
-39.344323054557648 159.398398693190813 -68.937552259313946
-54.197648695044371 157.616504521277847 -68.789763744472467
-49.038553031095162 158.273425278235919 -70.770006170885253
109.398808405885362 157.343095309511682 -68.460800994170384
-52.844028760910220 162.120723665516209 -65.167314873310829
20.701176784494169 161.512950933093975 -69.846827220310530
110.193505975158445 163.795518917095734 -70.837732257639558
-66.543517857964105 160.906672475431236 -66.533077591815243
-72.113023823240582 165.320300693879091 -68.129043456974543
-46.331900032244739 162.925953729970871 -69.505880120762924
3.992716960141796 162.985187190326968 -67.179675722817294
-65.966818524523873 165.158886875017402 -68.934125454928875
29.518834936601205 168.768085128312237 -68.615603742536848
115.501131298631904 164.194509594968537 -67.757262518189194
-60.015009374735484 165.177309529486507 -68.534433088759513
-44.401985133939760 166.419509902091932 -66.988220260735972
-1.794043494258030 168.636532046406217 -69.516400607445135
-45.705383238150425 169.892987417961905 -67.276149506421888
-41.148254787546087 169.539904588160681 -68.443943807441244
20.732127749424777 167.754869886042144 -68.209246902443439
-33.403264929832176 165.644289935903686 -67.501501783934714
32.308708617893323 169.796815248881842 -68.406533443233911
-62.764705183889781 167.872423295803060 -67.918764196590232
-56.925606303226196 172.785841249698308 -67.197439745519731
19.703249095518363 171.867370478939307 -69.227884080987309
-59.370771971069388 172.667506035961509 -67.387226863268268
-31.572733500148782 175.546214185533273 -68.548987105676446
-7.488164888606218 174.771494232436140 -67.546741788523434
-28.668095082774951 175.508434007926496 -67.330111688905845
-40.332057374381094 174.033852163400269 -67.892203174911842
-60.703667504873600 176.351716195526194 -67.446517635835932
19.756994024202314 177.442188617720348 -68.976859019546808
-38.167356273984083 179.814486507096944 -67.874077901550734
-10.278820875399610 177.246314649914694 -69.404987768685089
-60.840921346767253 179.432973528718293 -67.729671290020917
-2.375388399148801 176.334388622398336 -67.414002853034447
113.484005050920601 176.839997335868588 -67.907230285820035
17.823553168812293 181.728834570076486 -66.746924194911443
20.675382599676908 179.794241748498422 -67.718734156373330
107.591731615708326 180.554244049725980 -67.752717580887023
-60.938280620479446 185.664014951314527 -68.848481305869413
-22.117520133955502 185.073341733605361 -69.503675253948316
23.889398670716336 186.860219459318444 -67.924360942185984
-34.473707671284316 184.202494407887173 -66.312188898957913
112.124942314969047 182.893404501978011 -68.795082159848761
18.657666957459849 186.500739574139999 -67.514396350603377
-22.403191411821286 187.934434469353590 -67.148099966558661
-47.761603393235347 189.414560731410916 -67.593327708048960
-29.921132775312781 186.049049259121887 -69.001743161204615
-56.684373183728390 186.948851160095728 -68.064203730682380
-145.862812908604127 191.924412252450281 -68.046398544846369
-22.690020690265204 191.059896803477983 -69.125396068031577
-145.369802600058080 192.278956492379308 -67.424536059449565
-20.838517687647123 193.889077897874870 -69.443421872583187
-147.604985566732068 191.403888767052820 -66.665962599760107
-146.397466761747182 193.150145608018732 -67.869782609220550
-44.547640930276728 194.948422824679511 -67.087356051597354
107.467082163917581 194.781293260713426 -68.787570637400691
102.593052525285017 194.349582418272007 -67.802791438849638
13.394771565490323 195.189945961719246 -67.426424670970732
-143.604558580003328 198.392215224638079 -67.745369752133001
-143.054648112227369 197.846842143683119 -70.763794152631988
-140.983813074835382 200.370325401442898 -66.068131976631221
-153.290811537354813 199.328184595658428 -69.044094556066312
11.154155165748755 200.902658396585053 -67.397460735163676
22.732023705022133 198.797761069191722 -69.860277927953135
-134.859222758463886 203.690876322700376 -66.336313012941375
-133.851435220488128 201.825743173504577 -68.337879090757426
-24.296265684760581 202.271351854744552 -71.330163299802052
104.024466313722144 202.662231364784333 -67.022470039050816
21.114374060296083 198.018230571660865 -68.226999484141629
-138.912838179530297 202.459925825915064 -67.303915139607895
97.750412667233931 202.324683197138341 -66.969893140231477
-42.604315477762164 205.048117628886956 -66.199173825035416
12.108577035321813 203.084700887262073 -68.401640957237845
-135.075236229345137 206.940387333877482 -67.149971485820274
-136.648831221915430 203.738384827958527 -68.656022279164986
-8.473537967250291 210.521626809434395 -68.998667088956338
-39.000049863711460 211.531555644656862 -68.578395160687975
-22.112041118237862 206.932421399167680 -67.752459518869642
8.632383824142856 212.377217719400335 -70.008553633482279
-150.478311936571174 210.069514220462111 -67.141499684980715
92.968264045403373 210.022260907415870 -68.549055343608401
-14.591046264557084 209.952950956674783 -69.492858648058530
99.550513627204410 209.454240197684243 -68.674002938570439
-29.910820579484568 211.269105719143397 -68.131222297918981
-14.357874722427264 216.339508474738039 -67.385733942503819
-8.686637025331112 212.036861837617067 -68.006479419259122
-74.849503780185472 214.618537422485304 -66.876758936491456
-149.240760954858757 215.566632534649585 -69.168371110409907
-77.018202820779649 214.206598204228015 -65.778476032297732
-31.156598113224391 214.279781755797984 -67.349254824083758
-16.779968790984565 214.317322120503377 -68.446234757242323
10.653124449459366 211.597564404196220 -67.239023941346119
-83.392944877577648 216.768742308327461 -67.137213876904966
-78.911493278611985 215.924868254433079 -64.203992611871783
7.948974448413396 213.768304035069605 -68.193384468627926
-146.855503692281673 217.787771161923672 -67.933488167160348
-31.328328384177720 217.603439714344717 -69.599750838491261
-87.968346267040928 217.152099670848287 -68.519818425118061
-29.635171449896085 217.415248147008782 -67.899181768700359
-23.456720714237257 218.012032312059489 -68.253260312137883
-74.116749242027055 217.956264992009295 -67.589967545048907
17.788089466361956 217.228430187496969 -67.305947180257562
19.032951798699706 217.774885662070858 -68.357313626957193
-149.423686939647382 216.881967436937828 -67.171853932119419
-89.621619352987935 220.590457657165416 -67.315293816897096
-28.010897878415491 217.957928983120098 -69.582261536092346
-27.521653965207744 221.563501202419815 -67.177806899576836
-12.387239453861522 219.471833765045517 -71.105724697252057
-81.444099122270870 219.922554380888386 -67.579659823747761
-25.093924986264053 221.257916930697490 -68.908705921137653
-83.957652293510847 220.786310193359469 -68.633651443838318
8.751653999656625 217.757487203196234 -67.663993876502900
-87.089092098554460 222.141899926144333 -71.725046020678874
-96.928814615842640 224.660904356992518 -66.239872928613835
-29.415252297429603 222.247218482659605 -69.601748979153186
-24.659372058197402 226.688084117002717 -67.802684004906453
-1.984395525397595 226.269242824548002 -68.227489106099995
-150.930322574990839 221.736852182226698 -68.471129928840128
-1.657566576244768 224.955691412208864 -69.478299057182227
16.269013030480043 225.508911105477580 -69.166756949320657
-20.342044055755682 222.983401506339789 -67.798092701948107
2.183933913108262 229.636742734399746 -70.045973767582765
83.967167610066994 226.907051120945795 -66.314023533615099
-19.534233755181436 224.479205562967337 -68.476961941563047
-143.882913856116005 228.983494081094733 -67.144101103245845
-10.130439240083401 228.766871483162504 -70.305186060154185
81.151497804516936 232.855576006668940 -67.562072205495767
-142.148750705311727 229.747971766114915 -69.297772022824319
-12.609302040128433 230.211654400922129 -68.961989585233653
19.063725517351287 230.169821501626615 -69.164585653856619
-145.624022405285615 230.650277078729061 -71.491282843952916
1.928136427698121 233.592370338026797 -68.074403453998173
-6.182930990672267 232.028045997356458 -68.050517649590077
79.380794479769733 235.079264621467303 -67.485245834848598
-147.980368096105394 234.812519338256578 -67.438757601775649
5.292369666000780 234.827221659350585 -68.434024640207454
15.512638432446757 226.738376885491959 -67.875072024280414
-140.959962515149044 235.164858082821809 -67.689178265076364
-15.824156977242660 234.619068125070612 -67.337294975605346
77.472001675646013 233.367853425640021 -68.942145343606441
-4.417987204428639 237.541243683365622 -69.799029533429646
73.500885736066493 238.435050282295890 -67.468642500049867
-153.237058042245309 238.909161725810549 -71.876774018806131
3.903816611602515 243.202747127778395 -68.354361451901767
8.692896105689423 237.716599418118193 -67.815815774971057
73.141221376153894 241.344462699597528 -66.661738992912618
20.502156053745253 238.316987978470820 -68.726888373099669
-24.446870067717182 242.124239410069805 -68.165583332443418
-148.299401655726143 246.756272809937684 -67.563830260315854
-19.204909395627695 245.339562779508015 -69.712613747729876
-45.381332643619473 246.608843815936751 -67.173222920380653
-17.128529228700682 247.304516609784059 -68.813577859135719
2.588299387716600 246.566514575509444 -67.263947935427495
9.049063634632525 243.496847098981817 -68.462919511523168
-47.829840147664747 246.529412643702841 -65.284808967077581
-24.891293507770545 249.370762614678796 -69.481490068354972
7.287516361493218 245.498872834312920 -68.717515682330472
-55.575859825546146 249.067562761055513 -68.970116445605171
-27.520408403582135 248.122523049987592 -67.802498221015782
-59.995958765821747 250.823225516941449 -70.099075409096955
-31.061669163009292 248.479897958420878 -68.305845509632988
6.988279711714844 247.813167169653411 -68.756466563353854
10.466092797602677 250.623140767369165 -68.638227233833689
-66.461311022391541 250.347420181504503 -69.019149291808546
-42.938991340548199 250.075495236269830 -67.836400474037163
-43.382176613535094 248.934403273051259 -66.140441928370151
-150.629605812196729 251.000084307155475 -67.929418577277360
-46.127594590130897 252.751029405012446 -66.647033759714475
-72.408954808536350 252.818019292330433 -67.755962033354237
-55.777182449904153 253.112147150178288 -68.268309657374374
-64.395040860260679 255.326645305661202 -67.190739389559482
-12.003447765396501 255.803232222243651 -67.509663552169087
-73.977880285413235 256.409861271163663 -68.251612893331981
-78.707513983017861 255.086174306721205 -68.313328221292323
-82.058231085156550 257.753855318411468 -67.632133681141497
-79.108930097914623 255.788255651950550 -69.946715568002659
-81.207592593746753 256.689365254594748 -66.689549877400523
-154.738895641233398 261.135547061726413 -71.694033818393123
-140.427343247196006 262.249810489458980 -70.142104037891954
-149.894437646161691 263.113730598912127 -66.422712782377076
-13.631177474653425 265.438876346643667 -69.987150061909972
-140.167345172509272 262.828996766623561 -70.079246381538212
-131.283134296434781 266.642533832488255 -68.345122857108294
-125.400763995784615 266.241771861466702 -68.753090621610809
-152.492519361552979 268.264897538300886 -65.449160644374899
20.481648584041046 271.371330628595388 -70.553706087444766
-12.624296557567822 273.551180005850540 -69.317915248438453
-149.839395692478462 278.208469096470822 -69.268387843334438
-151.688865787519489 281.572281231854618 -69.540524040141847
-144.075498813251670 288.646493621530453 -67.983525405908480
14.360348198827516 290.993803623893371 -64.891364664677852
-33.019906092157179 289.280796631793407 -69.239210926679192
-155.685313902478782 291.049495608698862 -68.541038345511069
-48.395980320923272 291.128340458525940 -68.074849193993870
-37.743873616577211 293.277288742503288 -67.601531585046132
-28.244040547035990 290.659410915505759 -68.791988811311114
-8.487467266419291 292.142491307503008 -70.711590917330071
-68.135487589057391 292.228208415231052 -67.748003340570904
3.929121967870687 293.579094635342358 -68.512104042933458
-77.755835243621434 290.953454201496868 -67.701537682870367
-4.833745140492177 293.123649224569533 -67.221771760096985
-81.220907657908882 292.004697305777029 -67.952707297816431
-4.594352868373122 292.873455613056478 -68.477763501648099
7.754137336271322 292.829534444476622 -67.659767001687399
-146.018161908518067 293.012044966592953 -69.099550347513855
-136.501444198975207 294.494214558868748 -69.182866601390202
-122.057578362453256 293.437497654986146 -68.243638513248172
-86.060911776229617 294.208599122659393 -66.783452267551425
-77.200332789803326 293.744290899521559 -67.043521005428886
-147.169884875528851 293.447290660059423 -69.620987427497681
-155.239433375146234 293.214835291255781 -65.960018336176233
-78.816168527253012 294.087344145270265 -68.105440879281772
17.655086949941371 294.687539141016657 -66.274443365911978
-94.144722975365170 294.138351862662489 -67.621913444572570
-69.743017099811411 294.986452019354829 -68.762481374904894
-93.548079529960518 294.591039758171519 -65.499638208596252
-136.500443661108278 296.209269616315282 -67.133109027183309
-81.458620125797466 295.116347493504691 -68.527393080595303
-61.310912848088535 295.578046646754274 -68.289256396249897
-41.749678203264054 296.762541402819693 -67.311989584139596
-142.014237139639107 295.183197560244651 -67.390391806220109
-27.030403762149259 296.016412522245787 -68.472681655314048
-17.638761775656178 295.174523298069005 -67.435289701679991
-11.050502619018047 296.552549383903056 -68.581673205757795
-1.602456460150461 297.617078992571066 -67.319342053773795
-154.330492527141871 299.159376216714975 -66.913960099434391
-154.250455153789630 300.757838022510441 -67.578078692398961
-151.644537780520693 303.094109044938875 -66.097441277625791
-152.681308818638939 305.377549085037629 -67.933515882589390
-145.632848284396175 307.579219886863029 -69.832303950519730
-154.754218803169948 311.557332978896738 -68.435072471850035
-56.440158491312197 58.000385990279426 -67.157967785616790
-51.135043445380099 60.587268900794619 -66.744294746053981
-66.887932213093748 57.431634868831978 -67.458645937653458
-67.831233186426445 58.713243513842151 -66.891956213786571
-41.746189753768952 59.621165236710574 -67.922040510517419
-42.629425905598119 60.153970490548517 -67.007379809764657
-38.316415091775262 60.615872752269510 -65.150505253367768
-76.388221412737153 61.471608212019760 -69.367403667357578
-33.371265896010009 64.950147963613489 -67.166967734078554
-30.551771290820710 63.863796781257697 -67.168195125754778
-23.283213946110585 68.940947991480868 -66.656374246520443
-21.606265867941261 75.158327383253649 -67.607695963596484
-16.647205015856425 75.873126573214464 -67.129761072708973
78.496325861298288 76.444461851471445 -65.193345728392998
84.704605698519714 78.454627256997853 -65.459435366721365
87.354352629801781 79.994376456017832 -66.664434423487620
-32.586607717708375 81.438996394575923 -67.814794061002530
76.855477997337800 84.023192952660523 -68.210160393454970
96.708073234018983 86.453569519092184 -65.431301403811077
73.830374379996698 86.476271991404033 -69.501084259572153
76.095923161858892 90.062355932497567 -67.401788516454275
94.411722492827195 92.783562484216091 -66.874119136919617
72.674794297287434 93.767755837270741 -69.118925794654828
54.572251044013122 97.241308832313194 -66.853071725629633
51.260969013362633 98.277640973362438 -67.546377304427438
49.048732487296249 100.544231392788902 -67.693881248096261
53.836679056653189 102.624902355458659 -68.776777856261177
-67.361835507490653 101.779845308356400 -67.844032006827021
-64.513698248690901 104.839138509013068 -68.078301150628135
-70.800810879913428 104.432186218922780 -62.664314920780271
47.809565547780892 108.158419577249433 -67.779683012766029
54.889476167477632 105.835276727180315 -67.400415730375670
-82.444079642500213 109.926766433775597 -70.398567586990964
50.965812450318168 113.802181413235118 -67.871778697055433
-94.378304253181525 118.688417111557129 -66.980401249046210
108.507316948659508 110.318218300136280 -67.755895293033333
-84.326614162596499 116.628791910575558 -65.192304194088706
50.368323739264731 115.792833132774916 -66.493595987530540
47.572005106331680 116.228844142469598 -68.857629544438197
110.983081927455970 118.769979966085359 -65.664686311701061
107.024208592859068 112.561946883183282 -67.746477406267545
45.703509840408579 119.761424165744188 -67.191333597568729
33.079262505651847 120.903075637652961 -68.633178859762069
108.072909374057517 123.964647010563255 -67.626163268238642
46.329664726951982 123.316763308042852 -68.139822604639235
41.567142499502182 132.948489829536811 -68.463357652166948
29.932842302053537 130.944585915561504 -68.236406060536439
113.485761362399259 127.815708865701779 -66.906093326180482
110.128990622186350 129.335167096485350 -68.216237458758272
43.481061620194133 130.899064970792438 -64.178272133503029
39.775393826107447 135.629959454534344 -68.441395279448443
-54.025768126488146 139.905695016510663 -67.911790211549473
29.807624045465651 134.916638825196657 -68.785423246037354
110.140675741924255 137.582766226801510 -66.636917571113514
115.828518019917908 140.165271553211483 -66.831352085671952
-47.111978720152031 148.078914269232484 -66.223668872264270
28.883306912155479 144.981046985305056 -66.793916609582368
-74.449832500172903 144.701755279815870 -66.413065255482834
-72.614529812748501 149.121721653674740 -68.432383194703945
118.162841546751196 146.333915262416610 -65.468864717219404
-72.051459765260702 151.024045642532144 -66.001264713093249
-53.712806036378034 148.056839625008024 -65.493375197476496
28.186765227374686 148.779276483912611 -68.170396733013817
-43.175861102860104 150.403623626152239 -66.853083616921680
-41.209506998868946 151.891966720946385 -66.959018458615475
-72.771381933892442 155.405495211619069 -67.739181342959583
-68.256605243648679 152.587236771714515 -66.840165356829360
-40.674770981155355 154.677393680191017 -67.609751339516521
-66.997531255262828 156.779657298879357 -66.999514230733666
36.684160825541149 155.895307634957447 -65.833293501027285
108.642976861068831 154.131506024545843 -65.772471666293697
22.189906969219876 159.726444685806143 -65.233812459625980
21.962102750550866 158.489290530939684 -66.884555788250140
-71.010787786555824 161.379629428999948 -67.885981291652087
112.393169941244963 161.697017151530872 -66.620771492117967
23.709580941394318 158.978112482525972 -67.825742035926893
-38.761767568973482 162.325983131206812 -67.661565500023499
112.794105676173601 159.053415073814165 -65.449953794496622
9.239977696954806 160.936327922853820 -68.601625551521792
33.024300641953410 158.923467034912676 -66.244526272897630
-65.455226511203193 162.511815198568343 -66.340066940399979
-61.166488170862024 164.686896316650831 -66.450908297493882
117.400264890800159 164.704737216855250 -68.062183234032503
-68.234023701917593 163.835875968869829 -67.288575637334134
8.848551733655794 163.383575014362265 -67.019723851378544
31.478831722210042 159.618527376412459 -66.071244825801600
-64.636343300794522 168.418120242019427 -66.591149647957451
-61.681672713614283 165.979122012685934 -67.240427454374881
-47.800237310326047 164.205016043314771 -68.101215944555463
-58.970524961419947 169.923476374768228 -67.810458440588036
29.469383108975070 168.079786827141760 -68.312534704009039
-67.989629747500445 170.233568434115057 -67.587617934049362
-3.159294499421870 166.616837093501346 -66.805604820758745
18.617799829680084 169.017769879226535 -64.953417976991943
21.384446978914333 171.412544823335367 -67.716476182872398
108.632196449526987 169.982503052381901 -68.507608022427107
-60.905733983136095 170.705433251588715 -67.070061324999031
-66.021693144848811 173.172393620548519 -69.601575190177201
-29.822407700238760 170.441243104734781 -67.149185115478190
111.710744449235960 169.319068521810635 -67.176444762956280
104.029964541941666 175.073955914867327 -67.688749147349270
-7.467581761129556 174.238628773324507 -66.946551663234885
-4.120901947509146 172.053759073582910 -65.002819886761174
110.189984261273167 172.186248799259090 -67.733180009773449
-5.256064884012703 176.274343427656618 -66.283907425463170
-30.384192130406110 175.981759053199170 -67.560312290749692
-63.337086353638163 178.625409071105054 -67.307493770586291
-24.962414254311199 178.253927775324030 -67.386124346993213
-55.431314030184701 177.355857374031928 -66.946060835647941
-52.157359876195237 182.188584333794580 -67.712978895980442
27.717829195088878 177.410421633951131 -68.179267015334617
107.604707127824113 178.036076194916603 -66.287681812677846
109.445606651528323 178.122545913652942 -66.726788721367640
108.596013101322484 181.701469379795441 -67.074080176098008
15.000808419717572 185.343744738262643 -68.024557767717098
18.211070523180233 183.628935969022507 -67.571645630111604
-38.092602697629140 182.637049814428082 -66.765632134723177
-52.129615890356519 186.580900860901977 -67.096786875877726
102.699057129767994 190.578701891734653 -67.394754610823256
-19.913174202619775 190.130561949071904 -67.497955791750130
26.692041436185303 187.320068161108907 -68.852588925204543
107.000793067167535 187.671642194222670 -66.354961656478181
110.201992438909002 188.671808551266167 -69.623552936645595
-148.139252367742785 191.352529433279159 -63.842790168161955
105.383930455865553 186.978790837122290 -66.932865900917704
-51.543516608970890 193.315394449083925 -67.501199435907353
-50.524203110748338 189.939829081598560 -66.852311674434205
24.232880231674724 191.887334869580542 -67.279091237261397
-54.647780202015440 188.674215659971992 -64.806218533887275
-31.809962225622506 192.799730970959814 -64.656945710232804
-48.179367077612000 194.588970794441394 -67.034953956567165
-17.842948936404472 194.623189138241656 -67.247065534743513
-48.757158410892799 196.821366457790532 -67.296952997287008
102.845447108508608 196.164966331806426 -69.138886737703814
-148.906177804910755 196.612663302763849 -66.026113464114175
-41.151283739216680 200.644518256484247 -67.166758430456753
-142.553844984363991 198.460077735303287 -66.219005704693487
-46.199121514973342 196.850326019883425 -66.845979671471227
-19.593817929581931 195.512191889116394 -65.574710552551565
102.556537309499632 199.125278553586298 -67.143855252975854
-44.945597413503968 198.478716782141589 -68.230557482539282
-17.580483162776403 202.132371872929667 -70.503661480254820
23.534200540013202 192.777488949275238 -66.787547409111127
-139.624074179501349 201.474918915275822 -69.582100147712751
-43.851772644521603 202.979477139665818 -66.425323698756245
-13.203323341183836 199.272380446057639 -67.881582716792551
106.180602761168004 198.698996324409705 -67.955275836550470
104.747235902033026 197.173748003776893 -66.169281883772086
-47.522393274336416 202.352453961617755 -67.141215035145933
-23.470014736621170 200.389861200809065 -71.953834544153011
94.946532159258197 203.040436519368626 -67.122450719119087
-149.682489535395149 202.459378963688948 -69.359613765948112
-25.795235432981180 205.771340136711643 -68.755128882249863
102.475928723149323 204.046268199582300 -66.921937606434298
-153.384009696095347 204.245091667198324 -70.080490918367914
18.217564360068490 205.761181760471089 -68.186459896657198
-10.979956178089806 204.783434618142593 -69.422861497502240
10.704902068875713 205.520194718101067 -67.478029719334245
-151.668437275551554 207.112842988057764 -68.009996461752792
-36.467793925179485 207.989017454644284 -67.617921302200514
-142.761942629080636 206.754340472581447 -69.533583801653350
-36.075392218487750 208.068474181682291 -68.141790228555578
98.326910655276379 207.346400389116951 -67.160831109553342
-38.197338078614692 210.884399418587208 -65.330383118887440
99.252904692578298 205.002762840787881 -66.416144921234789
-34.967770542333973 211.116096983501592 -68.622861195868722
-145.159678496031432 209.608801316547186 -70.037138557084390
20.425291153416602 212.493739853672679 -67.468575931419778
-36.233479214445516 211.040704950554584 -67.711240850481417
-20.183565577406913 214.465143831827959 -67.218510702970221
92.994337301667983 213.541830828937890 -65.901176940037601
92.622508375313288 212.098472227962134 -66.084969694792250
93.830463872039360 214.092021476490402 -67.618540214694733
-7.636574827161727 214.047654930536169 -64.885254427232411
95.889925004190715 214.638202336612466 -67.643859257576011
-33.715026567892501 219.188202496469188 -67.243159111121315
-84.514007555618974 216.535728174944467 -68.996975867375042
18.917237723566078 213.715983610901844 -67.388427049617420
-77.325268392416945 216.512359194615385 -66.293025974236031
6.801357233877443 221.316991322276635 -66.239378169507034
-2.774308528220310 221.219555620493139 -67.310105130888417
-94.805013318671470 220.742979184873946 -67.644726884837269
-19.922071897873362 221.159882785223743 -68.291841790605901
-152.720519428332523 215.066192314242898 -65.907653198753650
-25.603359685423293 222.775736550965462 -67.945653331135901
85.086336701443457 222.430482337630309 -68.552556499029706
91.143036708743836 224.974654916687001 -67.682211446398597
-22.995099169051397 222.560173570386439 -67.496375405704839
91.075658589401868 224.262282924644040 -66.166862922298321
-7.162053444689935 228.615743340600545 -69.322188904292517
78.250050075226383 227.598141790806153 -67.962532328574923
90.874776656377350 220.474403675356371 -67.906874870947320
-99.319202053257200 226.564448341662853 -65.135360173653268
-19.030519754564807 228.174099959507174 -65.474643547069206
-15.121375446350090 224.863599643331412 -65.120257492784347
-10.377979048117368 228.285876633844055 -64.755115536188342
-149.376943745675732 226.673507615457822 -69.543051484641708
-147.539771034242051 227.125995698403983 -67.807204116152775
-17.254440997600888 228.367037484235425 -67.353120866117095
78.930947202300658 229.415510472390423 -67.140170488399676
-25.458094214829888 227.762406987266161 -69.523110267433793
-13.468011767438218 231.960831978476989 -65.089729430441892
-6.163232172214715 231.238561681703203 -67.698139773170737
-147.492774876980121 233.463871019436681 -73.773356426515306
-126.300143286731540 231.632100690951518 -66.302282487874663
-23.692896162865370 228.962140431108907 -67.508466865473977
-123.842927011869449 232.382437148752018 -65.743868199906373
-130.949671316467914 231.066376710437510 -66.156628276805620
-12.233136228282218 234.901637620300079 -67.625889336665068
1.501749094813694 230.719192909442000 -66.765954020894512
17.983346840405535 229.982200732310531 -67.318983617367067
-129.903758726030986 234.294666670424817 -67.187622083240655
-6.159786486398723 235.110640958033343 -66.971846410671645
18.014281048578933 234.615594501527340 -66.534434869017673
-132.246573612450021 233.806902650798349 -67.810299876424850
17.055747004293288 237.249783052693147 -67.824841700750270
-155.849099282825620 235.546791724801039 -72.207760686692751
-123.266247375587540 236.068245045763945 -66.945087888397737
75.754106970293435 235.174285863354186 -67.554188008595446
-3.880753108350025 235.497310109833847 -67.634159482708839
-1.905631764921825 235.590857770702286 -65.372534722348036
-8.577777666867428 237.629435405164116 -68.082232854958775
-3.275706348842046 240.315699106650271 -67.163512952269400
0.887643918610416 241.694049869184397 -68.087584018543183
65.970711512717912 243.269417403704438 -65.254282474854747
72.158128830518322 240.949435490718599 -67.648546096943392
-2.038891357747287 242.788474103242152 -68.694162740338257
17.815609360274788 245.422819125936996 -67.742234615336798
-32.593731918174917 245.051409564289543 -68.178231713714766
-27.693802794001375 244.141918182983233 -65.675732050687714
-38.816540725013432 246.551172140743091 -69.490846245694073
4.914066344924055 244.161142644398126 -66.987018994636387
-46.000441052283215 246.615089837314343 -66.087292712808164
-37.064056442931985 246.553332417505771 -65.287377438713918
-33.539411260777634 247.092621834803822 -67.496818124339498
-22.356478035875931 248.902658890502465 -68.917424065464672
-49.962580694906045 246.258007963853487 -67.180280130707345
2.630942523053101 246.839157517668525 -66.499065464771917
5.434031114972546 251.022462182698888 -68.950183232837489
-54.537493976611842 248.226037349186356 -64.679881409544052
-40.575273154682137 247.549675643447358 -66.607854692635954
2.367855718565306 249.853444988979561 -67.175721181667200
-61.985744675894310 248.012032055563537 -66.362261224553691
-43.306143030364346 248.735663877316654 -68.145722024677454
-65.921988538443202 251.123411014579091 -65.401335761648483
19.601286913438070 252.424457665012199 -68.286464971867701
-71.492694385580478 251.743363197557784 -67.293460255842916
20.369948892144361 252.841035030368062 -66.919775141822086
-145.572418633515895 251.664907337565097 -67.791732155819787
-160.103643318543192 252.801080003690117 -66.523035734647976
-73.863056226586636 254.505258131420533 -68.904879321316415
15.345441713396045 252.855804260107647 -68.685168268208031
-160.864084741602625 255.830623022545780 -67.931281629399891
-84.081957996713157 254.278583047943101 -65.734182233542342
15.530510820121913 253.961805649541617 -69.960660739296785
-82.638438549899845 254.723689817538087 -67.074010385727192
-73.233483397606634 257.169001039810496 -66.478632785654412
-89.099278172016596 258.107960764912832 -66.004006693333665
-76.167067440213643 259.664735693644275 -65.749664040566785
20.572904648927246 261.250772898577111 -68.221107462215343
-90.094851560771872 258.734530263474142 -67.108149694592811
-126.240039877341275 262.267156817542684 -67.635300869688649
-142.354609234083654 260.451988446414248 -65.161437659278789
-150.099773666507645 261.080805745231373 -66.924677821186251
-118.205068792398365 260.545820142409639 -67.870568289113010
23.462358866563925 262.189949586978798 -70.253394036113278
-146.382763387642939 262.887698499322369 -68.885767459639396
-141.459495136604204 260.539400068188854 -67.953979629970831
-135.342388888687367 261.309699998465078 -67.567930399265663
-123.905378361198416 262.656974368079489 -69.440122244517582
-12.460400024659762 261.517905711021740 -69.869782407842862
-155.949364592239391 264.713820832330896 -63.850253639080677
-134.493644137554782 263.819693911944796 -67.362736855704100
-148.864872875073644 265.548432674353592 -67.600617862244476
-139.780156963616889 263.921326122509299 -67.859198701126672
-134.313281578861535 265.438084855209240 -67.873025093636556
-131.380594308770554 266.210483761988144 -67.551455133568311
-125.137885666943617 266.430246147111973 -68.055474447642780
-161.033430323332595 265.364766032250657 -66.843470528943413
-126.224702045423911 267.224587151338994 -65.713368168598862
23.298649636626358 265.223650027024007 -66.088851653597104
-131.082513828389665 268.456825286776450 -67.413228848650505
-166.900685748649181 266.687979621337263 -66.651686325296680
-163.694952491554915 268.514971788884452 -66.490688654647045
-150.560206212971593 269.265211285600344 -65.587362699283545
-160.111550843557268 269.503929996205613 -66.161958361700556
-150.469359970578438 273.607721745144033 -66.776672469107126
-156.044873888363128 273.131522861102894 -67.104872460959527
-146.688719535796764 269.111519840266226 -67.142609244873498
-165.474968332531034 272.320078658553598 -65.516245465532691
17.065773712677831 279.516446562208216 -70.115772150389930
-165.294221150775172 280.300715280803558 -66.639766610262313
-153.699193892918345 278.629480652094514 -66.586607844893251
-8.338238981418623 279.366931490657748 -70.169599568992936
-159.814875546315477 281.169059088626511 -66.922661102089833
-146.768121826226235 282.297570715481584 -66.574366192434240
-151.704945848092080 280.646034938644789 -68.884937205347384
