# This PCD file was generated using the MATLAB® pcwrite function
# from Computer Vision Toolbox®.
# .PCD v.7 - Point Cloud Data file format
VERSION .7
FIELDS x y z
SIZE 8 8 8
TYPE F F F
COUNT 1 1 1
WIDTH 810
HEIGHT 1
VIEWPOINT 0 0 0 1 0 0 0
POINTS 810
DATA ascii
-14.103591767479967 280.580070911994483 -45.778466133623056
19.781409640374488 284.923985990710946 -48.672255731733401
-14.527515443864596 284.557315689491588 -48.148224243153351
14.576030014033062 283.574511921984026 -48.950082054124273
-13.584169518166362 286.295801766620855 -49.351111466232418
-9.842937306758563 285.919452120414917 -50.145565348849701
-12.466286543383831 285.843849145281808 -49.280808934367336
-10.664657644568727 283.336306400519220 -48.779945975178329
-11.832770302108129 285.434030926524827 -46.507794168389687
-7.565976206751104 288.353909545081365 -51.675501163637882
-13.301191180675659 289.000548000698359 -45.566383459591172
-6.238532801141951 289.667963255844484 -50.411407572599032
6.370258905146041 287.084758016039189 -45.778516526453522
13.029913565266400 288.381604430305686 -47.745946180451035
10.155634217797060 299.014794367417778 -50.122519963200276
-7.351214630666863 292.107166171321524 -45.426340114007054
-2.803168518533283 292.336016778962744 -49.090884692649112
-0.365870744983555 297.917031817162638 -47.060872319266487
1.008292233083298 297.734677144305579 -46.739586992928821
34.899610070609889 20.316681053351331 -51.355909541839829
26.628278504352920 19.583106230586523 -49.287343855645751
36.773860028389905 23.880962632804867 -54.874620520547559
38.692175215727545 19.008577747204846 -42.561963976511691
44.723636879748781 22.522245382537214 -47.083357834699370
51.298103705934430 28.040001067702949 -46.827413566992270
24.186255640367605 30.317597238426838 -46.799031932494884
25.941788142469413 30.057567927711684 -46.333414907942483
42.981386557667889 35.554040779903559 -46.889225959023030
17.548464689112841 33.836102937168079 -51.808643539559419
19.843282216975236 39.281356113653352 -54.578761073986293
29.222347098196973 38.911946494644702 -48.955315046487925
48.783138559121085 39.371214230419291 -50.998462021286535
46.119208878332792 43.976807278652714 -47.142725471632410
-73.430257490494071 49.221961021852366 -49.487138250605334
-46.277766885176355 49.740313018318524 -52.302139154920077
-78.849346846249190 50.892480064438779 -45.851313458199876
-40.955620268404921 55.132226776023643 -50.470051281699334
-91.309325364059163 60.571433600747987 -46.766623265222286
78.797181627545129 61.112842712806930 -46.739377571216743
80.168622829822183 65.176225549599266 -49.917718427628031
89.470457846289733 59.418235214882792 -47.693962229270895
-18.421489519187453 65.892270330648344 -44.543692576327686
-13.314706298696834 63.715746518114749 -45.456901364662833
-25.810359844299107 68.582099549384111 -47.617369296733635
64.283340486467651 68.581383572365979 -45.896392049765794
-29.307584317555804 68.845005022528227 -47.285404652928499
98.656294359231438 68.654448753236267 -49.611367446476756
-33.427946358938300 74.271452667106345 -47.894119192914616
-67.654497731192720 72.368475718347696 -47.932999874475570
-64.787760347020708 74.268792003129079 -47.401835228411542
-63.997438104375043 78.518347159485984 -43.907343097980174
66.441007452622941 80.275425633449103 -47.279180881675785
-99.006432193704939 82.060888830294545 -49.540886008778280
106.878313233759300 80.902770317715280 -50.918964370669912
-51.835635643024467 85.448406187540982 -50.452470840205379
-37.509627206345719 83.599424611672802 -47.076966987427731
-48.010664870411013 84.484175136419168 -46.863852481170028
81.631394666548076 81.691780347294312 -46.006146124542802
83.170452257020230 87.273901657807627 -46.993122463171993
-102.048089836756361 93.107754218901135 -50.280485909278333
72.268157538003493 92.524733406733773 -48.230032647372632
87.775768744884473 87.323991440065058 -44.290308446277479
77.703077587846252 82.955981611097599 -45.804657765327896
-62.781470543648098 93.384484882108282 -52.364121444801697
71.742822835731346 95.394232384266544 -48.384370302591741
89.749776102205018 85.173858266227214 -44.815859387589036
-63.285479522057642 95.690700753970404 -48.319734388857881
90.969573850003542 95.611528373326706 -48.440446159486775
-66.988953562364472 93.800194783215588 -50.186372869263053
65.243068503826777 94.342584695496527 -47.092875007307221
72.389337106884781 94.582120897899316 -47.136227508697296
67.185000019788816 94.920192697665172 -44.885081566084843
64.525688349101074 99.187288632597273 -51.706663532244526
102.937274728166869 100.194340270653029 -51.968130493032575
70.065797071742054 96.083090055437168 -44.966135497823586
-99.183407104103480 94.099305672594326 -47.762729228443874
68.023505064805960 96.209798061171711 -46.011363907844959
94.088108937214471 96.835024163664457 -46.792153989160212
94.195686013552120 100.034881679159383 -48.788942137285410
73.658282582387713 100.826225037033439 -50.150190518236649
105.068781677580461 96.215906128870287 -48.068719091171140
-99.542435413736044 101.723996042543092 -44.200223726690851
60.036192200850309 102.438871917622450 -47.656476120986618
102.286053356556152 108.264795819463060 -44.361849584911852
81.396724022798722 105.343231693770505 -44.175647731931591
85.367718213130885 104.593985206585643 -49.265773068563327
58.658823871462658 106.339584590751514 -48.807239383675437
101.228623710005536 108.884071119231947 -46.410873767187184
94.834075776265010 103.035507592875760 -50.078567125808128
94.441410158146184 111.092054754214942 -45.127657550235959
63.227376277254145 110.395899190111777 -52.112355804828582
60.338792866927911 114.257072905351507 -48.860238206308530
90.776010579509688 110.996584477606518 -44.559911266420748
88.949680263296273 110.137889849991069 -45.722473523906771
92.143382280692521 111.350591734007935 -48.191330334274753
90.334687340737659 112.906273121374070 -53.717634863649288
89.797275378782984 108.668191818052037 -48.232452433130213
56.851476176845253 115.077733486811510 -48.066097494724978
-73.627172628381956 112.967365644805795 -48.333183937983776
51.835142387204336 121.076888182963856 -51.265354140503845
-72.229944175174154 116.527843602189748 -47.279067960177763
-95.924189310099948 120.549098948153727 -52.396588031432785
-80.048123154286657 120.930850240582743 -47.919436301398584
-68.853325502899381 120.958888432883668 -45.421606947330879
49.424068317681488 118.260194878285930 -47.860042791155081
44.191487166265986 118.169465372476225 -45.282356496859904
-82.200798403702038 123.031891996928209 -47.565244227552135
41.283198219329151 115.242844557280534 -47.518584622272648
-68.444272153342794 122.840646890682891 -47.055663854544697
-56.371312843518410 124.601189084627592 -45.489679072913901
40.272457713474267 122.750210470863053 -48.999748407127200
-67.313541300742671 123.925267610008191 -49.261448106338285
-65.323792429604310 128.672495657276812 -48.877123550646516
-59.720845387242484 124.581494352233207 -44.421211830893526
-66.995320596513679 128.636563341636901 -50.444697992322823
-61.409670526743646 126.010414008709631 -47.259589163126776
35.893598039662535 119.017710930292850 -46.670644402008662
38.001924272572253 128.378708272970584 -44.762141558409866
38.047428650709925 126.647695966288936 -49.351474697819562
-58.061504195041039 133.085092247293915 -45.253197001676419
-66.089394493154884 132.656623727865252 -50.244998657617636
-66.287987886641076 130.669449815779899 -48.279496290265328
-60.194968458113131 137.165030670119279 -48.925414204994098
2.956425868208227 246.286081884493257 -52.089480862257652
4.170740214216976 243.533399872013092 -48.699831799826931
5.510185712817677 243.987759724889855 -50.500591931116737
3.652080521361221 246.238985383362603 -46.913721561808842
0.974757585858055 243.839164729193072 -49.581562460763081
-8.834495732346106 244.024278558553391 -48.685328877157716
3.576062873251511 247.782552434026513 -44.783109036315608
-1.689893124311857 241.968267119997336 -46.587871074217638
1.348169964785285 248.721932868971322 -47.332403267085041
20.793095099036616 251.467691777353991 -46.562514138864046
-15.848286909480114 249.441877605154161 -44.692437329836181
15.749869816558881 247.000981905653276 -50.920479948423981
25.835031727380535 249.971536494986509 -50.809706593591116
-18.232124011837669 248.749853542679830 -46.972167128744026
6.143431459239413 252.860399264070566 -45.742445815364391
-18.370941351611933 250.292322068163713 -50.715772959094672
23.602943008493966 253.370040501720439 -51.225881926232567
-19.940039656066705 257.054185651937416 -47.276124173964213
-17.996254127501054 261.953263305164285 -51.380838696647665
30.251937187643378 254.273599733377040 -48.083738377400174
8.031682259281682 257.486408467122828 -49.903836608451186
24.818472646089106 257.309743960376466 -47.454605407174085
-16.003263660609168 262.745563075999769 -50.130950569444011
-17.864592725082527 264.564944196641136 -45.764094284876769
-21.700468207100407 260.563363745288257 -46.068563883320607
-16.432801023783536 266.162305982661735 -49.785034968313390
-12.574938276272094 264.580244173162214 -47.192099396267729
29.218515437336730 268.199745821237343 -46.146331957775622
-15.689380776742153 266.303723013704598 -47.435677260939528
24.552426520392746 265.816567834391435 -51.672871189624573
28.013534667799682 269.715458685446208 -49.868575548611233
-18.041115647963974 267.720770261147550 -49.294809280359239
-12.885221425957919 271.331511314146155 -50.343234381964528
22.690385846362041 280.394038681978543 -45.913924595973988
23.519412938080212 283.868179543403016 -45.645655530518191
-9.079000928378274 280.843718046401364 -50.593367084108984
-9.713320998807635 280.093625540414564 -48.161925181822014
-8.705540007741259 287.174057174318136 -46.813558201020804
19.229413943046787 280.959424667924679 -47.411216139341555
18.627084595127510 282.566876733562538 -44.012812614703115
-6.170015474013082 283.190596672416063 -49.424890033469595
23.970805576056833 283.069000019779310 -43.084061558897531
12.846679534054450 289.448198371621288 -46.260065018502580
15.677894143717355 290.059177277255799 -44.497823305064216
-4.549739677873013 284.957707949966846 -52.112074005054033
-9.278901824333865 286.452556050476403 -49.518782029095362
-0.844514449511428 290.943697251622552 -47.184472247411392
-10.975688063616690 291.096477427252637 -49.350902561514644
14.164547079406903 295.666750791019695 -48.568015298928266
12.836372541059630 296.523573855343102 -49.726160061592509
1.995032845774022 298.606814319279238 -50.873708483506221
16.695182520040024 297.145662897475461 -48.393437050072407
8.826935504294703 298.967140646593464 -45.743115268373181
6.163270793251179 300.203544826340874 -48.439868851091191
9.043315690079634 297.422403140557435 -48.435789531183971
30.234459638575018 15.370115143067165 -47.853825766481009
33.499706088822435 21.972614722993171 -44.861508207888541
25.780406610927653 27.025388140873211 -51.392358470062497
50.101944759429344 26.950734219373981 -48.831188300827321
41.555781318028473 26.494645380658945 -52.959762127177953
20.075883587245862 34.631326722342557 -48.978000886480814
23.928854538174978 35.297996996132831 -44.734506910716092
27.702359394260721 38.903135819031654 -50.401724542791385
47.699292856285084 39.769457437962110 -51.155810054360870
42.323098194880771 40.560714520497321 -44.747815945410821
25.766465066222430 40.230085704824461 -52.542414844399488
41.109888404699248 42.111858835936715 -47.084789329468485
36.762420131576320 40.310514293910948 -47.832661436110548
30.955354101551169 42.255376100815276 -58.298297747009201
29.158977711485885 44.689816561068682 -50.258697202548461
-64.002550223347853 49.113457447592168 -48.449078133431279
-69.129083490451976 47.170775333222032 -50.377791757020212
-68.266487514358374 47.635515084612912 -42.464059101500901
-78.768688822006297 46.841893000910233 -48.614033516739255
-51.412138245975946 50.183541579849717 -47.478827836048865
-48.592741034424165 48.589065022121666 -40.909172221018693
-90.545305876286278 50.491887846861573 -45.615052176930085
-42.791850466255795 50.295826835501245 -52.344139429041448
-88.312776968624334 55.510324238382672 -39.994284910337875
-24.771697673881164 53.203436439029524 -47.433191213043564
-91.757426806756868 56.739040488986646 -45.510019948571596
74.513679151232978 64.895014223535483 -48.086033136439063
72.003133933785804 65.423872466998404 -45.102336455576172
-94.100224201002447 65.835899734222934 -47.719828399105580
69.149047679368309 65.087749155383591 -47.667719348846177
95.230822559625508 64.184774421069079 -47.331920289350776
-60.011626663394573 68.558841579555008 -48.930259923267613
101.409735929108876 72.845369983646890 -47.085109535132830
-65.502111679054181 75.202164398970424 -50.908597776522981
-62.322747151441668 78.366589003379943 -46.738547776442026
-38.055249305960864 77.926608886311257 -51.287275111537255
62.104029562969487 80.793298434570374 -50.555191265977861
85.459321084585966 86.353187017833292 -45.298101665970023
-40.996701939067684 85.877876919319348 -50.714827315419292
83.391767250365390 82.656040633894818 -46.347404069736406
81.855136393623553 85.669580158189277 -48.913545217198198
85.951047329483401 83.594290033269104 -51.306708387908316
74.386669071766192 89.080847935417310 -45.381902159583767
107.647948995673332 90.328023558893378 -46.962001198898569
64.028166045598596 89.604227646781951 -45.059774611463048
74.285657068683406 91.812998975435832 -47.546336537954332
101.843667203223461 93.424077846403449 -49.471525316030927
63.297656972337101 91.423444586374131 -45.769093659408171
90.214633047756081 89.460732067093744 -46.866699857300688
64.761301054047465 90.160087532690568 -43.199902870205655
68.349628843793312 90.492577831847271 -50.513014056833448
65.695614101926296 95.492332226317515 -46.150244534989987
70.758061126195457 97.115414440911294 -43.847965714445849
93.430293582482861 98.713835108250336 -45.318656521320406
97.283229195836853 96.272596542526784 -43.271237097311058
85.628474639760668 96.659818666883751 -48.553245475669158
89.707804801327725 97.052288720479780 -47.852508393545655
96.260620187603109 100.871483899214610 -43.570713882343739
74.342850265359104 101.794125643292844 -49.803099757693730
97.999911843547963 105.433590317414300 -49.244555695337951
-101.460689021044004 103.167392382091336 -41.891092439528464
69.579602553328129 107.016136913411415 -45.928783096098300
102.158738146044087 106.487437224844044 -47.393277108851265
64.713607808722358 111.008043035462805 -47.535903611553884
50.698806808677965 111.973617239003147 -45.893971900477403
-61.701071752188732 108.784119514953289 -48.049017290236776
-72.639104289348822 110.819195639104976 -44.496145949396549
-72.980900477982146 110.024613876681599 -46.428382640164202
-68.729924534378227 110.709117015305765 -46.317633534495691
-56.698590807728316 111.006272938464349 -43.088139048031088
-70.304979082701848 115.027905198317356 -47.514276646938434
-73.397648303541928 118.913569613774740 -43.930214447452542
47.429674029621886 116.686884773848405 -50.294375653376029
-63.620654568542797 118.225714780739835 -46.146269732767948
48.469771477503265 125.054843394840120 -44.789860896459182
43.880898737485161 121.664279845659294 -46.272960104158585
-56.825155422240385 118.081831022666989 -46.781459364054882
45.146568865440777 122.450330593296300 -47.895382831970288
-65.516947345717412 122.863302784723331 -43.224859638798364
46.708446208581705 121.783540078345524 -45.068833744191338
-64.049911178927886 127.684278896115913 -44.754583926137641
44.612494050494419 123.793137790294523 -45.893060595653118
-87.230955250919351 122.767751655265741 -51.850934805328855
-12.787510586000192 244.439611655527898 -42.453047305666921
12.370901338253333 243.758768855452018 -49.959416924425319
-0.469061416027915 246.075061298502419 -48.114918936883178
14.154366652144173 246.812633783902896 -43.838519925194376
-8.690738936061502 242.811208422250729 -47.599188227171091
6.712261128823627 247.865290256532518 -46.953892556019724
-13.470400443707053 245.115843299154790 -51.226056900905490
-13.359339301186424 248.666098314123047 -47.154125587118656
1.150133824439832 251.368446418585592 -46.243725004290376
16.260377528236098 247.579378287498344 -43.368288085335273
17.824296189158972 247.505774001660484 -45.842143818013248
20.911246451223398 247.605162210027004 -48.014248160261104
-16.166145755529342 248.027512525123996 -48.612408807572749
21.220077210746741 247.831320591214762 -48.890436848858116
23.612994972134100 252.898986791214043 -48.633437601036334
-18.016190686302142 246.884454769357092 -45.282056861607231
23.452217882415390 256.966946178976741 -48.607156801362116
-12.228916558750928 259.502973447781869 -45.432685131193807
-17.862187163979119 253.771634235456361 -47.945417455736852
24.302827427651859 258.566858330113860 -47.468687476529375
30.449464450011735 261.574314706458892 -49.068980803509682
-11.349625678185495 262.819602783910511 -51.056257605336754
22.750382540454719 258.008743265253770 -44.944566500952959
29.197826174905387 259.598759779362126 -46.802850975648759
24.854063395910501 265.063165669786088 -47.028671129375446
26.197013916100254 266.915749745774747 -47.497898629791933
9.023895526541942 265.333616071152221 -48.775294261538562
25.762364822562098 259.814959728878875 -43.191698480662033
-16.172961086692688 266.122189760812773 -48.791507277816528
-17.006592841191324 264.330464281005277 -45.271621327793312
10.065269755020498 277.355406622660837 -49.483373196064896
-15.109929134440060 268.732836664046658 -48.333437835687839
22.680516573221571 270.637478469441589 -47.536317679011432
25.818416271996174 274.328429733249379 -45.880644048765980
-11.532408112927961 273.992966752813118 -48.265775626046093
-15.716079928854159 275.751370823314915 -48.920756828593156
10.543525254296854 277.577345754158046 -50.092533390720419
-10.287999590552758 274.672690187371529 -43.852772377511556
27.759023147112117 275.572432604129290 -46.211047555483503
18.372544838132516 278.679892559687858 -52.277990896265024
25.328544133911073 277.996983729866770 -48.447867205026796
22.669436332063917 284.585992357485679 -45.908024099600333
-5.476550928417413 284.206002487778392 -48.637393678921740
-11.010849068340375 282.702639354269877 -47.211937434498111
19.112496325511245 285.997630332188578 -45.415725504247860
14.342096786918948 282.571137318383933 -45.440023919200847
-7.496647615632027 284.115854462926450 -47.296797532138861
14.467124960752932 289.694120921461433 -46.375129383793499
19.062481495149193 289.395455728761874 -48.347910030130393
-8.396111101692238 285.627460677953366 -46.146204374035790
20.900691824678681 293.942215987796374 -47.681851523757771
-7.912500779976813 289.460552664551187 -49.360357235152406
19.302914671946777 286.928239226151504 -45.508927409016145
-0.320526284377690 295.131776710690417 -43.390251497892962
-10.923503501551677 294.979007758493196 -48.880636907581057
-4.152928655625590 293.937184144288608 -45.090364411231519
-0.979471508530545 296.446579862225633 -46.480146403263348
-6.904577257138808 294.191804648069763 -49.807186591027964
1.926050277266238 297.863020482126444 -46.088910007165843
10.530582205102483 299.595643633246539 -46.857277161145092
3.751164918896408 299.984175048215150 -50.439509464719464
7.508144473311409 300.311820364193920 -42.813980928757857
28.400213025918895 19.246950246994626 -46.627266103976041
18.200200570875808 24.762472385261102 -50.423152743398767
29.324427604482985 23.928789799369998 -44.044642600714013
39.884325332276134 29.956486703964725 -53.040182326705349
26.887435784953560 40.693005397716746 -46.302550381610907
21.460748417419165 39.236003866128598 -48.227618995033033
32.842509868659889 42.270291758329833 -48.726667250828633
29.984232888501126 43.990807183182817 -51.650124457482207
31.607208698451590 45.455174760301951 -52.485962569914335
-58.890768099261578 50.064849378567835 -49.440627220396998
-43.075440275425557 52.327001121490767 -44.626122273246700
-15.281197136370242 52.183885548311729 -46.783030385139227
-4.765507171624481 57.466949516247581 -45.542276596578262
-94.431662438999396 63.303278723733818 -52.061443378374705
89.992067902627340 62.734857084416973 -48.182208521033807
85.240291696505778 63.363306302770496 -47.683314172859333
-94.324516534615441 65.644860152847741 -50.504102817525450
-11.662835944640964 66.687061938933397 -53.100242633559965
-17.702669272644862 63.886809448672523 -45.773583355390045
-59.830550620845813 72.850816444138871 -46.245606593924890
99.740250602614424 71.253319360859322 -43.644191871881858
-99.870932925875891 73.628824219373527 -51.353092057969484
-62.450184870504380 75.514446213454093 -47.085754541611237
-63.940252122007657 76.524965101108563 -48.508607831539187
60.958987286551803 76.296982920714868 -45.701353544947729
-62.790733164844411 76.089400859024366 -46.637382209769456
-102.692736113376796 75.673418755915293 -44.643131623330703
64.694655168531000 77.375551730062810 -48.945806554830362
63.158082359792623 73.928504193306949 -44.482282101747302
-40.682034880385615 77.692915659960150 -48.177353780935753
63.051055166203405 82.238667509430186 -49.211727537816138
87.537785954447102 83.095892725769687 -47.854148243549638
88.283223111412156 84.362516620697036 -43.168249471280781
-43.080209984930320 87.961734334299393 -44.965726685748123
73.930816615868309 87.908786621276022 -45.202451315089313
76.747373064234338 84.343026114140940 -43.828979271537690
93.874770344321377 86.386496340568357 -46.408611933376001
90.816920216697326 87.956730113726152 -48.414091403118213
108.012045555193481 87.069396664661241 -48.800568019145501
63.550175639534842 87.908345623068115 -45.378782497468222
65.013480658819631 91.552226687892940 -45.960716699120375
91.274368246244492 85.144174011935931 -40.225658612363880
-55.585048411381280 87.609856370964522 -45.548731797531801
66.433663513564980 85.895167267363732 -44.469421415907597
-57.233978911054315 86.779228802796936 -46.231214200860570
103.939495886071100 95.262437026337096 -44.682885947867689
104.318587441874527 93.910719828849224 -48.286807979338235
80.017273105709876 99.664110344318658 -45.938991023936580
76.733633431871283 99.930697046196983 -45.145070993108519
93.722901667973559 100.525390087945269 -46.235211785580937
97.956883899432896 100.218690465120844 -42.801798922923837
-70.158210367319001 102.559809421337263 -48.718826340737579
98.275205313772545 103.322966238548005 -47.318370792345959
68.465774518014783 102.232552847771331 -43.394780509439684
93.467252233313388 102.907022744849442 -41.355560959011051
82.648982869375772 103.194905077299069 -44.937007614819414
87.826661572089620 103.793158332072309 -49.920806115646137
98.747587318529028 108.215016067418091 -47.608134995006580
60.395011872686212 105.400661343271551 -46.951882820165373
-97.720557417977147 112.005189200584070 -48.668071228210508
58.424069094438885 109.370841836359773 -48.141520623196932
54.706268324082458 110.017724217007697 -51.004924984505415
59.730119505701609 105.550593302590912 -44.274755641946712
57.594920004087349 109.042568064360552 -44.420609116534166
-70.066351214695828 116.092982923243213 -47.116646762067163
57.412251108242451 111.053339193556923 -45.339024362806420
-66.374995778560120 113.015220538488279 -40.131730019948343
49.176207935251213 112.236580126439762 -45.872060134820053
-71.540034876801116 118.820608585698537 -46.283546265985798
-62.134136096657357 114.582445619365615 -45.775603833793546
52.560379917827099 114.647754188726296 -47.593437344676296
49.216091503653836 114.627285747350314 -43.301301580184763
51.963861623827114 114.750709327890519 -47.985511695467260
-75.259570644104500 121.821063960901213 -50.585909518098077
-68.844275722173606 116.218277374885645 -48.314823985996256
-68.209934053612301 115.885872823564711 -41.632736455329869
-68.912854474875729 123.132626836926235 -43.693131114962817
-84.137880450667723 123.314892778288439 -46.526298745072708
-100.331735190416680 127.142654785394527 -47.871134841317946
-67.671092119093615 122.806745601902904 -39.398643939967840
-59.533439365624417 127.822302568709219 -45.492448235044350
-92.055608298350023 127.946854523741138 -48.109849011265254
-58.822478921078840 127.700287845681189 -42.637517770075064
-67.047296669751546 125.137731736853610 -47.745238165647947
-8.361280240338013 240.736843377326949 -46.585778742796087
-17.672734895527697 244.942200585435728 -48.117070573179241
-2.558997224298733 242.788083828888006 -44.940781647323327
7.436609855818860 249.315426997705202 -47.680500363790962
-5.956394518516710 247.382483334245649 -45.918502305612748
-7.091721356506056 241.719840124738766 -43.066883594309886
2.288066856650631 240.216595515830875 -44.016978213191571
17.061468273803563 241.433380190002623 -47.840953231223033
-3.695654400312864 243.442805804188481 -46.521383401337971
3.200382613930127 245.255403564157660 -44.528691214927655
6.025549366568674 244.883875040601737 -45.582990177608366
15.311492231337763 244.359596238125135 -48.117040886667048
-12.962303319947813 244.322587813076410 -43.073788119540211
-10.703010307378191 242.628498814581235 -42.491180963111098
10.295866960011780 245.475195259734079 -42.816445692438144
-17.720497716473634 244.006036963365887 -43.740342117117812
-0.831114378803798 246.442330003918443 -45.176244468526917
-14.935720532593590 245.851943504401277 -46.774469823187218
-9.525293450567590 249.045275047680434 -44.676335567818498
21.300046254911187 247.867283500647716 -43.279962476193731
23.164183547636213 249.034779124093575 -48.559539289372658
-15.871240292146133 248.739335480528638 -42.918682657837479
-14.147787554204477 251.598905639102298 -46.415983707837263
8.169745951832653 250.921533711593298 -46.264863375455548
10.805907507795297 255.298590759803943 -49.232094451480719
-16.475719239170616 253.438780918540346 -45.343679663692086
22.817565975322445 257.483123207766539 -45.042160770396592
29.170783058371764 256.252203311741255 -46.331645794945487
27.800715372732260 255.075329364734444 -47.618898635903030
-15.321100441014528 257.056242533454679 -45.774641288630995
-12.093503861911053 256.579303091418296 -47.282961719353281
24.034232041155164 261.813905234956394 -43.551231784640294
14.666199015804251 261.757681826570490 -41.941069739579007
22.144730038624491 262.616405412636936 -43.973368777200385
24.751315180388040 269.744301415260793 -47.153791112204701
-15.130044061939017 270.888814508757264 -44.905808138473041
25.635226745916007 269.055016620567926 -46.337787504045167
-12.181332880799383 270.731168347018638 -45.172668648388481
-12.458476583365819 270.335377261949645 -46.999544715495183
25.698613500127436 269.784431040835329 -47.305403399208537
28.087570407060191 275.544550473022866 -46.614370859863897
26.175478452467356 276.479479635988525 -50.280059122465659
-8.624568484772274 276.569231652723090 -45.254658006196983
22.801953267439092 273.115235473891119 -51.063666790955629
22.009192363430117 272.852412688716015 -46.891976893008909
18.908949966947130 278.893519649730479 -44.466674311242144
22.698677459425753 283.960219750144120 -45.780421033758969
-10.742612023108933 281.732073012749311 -47.413184876483960
-7.952904096838694 283.275585588038268 -45.533799727382267
-4.903067315107410 285.414878562209537 -42.609215051007439
18.720198937085080 288.198851809152529 -53.897130479572276
22.654881399473354 284.425336775609310 -45.825994434711198
-4.279298464595611 287.330241657016245 -45.417496578117245
-5.205047163604543 282.991183887286070 -45.590423592521638
-5.657937147295154 290.258423529066306 -45.761007575981395
20.309131138473735 287.362588858717857 -45.092283444241772
-6.742341590462662 285.681021827138352 -44.354718311780964
21.284942134664288 294.852721388440386 -45.789356889447269
1.127064897319149 295.132618705757295 -44.336936571034364
0.094684329859303 290.156235403437222 -43.990972553550925
-5.802302531985534 293.635448942223547 -49.707484325744765
17.652273098736234 291.155203115497443 -44.057495742785058
-4.030019123798892 290.182837262614100 -48.611951744439395
1.204486932749613 297.117869293417186 -41.318218857359831
5.390306027004628 297.622757591457344 -40.473087223893707
12.240857350378219 295.230294525990928 -45.832660786745471
-3.025322390747907 298.036972815618753 -46.661581424034445
0.019656315619736 298.268780146162726 -46.431438701111212
7.624231287402566 299.845381855808682 -47.861317195965064
6.410395626996592 304.278018010973994 -48.251729850855796
12.535840705756444 300.490439212283320 -45.776087030199456
33.258290413746664 18.905265723055020 -44.039806453215121
29.260922536577571 20.544459177746603 -48.242649270575583
25.321294794429967 22.532171906171587 -47.730263092355052
29.675235544535948 26.220813092197812 -41.932000304039107
40.993538546814371 24.073579368059260 -45.427541628865455
23.608352647591619 23.858974602547331 -44.613435078392442
23.155200967475217 20.844058470191911 -42.650320694102817
20.539640902832122 27.895868193758680 -45.468865497245510
17.047099985678226 28.245877190662128 -44.568527817131070
46.305046231728625 33.678562723571815 -51.850668474539148
27.290475203798941 26.948650701528095 -44.307387494889937
18.120879932781811 33.927403056999218 -46.973345882872948
25.578567246125704 35.951133763087419 -43.695368947792396
29.161796971621030 38.547087466736521 -41.686244164614322
49.297581868865322 40.830379054905144 -46.550865030271758
27.793304489986667 34.329612714908478 -42.414385529687834
27.807973913572862 39.330326023941268 -44.457386886280979
25.262599063889326 42.872524573736591 -44.129724395533856
33.067868332155179 42.280300655636552 -44.920813138901501
26.271593094128963 47.665011472848043 -45.722498154517787
34.736697886721153 42.370987874454549 -45.655117896896378
38.725151127959869 43.059916308500959 -43.007835949822962
30.834520876823763 47.232905813914215 -43.100503117259414
-74.218658745056459 53.656078252326189 -46.613634039266699
-72.148600701972285 47.366238874138595 -46.254654445306372
-36.271963525259856 50.356702909247332 -47.937046553690273
-15.053525007664287 60.943053746391975 -45.475542553880402
-91.306442141033344 59.694081406672836 -45.956631670220723
-9.692166633850984 61.526908567131073 -49.311153777311887
78.055832998469654 62.346371337907648 -46.922953775253099
82.593948053237440 61.976322045534744 -47.816854975848528
-64.342468706240311 64.784592731378723 -43.162866208301317
69.454207298037716 64.769513011364921 -43.463427544622689
-62.634468969244374 65.937795300461772 -46.758019722608154
-97.821325239173461 72.293076917661125 -49.142972559656350
-33.655454898318588 67.669835922360306 -45.315373523081597
-62.418332410753962 68.628261831754145 -43.567728446490165
-35.960012423898313 72.856748422338015 -40.065899276066503
101.738517303804656 77.482851970392559 -48.599250221033635
77.106674254554761 80.123011301587695 -43.605567566404027
-41.185339566216328 80.501932077442902 -44.494864524178027
78.431035991830996 81.045593573038772 -41.166300948378229
82.654082953877605 79.155112761853346 -45.638507025858786
75.579672183273317 81.072225814252008 -43.243334628821529
72.072150745225429 79.923602859510211 -41.868534517288865
104.222987182159613 78.780838809957487 -47.779701628465780
65.928704348459831 81.496054266911855 -44.244107301557740
68.493779651321091 83.032782134572969 -45.259274287555712
89.887278492108308 84.132146029300586 -45.925882581574051
-45.547189155402762 83.811483653085261 -43.578662299374514
66.151044139993033 82.395049737781278 -47.899913289295633
69.280343579756675 83.124964502120406 -44.743049910440945
104.955341208991683 87.071280088178213 -47.227996525317636
-51.512596264544698 85.278681969338763 -45.921655730760399
95.410570544201519 86.501764297211949 -45.615151758539305
-56.428828604093489 89.938630437729145 -47.672635718949550
-65.661428742127669 95.847152335586557 -45.511945917728333
-64.263180673043024 98.396228469246154 -47.740707488244212
-67.033714982581088 100.011938863843795 -46.566101765024264
69.566979944329489 99.716001452733380 -48.982795163119000
89.043877863958102 99.372946854564347 -44.135808343877038
89.393493522183704 101.497481020602024 -43.347197748917338
74.906530730941370 100.145259747915034 -44.174465967400351
78.314548728275255 103.908686947654417 -42.809033138633680
102.542281916663015 103.337495004558207 -45.612939844222588
-75.349136723684168 101.479559118609529 -45.192384134879880
66.613962801048885 102.503422241571926 -44.558936893508879
78.820218867804044 100.549205597533771 -44.142836834514995
89.689921861273731 103.047603066716817 -41.049241901185589
75.229439491804186 98.866699075462620 -44.522124959032745
85.207722551877438 103.204549991376140 -46.739675435795093
79.298285730418684 103.158074907942989 -43.689591349528776
76.045974295483560 102.366382269559963 -46.603954713557243
65.534895588096774 103.576478573106428 -45.794596359098456
67.500516277024914 104.287344934639478 -45.313176479818800
61.726404709817359 103.036483778802548 -48.428861789196802
-70.980212086611061 108.258803131555808 -52.686733959800925
57.235292152195775 107.438228873203457 -45.453222259497792
-75.902624913277222 112.687685920793513 -45.931858682776067
-63.721729109151497 115.873542331391008 -43.606481944902043
-60.312990923388476 110.028382616582334 -45.665734913364624
-80.151523284428194 118.885725676620822 -45.883865701382753
-96.681920028303225 115.334338576786323 -45.395772697744654
-59.196304974182624 118.015763667336742 -44.675446637848346
-67.913970931648734 119.387133415937484 -42.025409969827336
-62.446492015742542 121.544572973735967 -45.419562675344849
-86.284611418679532 122.297866269447752 -46.568920744061259
-67.418033297378571 121.999882441811351 -40.655659535605331
-63.242448822574374 121.743568934105724 -43.966265860911612
-64.482134955984421 120.892277487202904 -41.299193873519904
-62.256089904448714 128.391780258539427 -43.050139863687725
-89.049919622812013 125.655808654292102 -44.921449462349422
-90.182812276581018 120.810712945938505 -45.941876866960889
-4.065706355520714 243.925217667589607 -47.147890749104981
-0.875417616503933 242.696815898012517 -46.459755411876507
0.320984511619299 244.473181861132502 -46.114164261316617
15.720958436483837 238.989286532919181 -43.666805225792274
-7.268572007352811 239.522042172379997 -42.392188833388730
-10.451893485230176 243.304047946276825 -43.597231559992423
-12.138668268453809 241.301517847729770 -42.723505263739376
0.327237922441156 244.822096679905485 -46.145789711609410
6.455877633096074 246.803517690443300 -42.754858039304651
3.204378104338133 240.868701422630551 -44.309694273976774
4.897075733981627 244.439553350356277 -43.134188681182778
-7.895151377601954 245.295520612414123 -47.535797212512627
-2.879720541269381 244.267063686729244 -43.932395565154131
16.580161797318265 243.119640600078469 -42.990888984313898
-6.276765222590219 245.819403780558474 -42.235926160559487
1.440610877311199 244.073292783080603 -43.090275881770410
-16.690746942818638 246.436792633723400 -45.535599971679993
18.312278710728549 241.392856299290202 -42.950718743019507
-12.045044605925199 247.297085561679438 -45.324749849455678
1.084866130796895 246.852735429107724 -44.048072750372327
17.387739542401206 248.939546420233512 -42.975934343316688
21.196301337611814 247.096719195369559 -43.246941416985905
12.344633877833992 252.170360091895645 -44.327718801903174
23.500856417645320 250.675527004629373 -42.671887082798591
26.486951502972353 257.025137396456671 -42.549225739279336
23.052708321751627 251.941569754097145 -46.124683789946801
11.694889233063140 255.399753427661523 -45.126786797533406
32.773553434092669 253.176708621096310 -39.063827811550567
-12.942114273102353 254.008360815640003 -45.326192653082956
-12.597576475161572 255.505135452518005 -44.272474961527116
-13.616000782804077 263.115448412900889 -42.350245322382733
-17.356811790087765 254.480633183207800 -47.172853528965469
29.515846200879174 261.187556320064743 -45.247344101341994
30.775166727934486 258.722786861888210 -41.384963547004006
24.157157342467713 259.385270550270150 -46.053103328075828
-13.294309182235061 259.983769498244271 -42.926032811583546
-12.654556012080540 260.893878406805925 -44.915177562717588
-12.212025576731003 259.587364292291909 -44.205871198209479
-6.399683927756645 262.207920194425242 -44.922091311091727
-13.533707551780582 269.146276630098669 -45.307676818106302
25.391242555226810 266.064964149858156 -42.687807273412446
25.441531213058337 257.273686995413982 -43.506234037492334
-13.832170359209984 263.731097637045025 -44.838550030651376
25.944438315912837 268.481579511387849 -43.287340239345390
27.914896295086749 263.170488187381011 -45.826068664079543
-12.836029694687213 262.537516536297630 -47.939966890022021
-20.341050074743848 268.399564219198112 -46.456974614203389
29.150379414191434 268.848304998355161 -45.674010968658344
31.522179875610419 269.491326489077437 -46.152968397118642
26.374674522013031 271.470937425222701 -45.703311072675604
25.086101715477824 274.809290784279085 -46.480503622683933
-5.098327588677071 274.894096956539840 -44.359994903237428
22.106252530795814 275.344539002631336 -47.570099086455862
22.526308762594009 275.615737087552930 -48.186667981786925
24.900875343625231 279.318275309925070 -40.323854183805068
27.236225057017471 274.990445371794692 -46.478697426686821
28.068322533068599 275.569493179863059 -45.711609782118714
-1.493565607944519 280.400771494351886 -45.345445992400236
-10.160377048012258 278.098261439836392 -44.281791817484290
15.127523126777575 281.363416852159446 -49.582707392421334
16.696595807535452 284.335676380292625 -46.362411236557719
23.716397937859767 280.342463580941853 -41.387962632354444
15.919233306787790 283.318002326601231 -42.239462086024609
19.488528676386220 280.554249570680611 -44.261763905963363
22.399123563985277 283.122072143791797 -47.113753917321134
21.841249603984341 280.430425709998758 -45.809795126743374
24.203497298071056 279.951746386198238 -45.997957042482703
21.126021498828784 284.553787062871208 -39.615037366767638
17.638392457154747 281.533371659762167 -47.059483337198202
26.004938794541996 282.257034374061107 -44.131360172532773
25.142362685898686 279.808641652987944 -42.742018204819502
-3.879826770479176 283.138790104070722 -45.770362084798876
-4.939095815498884 284.335356770478711 -49.388788707924938
-5.171341532019170 285.024691690269719 -46.417300184718989
24.623635255866862 283.398011581350602 -46.094326548001902
-0.511696074542271 288.488225990896353 -44.673722921719040
15.863106497639341 289.100579654858336 -42.725531588025021
19.592001325778227 284.705266127203458 -44.577845554347626
15.152530261779171 295.168975815081467 -42.847749754384488
15.990985090554529 285.494531170463858 -46.799390670356978
11.508488964369668 290.475710581438761 -40.869432448546483
-1.804915570804571 289.970625362261671 -44.093811323747460
6.633429735795080 289.101081190488742 -45.176414372049067
16.397944466666338 296.327737171447495 -45.804208535222060
16.817841182712996 296.175189269648342 -45.767183664464099
6.152902673420183 293.657348405500841 -47.288245432633232
11.929576085127737 295.517288022815137 -47.796528041944391
1.559156668240003 297.571130277822078 -44.428383814593268
9.360914735445926 297.981153967811622 -46.341950610340248
3.392909008719113 294.494712876612937 -46.163351313957783
-0.931338817263475 300.193514286368043 -45.151125531408582
9.240368432483562 296.301688483268151 -46.852909021536341
0.893022087675928 299.576021219188647 -45.303593281848947
10.017718852888406 298.597032254679107 -45.096463258829033
11.878529516000723 298.631089589886471 -45.383689954945133
0.708164491164394 304.376194423355741 -49.290691082416679
38.377607266240183 13.109649192579308 -41.415260627177034
36.531481124223596 17.655583024591881 -43.126526085804734
42.680240994343684 20.442451306697350 -44.780910737433466
29.676984976110383 19.171366066487614 -42.163421101058155
44.085580515061977 17.495569528953069 -40.046253897627182
26.655505350469387 18.703689946849842 -44.961706573839706
46.554639505512114 21.778470998151974 -44.874644859972378
22.605101648609647 21.396107172563564 -41.347128155434810
23.967293885984265 21.450937950585207 -43.845541240175415
45.103524896200483 22.282423540009820 -43.356141177638754
24.439495552366310 25.742257704250889 -43.170652177759848
42.954425167140577 21.193817754205817 -45.619112416239389
49.126147138985104 28.829951264942160 -45.478375915908323
44.332706543054137 25.997136505007088 -42.651159552825014
22.808410988939311 29.170826378703666 -44.271446543231924
43.957520439302399 28.699839259427478 -41.083594548788739
50.136199436795621 30.180047619405777 -42.721475554089309
44.648796812516991 33.173701547174502 -45.317216478191206
20.500810631541718 31.786946680598891 -41.595241705862563
23.037607029699341 38.280811738263886 -46.849478359893467
23.781695696729443 32.163897824332210 -44.523158168703063
26.526390049620815 30.656599188200843 -40.007565773648913
42.828395011675575 38.204674120781938 -42.289213551018015
46.935941616074729 35.092685796044286 -44.305122827414827
21.615477796868159 38.482682496434578 -44.375923925552932
44.074224473596139 38.387021360317540 -44.568156119722246
21.552801966320086 38.403142250522066 -42.251645163091531
24.313115719236336 40.149448199711792 -47.710478887343854
21.544710414166886 38.858150305361320 -39.913372286264874
37.827130693180216 39.575690659494761 -43.013698245024138
22.656566502607088 37.592210144499468 -45.452349290221534
26.015695920911355 40.060930368274917 -43.631103501836613
29.687056741541181 39.355601596223714 -39.098466721865414
37.451974603809752 41.796114751800609 -45.823655336383851
35.913581947600953 38.794666679101660 -44.153207680432743
45.792573658483462 41.499033271215687 -43.481688548084172
20.916184854136109 44.729538806749993 -44.264461498380996
30.371298195536792 41.580861380001501 -44.205690260692045
27.269687792506662 45.824903382562525 -44.207417064766943
30.047793490684050 45.624492612326520 -44.234534983647990
30.517002319120596 46.452316597285424 -40.918426846729659
36.226055862272183 46.659909805226924 -42.720974042804450
34.132597040540780 46.076897831673030 -43.948867052476004
-65.682090252274989 46.514084620284876 -40.914274094176172
-89.082117637796145 53.396977579874871 -47.362098682927893
-39.415868891327591 56.420956375262477 -44.062305988919007
-31.876449715657035 54.105548639927946 -44.094439162858258
-20.606182851679534 55.357013133791177 -45.728610700582450
-17.560552595294755 58.935973805464258 -45.054489434720026
-19.076058665455708 54.861762075685782 -48.904437731315547
-93.574279970871203 60.588406175234589 -41.911798294284871
81.794706265736821 65.579838349727140 -47.835780894377500
74.703967013996149 62.791670769448586 -43.169748845643554
-64.468739619845493 59.855231091037830 -42.298467621039208
-5.754340960610158 65.210131139649874 -46.928276766498335
75.289498125322496 63.954049947930123 -42.358571940408702
88.144614562179683 64.326732881415282 -41.507779173441961
90.746414536580332 61.123287213644112 -44.443995814358814
-3.652231961617494 64.927812631522670 -46.969233284760435
-67.845856344156473 62.252590584629836 -41.898940568171831
96.689517008784605 63.224080442014859 -41.631507346509267
75.532580225449678 69.368016875239732 -42.009826606733974
94.334018727858378 69.882665485100830 -43.232207581116882
-101.062038276651265 67.765948590532162 -43.913397760594926
-58.294848407583096 63.551326343363876 -43.950177191641885
95.196559902232323 69.476825968145505 -43.479174795855009
-65.166459707751130 74.122691348731820 -39.384169939076465
63.541269825604083 72.224534798671343 -46.634514926300106
99.948356008912569 69.593881954634284 -45.248851863024804
65.946687334676199 79.629580672752454 -45.258016020790777
-38.006225003109023 77.117240380238385 -45.017476937118232
68.353128732394325 75.467575993464280 -45.571024035666227
78.801639823971868 77.023686340864913 -42.423260865144023
84.486356450549891 82.802385351638847 -42.430088773906228
67.288726561420063 75.678993370048914 -45.023744144713369
68.853867670300531 81.238324277885908 -42.833990982952500
89.871056766374551 75.547638443515808 -45.627636333178941
98.619580069968819 86.344393110650429 -42.196633478685989
98.845818468374105 80.821277776279288 -45.903917733805741
95.779345574689117 87.459379224064648 -47.017645016708123
96.918721156312174 81.912262210302288 -44.833735192190019
-100.661169026156244 82.947133967223053 -44.121874427820664
61.158785864210984 79.887528916863062 -44.723363065977978
-49.846887796792046 85.538287687163603 -46.708894549544056
101.998910005812519 84.609978982349674 -43.545733076587275
103.198693755839344 89.926402585575147 -47.375198300759536
95.234986999397563 94.210179699985744 -42.195115914696565
62.198593463871454 100.324036361466639 -45.326650218482641
102.701450583174960 93.276051091272052 -45.471044425712520
100.426700185390914 102.824069469355933 -44.472624238474964
100.168123920109707 97.491010653977582 -43.673545428214403
99.828044307467408 105.261583298615406 -45.415717551986361
96.537837145589833 104.872302036769867 -47.267293028992057
-64.713088897925772 114.083726072003870 -46.556272454362080
-65.185476990621311 112.634392327355158 -42.626968634333409
-95.590107516138190 107.763327781205177 -49.466019421434702
-72.945196220298357 117.871872773665899 -47.308011176026646
-95.074301699724685 122.455674009207257 -49.482682037121201
-64.650887710519825 117.116092294668732 -43.506602872700448
-99.307281907044256 125.568705452468990 -50.889549046062186
-95.121793251035584 122.871707380955201 -45.785720092844414
-93.459434789891205 125.428013493330170 -44.051439867575823
-89.459701037533193 125.130879671078361 -45.984347699249255
0.950444903112986 240.450557218364054 -46.518543733350221
-0.924733491722071 242.528071057533140 -45.051072785030911
-4.864063412663284 243.942575894869208 -45.572929241110835
-0.985508800103587 239.210302416503481 -41.687806473873913
0.744510032742708 244.401226202653078 -44.545039252267024
9.157368101207812 245.475236569109143 -43.684482062021821
9.356352168842765 243.763151481832438 -46.759245395981750
8.083746083693487 245.732464752981230 -43.589204720865496
16.968660494477863 240.450414528886142 -44.555061593602098
21.337555960468716 242.469382572038114 -43.227350979196416
8.583096319432569 245.833559154084412 -43.095658382590877
2.550053469263772 247.334381438999941 -48.582075095498858
13.418191869668320 244.566931903380578 -40.593231041259287
19.915421099588542 249.965811939304501 -45.887501859023608
-6.253873727128148 244.005484717059318 -46.196325611463841
10.641520206417681 247.785250709282053 -44.652198287273755
17.321237777462422 245.822208782005845 -43.492120643434419
9.821932948635951 242.006904734908460 -45.349134549824583
-9.407215587603789 246.460299306223988 -43.061917939338159
-4.364006300124798 248.353183138900988 -43.683999698725515
4.494410446968670 248.839660410394998 -43.246528888156192
15.717134408280922 250.256812016643437 -42.272891001928286
18.637147555932660 253.757915255788788 -44.535472902683885
18.778863588507434 253.065571451657405 -44.920456265365395
23.903064176181203 248.440040483391073 -44.628973152462912
21.472389220029637 251.430674870084374 -37.913209360464990
-12.177262787027971 253.524929082098055 -42.557838904352870
26.517071979837652 249.325223908529324 -41.283871348227528
-14.106405386793021 247.697370932577456 -44.831624128140120
-13.437061715833982 252.693965444032187 -43.361600750911506
22.774278711853604 250.184094112304820 -45.360642210395952
15.951805135379436 250.656970930254033 -44.617263701535890
17.359315139522039 252.555924322125492 -44.598766687525107
-12.835580152987262 255.744655035658809 -47.487796437892257
32.300994190096375 251.792046998671111 -47.788820067226801
-12.930599140783841 255.165992355125553 -45.827122324380731
-13.332283935140262 254.591741637653399 -42.491603178457048
-14.489591055268448 254.676429361563919 -40.958699066623659
-13.315219452906467 256.300850865336827 -42.659817795677533
-13.417733381697163 255.929098909510145 -45.465690924066621
