-101.929809570313 -63.082221984863 -96.788253784180 3.686536312103
-15.711685180664 -74.697906494141 -170.493804931641 5.011663436890
-89.073951721191 -65.926353454590 -102.594772338867 4.702439785004
-88.248512268066 -71.423301696777 -101.788482666016 6.043867111206
-19.626586914063 -68.873649597168 -160.948730468750 12.245169639587
-119.775283813477 -67.953330993652 -84.420730590820 20.930233001709
-96.660995483398 -64.470199584961 -89.881301879883 3.834352254868
-91.289794921875 -69.463203430176 -95.189910888672 3.619303464890
23.512924194336 -71.026855468750 -181.586563110352 1.687404155731
-122.529853820801 -63.881240844727 -74.727844238281 23.364130020142
27.634094238281 -76.147064208984 -165.962280273438 1.758002758026
28.081314086914 -72.345336914063 -168.085601806641 1.190230965614
0.716857910156 -77.451141357422 -154.249328613281 5.503260135651
13.272338867188 -73.084960937500 -155.484756469727 1.713766217232
-125.242065429688 -67.152717590332 -61.651306152344 27.817180633545
-114.044006347656 -69.386833190918 -67.943664550781 17.454372406006
-57.984889984131 -68.617012023926 -100.729049682617 8.200420379639
-57.975601196289 -65.224845886230 -97.646133422852 5.975243568420
-106.625816345215 -62.531448364258 -55.726654052734 11.116978645325
-69.250000000000 -70.090690612793 -92.477249145508 5.302460193634
4.861518859863 -74.875259399414 -155.308532714844 2.463864564896
-83.376693725586 -63.721023559570 -79.338836669922 11.918907165527
-94.379119873047 -64.715232849121 -69.113769531250 2.996074438095
17.483840942383 -70.420265197754 -152.992996215820 1.323811411858
-86.719734191895 -67.892997741699 -73.299591064453 6.093380451202
-79.113540649414 -60.858619689941 -81.554718017578 15.855093955994
-70.641654968262 -63.148811340332 -85.588790893555 7.899446964264
23.142852783203 -80.322036743164 -147.191223144531 3.738778591156
-60.757438659668 -69.677688598633 -82.782211303711 6.293870449066
-109.907089233398 -71.354675292969 -58.214477539063 17.367408752441
-94.769248962402 -65.691184997559 -64.858886718750 2.635342359543
-110.457977294922 -64.363281250000 -53.945220947266 15.670468330383
15.698638916016 -74.756278991699 -146.323898315430 3.977548360825
20.646362304688 -72.071807861328 -140.040145874023 3.988139152527
85.548645019531 -74.253639221191 -197.987823486328 8.885280609131
23.519927978516 -70.041160583496 -147.901336669922 1.594392418861
-85.784156799316 -64.980094909668 -56.873962402344 2.418180465698
12.890060424805 -74.999015808105 -139.406234741211 8.774918556213
83.310821533203 -76.888809204102 -193.150878906250 13.679077148438
86.760971069336 -76.758628845215 -188.736862182617 13.250086784363
-82.274383544922 -67.566253662109 -66.862884521484 6.541898727417
-101.770019531250 -59.795974731445 -57.093017578125 5.969362258911
-65.155136108398 -68.985824584961 -78.213012695313 9.328372001648
-72.383407592773 -71.689636230469 -68.329559326172 6.889203548431
-103.230247497559 -65.376098632813 -47.600677490234 13.487129211426
-101.426773071289 -63.033340454102 -48.603393554688 10.847902297974
-92.752960205078 -70.667144775391 -57.961517333984 5.217223167419
15.666885375977 -74.888053894043 -135.190155029297 10.106597900391
27.332122802734 -74.087181091309 -134.489776611328 2.255588531494
-96.988952636719 -65.331733703613 -43.128570556641 11.235999107361
33.833435058594 -72.741058349609 -145.248199462891 2.506629467010
30.617874145508 -71.594284057617 -141.813507080078 1.654450535774
-98.968620300293 -64.356887817383 -47.829864501953 10.124320030212
46.303131103516 -68.876777648926 -149.960510253906 10.878074645996
75.733901977539 -72.780860900879 -164.739227294922 30.817605972290
72.963668823242 -71.992111206055 -165.737304687500 33.380672454834
21.413177490234 -70.853462219238 -123.749404907227 9.056439399719
74.895751953125 -76.719497680664 -159.546966552734 32.952644348145
-93.064865112305 -68.570587158203 -37.794708251953 14.977238655090
-91.770202636719 -63.356178283691 -41.659667968750 9.058238029480
-93.367218017578 -58.216163635254 -37.442962646484 11.614118576050
80.330657958984 -76.859405517578 -166.192001342773 26.050071716309
-37.216186523438 -69.142547607422 -73.987945556641 2.437693119049
-60.814880371094 -67.439384460449 -54.406463623047 6.471567153931
-47.122711181641 -61.130538940430 -66.941009521484 10.612628936768
61.617385864258 -68.911338806152 -140.234222412109 22.334636688232
69.718887329102 -77.995635986328 -153.534683227539 33.738140106201
-41.772743225098 -70.417259216309 -68.346923828125 7.914763450623
-38.932731628418 -73.160621643066 -76.731384277344 2.186371803284
76.985382080078 -69.693908691406 -154.144973754883 31.583299636841
73.975936889648 -77.377937316895 -149.732299804688 35.658203125000
-83.128601074219 -57.622680664063 -34.853454589844 10.591953277588
65.907272338867 -74.229080200195 -140.297943115234 25.909473419189
-70.168495178223 -61.419342041016 -34.982391357422 9.033629417419
-46.789085388184 -66.454254150391 -54.736022949219 6.137210845947
-67.713615417480 -67.622581481934 -40.241760253906 4.575755596161
70.676376342773 -75.514801025391 -140.190048217773 30.213048934937
-57.673023223877 -66.897369384766 -46.656890869141 3.107059240341
31.261596679688 -73.887207031250 -119.154632568359 1.015967130661
65.677749633789 -69.860877990723 -126.420532226563 20.198923110962
41.972564697266 -65.679443359375 -117.700225830078 4.310170650482
70.072113037109 -70.684570312500 -118.195587158203 12.478488922119
-68.720230102539 -60.398162841797 -14.434631347656 28.738756179810
45.306503295898 -74.017456054688 -99.476257324219 1.826617836952
-67.695182800293 -59.664047241211 -16.163146972656 26.795761108398
-41.509124755859 -61.973388671875 -31.199432373047 13.312564849854
-73.561508178711 -55.440231323242 -6.461700439453 36.301937103271
-34.531898498535 -66.063331604004 -33.849029541016 12.923525810242
-23.331268310547 -65.506256103516 -37.954772949219 12.071719169617
51.196838378906 -73.797241210938 -99.273727416992 2.050626516342
-27.667854309082 -63.779594421387 -37.086517333984 11.813017845154
-38.249237060547 -68.239173889160 -35.500488281250 11.480196952820
-37.821594238281 -69.159255981445 -25.213043212891 21.381704330444
-52.364982604980 -63.872039794922 -16.900909423828 26.543188095093
-42.021202087402 -69.151618957520 -23.267883300781 22.435083389282
-67.901565551758 -57.073791503906 -6.509094238281 36.144344329834
-57.934154510498 -67.335044860840 -11.065948486328 32.578483581543
-60.997177124023 -66.355590820313 5.271850585938 48.908992767334
-52.393608093262 -65.035957336426 8.770751953125 52.060878753662
-62.751205444336 -65.658241271973 4.472442626953 48.024669647217
-40.697067260742 -62.661087036133 -0.632324218750 43.308330535889
-45.368637084961 -60.192512512207 8.363006591797 51.890529632568
-77.932945251465 -78.395591735840 -348.630126953125 57.102901458740
-61.199371337891 -74.141883850098 -348.606323242188 56.818729400635
-78.683959960938 -79.971237182617 -329.692962646484 39.038200378418
-54.133674621582 -78.780693054199 -342.692749023438 51.600646972656
-68.157386779785 -75.404136657715 -322.596130371094 30.320077896118
-65.437019348145 -77.305969238281 -325.563720703125 33.703895568848
-128.567687988281 -77.905960083008 -260.377471923828 1.976596713066
-13.279350280762 -85.600158691406 -330.816741943359 39.811187744141
-4.091400146484 -79.239028930664 -327.762054443359 35.438934326172
-145.738754272461 -68.837776184082 -230.016326904297 2.491698503494
-85.903015136719 -78.425262451172 -277.547363281250 8.953258514404
-142.923706054688 -68.844474792480 -221.434753417969 1.311923861504
7.131637573242 -78.509223937988 -336.378021240234 42.504085540771
-80.887603759766 -78.535720825195 -272.001281738281 13.741313934326
-8.135719299316 -76.070243835449 -308.153747558594 15.939269065857
-98.179252624512 -68.690811157227 -242.673553466797 9.370750427246
-87.937561035156 -71.263664245605 -258.370513916016 2.265854597092
-14.812217712402 -84.315483093262 -296.327972412109 8.815304756165
-95.682495117188 -62.763229370117 -241.153167724609 11.169519424438
-7.056266784668 -89.520065307617 -300.880126953125 15.000995635986
-14.512176513672 -73.044586181641 -291.193847656250 1.839188456535
-10.448692321777 -79.670776367188 -289.908447265625 2.857590913773
-10.035400390625 -71.776618957520 -295.169281005859 4.499960899353
-9.116546630859 -83.838684082031 -289.279327392578 7.118183135986
26.943817138672 -85.347335815430 -312.365905761719 23.672481536865
34.164825439453 -87.485763549805 -315.926818847656 31.206321716309
-2.248245239258 -75.949401855469 -288.187255859375 2.205985784531
35.244186401367 -86.636856079102 -315.669342041016 31.474578857422
-115.155563354492 -71.842834472656 -208.070922851563 5.294681549072
-109.036460876465 -71.065727233887 -207.252426147461 5.723842144012
28.021987915039 -85.401229858398 -313.091857910156 24.837608337402
-8.116775512695 -77.482574462891 -283.535858154297 4.483964920044
3.518280029297 -77.506393432617 -296.522552490234 4.206311702728
-104.115325927734 -71.074493408203 -203.792984008789 7.120617389679
-116.140495300293 -72.068641662598 -195.902801513672 0.884092569351
20.580337524414 -76.221130371094 -301.778259277344 10.046044349670
-18.478797912598 -75.404235839844 -273.703460693359 5.978133201599
37.874725341797 -85.935691833496 -309.191680908203 29.160438537598
-4.805587768555 -74.750091552734 -270.355804443359 6.436964988708
39.009567260742 -81.152900695801 -316.442810058594 33.439865112305
-107.353706359863 -70.804885864258 -197.282897949219 3.358807802200
36.405014038086 -86.746490478516 -306.310180664063 26.748260498047
-106.229125976563 -73.507247924805 -186.209365844727 5.142611026764
-82.113105773926 -69.068717956543 -196.031906127930 14.934072494507
-83.509933471680 -72.512245178223 -199.991790771484 10.750628471375
-91.212020874023 -68.671966552734 -186.348602294922 14.896863937378
-74.010360717773 -70.698944091797 -198.033508300781 11.816104888916
-99.215927124023 -68.413879394531 -176.086395263672 3.392029285431
-95.651580810547 -75.093841552734 -181.266357421875 11.932344436646
-96.464065551758 -69.740859985352 -179.861602783203 8.059571266174
-75.913955688477 -65.891441345215 -183.004455566406 17.927270889282
-84.352653503418 -70.529144287109 -177.791076660156 18.075925827026
-80.689460754395 -65.920852661133 -190.691101074219 20.765739440918
-72.697448730469 -71.833892822266 -184.629150390625 15.009872436523
-14.570144653320 -80.463058471680 -223.830352783203 3.509906768799
-101.227050781250 -68.684799194336 -166.203857421875 0.625949442387
-61.839042663574 -66.363853454590 -185.331451416016 9.074065208435
-98.875328063965 -71.113449096680 -156.597625732422 3.616729259491
-105.810867309570 -72.300430297852 -154.294357299805 6.612700462341
-3.207000732422 -73.209136962891 -220.650939941406 1.616482734680
-5.106338500977 -74.111778259277 -214.058532714844 2.531367063522
-92.725303649902 -66.290756225586 -147.968688964844 2.817194938660
-105.106796264648 -68.036705017090 -149.706192016602 5.609107494354
-92.350158691406 -70.329292297363 -139.365036010742 2.870428800583
7.068801879883 -76.394645690918 -208.662292480469 0.919418096542
-98.795410156250 -68.188652038574 -127.631484985352 7.374279975891
6.328948974609 -76.251724243164 -214.837936401367 1.801277160645
-125.783424377441 -65.418182373047 -103.673278808594 26.510875701904
7.589179992676 -76.111053466797 -201.994308471680 1.708307862282
19.006744384766 -74.577980041504 -198.054473876953 2.132350444794
-123.574264526367 -67.238571166992 -93.812332153320 24.167112350464
9.457992553711 -73.843040466309 -204.733123779297 2.804074525833
11.163940429688 -83.425109863281 -198.125717163086 5.625544071198
-119.800399780273 -61.408889770508 -100.550399780273 19.653984069824
-121.718666076660 -69.139663696289 -90.896316528320 23.094060897827
15.843566894531 -74.737319946289 -193.671722412109 2.421982288361
16.462448120117 -71.986152648926 -191.094390869141 3.047556638718
-110.366844177246 -63.217979431152 -93.359298706055 10.357649803162
-82.617774963379 -67.266624450684 -109.442306518555 3.537941932678
27.627410888672 -75.129440307617 -187.840072631836 2.056491136551
-97.120407104492 -66.196243286133 -102.443115234375 1.349353790283
15.513305664063 -71.317474365234 -177.073760986328 2.302905797958
-100.639801025391 -73.691337585449 -100.621276855469 7.046298980713
-130.334701538086 -67.518539428711 -85.681411743164 30.856176376343
-124.508796691895 -66.402717590332 -80.326385498047 25.687070846558
-123.342170715332 -62.798622131348 -85.181381225586 22.829622268677
-5.862365722656 -72.057868957520 -153.756988525391 10.487135887146
-129.480148315430 -61.482185363770 -73.447448730469 30.275230407715
-19.686065673828 -77.160888671875 -161.137786865234 11.395609855652
-9.242431640625 -71.612998962402 -167.819305419922 3.987001657486
10.032409667969 -80.969879150391 -178.997375488281 8.046501159668
-115.697669982910 -64.083038330078 -74.508575439453 16.589027404785
-77.468437194824 -69.628288269043 -106.819396972656 2.502979755402
-6.815757751465 -77.112419128418 -162.187088012695 4.272078514099
-122.602584838867 -71.311386108398 -75.796752929688 24.727703094482
22.433898925781 -74.213088989258 -180.391769409180 2.613005638123
-127.369743347168 -66.580612182617 -66.307556152344 28.978427886963
-88.052894592285 -64.477210998535 -99.604904174805 7.151471614838
-81.358856201172 -70.374710083008 -96.356231689453 4.261025905609
-89.768226623535 -67.250022888184 -96.629760742188 6.215836048126
-4.261520385742 -74.478866577148 -160.424896240234 3.474527120590
-6.205665588379 -72.025749206543 -157.893539428711 7.276473999023
-118.476356506348 -64.944038391113 -65.886322021484 20.032718658447
-115.084823608398 -67.404098510742 -68.325714111328 17.441263198853
-114.360961914063 -63.475479125977 -59.220306396484 17.027309417725
-97.329071044922 -62.896057128906 -78.826568603516 3.167172670364
-95.506401062012 -66.039031982422 -66.252929687500 1.553504824638
17.138717651367 -75.811508178711 -155.746109008789 3.800904512405
10.106109619141 -67.551345825195 -153.207000732422 0.164173156023
-62.390995025635 -70.636909484863 -95.846939086914 2.925854444504
21.419128417969 -75.291313171387 -139.104553222656 3.987629890442
-111.244117736816 -67.432640075684 -47.641418457031 20.736368179321
-57.757610321045 -70.003044128418 -82.548248291016 6.295049667358
24.479095458984 -73.423866271973 -151.840515136719 2.083771944046
25.974822998047 -74.560562133789 -149.344680786133 2.837642192841
-63.302539825439 -67.159584045410 -78.703521728516 7.323517799377
21.893600463867 -72.223556518555 -149.026748657227 1.318107724190
-68.725830078125 -70.663146972656 -74.414703369141 10.231429100037
18.969833374023 -77.192886352539 -141.373580932617 5.686042308807
26.144302368164 -74.902671813965 -142.615509033203 1.394385576248
27.864532470703 -74.540596008301 -139.005355834961 0.756339073181
86.843170166016 -82.100891113281 -184.801589965820 16.389036178589
21.599166870117 -69.629333496094 -136.045608520508 4.378026008606
36.275054931641 -73.430587768555 -148.771026611328 0.882459461689
38.359512329102 -75.270034790039 -147.999206542969 3.416526556015
34.010406494141 -72.426773071289 -143.783676147461 1.911969900131
34.975143432617 -71.683769226074 -140.852844238281 1.457901954651
81.016494750977 -83.223327636719 -176.935470581055 23.826522827148
86.267501831055 -82.534492492676 -179.431900024414 18.201448440552
40.960632324219 -74.736534118652 -136.609924316406 3.596665143967
73.976806640625 -74.673645019531 -168.222656250000 31.915729522705
75.505676269531 -71.825035095215 -172.157974243164 29.860651016235
74.695098876953 -80.973373413086 -158.166671752930 34.040283203125
71.384643554688 -79.784255981445 -155.007980346680 36.118331909180
74.354919433594 -77.268142700195 -148.539871215820 35.326045989990
-62.969043731689 -72.093345642090 -46.678466796875 2.856690883636
27.893997192383 -74.143119812012 -128.039306640625 2.648144245148
65.302139282227 -77.647521972656 -143.275619506836 26.560468673706
69.100646972656 -77.845718383789 -160.711715698242 34.990970611572
61.843658447266 -71.947196960449 -146.768981933594 23.702920913696
-41.688926696777 -64.654083251953 -62.627990722656 10.508579254150
64.280059814453 -73.890075683594 -144.511474609375 25.448829650879
-73.564193725586 -62.712051391602 -36.499938964844 7.576322078705
-53.944831848145 -63.841140747070 -58.130523681641 10.563999176025
-47.901145935059 -66.988609313965 -59.397125244141 7.974955558777
40.278121948242 -69.953681945801 -123.538314819336 1.314174771309
-81.863906860352 -63.247253417969 -36.321807861328 9.480958938599
73.883560180664 -75.230690002441 -142.889678955078 34.222267150879
-47.388267517090 -68.828407287598 -63.205566406250 8.120298385620
62.515884399414 -69.742134094238 -139.952606201172 22.910737991333
-63.417182922363 -62.151527404785 -40.536437988281 4.058375358582
-48.112983703613 -67.289802551270 -49.608581542969 2.915337800980
-45.759132385254 -67.497642517090 -56.013458251953 5.855738639832
-48.653053283691 -59.549079895020 -55.785827636719 10.169849395752
-74.613098144531 -63.090881347656 -43.987152099609 2.067563533783
65.667510986328 -74.553947448730 -141.841812133789 26.197780609131
-50.622276306152 -68.787117004395 -52.479095458984 5.099794387817
-72.245727539063 -63.375953674316 -35.410461425781 8.636518478394
44.367462158203 -75.890960693359 -111.939254760742 1.539534449577
-66.581024169922 -61.754722595215 -19.020843505859 24.312812805176
52.203948974609 -71.487350463867 -94.925247192383 1.929192781448
50.265167236328 -75.526809692383 -102.883987426758 1.384309887886
-48.788208007813 -65.926521301270 -20.563110351563 23.710369110107
-42.986557006836 -65.051307678223 -21.336975097656 22.887214660645
-46.399314880371 -65.941612243652 -15.288177490234 28.746412277222
-42.343742370605 -68.594047546387 -24.403900146484 21.133161544800
-63.170944213867 -64.128990173340 -3.921905517578 39.487197875977
-61.450752258301 -63.065856933594 1.689819335938 44.878200531006
-52.707031250000 -59.998443603516 -2.609008789063 40.355682373047
-51.653755187988 -62.114379882813 0.508056640625 43.626922607422
-52.219970703125 -65.061424255371 -7.313690185547 36.169940948486
-52.162078857422 -64.661521911621 2.488403320313 45.799785614014
-41.993484497070 -67.384323120117 8.077789306641 52.232025146484
-79.893310546875 -75.293830871582 -324.201812744141 33.186706542969
-48.485961914063 -76.601943969727 -334.156921386719 43.336978912354
-69.303390502930 -71.519668579102 -318.917968750000 26.523637771606
-59.222759246826 -78.578147888184 -317.205017089844 26.692090988159
-116.158561706543 -81.960868835449 -269.465698242188 11.635896682739
-141.722076416016 -76.587593078613 -248.819076538086 3.269844770432
-10.063781738281 -81.844230651855 -331.298583984375 39.531406402588
-14.987327575684 -80.116836547852 -327.336975097656 35.016189575195
-14.058891296387 -78.191940307617 -324.122100830078 31.517972946167
-149.815277099609 -71.002037048340 -216.377960205078 2.266000986099
13.285049438477 -77.474380493164 -330.973358154297 36.622524261475
-83.351867675781 -72.528724670410 -248.386596679688 2.056306838989
-16.923843383789 -82.476028442383 -309.121917724609 18.539323806763
-95.712829589844 -78.224029541016 -240.907684326172 12.404113769531
-107.911857604980 -75.647888183594 -234.829254150391 7.228110790253
-16.011001586914 -78.988250732422 -290.911895751953 2.424388408661
25.019287109375 -84.301544189453 -320.669860839844 29.728042602539
-5.455459594727 -82.288558959961 -295.847412109375 6.214466094971
-11.744346618652 -81.466217041016 -292.751281738281 4.184272766113
-12.178855895996 -82.758575439453 -279.332702636719 7.889209270477
-5.577972412109 -83.760589599609 -284.177764892578 7.208173274994
29.300857543945 -84.524726867676 -315.070159912109 26.873470306396
8.240371704102 -80.919601440430 -287.225189208984 2.990128993988
-6.606903076172 -79.189651489258 -278.576110839844 3.028063774109
13.854705810547 -74.425361633301 -291.691345214844 1.718150258064
31.835998535156 -86.065544128418 -304.701232910156 22.064203262329
-112.338256835938 -75.177581787109 -209.741531372070 7.900518894196
-115.785614013672 -71.204093933105 -193.630126953125 1.260601520538
-110.855934143066 -70.998840332031 -194.756027221680 2.676747083664
-89.640457153320 -72.907791137695 -201.884155273438 10.516324996948
-82.440490722656 -68.657043457031 -197.930236816406 13.362528800964
-115.713340759277 -71.434295654297 -179.645462036133 6.349057674408
-100.358901977539 -69.288833618164 -194.026504516602 6.895357131958
-94.474700927734 -67.360305786133 -181.065429687500 9.764757156372
-84.547683715820 -76.181274414063 -194.594238281250 15.390448570251
-105.087196350098 -75.049148559570 -175.990402221680 5.834016323090
-106.273597717285 -72.179939270020 -174.950851440430 3.616000652313
-70.241867065430 -69.740699768066 -196.073928833008 13.131598472595
-70.780670166016 -71.239036560059 -192.735961914063 15.051075935364
-91.862350463867 -67.952430725098 -176.271163940430 10.085230827332
-71.551376342773 -70.139701843262 -187.321594238281 15.150604248047
-84.646636962891 -66.760444641113 -173.264556884766 17.027015686035
-13.061050415039 -79.620300292969 -232.432479858398 4.503662586212
-72.392257690430 -67.398277282715 -183.196716308594 15.517083168030
-69.851486206055 -76.262939453125 -182.529296875000 10.932078361511
-12.021789550781 -71.771644592285 -213.658538818359 3.208115339279
-8.103561401367 -78.364952087402 -221.958129882813 1.461011528969
-122.787086486816 -66.046165466309 -110.231399536133 24.177755355835
-94.943054199219 -70.549888610840 -125.057846069336 4.296489238739
-88.488365173340 -72.763633728027 -114.262985229492 2.066928148270
-122.026809692383 -63.807052612305 -89.891052246094 21.623456954956
-92.491653442383 -69.211425781250 -116.484100341797 2.669785976410
-117.218009948730 -71.244773864746 -85.300033569336 19.831384658813
-85.677368164063 -69.336967468262 -105.512649536133 1.919505596161
-114.164138793945 -69.506027221680 -82.096389770508 16.641582489014
-109.795333862305 -66.525085449219 -78.451324462891 11.263907432556
-113.380462646484 -60.821334838867 -77.211730957031 14.383483886719
-98.630950927734 -65.907066345215 -64.427520751953 3.506343364716
-97.711395263672 -62.394653320313 -63.028747558594 2.191397428513
-61.372959136963 -71.589935302734 -87.123428344727 4.196096897125
-61.403007507324 -68.732254028320 -96.161849975586 4.285387516022
-73.388595581055 -72.801246643066 -73.388061523438 7.470615863800
-64.312591552734 -68.272056579590 -88.261230468750 3.510679244995
-101.562782287598 -64.742424011230 -54.703918457031 9.152817726135
18.964279174805 -74.913696289063 -150.100311279297 3.567726612091
-82.480377197266 -63.138031005859 -69.513580322266 10.904224395752
-95.827514648438 -64.724494934082 -52.903747558594 5.438074588776
-85.485008239746 -62.607368469238 -64.266784667969 7.833481788635
18.665359497070 -75.505729675293 -138.075744628906 6.304410934448
40.221466064453 -74.900794982910 -141.714263916016 2.651656389236
81.194931030273 -83.975265502930 -176.260711669922 24.029912948608
50.780181884766 -70.861709594727 -142.841598510742 12.227202415466
75.810729980469 -77.959930419922 -169.808685302734 30.134920120239
69.201477050781 -73.771339416504 -155.862609863281 33.529491424561
87.425521850586 -81.762481689453 -165.634216308594 20.513813018799
-87.679756164551 -65.138397216797 -42.227447509766 7.459407806396
-79.371276855469 -61.494049072266 -41.198577880859 4.183842182159
75.412811279297 -78.208709716797 -152.114868164063 33.747653961182
61.600234985352 -75.815292358398 -144.555465698242 22.941133499146
77.563751220703 -80.767105102539 -157.013122558594 31.252592086792
-73.029327392578 -62.307510375977 -36.114929199219 7.919371128082
-71.825653076172 -67.674903869629 -46.799621582031 1.392548799515
-58.275276184082 -69.497428894043 -50.992675781250 2.024639368057
-67.528289794922 -66.458648681641 -48.321655273438 3.143475055695
-71.573005676270 -64.650993347168 -42.671661376953 2.584783554077
-56.949470520020 -67.726699829102 -51.094818115234 2.190327167511
-72.995162963867 -67.819786071777 -39.036865234375 7.077738761902
-61.167770385742 -63.812438964844 -50.229736328125 6.531413078308
-51.604499816895 -65.888320922852 -48.641723632813 3.564813852310
-58.509361267090 -65.986946105957 -43.255310058594 1.401225805283
-53.752380371094 -70.890197753906 -48.029235839844 2.473389625549
42.057418823242 -73.187858581543 -115.259094238281 1.690326333046
66.641921997070 -80.073425292969 -139.442459106445 26.705347061157
-71.001983642578 -71.369911193848 -31.440551757813 14.347941398621
70.061737060547 -74.008171081543 -130.192001342773 24.093912124634
46.839080810547 -79.784500122070 -106.618133544922 2.080833196640
70.336746215820 -68.404251098633 -115.418914794922 9.028002738953
-54.017723083496 -64.729728698730 -16.627990722656 26.867235183716
-42.143455505371 -63.710144042969 -28.309753417969 16.097276687622
-45.279701232910 -70.994316101074 -21.424285888672 24.476160049438
-67.178955078125 -69.110977172852 -2.759368896484 41.262645721436
-42.671478271484 -72.120079040527 -24.833648681641 22.080589294434
-35.828369140625 -68.848396301270 -30.490203857422 16.502487182617
-35.958946228027 -63.101554870605 -19.972717285156 25.815835952759
-61.403728485107 -61.162185668945 -8.130432128906 34.913482666016
-80.645751953125 -75.861137390137 -341.597045898438 50.116714477539
-76.630157470703 -74.903289794922 -336.802307128906 44.986701965332
-68.443199157715 -80.841445922852 -338.554779052734 46.846260070801
-59.187084197998 -85.621292114258 -342.482574462891 52.572448730469
-71.201141357422 -73.079559326172 -328.067504882813 35.681522369385
-75.700195312500 -75.148376464844 -317.795440673828 26.209747314453
-111.264091491699 -73.711219787598 -276.886077880859 9.756078720093
-144.701629638672 -70.146911621094 -242.554412841797 1.343127727509
-89.796173095703 -76.274475097656 -275.476867675781 11.650327682495
-13.343048095703 -83.866889953613 -324.787567138672 33.545154571533
13.059326171875 -84.287315368652 -338.980346679688 45.450927734375
-9.699005126953 -83.709075927734 -303.720733642578 13.807402610779
-12.410942077637 -86.527801513672 -301.233398437500 13.235430717468
17.926422119141 -82.063804626465 -322.969543457031 29.725421905518
-109.451538085938 -76.157402038574 -221.818603515625 4.249572277069
-111.401405334473 -72.850120544434 -222.025817871094 3.282272577286
-15.838325500488 -83.184402465820 -289.003448486328 4.600959300995
-109.027374267578 -69.882987976074 -216.153381347656 6.366728305817
-109.861907958984 -73.044639587402 -208.247634887695 6.400198936462
-127.638053894043 -71.435791015625 -194.954299926758 1.778952121735
-113.995223999023 -77.123825073242 -208.057571411133 8.058211326599
-13.125083923340 -84.234680175781 -278.353912353516 8.769296646118
-102.903221130371 -70.241828918457 -211.280853271484 7.670117378235
-11.001876831055 -82.412307739258 -277.459289550781 6.210183620453
27.812026977539 -83.704101562500 -304.920776367188 18.350614547729
28.186492919922 -82.134887695313 -294.653564453125 13.842498779297
-100.752388000488 -73.192329406738 -197.799804687500 9.300979614258
-114.622962951660 -70.062835693359 -191.957122802734 1.415361642838
-90.884002685547 -73.550521850586 -200.836746215820 11.869448661804
-118.561714172363 -76.262680053711 -180.999023437500 11.005640029907
-97.407775878906 -69.634735107422 -185.828460693359 8.877128601074
-112.456184387207 -79.453880310059 -175.363113403320 11.050408363342
-93.837425231934 -74.631278991699 -201.100738525391 12.622650146484
-88.232391357422 -80.169631958008 -199.394088745117 12.989459037781
-106.566696166992 -69.753372192383 -175.181106567383 2.207333803177
-87.655593872070 -69.863769531250 -193.759399414063 18.419565200806
-100.059623718262 -72.866340637207 -176.147003173828 6.294557571411
-98.604454040527 -71.253921508789 -175.511749267578 5.586164474487
-79.645103454590 -67.726898193359 -187.300903320313 22.710443496704
-80.838249206543 -77.164581298828 -189.367691040039 18.423770904541
-76.824348449707 -80.555175781250 -192.434112548828 14.683798789978
-113.557533264160 -74.471374511719 -168.980758666992 8.288906097412
-104.404182434082 -75.482818603516 -158.891448974609 7.519969463348
-103.928276062012 -71.256294250488 -169.975097656250 2.050786733627
-6.630592346191 -74.871749877930 -223.442550659180 1.962327957153
-68.695625305176 -72.981109619141 -190.326202392578 13.315114021301
-5.927299499512 -77.311477661133 -222.633209228516 0.795839786530
-92.411590576172 -69.648597717285 -142.047164916992 3.475288867950
-93.252128601074 -64.229988098145 -134.867797851563 2.808574676514
-92.821090698242 -74.368331909180 -134.529815673828 5.578351974487
-96.103675842285 -77.097702026367 -128.701568603516 9.586448669434
-93.312095642090 -69.173271179199 -124.898086547852 3.604556322098
-94.609832763672 -70.060035705566 -123.708343505859 2.855909109116
-115.942718505859 -70.455574035645 -98.634918212891 18.776552200317
-91.399124145508 -70.922485351563 -117.489593505859 1.189755320549
-100.303504943848 -71.254135131836 -91.399124145508 5.192361831665
-115.278106689453 -64.272109985352 -84.496124267578 15.616232872009
-97.564285278320 -68.001495361328 -97.400756835938 1.551914215088
-123.125061035156 -64.390182495117 -82.422744750977 23.582420349121
-110.114555358887 -62.830947875977 -83.413619995117 10.567423820496
-96.911682128906 -74.733764648438 -99.159927368164 5.234636783600
-101.736251831055 -70.264732360840 -92.348007202148 6.214338302612
-101.466239929199 -60.842880249023 -84.478469848633 2.278065919876
-84.985290527344 -65.667495727539 -76.323394775391 9.801352500916
-62.733398437500 -66.402252197266 -83.074798583984 4.130697250366
-91.503341674805 -66.310081481934 -65.805450439453 3.485409498215
-70.855895996094 -70.080406188965 -75.023864746094 10.160597801208
-69.217880249023 -74.413848876953 -77.989227294922 7.299893856049
-71.832107543945 -66.713928222656 -74.068939208984 12.585291862488
-80.233032226563 -68.245880126953 -65.926666259766 7.457749843597
-63.311416625977 -72.416496276855 -72.876007080078 8.476435661316
32.792846679688 -76.932182312012 -145.418853759766 1.621810913086
-92.953781127930 -64.266433715820 -50.628936767578 4.074386119843
33.380249023438 -75.443550109863 -145.835189819336 2.353894472122
36.275039672852 -80.192955017090 -138.193771362305 1.283267617226
34.037643432617 -72.907676696777 -138.971939086914 1.164818525314
41.654891967773 -79.790481567383 -146.180770874023 6.773343086243
-88.202743530273 -69.987403869629 -59.031402587891 2.670391559601
30.896270751953 -72.456825256348 -129.363601684570 2.452103137970
45.959671020508 -76.823837280273 -151.184127807617 10.510748863220
78.020523071289 -80.721603393555 -161.051071166992 30.258789062500
78.214263916016 -80.230255126953 -159.846817016602 30.249542236328
-80.323455810547 -64.387687683105 -43.077575683594 3.524937629700
32.909622192383 -73.384437561035 -127.525512695313 3.343298912048
56.286605834961 -75.542289733887 -140.235931396484 17.047061920166
-64.918624877930 -74.154487609863 -47.278442382813 4.163602352142
-58.091434478760 -69.512992858887 -53.601531982422 4.305393218994
-58.427825927734 -65.700653076172 -51.944732666016 4.477120876312
62.942001342773 -77.502380371094 -140.896240234375 23.614562988281
-61.490898132324 -71.061645507813 -39.171600341797 6.842268466949
68.629669189453 -80.077026367188 -143.044815063477 30.035543441772
71.741195678711 -77.552780151367 -140.817932128906 31.541200637817
-76.920394897461 -63.659896850586 -26.170623779297 18.386922836304
-59.432743072510 -60.172927856445 -16.344482421875 26.945941925049
-61.412345886230 -70.841979980469 -13.410339355469 30.906694412231
-52.819801330566 -68.105743408203 -9.412078857422 34.572704315186
73.044815063477 -72.107749938965 -105.819427490234 3.243926048279
-56.606204986572 -67.750755310059 3.018493652344 46.663646697998
-57.766513824463 -76.683029174805 -339.855041503906 48.784309387207
-58.324089050293 -73.811927795410 -322.484924316406 31.549535751343
-131.371505737305 -78.493011474609 -260.315246582031 3.219397306442
-140.819793701172 -76.827224731445 -252.711425781250 3.947416543961
-102.486839294434 -80.175415039063 -276.013824462891 11.093273162842
-96.970977783203 -72.983848571777 -275.654022216797 10.910216331482
-79.404266357422 -81.453376770020 -273.026947021484 13.990502357483
-92.109062194824 -81.208457946777 -259.696838378906 8.220460891724
-14.979217529297 -81.919326782227 -310.782287597656 19.787622451782
-141.843444824219 -79.184883117676 -212.030990600586 2.388154745102
-96.159652709961 -74.632133483887 -235.132812500000 11.194951057434
-16.286254882813 -79.638206481934 -295.843627929688 5.241821289063
-11.643951416016 -81.212127685547 -299.539825439453 8.774727821350
-10.027168273926 -80.817169189453 -297.306701660156 6.879927158356
28.852493286133 -85.491859436035 -322.957946777344 33.530094146729
-16.277854919434 -83.547439575195 -291.751586914063 5.326785087585
26.799255371094 -91.140121459961 -309.808654785156 24.182512283325
-116.790740966797 -70.543846130371 -199.863021850586 3.488634586334
-125.593154907227 -73.014854431152 -197.162322998047 1.655521154404
15.833145141602 -86.445220947266 -284.824035644531 8.877499580383
-113.019462585449 -72.883636474609 -202.624954223633 2.323371410370
-106.912399291992 -68.048103332520 -196.328338623047 2.426313877106
-108.266181945801 -65.690505981445 -187.061645507813 1.096637964249
-81.004371643066 -72.995452880859 -198.362274169922 11.760409355164
-96.339126586914 -73.518211364746 -183.308013916016 10.491139411926
-86.599456787109 -78.630363464355 -191.712570190430 18.644569396973
-100.268089294434 -70.383247375488 -172.568145751953 2.960875749588
-94.174537658691 -74.453727722168 -180.401199340820 12.287767410278
-101.202606201172 -74.957992553711 -184.844390869141 7.976109981537
-106.988998413086 -73.838859558105 -175.169860839844 4.877221584320
-85.435218811035 -76.949050903320 -183.766433715820 21.326362609863
-106.306030273438 -71.692794799805 -173.225555419922 2.760940790176
-73.297477722168 -72.028144836426 -196.149810791016 12.195738792419
-73.171508789063 -68.111709594727 -188.400024414063 17.539390563965
-4.946830749512 -79.261383056641 -235.009887695313 2.876768112183
-76.170562744141 -80.928985595703 -189.396606445313 17.719924926758
-13.975036621094 -73.129623413086 -226.895050048828 0.799920260906
-12.453956604004 -80.354759216309 -222.164154052734 3.973729610443
-6.040809631348 -82.848320007324 -218.426162719727 3.410691738129
-104.878608703613 -73.180198669434 -157.199157714844 6.395788192749
-95.726402282715 -71.948921203613 -159.623443603516 3.927833080292
-100.359352111816 -75.268501281738 -154.358612060547 5.724725723267
-100.054733276367 -70.317802429199 -138.375473022461 6.645713806152
-96.031066894531 -73.096145629883 -145.645034790039 5.095852375031
-130.291107177734 -70.513122558594 -101.009063720703 32.461055755615
-131.714416503906 -67.902908325195 -100.463455200195 32.749652862549
-94.821289062500 -72.872291564941 -119.252777099609 1.917619347572
-120.497489929199 -70.559997558594 -106.669494628906 22.995576858521
-92.269500732422 -74.443679809570 -120.896270751953 3.668985366821
-120.527664184570 -76.670181274414 -93.932846069336 25.180162429810
-88.417266845703 -74.271270751953 -112.891799926758 2.997075557709
-93.235046386719 -69.146415710449 -121.012344360352 1.112553477287
-110.365638732910 -68.822044372559 -85.321716308594 12.572998046875
-98.229141235352 -67.448402404785 -98.561508178711 2.938315153122
-79.750671386719 -70.267517089844 -110.825515747070 1.600104928017
-87.943580627441 -76.699943542480 -103.914398193359 4.179189205170
-84.286621093750 -68.352867126465 -104.338409423828 1.036839008331
-85.819252014160 -75.484588623047 -100.235946655273 5.262164115906
-103.470458984375 -71.916809082031 -94.833221435547 7.793714523315
-104.761665344238 -68.470062255859 -85.555908203125 7.525989055634
-92.713752746582 -71.028617858887 -87.577056884766 2.990585088730
-97.000045776367 -75.119964599609 -94.999435424805 4.312531471252
-89.206817626953 -71.898193359375 -95.151489257813 4.585927009583
-80.327072143555 -71.029541015625 -101.264068603516 0.786780297756
-105.964080810547 -69.192176818848 -73.127777099609 9.525864601135
-105.623497009277 -68.432128906250 -66.470153808594 9.995513916016
-103.930046081543 -67.988166809082 -63.654296875000 8.838920593262
-90.447814941406 -63.056488037109 -69.479644775391 6.055311203003
-83.149154663086 -74.037857055664 -71.245086669922 3.036958217621
-79.890190124512 -67.405822753906 -85.890762329102 11.971408843994
-88.637802124023 -65.794235229492 -64.678588867188 4.682832717896
-100.984588623047 -65.915946960449 -62.122772216797 6.582846164703
-85.446624755859 -67.532043457031 -71.903320312500 7.004499435425
-84.294876098633 -72.197998046875 -69.885894775391 3.441212892532
-94.967109680176 -69.022262573242 -61.560241699219 4.852733612061
-86.167617797852 -76.471817016602 -68.200073242188 3.847364664078
-78.278442382813 -70.039276123047 -69.555664062500 7.422095775604
18.792755126953 -73.865249633789 -134.204864501953 7.948648452759
35.741744995117 -78.546264648438 -140.724563598633 2.350487232208
43.763992309570 -83.623382568359 -144.319549560547 9.770466804504
40.217376708984 -74.169776916504 -141.855529785156 2.502699851990
23.198974609375 -72.993972778320 -136.565704345703 3.406002759933
23.590393066406 -75.167610168457 -125.979003906250 5.371961593628
64.727111816406 -80.590286254883 -152.610763549805 29.398893356323
76.413131713867 -80.191879272461 -155.506896972656 32.435691833496
-80.006340026855 -68.668983459473 -41.217712402344 7.636018753052
73.109024047852 -81.613281250000 -152.323089599609 36.400024414063
70.707687377930 -77.431961059570 -151.645050048828 33.846908569336
-88.648376464844 -61.604354858398 -32.141143798828 15.095755577087
-81.182266235352 -67.115066528320 -37.246856689453 9.795213699341
-81.393676757813 -64.593330383301 -34.392089843750 11.488606452942
46.509307861328 -74.707679748535 -122.261093139648 1.954162955284
-75.013687133789 -66.038101196289 -28.330139160156 16.219436645508
49.831314086914 -75.742988586426 -111.241500854492 1.699826002121
-66.367721557617 -63.871910095215 -24.931640625000 18.921697616577
-64.767753601074 -66.330276489258 -18.982452392578 24.993185043335
-63.848968505859 -66.875907897949 -12.617553710938 31.353342056274
-65.590263366699 -76.365478515625 -15.690002441406 29.568925857544
-56.586032867432 -69.304023742676 -11.075347900391 32.753253936768
-68.259452819824 -67.550811767578 -11.683349609375 32.418716430664
-64.386566162109 -66.126983642578 -12.804321289063 31.170919418335
-64.767593383789 -70.520484924316 -10.136352539063 33.925746917725
-60.588123321533 -67.665222167969 -12.775726318359 31.061773300171
-58.347442626953 -67.440895080566 -16.353820800781 27.324317932129
64.054885864258 -74.923927307129 -110.663284301758 11.185400962830
-55.129135131836 -67.883506774902 -8.089660644531 35.646987915039
-66.386184692383 -71.301048278809 -3.370758056641 40.755664825439
-68.145996093750 -73.026153564453 -7.625518798828 36.842777252197
-59.413032531738 -69.625457763672 -8.074737548828 35.823234558105
-61.003414154053 -75.115570068359 -13.065277099609 32.016784667969
-57.283672332764 -64.680023193359 -10.641998291016 32.805740356445
66.449127197266 -74.224761962891 -100.599197387695 5.829258441925
-53.503448486328 -70.804687500000 -10.082397460938 34.155597686768
-58.210250854492 -71.285881042480 -9.137878417969 34.963745117188
-78.946914672852 -87.996826171875 -337.988525390625 48.726192474365
-63.706237792969 -77.171020507813 -341.320098876953 49.443042755127
-64.208160400391 -85.351638793945 -340.834594726563 50.307403564453
-79.016296386719 -76.186408996582 -317.033233642578 26.266807556152
-70.694580078125 -90.969192504883 -318.762878417969 32.039813995361
-60.109039306641 -82.346343994141 -325.116485595703 35.166351318359
-129.240325927734 -77.826316833496 -263.651580810547 3.410462856293
-127.551895141602 -77.063522338867 -270.216308593750 7.737667083740
1.090110778809 -84.766212463379 -332.963287353516 40.882606506348
-149.382156372070 -75.875076293945 -224.062072753906 1.401100158691
3.948402404785 -75.044532775879 -341.276397705078 47.750812530518
-13.556091308594 -81.032852172852 -315.675079345703 24.005546569824
15.426605224609 -82.748077392578 -327.853729248047 34.324157714844
-14.936065673828 -77.195602416992 -308.438323974609 15.935061454773
-99.441444396973 -76.622299194336 -245.364822387695 9.033164024353
-14.841720581055 -85.480453491211 -301.606475830078 13.145362854004
-106.634712219238 -79.683197021484 -240.701782226563 14.161669731140
-16.797492980957 -82.905364990234 -298.640686035156 9.473354339600
-9.422988891602 -86.868804931641 -300.080322265625 12.911411285400
-140.707489013672 -74.092117309570 -207.057022094727 4.021681308746
-19.827270507813 -84.239532470703 -295.129119873047 7.617918491364
-14.037727355957 -76.437332153320 -288.444580078125 3.038707494736
-3.989837646484 -81.991950988770 -297.452789306641 7.217976093292
-11.989921569824 -83.121986389160 -285.545440673828 6.836874485016
-113.061279296875 -76.256362915039 -199.276748657227 4.730591773987
18.494689941406 -79.269577026367 -296.040313720703 4.812963962555
-107.229064941406 -69.578887939453 -187.706512451172 1.255698800087
-111.603645324707 -76.781021118164 -202.592514038086 6.349998950958
-102.380462646484 -73.038795471191 -186.303955078125 6.259704113007
-111.165863037109 -75.362083435059 -188.952621459961 5.492618083954
-117.545982360840 -77.768150329590 -180.033386230469 12.039409637451
-105.402008056641 -72.979644775391 -187.304092407227 4.778395175934
-78.841781616211 -77.631195068359 -202.304443359375 5.729847431183
-94.584594726563 -76.992607116699 -177.548706054688 12.750729560852
-81.204193115234 -81.072601318359 -195.051208496094 13.205903053284
-101.705070495605 -76.774185180664 -169.928787231445 7.861387729645
-5.761642456055 -81.305755615234 -238.914184570313 6.082698822021
-12.201530456543 -79.869056701660 -230.465698242188 3.443093061447
-102.660110473633 -84.133666992188 -160.611297607422 14.952884674072
-5.748847961426 -77.628768920898 -226.341796875000 1.380409240723
-96.571037292480 -70.212837219238 -161.488723754883 3.264189958572
-100.413909912109 -78.463058471680 -157.931259155273 9.677205085754
-0.809455871582 -79.006027221680 -213.058959960938 4.730997085571
-101.462463378906 -74.199592590332 -156.732254028320 5.953359127045
-104.742111206055 -75.551902770996 -156.232589721680 8.224407196045
-103.584655761719 -73.686927795410 -146.117385864258 8.404013633728
-91.558822631836 -73.360389709473 -146.370529174805 5.033483505249
-87.983436584473 -69.243377685547 -126.996383666992 1.204766750336
-99.618072509766 -64.939941406250 -131.669876098633 7.463805675507
-92.139907836914 -71.780761718750 -142.172821044922 4.561826705933
-96.680404663086 -71.286178588867 -135.800277709961 5.831296443939
-118.732254028320 -69.189842224121 -106.073242187500 21.110656738281
-96.190750122070 -72.190216064453 -123.906295776367 4.995458602905
-113.430923461914 -70.067985534668 -98.850814819336 16.362232208252
-118.397247314453 -73.731689453125 -91.120834350586 22.261119842529
-125.305305480957 -74.898353576660 -90.014968872070 28.914165496826
-93.560829162598 -74.044921875000 -102.382415771484 2.486757755280
-100.266784667969 -66.640632629395 -101.037521362305 2.715490102768
-91.055198669434 -73.775535583496 -98.434814453125 3.382334709167
-108.642593383789 -67.250427246094 -85.533020019531 10.406031608582
-90.290496826172 -67.126213073730 -96.325119018555 5.976945400238
-109.770370483398 -69.118019104004 -82.326980590820 12.476715087891
-112.827751159668 -69.826744079590 -77.609497070313 15.157107353210
-102.075462341309 -70.843048095703 -58.854675292969 11.504146575928
-90.022735595703 -63.269432067871 -61.794586181641 3.551951885223
-78.349815368652 -73.308197021484 -70.504089355469 5.666738510132
-99.212295532227 -70.681587219238 -57.267486572266 9.667612075806
28.278060913086 -72.203338623047 -138.024032592773 0.557001769543
38.713043212891 -81.784347534180 -147.530242919922 6.108911514282
31.638031005859 -73.320228576660 -135.590621948242 2.458600997925
-88.580032348633 -70.351432800293 -46.275543212891 8.139086723328
24.259414672852 -79.444381713867 -132.845336914063 5.667718887329
-85.042800903320 -62.906051635742 -38.162780761719 8.597313880920
30.927581787109 -71.825851440430 -127.079666137695 2.925013303757
-80.706787109375 -66.693801879883 -40.121002197266 7.195971488953
54.097900390625 -77.571456909180 -141.942245483398 15.490496635437
-83.411132812500 -74.067955017090 -37.058929443359 14.036129951477
-81.270858764648 -69.262458801270 -38.521209716797 9.967990875244
-83.623229980469 -69.278572082520 -38.581878662109 9.989578247070
-79.263671875000 -70.456298828125 -36.319793701172 12.088672637939
68.247299194336 -78.887817382813 -142.630691528320 29.324878692627
70.522796630859 -79.431411743164 -137.916427612305 29.623731613159
-78.278045654297 -68.992248535156 -41.954803466797 7.019717216492
-81.076126098633 -74.277091979980 -33.436279296875 16.761560440063
-81.663597106934 -64.643486022949 -32.930633544922 12.951016426086
-77.099853515625 -71.953048706055 -37.509704589844 10.824726104736
66.036666870117 -80.565872192383 -136.872283935547 25.331232070923
70.201263427734 -80.030761718750 -134.484985351563 28.512411117554
-82.246856689453 -67.066490173340 -29.159637451172 17.245252609253
-71.464202880859 -69.978958129883 -35.551483154297 10.831882476807
-76.125930786133 -73.167320251465 -33.387420654297 14.601993560791
-70.570472717285 -70.098579406738 -34.310180664063 11.381720542908
-71.875686645508 -66.309150695801 -36.793579101563 8.108047485352
-71.128189086914 -63.533859252930 -33.287353515625 10.857029914856
-73.651855468750 -71.727218627930 -30.404724121094 16.371969223022
-63.371654510498 -73.182342529297 -12.846313476563 31.624454498291
-62.888275146484 -69.411827087402 -18.888275146484 25.203302383423
-65.893394470215 -68.775161743164 -20.899291992188 23.084259033203
68.231399536133 -78.918762207031 -115.294631958008 15.480582237244
-67.069808959961 -72.814155578613 -11.214294433594 33.193614959717
-58.337696075439 -70.182899475098 -12.047698974609 31.918481826782
53.487838745117 -69.464843750000 -98.314514160156 2.719352722168
65.099044799805 -78.504783630371 -99.982147216797 7.863242149353
-61.011631011963 -68.211555480957 -5.273559570313 38.588401794434
-76.213356018066 -75.581130981445 -331.927490234375 40.156646728516
-57.108032226563 -82.173675537109 -337.818298339844 47.222858428955
-51.022377014160 -77.539596557617 -336.083496093750 45.038070678711
-57.098823547363 -87.074722290039 -326.639892578125 37.514240264893
-67.835632324219 -74.208358764648 -318.727661132813 26.399925231934
-50.048538208008 -79.970664978027 -326.800720214844 36.153797149658
-10.296127319336 -88.491935729980 -327.934997558594 37.992584228516
-11.301597595215 -84.661041259766 -327.467956542969 36.474132537842
-84.136886596680 -78.853591918945 -264.745849609375 10.851220130920
-14.005767822266 -87.326522827148 -315.233459472656 25.681497573853
-90.628028869629 -76.558868408203 -258.619628906250 3.912216424942
-92.306091308594 -72.297698974609 -246.650054931641 5.518853664398
-113.295349121094 -78.043792724609 -238.226806640625 9.753479957581
-109.696517944336 -80.688652038574 -236.177291870117 11.093170166016
-11.163162231445 -78.193984985352 -304.274291992188 12.659099578857
30.580352783203 -81.552619934082 -323.661163330078 34.288696289063
-108.749847412109 -80.265235900879 -228.790756225586 8.086935043335
-7.235366821289 -83.266799926758 -289.511962890625 5.929428100586
-2.059944152832 -85.706832885742 -294.528198242188 8.125041961670
27.940078735352 -87.545684814453 -318.083526611328 29.507495880127
