# This PCD file was generated using the MATLAB® pcwrite function
# from Computer Vision Toolbox®.
# .PCD v.7 - Point Cloud Data file format
VERSION .7
FIELDS x y z
SIZE 4 4 4
TYPE F F F
COUNT 1 1 1
WIDTH 1419
HEIGHT 1
VIEWPOINT 0 0 0 1 0 0 0
POINTS 1419
DATA ascii
-136.515488 -63.325668 275.565491
-191.085434 -59.271145 175.856598
-204.131073 -60.323231 146.836502
-196.394592 -59.672878 173.239182
-195.871613 -61.896080 170.067734
-131.487915 -63.403240 278.824280
-134.042328 -61.075249 273.584717
-214.806473 -53.264278 144.278931
-133.858063 -58.313244 281.916931
-196.891388 -59.139400 169.959717
-183.760010 -54.218182 194.915771
-193.678131 -56.536922 173.078873
-193.062088 -53.251953 180.275635
-183.682251 -60.034054 202.002960
-215.800262 -57.806885 141.792343
-183.234116 -58.381382 199.068268
-220.698944 -55.950596 148.639542
-217.762772 -59.019627 144.746384
-218.227249 -57.034737 145.884659
-182.910324 -58.472027 205.790939
-138.006485 -56.304443 285.297638
-189.783539 -60.961502 197.995422
-186.148193 -59.212044 208.759262
-184.789291 -58.215389 203.309998
-227.662170 -59.310822 143.797943
-217.248184 -57.988503 158.180573
-212.861786 -59.661015 163.376678
-142.606674 -58.178577 287.481689
-149.201599 -56.024597 287.209137
-154.568909 -58.336838 280.824188
-155.605896 -60.061485 275.173462
-218.312897 -59.968758 172.250778
-155.618958 -58.537762 277.890106
-160.778915 -57.992710 278.051086
-228.789688 -60.392365 173.340286
-229.025360 -61.885155 170.170395
-162.661591 -56.297504 294.698639
-161.525528 -58.198753 292.767914
-164.109177 -58.700623 298.192627
-163.222916 -60.262196 294.751923
-172.253113 -60.290501 296.506134
-165.500580 -57.106861 301.544983
-234.427124 -60.107426 175.389175
-246.908081 -53.110146 155.167755
-243.552170 -57.720829 160.659531
-167.062119 -55.196526 299.500885
-173.121811 -58.613674 299.740173
-250.181046 -57.007317 171.552841
-177.880096 -62.675140 290.208221
-181.113022 -57.000477 295.037964
-242.745132 -62.491997 188.209290
-236.054520 -56.495899 208.495605
-242.035538 -57.994556 194.637344
-232.448532 -58.983223 196.892105
-236.774399 -59.252617 194.240845
-245.232941 -59.124065 188.902481
-246.233627 -59.170910 187.796677
-177.866379 -58.990784 300.066437
-254.562485 -60.307598 162.925781
-255.058640 -60.797035 164.239456
-181.180191 -55.512539 300.380005
-263.753326 -65.007347 164.122711
-178.248825 -58.018238 307.701294
-186.450684 -58.103725 310.323273
-191.513580 -57.568661 312.880951
-192.134079 -55.338516 308.838928
-194.229736 -57.382992 314.396179
-197.601379 -61.852592 310.386230
-190.885651 -59.058876 313.128540
-24.491272 -57.909687 108.258232
-26.646797 -57.646740 108.901855
-29.688492 -54.041744 96.015770
-23.447626 -55.494259 118.713562
-28.523193 -58.084316 103.388649
-31.052767 -58.903946 99.754097
-36.389645 -55.709705 95.060402
-33.531136 -55.762894 94.400482
-15.880896 -53.339447 127.519699
-42.831284 -55.558479 84.380997
-44.979385 -59.686768 90.862854
-57.301052 -55.021282 87.227043
-51.554138 -57.463173 95.203728
-113.017441 -57.829102 0.518686
-112.041107 -51.741486 -5.980381
-105.647362 -59.955063 -1.997318
-113.112648 -53.538254 -1.791743
-111.603203 -56.338627 3.741758
-118.159958 -57.546940 -1.543888
-117.784874 -58.339409 -2.889858
-112.774872 -55.828392 6.498634
-121.101028 -59.945328 -1.141544
-46.194786 -58.161587 119.539734
-126.305939 -56.491669 -0.499343
-119.734779 -56.297092 3.741497
-127.091331 -57.957359 -1.049748
-56.932652 -57.709362 125.674835
-124.008461 -59.838875 2.763997
-54.129581 -59.250271 126.432144
-124.133461 -56.263897 1.481611
-48.312473 -55.259403 127.218178
-111.282410 -57.502621 35.095257
-113.457512 -59.101402 46.677612
-44.322048 -55.448948 165.076782
-113.743874 -56.644058 44.136898
-53.547829 -57.718273 157.734344
-119.310211 -57.766754 43.362896
-53.869999 -58.499886 166.300491
-124.002449 -55.292465 49.381729
-121.323784 -58.239906 63.224480
-126.174126 -54.628052 58.476151
-134.135895 -57.602692 57.122143
-123.750832 -55.351700 67.371056
-128.770126 -58.064941 69.610779
-131.367691 -61.622555 68.240875
-135.062759 -58.755924 64.344467
-93.653732 -62.728275 147.024216
-135.235046 -54.978951 82.446404
-94.641434 -53.964451 144.061539
-105.645081 -60.550858 143.790558
-101.752937 -57.786457 151.712646
-142.713364 -57.466305 74.168907
-103.778847 -58.032936 148.816681
-106.753952 -52.076565 141.579742
-107.045273 -57.328476 145.643112
-187.426575 -55.065666 4.552077
-108.169868 -59.667553 146.577805
-108.580208 -56.416546 143.662811
-110.431503 -56.597633 138.723953
-144.563461 -55.219025 81.314529
-105.957626 -55.171707 153.556015
-102.645424 -53.810978 168.614410
-105.345619 -58.374474 160.626221
-195.951859 -55.284290 9.550149
-189.349121 -58.959972 14.813492
-118.009842 -58.786118 146.273361
-152.761169 -57.474072 90.019226
-194.962524 -54.675705 14.589354
-125.065643 -54.001511 137.224960
-136.145401 -59.331715 111.546005
-158.336121 -57.243927 90.561241
-195.909943 -59.278809 18.299053
-114.549355 -53.270657 164.575729
-118.466362 -59.357235 147.062134
-116.614082 -58.853512 166.383514
-200.715256 -51.837887 16.690126
-144.712036 -55.327942 115.498108
-154.063522 -50.512363 94.806152
-116.985031 -54.163055 168.512970
-145.436157 -55.853695 124.811569
-119.428246 -58.040474 166.393631
-202.909607 -60.889854 20.596849
-116.395424 -59.103794 170.966660
-121.546021 -59.881981 166.405487
-143.028091 -54.735088 127.173882
-148.817307 -61.531208 116.837791
-120.958466 -62.393711 163.349197
-203.405151 -59.787788 27.797585
-205.000687 -63.720982 21.234364
-132.299622 -58.030785 141.970093
-162.486847 -56.280567 90.126900
-201.528381 -58.983067 22.400646
-135.851303 -57.725731 146.975494
-141.161072 -56.701141 129.376083
-144.334991 -54.018887 124.123352
-137.962021 -55.822147 140.013031
-164.110779 -54.892624 99.012024
-131.154282 -58.345272 163.302795
-163.496765 -56.733929 102.857925
-126.851593 -59.164726 161.987305
-145.466446 -58.451271 135.538315
-210.242691 -59.671642 19.542149
-142.920181 -58.501026 131.025330
-211.531021 -57.518642 29.366230
-144.427261 -59.005756 138.529510
-166.428024 -62.766945 96.053596
-210.051895 -56.441616 26.515682
-130.968323 -57.505672 162.776352
-208.809219 -52.668209 22.599352
-131.333847 -52.636517 167.565720
-167.862610 -51.688927 100.537186
-136.152039 -60.150425 169.497238
-141.463028 -59.508736 149.534134
-143.767303 -57.463837 141.153259
-149.555222 -49.644520 144.925522
-167.043549 -55.537617 106.841621
-150.440506 -57.400063 137.154999
-91.108749 -56.544399 250.998489
-137.979645 -56.865204 162.931839
-137.374054 -54.983875 161.061844
-214.306824 -57.477596 31.245667
-131.555786 -58.153618 164.832443
-138.188950 -57.986309 165.920380
-214.388535 -54.412071 30.178370
-146.592316 -57.174107 150.969238
-170.241028 -57.332233 108.564873
-87.043243 -55.187557 248.059280
-215.982056 -57.833794 34.407379
-142.603500 -55.708466 162.912827
-173.338379 -54.749767 109.834793
-145.721207 -57.159874 162.243408
-143.263489 -56.840782 161.618195
-93.293274 -57.772881 250.667618
-222.451782 -58.514507 37.162457
-144.457092 -53.272697 164.072906
-172.459305 -54.437695 118.041870
-98.293396 -57.568031 249.217773
-89.060753 -52.785492 259.753448
-149.606628 -53.189739 164.712860
-225.398804 -58.250511 35.262447
-98.965134 -61.611099 250.461655
-148.441757 -59.600353 164.881866
-105.560028 -61.030769 251.653946
-141.471756 -59.030918 171.156921
-160.497818 -56.593857 145.915955
-163.222672 -58.814671 143.752243
-180.752548 -58.525665 113.206978
-104.860275 -57.103333 244.543411
-148.676285 -54.563831 166.626068
-151.416840 -57.443775 157.924576
-173.311356 -59.598904 117.368622
-160.087311 -52.457817 148.538849
-222.980743 -63.947128 41.479195
-182.276123 -56.953403 116.206573
-216.311279 -56.363243 44.317997
-166.080154 -59.339260 146.619385
-101.466209 -58.177364 258.549530
-224.137512 -52.656334 43.240128
-103.331429 -63.275932 260.259644
-151.086868 -59.285778 171.315094
-181.162262 -59.061024 118.429222
-102.690689 -55.364159 250.701492
-184.965698 -53.660675 116.650879
-172.213120 -53.356945 140.567719
-95.261993 -60.614532 264.829895
-154.702560 -57.497398 164.854752
-157.594833 -56.842922 165.209961
-108.649727 -59.788727 251.204666
-106.170532 -58.254040 253.188263
-182.588196 -59.889492 124.699417
-102.202660 -55.837116 261.127625
-226.343811 -60.265736 50.482056
-107.445160 -56.142628 257.846130
-184.600296 -58.613075 128.124237
-222.860870 -58.845886 50.635612
-229.845215 -55.459454 50.089409
-147.912018 -56.728271 195.526367
-106.570274 -57.552238 260.039215
-143.911407 -57.857136 199.600388
-166.560776 -56.269070 168.125534
-178.235031 -58.358341 152.600204
-178.984940 -54.857655 142.166534
-165.927292 -59.671448 169.801132
-109.599236 -61.352371 263.279083
-140.860352 -51.918652 207.511353
-147.912430 -57.076111 192.493912
-171.200745 -51.743092 153.062363
-227.498856 -58.257607 52.895287
-177.902252 -56.803505 144.955429
-234.976227 -61.351467 52.171841
-115.800270 -56.547764 261.698425
-151.808319 -54.871086 200.909500
-168.916489 -60.173130 163.153931
-169.812454 -58.888889 162.366089
-183.719452 -59.311489 126.709671
-171.410614 -59.958786 163.249725
-174.109207 -61.990299 158.847488
-228.651672 -58.127209 56.331188
-138.286041 -60.485077 214.615356
-179.909195 -53.608906 146.488083
-234.839691 -61.301338 58.660187
-138.536743 -53.647427 217.787506
-144.703659 -61.066387 207.868210
-192.422394 -61.123032 122.543716
-197.570328 -60.965424 123.107460
-174.014587 -57.700714 158.732132
-234.641800 -58.590950 61.923431
-114.619110 -57.422981 268.591461
-145.595291 -57.506374 216.189514
-149.653076 -59.588539 206.789795
-117.720139 -54.752857 262.971039
-191.016327 -58.624985 143.982773
-189.012009 -58.752777 142.470123
-111.285324 -55.169476 268.435364
-183.438141 -59.060890 154.755844
-189.690506 -57.988739 147.461090
-197.267288 -57.014462 126.078972
-201.671188 -55.611336 124.167473
-189.167847 -56.273861 151.870392
-191.226303 -57.478878 144.471466
-195.817047 -56.289982 138.264740
-120.605278 -57.979355 274.284607
-124.951065 -57.148651 261.435364
-185.789337 -58.944023 159.227997
-132.592590 -60.120979 261.830383
-200.026810 -58.573864 144.075897
-206.983017 -57.702602 134.737595
-201.208344 -50.801620 140.280594
-199.255524 -59.947971 149.003204
-126.095596 -57.595341 269.497284
-132.594604 -60.580055 258.969543
-200.998230 -55.920769 140.816879
-199.719574 -57.119137 141.781448
-201.609665 -58.172077 139.679993
-132.455994 -59.472454 267.111420
-128.768509 -55.654533 278.924469
-204.435028 -58.317909 148.348572
-206.882370 -60.049534 143.796234
-208.751053 -60.690861 142.723755
-197.379913 -54.680824 168.879761
-190.865860 -59.743874 173.466476
-212.273331 -55.263634 141.045456
-210.505585 -56.791771 139.621002
-186.849991 -58.619205 184.187149
-196.884247 -54.707058 165.828033
-186.009537 -55.212914 192.887894
-214.119415 -60.770470 146.958191
-129.280487 -54.285530 279.280701
-132.717163 -60.207733 278.776062
-198.832794 -57.941471 172.629547
-208.932297 -54.803371 144.751144
-192.716217 -53.051182 175.344971
-214.419418 -55.739483 142.886429
-181.929977 -57.245049 203.000656
-192.536148 -54.335987 189.730484
-214.866516 -58.381519 144.412766
-138.222549 -57.019886 280.228546
-134.753586 -59.655403 278.302368
-214.511673 -58.688274 146.466599
-136.532822 -59.907917 280.504150
-188.153244 -59.856030 193.659988
-182.848419 -56.510551 213.401550
-223.640503 -55.505661 135.188263
-222.796967 -54.969109 138.121841
-225.871597 -54.157841 134.013412
-228.289459 -57.940140 134.453979
-178.975357 -58.649120 209.167618
-184.493210 -60.134712 206.694595
-183.165253 -54.591721 209.974335
-231.361465 -53.195915 138.149353
-149.250626 -55.189178 282.200470
-143.952896 -58.049164 287.919891
-152.020935 -54.672279 283.998505
-140.800385 -64.810188 293.636322
-215.667358 -60.601044 171.373688
-148.676743 -57.298969 277.330780
-217.096252 -56.702522 169.208908
-236.356400 -61.803242 142.380692
-151.955933 -59.487579 287.232330
-221.403778 -54.663940 169.023453
-154.150894 -59.608444 290.502716
-153.754929 -57.211456 288.821533
-159.145340 -57.055737 289.743164
-240.617065 -57.786873 146.174286
-160.373581 -56.170547 296.062683
-242.795837 -54.259918 149.529449
-160.755997 -56.987103 291.780945
-237.593826 -63.202709 173.751328
-233.561768 -57.870338 170.929443
-249.720612 -59.771744 158.931900
-244.705963 -57.106583 172.302094
-250.547012 -58.387779 161.473938
-246.584717 -56.672451 174.798615
-227.064682 -60.670094 204.497467
-237.045319 -53.715790 195.705719
-221.365829 -59.267376 213.987228
-230.070068 -54.548721 204.714157
-189.273849 -55.484035 283.367096
-241.899094 -57.033154 183.205811
-240.719666 -56.859512 184.157242
-181.779236 -58.546383 295.308014
-231.830215 -55.563896 203.335129
-236.849808 -62.392582 196.857269
-184.232925 -60.922493 286.070557
-226.793396 -60.521511 220.228592
-248.066589 -55.788391 174.200607
-186.585114 -55.300510 282.622101
-249.110291 -56.627144 168.907562
-258.475769 -57.297112 163.880142
-226.066177 -58.498390 219.259537
-258.565979 -57.079926 165.099823
-190.588242 -60.524078 284.320221
-191.672806 -56.330517 280.641418
-235.351654 -60.204082 207.807922
-258.480438 -56.412086 171.968704
-257.396576 -51.263653 159.522751
-184.831482 -59.518860 286.536743
-227.350616 -57.096348 215.780899
-232.191681 -56.473511 212.451752
-237.984360 -55.350563 203.745377
-251.693817 -59.543800 174.777191
-238.467834 -61.825909 193.878113
-247.240158 -57.799782 185.195435
-249.069382 -62.017818 177.758438
-252.994537 -57.461353 179.851776
-251.263062 -58.989132 166.641678
-262.840027 -55.143017 165.945541
-187.785233 -59.072014 312.970001
-189.014832 -58.122185 305.575104
-192.414093 -56.391991 307.519501
-190.488312 -57.927330 314.282166
-194.860992 -57.580868 309.679840
-193.263535 -59.278641 318.686676
-201.942917 -62.651230 317.007263
-19.241249 -51.613224 110.642479
-23.329100 -61.117832 108.748009
-17.079191 -57.709194 109.190475
-23.220953 -56.698509 95.472885
-26.566233 -54.642208 90.536751
-18.309809 -57.037609 113.625687
-17.739338 -57.952496 121.013054
-31.232250 -57.859364 92.528511
-34.287140 -59.402431 95.519356
-13.435872 -58.312054 127.501862
-39.721439 -55.714310 90.774963
-40.012688 -54.735447 89.821587
-19.696310 -58.122490 135.899475
-46.186527 -56.179020 84.621651
-18.082485 -51.650211 139.426117
-52.062725 -63.990139 85.959549
-50.814903 -55.132572 87.503693
-115.448914 -55.493435 -8.411257
-53.689987 -59.100048 94.079018
-110.580452 -52.825058 -5.660086
-52.966362 -60.440399 100.748299
-117.289024 -53.961025 0.367999
-111.970512 -54.920013 -4.307696
-27.942083 -58.642052 146.427567
-53.890461 -54.325436 106.077400
-110.356499 -56.494667 7.114327
-113.690842 -61.101528 -10.128003
-110.396400 -59.496590 10.263112
-30.833946 -57.530273 153.097031
-49.662476 -61.450981 115.716011
-108.598946 -60.234970 10.937378
-122.574234 -56.705750 -9.389898
-112.765503 -56.427570 11.245517
-124.757004 -56.891624 -7.740914
-122.195076 -52.968685 7.916611
-116.651131 -55.917912 11.386170
-126.220444 -53.511009 -5.136246
-127.638977 -57.509865 -2.674056
-119.518684 -59.395695 10.082685
-109.653885 -55.748470 34.358650
-120.873695 -61.543831 4.628292
-47.111744 -62.445980 135.859940
-127.108383 -59.033730 1.848165
-109.568581 -55.833168 28.606655
-110.480164 -54.105038 31.790722
-109.704887 -54.907005 45.772327
-50.810402 -54.264713 144.054306
-111.353935 -57.903316 34.923901
-112.136795 -57.064342 40.788208
-48.808754 -56.260841 151.999924
-115.579269 -55.409771 36.262486
-113.376984 -58.877090 43.446716
-114.141243 -55.291584 44.634895
-113.703613 -55.407803 43.142872
-117.337898 -58.847961 51.615040
-119.748100 -58.111835 47.401676
-55.556824 -51.547321 163.314423
-117.794022 -57.563801 54.833744
-120.485931 -56.624062 58.151394
-125.987396 -56.542500 55.821964
-169.242691 -55.000614 -7.929390
-169.099670 -57.540058 -2.437227
-126.511513 -55.696541 72.807686
-140.657028 -54.059582 62.489197
-127.790154 -54.348705 73.872253
-172.248367 -52.851868 0.810107
-178.221985 -56.969814 -3.856458
-97.662628 -58.485813 139.921524
-174.789230 -58.791672 1.614555
-98.210213 -57.149929 142.552017
-144.573822 -54.419975 73.042503
-100.356560 -54.676579 145.619919
-181.977402 -50.217369 1.047008
-186.600555 -56.362305 4.544470
-138.288559 -61.612293 81.301773
-186.066757 -60.279648 -0.672104
-99.862801 -60.096863 148.830582
-140.704315 -60.329407 80.031029
-93.065475 -57.428509 165.224304
-183.884979 -60.393909 6.535656
-92.988571 -60.960407 167.785080
-110.797081 -56.512215 138.535294
-141.784317 -54.970684 78.694885
-184.057037 -54.531700 4.807063
-189.478439 -58.318989 12.767198
-108.568130 -56.704674 146.703522
-96.454643 -51.216537 168.761536
-111.478333 -55.046051 137.561447
-147.987900 -56.958092 74.360062
-110.230240 -55.080753 152.598557
-145.566742 -57.382420 89.264503
-103.096481 -55.830734 162.946594
-104.970055 -54.277004 160.039551
-140.907654 -54.973045 105.838150
-195.674347 -56.239048 15.369470
-142.942780 -58.686527 106.302109
-123.700256 -58.262676 143.334961
-141.076691 -57.020626 104.030380
-153.741333 -58.450916 89.629669
-108.466240 -60.994465 166.419449
-114.510712 -57.605827 154.795395
-108.101631 -50.088196 168.112320
-157.409134 -54.524265 86.245117
-124.378914 -57.905067 150.245605
-159.004059 -57.622520 88.622589
-194.999649 -60.938240 16.598499
-111.483437 -54.286041 163.389832
-141.603546 -55.766701 119.970818
-114.341125 -54.501286 165.747131
-124.332932 -51.729469 142.323471
-153.962128 -54.886196 95.771698
-131.831726 -57.537186 145.888641
-149.459930 -53.968834 121.825203
-123.257370 -62.467194 164.874664
-163.827408 -58.488815 90.818253
-147.925598 -58.758797 124.959007
-130.281860 -58.408676 151.542908
-133.529785 -54.590137 137.881699
-140.216034 -54.646412 139.954590
-142.278412 -54.849747 123.609123
-123.096214 -55.441990 162.178665
-125.356537 -51.561466 166.148712
-119.974632 -60.509548 172.398132
-163.086990 -57.320442 101.164658
-157.178711 -55.813438 107.333656
-171.178299 -57.558872 94.932724
-124.462227 -55.337429 169.337296
-124.955338 -62.238560 165.629837
-134.471252 -51.403233 153.601913
-209.040024 -48.669113 29.836382
-136.414139 -55.334476 149.592438
-130.775650 -58.867615 166.414490
-133.906067 -57.882206 166.855728
-133.788986 -55.073364 165.954880
-209.332367 -55.226616 28.941496
-142.686813 -57.236561 147.373749
-162.824783 -56.167263 104.734070
-141.771957 -56.355587 137.836609
-168.156387 -55.454937 110.491623
-92.657265 -58.671261 245.037704
-144.468399 -57.629093 149.899597
-152.627411 -57.947361 144.856659
-158.093872 -54.036819 144.571854
-134.800629 -57.497601 169.865738
-173.765274 -53.430595 111.866905
-177.369232 -54.879803 108.544418
-148.689163 -60.411549 161.254013
-155.639038 -58.290421 151.456345
-92.378265 -58.313232 258.875244
-178.055374 -53.662468 109.466301
-95.223137 -59.257149 257.627411
-142.786163 -61.992924 168.679443
-160.264999 -56.267624 148.466049
-162.333664 -59.308418 142.242050
-150.536789 -56.184807 160.216995
-99.715843 -59.489361 250.284531
-150.487244 -57.730415 163.319504
-95.719223 -56.961994 266.053375
-105.925011 -57.985485 243.843781
-96.843689 -59.131046 262.945618
-152.307617 -56.032585 167.827133
-181.681900 -55.777626 117.755638
-106.787659 -58.767544 248.530197
-103.256409 -55.378330 251.824356
-158.412354 -57.240101 165.617813
-169.408249 -55.750240 143.011337
-159.043610 -57.500721 158.314301
-155.294632 -57.207855 166.190887
-101.536392 -55.515072 261.085846
-162.783020 -56.359825 163.703873
-167.656433 -56.248318 144.250290
-186.108383 -55.818993 118.109825
-158.705933 -57.707092 163.679489
-165.920898 -55.468224 160.409088
-174.239349 -51.003269 146.630112
-161.668335 -57.475746 164.710876
-187.809433 -61.742275 113.829536
-162.593201 -57.480473 160.275269
-229.230316 -58.373798 49.411163
-146.167145 -56.811649 200.261047
-140.388550 -55.590622 196.681076
-112.703545 -59.737225 267.569031
-143.378296 -58.743958 212.842560
-166.442825 -60.744213 159.439087
-109.956978 -55.848877 267.459808
-167.144287 -55.238670 167.517532
-192.766876 -57.716431 121.310661
-194.040314 -54.389484 117.673157
-148.817200 -56.444214 201.672775
-227.508606 -59.126675 55.623947
-191.665955 -56.497971 124.355446
-145.701874 -59.980595 200.876953
-234.761017 -52.259640 57.088417
-176.942001 -56.197372 151.153732
-176.777405 -57.225918 150.766861
-113.637108 -56.824356 263.822906
-172.893066 -62.567516 159.759872
-180.349899 -57.144348 152.667282
-143.206787 -53.022141 218.003937
-174.061340 -56.513905 157.582367
-185.014023 -54.796982 145.796188
-190.197617 -58.132473 132.947815
-232.410461 -56.584972 64.172356
-149.292267 -55.233658 214.930145
-176.903381 -58.257050 160.111923
-237.333832 -54.017666 59.794815
-142.448654 -57.715115 214.687805
-177.293610 -59.207642 162.482910
-196.503967 -59.344963 124.209099
-232.898087 -58.866997 68.153412
-188.045456 -55.449230 151.312195
-237.002808 -62.517860 67.650772
-195.474380 -50.312904 124.181732
-181.200424 -58.789673 159.717773
-235.050308 -57.824532 68.952255
-123.365189 -64.343102 270.498230
-190.985382 -50.337807 139.736679
-235.990189 -58.447899 67.108482
-196.804199 -54.201950 135.318497
-189.193008 -53.920231 156.736694
-195.599579 -62.991646 152.099762
-126.171432 -56.254688 266.288910
-232.229294 -55.402878 76.324448
-190.892410 -56.186592 152.062073
-196.273972 -54.724987 142.311234
-132.699478 -59.005634 260.804047
-195.064529 -59.805599 153.146591
-201.439102 -58.761669 126.620110
-119.306259 -55.201439 277.003662
-189.530762 -55.970440 154.488937
-207.652527 -60.122822 130.064667
-132.772842 -55.963154 264.687897
-201.233475 -57.644405 138.160889
-204.090134 -57.946495 141.079727
-203.801605 -54.707172 149.371384
-203.881973 -58.646629 145.072037
-206.261566 -58.753399 142.593475
-131.843216 -56.016098 275.022797
-127.969955 -55.395359 276.820129
-216.216995 -57.906715 134.462814
-216.539368 -58.766655 131.771805
-194.593124 -57.033699 169.950638
-187.260803 -57.349243 181.433884
-209.173599 -58.155834 146.563095
-212.262497 -57.480606 140.162857
-134.910934 -54.535103 281.575958
-200.901443 -60.683773 160.019211
-136.846008 -60.667961 278.266571
-218.539566 -58.118095 130.607132
-184.837845 -60.607082 199.763580
-211.337662 -55.757572 144.954010
-195.090546 -58.684082 176.451508
-212.710266 -56.619671 150.035736
-190.896896 -58.520084 182.465393
-224.677200 -57.251736 132.167496
-178.288681 -57.593422 209.530045
-211.576843 -54.007023 153.964996
-213.798386 -54.065498 158.586090
-178.586884 -58.923626 213.143570
-184.171982 -60.752968 199.018875
-179.227890 -58.246891 214.330582
-179.522141 -55.177715 218.889420
-188.987976 -56.016083 209.485718
-175.582214 -53.391644 221.580948
-181.908157 -58.343563 217.602798
-144.595047 -59.820709 286.273285
-148.252228 -55.492214 287.340942
-152.941910 -57.173611 283.285492
-158.387329 -52.782505 261.626038
-159.495575 -55.932011 278.456238
-162.930725 -55.584175 274.970245
-164.660767 -61.224888 267.020020
-151.979004 -55.423046 283.021942
-225.910172 -52.520729 169.232117
-155.582123 -53.942715 286.005432
-156.329834 -52.965157 291.226196
-242.077652 -60.179379 143.828445
-229.917786 -57.220810 174.133759
-164.317886 -55.992912 295.424500
-167.424347 -55.048080 293.803284
-240.003952 -61.776875 175.409302
-170.982498 -52.892330 298.010193
-246.607468 -59.100853 175.249954
-182.535950 -56.630779 288.471893
-184.334686 -52.591957 283.064667
-256.050262 -59.673950 170.111679
-249.024048 -54.963554 161.925140
-223.117065 -55.747437 220.180115
-222.017090 -59.875805 213.682968
-242.836212 -55.987335 186.981873
-216.641754 -56.093601 227.023270
-247.496094 -54.740250 176.971603
-184.117386 -56.509758 293.395447
-225.049149 -56.070747 223.840469
-254.685471 -58.694118 165.595596
-190.826096 -55.159508 271.536102
-213.414337 -58.319656 237.895309
-212.081635 -52.957199 241.424622
-224.277283 -52.582600 226.128143
-196.601440 -58.177013 277.268372
-218.849213 -60.138645 230.266464
-174.787277 -56.744583 310.983582
-180.799881 -57.007771 297.247223
-186.182663 -60.233501 280.896271
-225.939178 -56.656399 218.357101
-249.636307 -52.366959 185.497437
-189.231979 -58.100109 283.877319
-253.254135 -56.264370 171.517380
-261.239502 -51.744659 164.009583
-183.443817 -56.699310 303.564880
-179.410736 -58.156845 303.026764
-182.346283 -55.907421 306.071716
-185.072189 -58.333454 311.979065
-188.383759 -59.935730 307.751923
-24.450533 -55.592316 101.085114
-19.131207 -54.179058 106.979881
-21.370071 -54.522125 101.457687
-23.558842 -55.031315 102.332291
-5.824524 -55.059216 118.536369
-23.017910 -54.413303 89.157349
-24.946117 -59.810917 92.037521
-13.175383 -56.445061 123.929848
-35.124313 -54.971287 86.406487
-39.518280 -58.337509 88.789757
-34.785660 -54.521358 90.091866
-44.428581 -49.091099 83.164063
-39.561363 -60.055141 82.537560
-52.035694 -57.461349 81.244400
-106.286980 -55.532413 -2.198710
-101.742546 -57.499603 -3.450687
-103.790260 -54.618958 -2.523174
-109.337662 -57.210178 -9.933258
-109.595741 -54.013119 -8.084596
-105.052460 -56.288342 -1.274458
-117.032410 -54.091007 -10.744145
-51.123615 -57.931904 96.933083
-56.237198 -53.516045 93.732010
-103.966553 -60.592567 10.833976
-50.775848 -52.865749 103.319786
-118.460167 -55.182739 -12.149810
-110.913216 -60.878750 5.231895
-112.368980 -52.741913 13.834267
-51.246807 -61.975597 119.363632
-33.785881 -52.801186 154.618835
-107.667435 -52.606873 31.137205
-112.813789 -56.275211 32.865990
-121.762733 -58.060768 4.996626
-108.680061 -49.428535 25.947189
-125.782082 -57.141651 -3.228724
-129.436127 -54.051224 -2.551712
-122.216591 -55.647026 12.243662
-124.735252 -56.829105 6.815170
-123.747086 -63.456371 1.218236
-110.321716 -56.847042 35.007442
-127.476761 -56.340919 4.150827
-109.970810 -55.580189 36.703072
-124.663498 -59.501160 3.396577
-111.361526 -55.495049 35.974236
-45.797005 -53.257294 149.202393
-54.139889 -53.225662 147.268372
-111.716095 -55.802914 42.201801
-110.191032 -51.356472 29.881430
-116.712196 -54.175095 32.559788
-54.541901 -54.388783 156.546356
-113.940414 -53.428955 50.041035
-51.496151 -60.240135 158.371094
-121.550018 -58.897400 42.984982
-152.107681 -52.929249 -8.710285
-56.624073 -56.509686 163.425613
-50.628868 -54.509518 169.423660
-124.959663 -51.028374 60.294823
-128.492477 -59.127384 48.421700
-119.874344 -56.534584 50.711346
-155.438736 -56.261269 -6.917380
-121.555679 -54.278938 63.394276
-158.341919 -60.006809 -4.253631
-123.723289 -55.712772 48.268112
-163.857651 -53.387966 -9.757556
-165.789185 -56.312332 -2.596938
-129.096893 -57.751598 59.393799
-164.779922 -49.185295 -4.499190
-126.842415 -54.281986 66.532013
-169.496933 -52.168823 -3.600123
-131.022949 -56.203285 62.484726
-138.128525 -55.635712 64.439865
-92.646210 -54.289536 146.008713
-180.336761 -58.914673 0.393300
-138.433212 -53.337105 76.799294
-96.300034 -55.817310 146.104202
-98.058220 -50.556118 148.778839
-137.363739 -55.515499 79.173859
-145.539673 -52.819775 70.222702
-93.054321 -52.299923 162.339951
-93.321609 -55.741520 167.572678
-99.350464 -55.564919 154.234833
-92.128845 -57.053749 164.823166
-103.551750 -57.934772 152.550980
-108.492973 -56.057793 138.670776
-108.884659 -60.402966 141.401398
-190.465775 -54.542271 1.716298
-147.402313 -59.389046 78.833893
-95.877075 -55.161415 162.145493
-96.018417 -55.931126 163.723495
-112.481415 -54.296562 140.796585
-104.058922 -54.559258 166.031113
-147.089523 -56.982220 86.697029
-150.319382 -52.117287 84.021561
-150.801147 -55.416191 88.172279
-117.696060 -56.546398 138.169937
-143.079865 -57.171074 100.800209
-190.367096 -55.882740 11.696895
-152.117935 -53.645824 81.893211
-104.294144 -59.781681 166.192795
-143.012527 -50.804974 104.739174
-106.201607 -56.174709 166.140182
-141.642319 -54.829872 112.350632
-107.666237 -56.852375 165.906265
-159.033478 -58.610638 88.894920
-120.966606 -54.615067 149.415604
-125.821388 -58.676109 136.992584
-144.929504 -56.556705 105.354195
-160.231918 -55.436344 85.303223
-202.388672 -56.496265 19.432301
-114.044212 -57.445560 165.540588
-123.687096 -57.245174 140.396500
-199.352188 -54.831768 14.719561
-114.176941 -57.833534 174.709930
-116.041908 -61.018284 160.038193
-133.562973 -60.136951 140.713425
-117.898254 -56.166019 166.784668
-117.222656 -56.672138 165.630096
-140.955704 -57.354786 120.730957
-113.769432 -53.043743 173.225067
-195.001953 -50.577919 17.953588
-122.885483 -52.604202 149.560654
-133.072845 -53.309547 140.710663
-146.137894 -56.174629 118.518600
-148.935959 -56.384819 124.357124
-126.959702 -56.142052 170.571213
-165.870056 -55.998299 95.943817
-118.960098 -52.578445 169.321884
-162.605408 -55.686764 95.095795
-208.977585 -59.770180 26.079411
-168.204300 -52.166931 95.754097
-208.148926 -56.536850 18.800158
-121.414116 -58.421650 168.535706
-138.681122 -55.907955 141.358063
-206.102020 -57.116730 23.961359
-127.953720 -55.462227 162.361526
-169.127914 -55.065262 95.234489
-210.824081 -53.336685 19.790890
-208.079208 -55.338512 28.222624
-126.565170 -59.519321 171.556900
-140.605820 -57.258854 148.521133
-148.571304 -53.798687 136.738068
-138.578888 -52.746937 164.983994
-210.469086 -54.299831 30.190855
-135.234009 -55.220673 167.559692
-169.821335 -56.740509 110.386520
-87.634544 -54.349865 247.617554
-154.696487 -55.054989 138.081299
-89.357628 -55.897003 250.672363
-89.509430 -55.471195 250.309341
-214.289597 -57.595554 36.442616
-216.606354 -52.048336 32.061859
-145.810684 -53.950645 146.379639
-88.462105 -54.339191 252.470200
-140.439728 -57.191319 163.503769
-171.828995 -56.558708 101.009758
-214.027267 -55.091545 35.062992
-171.238373 -58.909809 111.993324
-150.713013 -55.403469 149.731964
-155.553207 -56.878628 144.076172
-156.765671 -53.467598 142.290314
-89.964951 -54.659775 250.312393
-89.336037 -54.859020 251.446838
-146.940903 -51.182796 167.131607
-217.690460 -52.929279 39.983677
-219.850693 -53.589050 31.545612
-92.200676 -58.536419 256.007568
-144.394455 -57.626984 165.516235
-213.162994 -59.191158 41.867119
-180.357254 -55.277126 112.389244
-158.375671 -55.370041 149.177383
-161.644470 -56.638859 142.897644
-222.010132 -51.064354 40.020630
-184.773773 -54.814430 115.044479
-103.013863 -54.408138 245.990097
-217.731918 -55.907875 47.274601
-175.172760 -51.601486 118.772964
-223.352066 -55.098774 36.871109
-178.870560 -53.738991 121.163269
-101.273926 -52.049122 263.047028
-149.476044 -57.635719 166.835419
-156.393646 -57.320164 153.714645
-222.675690 -54.213348 42.716213
-164.233078 -58.932774 149.919128
-103.134056 -52.659447 246.135483
-160.827118 -56.310501 159.303848
-156.242477 -56.159874 163.735321
-170.465271 -56.735924 142.797394
-229.362564 -57.835785 40.673512
-220.297760 -56.695820 51.285011
-180.760529 -54.694401 124.168457
-107.047874 -55.349121 261.176575
-168.776123 -57.463802 152.887863
-107.697731 -51.795818 263.703156
-164.108231 -55.338840 163.056442
-228.583221 -51.747337 49.901306
-176.997223 -55.148819 146.404251
-231.247452 -54.591690 52.347610
-185.434006 -57.126839 125.681099
-185.583511 -50.405300 122.481392
-166.502823 -54.527119 164.030182
-144.051956 -54.876087 201.697433
-146.465225 -55.760677 197.093140
-164.654129 -55.198570 158.276794
-167.088882 -54.304085 160.167847
-105.413742 -52.568886 264.045197
-142.952042 -54.793995 207.365311
-142.348022 -53.450569 197.423019
-106.422310 -51.831841 266.839478
-230.395645 -59.128296 47.759258
-233.755219 -55.039684 55.067768
-176.121094 -54.587109 156.475830
-170.545654 -54.467571 160.387619
-167.556320 -54.159389 160.313568
-170.402328 -52.985771 161.667511
-168.611130 -54.993252 165.076859
-172.374390 -50.298500 158.569321
-184.558655 -54.695801 136.681091
-142.966187 -57.856358 216.862427
-178.512283 -58.664764 144.942734
-149.802139 -55.887012 211.061066
-115.541290 -51.299698 270.632202
-140.845764 -55.103260 220.780106
-197.842087 -60.332207 128.631836
-200.225906 -57.095161 122.195610
-144.625687 -49.263859 215.947815
-180.977173 -55.646893 159.859863
-183.533203 -56.873486 157.207077
-181.336212 -53.387615 150.666138
-228.987198 -51.470654 71.683250
-117.966179 -57.721840 268.978912
-117.267136 -55.031212 269.400635
-186.384903 -60.160912 159.574844
-191.063919 -54.550262 146.442657
-194.864380 -57.271759 136.944885
-185.783127 -51.133152 155.984756
-232.550934 -57.333359 77.421524
-240.589767 -56.100380 67.391373
-124.559273 -55.377670 271.814484
-188.988419 -55.491852 155.323608
-237.030655 -57.149525 83.560982
-137.413986 -52.605484 254.979340
-202.725128 -58.127407 138.611328
-239.786560 -54.356434 79.005119
-192.081802 -50.969734 155.042694
-195.284561 -56.225143 154.669250
-201.737869 -58.819717 150.406647
-240.740723 -55.421585 79.204094
-211.510452 -60.924026 131.995285
-240.397263 -57.228535 87.322876
-203.843033 -58.694649 150.150009
-205.782867 -51.393452 140.958786
-209.294876 -55.980469 128.225159
-200.675262 -57.091045 163.625977
-190.915375 -52.936882 172.264374
-205.904968 -54.322392 148.029724
-205.585403 -57.992046 161.925049
-193.332947 -57.406307 182.828568
-183.265228 -56.606190 180.864944
-199.977463 -55.655586 160.363358
-131.956985 -53.147972 281.782227
-185.409012 -55.451740 192.840149
-205.013641 -57.880581 163.838928
-211.470184 -53.265064 148.473785
-198.507721 -60.429977 173.484131
-213.530212 -56.771210 147.238525
-179.526459 -56.458912 205.887466
-190.786987 -57.947651 184.642532
-214.891953 -55.700878 148.146881
-193.487411 -54.734146 185.804626
-218.325714 -52.584892 145.233383
-212.275970 -56.726189 150.106720
-191.605850 -57.160561 195.478180
-195.920456 -54.008068 187.990707
-138.855255 -55.893154 287.888641
-143.683472 -53.468822 280.110657
-187.961884 -57.192802 192.693848
-226.312988 -59.984001 133.537613
-224.004349 -52.391567 140.929611
-224.154938 -60.130508 136.720016
-176.320267 -55.052940 220.426102
-187.716751 -61.969833 206.849594
-221.308517 -55.789028 138.488358
-177.443375 -54.777416 222.126877
-175.953003 -59.155571 228.238556
-185.513062 -55.503143 210.780426
-179.044525 -56.853859 223.411835
-212.290375 -60.252361 160.526596
-183.212875 -54.274029 219.914673
-179.721161 -56.411705 227.476990
-178.811630 -58.245941 226.992966
-157.364746 -56.964375 266.050842
-235.423172 -59.016262 136.439331
-217.138458 -56.038921 169.470627
-152.987061 -60.490665 274.630585
-153.604401 -54.741936 282.653290
-150.657486 -55.318569 282.543823
-148.880524 -55.575573 290.226013
-168.270752 -55.189960 269.902252
-239.075607 -55.042686 144.483978
-241.987411 -55.399651 145.038177
-226.493546 -54.404045 178.744598
-252.049637 -54.023579 154.273575
-163.074371 -52.222221 308.037903
-241.093735 -55.505440 177.081802
-169.645966 -58.462513 302.482300
-166.471710 -50.321018 300.693634
-257.069763 -53.236801 158.282150
-168.259644 -58.972591 304.100311
-162.911880 -56.848106 316.949738
-184.380066 -55.538177 280.356659
-230.908127 -59.194630 204.893143
-235.400589 -52.591415 199.418320
-170.849289 -53.634151 305.418152
-216.440125 -54.419731 233.656815
-234.194992 -56.693497 194.639145
-171.695740 -55.707905 308.245422
-175.237305 -57.726326 300.476532
-216.748978 -53.898293 236.901138
-166.693024 -55.020363 319.510956
-180.805847 -57.468353 292.231628
-181.906570 -56.773273 292.731781
-214.388245 -54.804714 236.804230
-177.235565 -53.432415 303.200043
-251.702881 -54.182587 170.620651
-205.975433 -55.812023 247.995697
-176.535782 -57.975651 298.232086
-191.232468 -54.437721 273.645599
-255.478149 -54.404346 159.433655
-177.834976 -53.333576 293.670746
-201.994492 -55.005882 258.901031
-210.571457 -60.105728 248.580215
-213.178864 -55.691212 238.281570
-172.541214 -55.093559 315.318878
-177.578278 -59.649296 307.697052
-174.843979 -53.979572 301.922485
-181.473969 -52.288914 288.790833
-210.341202 -58.040165 250.453568
-220.270889 -56.376678 227.350266
-231.272369 -57.613380 204.555923
-182.660049 -55.232315 301.996735
-264.803925 -56.363129 165.940201
-238.162827 -52.731903 202.029099
-243.604431 -56.113667 188.321136
-247.361755 -56.902569 179.995682
-175.735764 -53.830009 314.352661
-257.637787 -56.557903 171.815125
-192.000061 -55.098309 290.588562
-193.797180 -59.803020 286.269958
-258.877319 -53.590157 160.580307
-184.729218 -58.854931 318.765015
-192.165268 -56.513580 315.878601
-193.161179 -59.091942 321.367889
-192.086502 -51.361404 320.893921
-14.360814 -55.087696 111.820992
-21.422630 -56.856251 96.145370
-27.086191 -52.126869 93.104660
-12.265589 -53.288567 124.688789
-17.362246 -55.736267 136.838959
-41.801456 -50.379253 83.016037
-50.688503 -58.440884 76.862633
-52.031193 -52.083462 78.940369
-104.064674 -53.651329 -0.421870
-104.242149 -54.960598 -7.578726
-21.101892 -55.077709 145.647430
-106.232735 -52.470474 -8.104066
-111.642052 -50.806969 -20.455481
-53.885841 -53.611252 89.344948
-101.490112 -55.129879 4.081297
-110.630112 -52.199295 -6.645382
-108.758781 -55.628407 9.366634
-53.655884 -53.661804 113.394646
-110.668594 -55.310932 9.690543
-120.504463 -53.996017 -13.493390
-128.067917 -51.173798 -10.973305
-117.617287 -54.460632 9.720680
-129.063583 -49.422916 -7.730405
-106.422676 -52.634205 28.941467
-37.063862 -55.155270 155.135529
-120.720055 -55.047092 12.808625
-52.190884 -54.671783 136.780121
-112.381836 -56.521290 32.975964
-132.577927 -57.514153 0.134316
-48.732929 -48.793655 135.858521
-127.002022 -51.030323 6.810504
-129.823822 -53.830147 -0.744350
-50.511208 -58.556019 150.870438
-142.827408 -51.778992 -12.482700
-147.252731 -56.568775 -10.297724
-115.807327 -57.162140 38.903965
-119.122559 -56.903339 44.400246
-149.559906 -50.761623 -6.862724
-113.785812 -55.608894 48.406380
-117.856606 -56.700176 41.453365
-148.239395 -52.203186 -9.946812
-114.259254 -55.161705 57.790665
-50.630707 -53.295246 164.397324
-154.693039 -55.500225 -15.873825
-57.556831 -53.244225 164.427292
-118.904808 -49.388821 48.283096
-119.339767 -57.894897 62.080578
-155.417221 -57.889164 -8.533281
-128.318085 -57.493069 54.279922
-130.689758 -51.095581 56.932331
-168.031296 -54.206333 -3.892754
-132.348831 -56.748608 59.622360
-130.150497 -53.557873 68.827309
-88.591827 -51.555779 138.879532
-95.749565 -50.833794 149.526566
-97.944939 -53.129948 136.001892
-175.434647 -57.970718 5.073224
-143.513657 -47.922436 66.737465
-83.812714 -53.830238 163.216721
-96.974854 -54.955658 138.489746
-178.100769 -54.473415 0.550746
-96.261917 -51.852680 141.699997
-93.977791 -53.706383 152.903717
-85.376404 -55.198788 163.033875
-137.092743 -52.796597 82.340378
-183.655472 -53.852749 3.079730
-92.429306 -56.732178 160.098770
-179.434921 -53.112026 7.209794
-146.082855 -52.151165 78.202362
-104.077621 -53.379765 153.263168
-140.425110 -53.966145 79.919914
-189.473755 -56.418854 -2.251214
-182.076996 -56.904408 11.070736
-106.018875 -54.092403 153.664612
-101.006599 -55.887169 161.464783
-193.575760 -50.165970 8.282475
-100.513336 -54.887989 169.466766
-103.195320 -55.807705 169.527725
-140.933655 -55.840557 100.766678
-112.827354 -53.093983 153.713531
-115.724197 -56.758949 150.468109
-194.279526 -50.218227 11.526660
-192.839066 -49.740494 8.757168
-193.409134 -57.472988 17.143749
-118.116287 -54.497807 144.390106
-113.398941 -55.306381 164.893524
-149.397385 -58.326839 89.005066
-192.816589 -55.268440 13.834304
-104.324280 -55.747242 164.213760
-194.011078 -53.143707 13.994024
-194.443054 -56.911022 9.804761
-109.211258 -56.721817 172.626205
-106.586510 -54.149227 163.452484
-203.038086 -53.026070 12.234333
-112.091606 -53.641956 166.808395
-116.517654 -53.675983 162.130798
-200.874130 -58.564350 14.964848
-112.765732 -50.163765 175.504852
-121.795868 -55.440105 156.480774
-159.135117 -53.496426 86.665329
-144.301483 -58.215286 113.276901
-150.288803 -54.988071 113.886276
-155.930847 -54.711624 92.104713
-122.655289 -52.616501 153.627182
-143.739853 -54.161797 111.876091
-126.414490 -54.700699 152.946838
-197.202042 -56.058346 19.949085
-206.051010 -57.641090 15.958436
-159.673248 -54.265759 90.846481
-160.725891 -56.787533 98.092705
-122.727654 -55.226673 168.113174
-116.657387 -51.537952 172.717636
-128.914032 -55.386875 148.998901
-130.266571 -48.009712 151.512619
-205.922760 -52.166607 17.165461
-160.011902 -48.203922 102.757332
-169.540054 -54.135822 101.829468
-121.504364 -56.606586 176.420029
-127.657913 -50.367386 157.339737
-142.038681 -58.404690 141.764603
-161.798233 -56.755142 112.545441
-126.996529 -54.953922 171.186752
-135.783356 -48.292973 167.864853
-82.848381 -53.940132 246.040329
-168.950577 -56.890362 107.676086
-205.569702 -60.389408 30.836700
-133.675888 -51.542870 161.639206
-144.164200 -50.972809 142.166046
-147.143570 -54.421337 145.528885
-175.228729 -55.810749 103.276665
-174.531097 -57.790043 102.547882
-167.582062 -57.521503 111.181946
-138.821640 -52.268375 168.487198
-91.095589 -55.598873 250.377701
-87.075722 -55.449108 253.653473
-139.663101 -52.373531 165.646317
-148.394455 -54.275463 149.024109
-141.523926 -53.438828 165.721664
-216.744476 -56.191872 30.636848
-142.361984 -57.499065 160.468948
-88.293793 -52.740585 257.235535
-143.583298 -52.396591 167.039032
-175.496033 -49.647690 105.823753
-175.927811 -55.779564 113.354240
-149.377533 -56.272076 167.263550
-146.904892 -54.740604 168.728149
-178.411499 -53.173050 115.083336
-104.114479 -52.819057 253.005081
-169.152313 -56.788910 133.627090
-218.238144 -54.077858 41.132038
-152.689484 -55.550533 164.904221
-185.915665 -54.713821 114.897476
-105.241142 -56.044113 255.339798
-157.090073 -55.599186 161.382278
-225.085022 -53.255093 42.566002
-185.993225 -54.953934 114.603851
-159.985641 -53.711998 162.751114
-170.967361 -55.031460 149.546417
-188.023224 -52.106335 122.650688
-166.095871 -52.874928 158.155609
-187.881165 -47.986027 115.996696
-178.923721 -55.369522 139.392090
-158.916824 -56.719807 164.120163
-145.036652 -53.096592 202.850174
-144.944260 -56.285416 198.021545
-180.837585 -55.244968 147.911041
-140.943970 -55.815815 197.129272
-113.602127 -52.344372 266.106293
-139.903397 -55.172443 206.919708
-147.417343 -57.990776 201.243729
-184.461029 -51.385384 141.497955
-229.617477 -57.550568 57.553230
-139.121735 -54.779640 214.662613
-233.961792 -52.974651 53.154037
-191.742447 -55.395443 131.961700
-197.067642 -54.945370 124.055557
-188.474518 -54.478058 127.755356
-226.268677 -55.868557 63.765408
-141.347900 -56.155884 215.926407
-169.458298 -54.809479 161.300674
-147.762878 -53.274315 206.185699
-233.506775 -51.179989 59.912109
-120.388420 -55.334919 265.589783
-230.820663 -56.883007 58.448975
-178.203552 -57.065556 157.544510
-179.200165 -53.314224 149.766434
-188.970459 -52.301590 137.786819
-182.040665 -57.761703 155.443573
-199.848038 -53.625984 125.333206
-228.086655 -56.523468 67.050903
-174.121429 -54.195305 162.713425
-140.141739 -55.237804 226.724548
-145.596909 -52.486202 222.012604
-144.094208 -51.453571 219.714432
-187.081284 -56.352951 141.845856
-193.162003 -53.195873 130.735809
-173.690216 -57.184723 158.760300
-184.111938 -55.824512 151.064621
-143.389542 -52.493656 229.087402
-243.736313 -55.345745 60.405540
-197.209549 -57.259781 126.404297
-116.308586 -54.892765 269.005585
-182.382523 -55.123730 156.267105
-202.423126 -55.907742 127.068390
-232.732330 -54.799019 72.520195
-123.580513 -58.728451 265.753265
-197.626434 -57.225254 139.051346
-237.508682 -52.461475 69.229439
-191.173172 -54.905113 156.332916
-190.353897 -56.995613 152.845367
-203.263809 -54.751827 138.097946
-132.945938 -56.000858 255.816727
-134.340088 -52.650967 249.202499
-204.294678 -56.854908 127.661072
-194.907715 -54.727844 155.191864
-199.175064 -53.780891 141.414566
-131.207474 -52.165691 259.295929
-192.294495 -55.221405 152.942108
-191.991760 -54.857712 152.877960
-125.419838 -55.221073 255.742813
-139.298096 -54.885498 252.643295
-192.862045 -55.452091 144.628677
-199.965302 -56.333561 144.025162
-207.731674 -56.060234 126.230011
-136.442749 -53.873398 258.114624
-203.630432 -53.741138 138.013885
-197.209747 -51.685123 152.975739
-196.467285 -55.930836 148.228149
-207.286301 -58.448902 150.016739
-246.773788 -52.798645 81.685188
-235.251831 -54.473778 88.638908
-199.591766 -54.196064 162.817062
-238.357010 -52.777458 84.017326
-190.300140 -55.384689 166.449554
-195.249496 -54.172077 171.031693
-126.471207 -51.668922 289.728729
-240.379425 -53.905224 94.113052
-214.359619 -57.323025 138.383408
-211.215790 -57.074039 145.949631
-203.442200 -56.436138 143.826263
-242.326233 -53.952328 93.863548
-188.045883 -57.487225 181.144791
-191.491058 -55.095898 178.225494
-195.622589 -52.890690 175.040466
-200.301865 -57.205238 173.386307
-184.410782 -56.043198 194.753555
-182.745239 -51.252674 185.576004
-188.715225 -55.594948 184.996582
-184.565384 -56.159168 199.080429
-191.858307 -50.270714 190.286438
-218.538437 -53.662926 143.248749
-223.814499 -58.105026 134.683136
-222.060760 -54.827160 144.283234
-219.060440 -54.423344 138.148407
-222.446106 -52.102997 131.568817
-220.736130 -57.555134 136.506119
-138.102310 -51.495773 286.910828
-188.452301 -55.104748 202.122543
-191.529922 -51.865971 200.131607
-213.879227 -52.101158 162.883820
-177.452393 -50.134941 225.895370
-214.080948 -49.705837 159.260178
-138.800842 -56.951252 296.601776
-144.556610 -55.660805 285.603973
-174.714615 -54.491451 228.206528
-175.303314 -53.911625 234.811722
-185.255997 -55.757862 217.722809
-142.487640 -57.287422 289.622620
-171.001862 -53.177372 231.451218
-175.543320 -52.106316 226.018311
-135.350983 -52.282959 301.708252
-174.162552 -59.931271 240.206055
-181.256500 -54.069691 237.272461
-182.188080 -53.252449 227.716736
-183.886856 -54.575447 237.080414
-166.981308 -57.696251 257.752350
-152.166397 -53.022388 287.020813
-148.603806 -53.355400 283.084290
-150.015350 -52.053871 279.208893
-153.960999 -58.991310 275.006042
-145.470184 -60.767776 296.259491
-149.006897 -56.917995 290.783203
-139.865204 -53.193848 297.967041
-165.315048 -53.809097 265.028809
-236.344330 -58.069626 141.251160
-145.747162 -55.712212 301.179352
-158.171234 -53.156788 281.794403
-149.636078 -57.760605 288.960266
-155.434891 -50.650566 278.808105
-146.977982 -53.766872 303.674377
-146.100403 -57.833527 304.693878
-217.324829 -53.395504 174.534683
-148.991516 -51.334923 295.345398
-157.661209 -56.166817 274.837158
-151.392517 -54.354641 301.450897
-150.051651 -54.634853 293.852692
-169.012497 -53.959541 271.968658
-149.476089 -50.245480 297.103638
-152.111267 -50.174053 290.011414
-153.559875 -53.596920 302.666595
-144.080978 -58.457542 308.087738
-155.286957 -53.488106 294.198944
-152.460907 -48.526352 304.051605
-224.695251 -56.228394 176.486130
-162.885941 -52.992538 293.988861
-152.889664 -52.194614 310.779205
-242.487579 -52.008633 154.907898
-157.833405 -52.274055 307.119232
-166.056458 -59.415916 293.588409
-165.771347 -53.424950 299.214661
-166.836456 -56.171181 299.526123
-167.791183 -51.636841 305.720856
-161.682220 -52.362598 311.543488
-182.324127 -56.111908 282.286499
-244.608505 -50.406422 181.870361
-166.776917 -54.371037 314.061401
-230.076553 -53.339005 195.342926
-178.626297 -54.103756 296.340240
-181.386627 -52.600471 284.596130
-219.423538 -58.807961 224.844681
-217.525803 -56.139877 220.595993
-226.215775 -52.475773 213.854630
-241.826767 -54.867123 178.194656
-173.272095 -55.775505 310.034088
-257.436707 -52.856659 166.581696
-233.228577 -55.639912 196.564529
-245.592117 -55.454174 178.041763
-204.677078 -58.400963 246.462830
-245.674713 -57.824116 179.130020
-199.638443 -57.189941 259.228241
-174.635468 -53.632942 304.800995
-186.716675 -54.052395 278.533173
-193.935318 -52.203960 273.451141
-191.360703 -53.119049 270.732880
-199.838470 -53.712868 261.911896
-199.180222 -54.833054 267.314636
-199.377213 -53.977154 261.138977
-172.193069 -48.068058 301.933502
-176.832291 -55.971233 302.905792
-204.572495 -57.683659 259.845917
-263.807404 -57.653805 165.534103
-192.165405 -56.317570 276.591705
-194.782501 -55.962826 276.765900
-195.438293 -49.917572 270.273773
-220.547226 -57.390079 234.960999
-221.747238 -54.822712 225.694885
-205.152344 -54.783386 264.203339
-208.368546 -50.631573 254.803101
-172.360321 -46.479340 313.645172
