# This PCD file was generated using the MATLAB® pcwrite function
# from Computer Vision Toolbox®.
# .PCD v.7 - Point Cloud Data file format
VERSION .7
FIELDS x y z
SIZE 4 4 4
TYPE F F F
COUNT 1 1 1
WIDTH 1419
HEIGHT 1
VIEWPOINT 0 0 0 1 0 0 0
POINTS 1419
DATA ascii
-151.482376 -60.684284 136.107193
-142.492706 -59.816906 143.009705
-145.431686 -58.766975 147.536087
-146.895081 -58.465038 149.417831
-150.233948 -59.127190 142.193481
-88.124321 -60.075867 250.259018
-89.205917 -61.568066 249.337738
-150.795410 -62.517399 142.423019
-151.866455 -59.086147 150.650696
-86.811165 -59.242401 254.695496
-150.371460 -59.244370 146.153137
-145.150589 -59.809772 158.685226
-156.323608 -60.186684 147.382507
-147.483246 -60.603573 161.439041
-149.250000 -57.856476 157.894394
-158.277161 -59.273388 144.240509
-149.221527 -59.515869 161.412216
-158.811813 -59.766609 143.933014
-93.342209 -60.515739 257.216370
-149.640366 -56.836414 163.127884
-146.108353 -59.197632 168.873917
-96.502541 -61.273132 255.606323
-104.101227 -58.546684 244.469574
-100.445534 -62.088577 257.488098
-152.069626 -60.381989 161.078354
-103.636948 -60.506435 245.196365
-161.907257 -60.002693 145.505768
-146.262650 -58.483326 171.281815
-152.594421 -58.408195 166.037170
-163.619934 -58.164230 142.714584
-105.509125 -60.786247 246.892242
-164.035248 -60.965973 146.630966
-146.168427 -62.947109 179.740295
-148.557205 -58.828423 172.192062
-167.808746 -58.864971 148.549820
-156.927750 -61.488434 164.576889
-149.021088 -60.040630 177.172302
-159.142212 -59.588902 160.681976
-185.817627 -59.596615 122.016525
-144.578201 -60.241276 195.658920
-152.279709 -61.295197 183.117142
-165.341995 -60.565277 160.452301
-162.660965 -57.740143 167.060638
-152.609161 -58.135712 189.088821
-176.571274 -59.568512 145.566605
-110.717155 -60.282700 261.875488
-179.215500 -60.553635 144.431396
-189.756393 -59.991230 127.914452
-148.859116 -60.123734 202.687729
-171.519836 -59.062546 157.787628
-171.593277 -59.095085 163.157898
-145.871323 -58.838001 207.690491
-147.034760 -61.549431 204.098328
-191.642853 -60.853584 125.892998
-190.335754 -60.273834 129.590881
-193.117157 -57.489887 125.079086
-182.304672 -59.437328 144.609467
-185.443741 -59.202686 144.323334
-187.869431 -60.491230 143.015823
-193.917038 -59.071388 133.733612
-190.848785 -59.006607 141.664444
-193.283295 -57.540771 146.031586
-196.752640 -58.389851 143.809952
-195.900421 -60.906708 149.230484
-204.859360 -59.191628 130.689316
-195.248825 -60.796730 144.252808
-130.128571 -61.555027 263.489166
-123.958397 -60.471153 277.433350
-129.194153 -60.646954 268.064453
-126.893951 -61.834965 277.530548
-207.405167 -61.238495 137.004974
-130.852295 -63.044472 271.370819
-213.652084 -60.781322 133.417007
-194.533173 -59.171097 175.925781
-191.083298 -60.814034 180.821075
-192.939972 -60.376392 178.013901
-187.112518 -58.739784 189.140579
-193.425446 -61.045521 176.564743
-190.071121 -60.879189 185.054382
-192.812866 -62.638748 182.774841
-189.207794 -59.603973 190.612534
-191.642303 -61.614227 186.706696
-218.993698 -59.986668 144.127197
-214.761566 -61.062843 157.194504
-216.486435 -61.159241 153.593170
-224.677887 -58.874451 139.496445
-216.314972 -61.458675 163.216751
-230.532089 -59.070618 140.709335
-149.126297 -60.711372 285.182617
-233.065887 -60.105289 145.180862
-150.412369 -61.904358 292.887756
-242.056061 -63.182602 150.876312
-161.257278 -61.119125 294.135895
-238.249252 -59.709366 172.524139
-162.771515 -60.551514 296.002258
-166.759109 -57.208088 295.112244
-163.413727 -61.266247 298.744812
-243.813156 -60.486351 168.692932
-246.870575 -59.848705 161.213531
-171.047546 -59.922161 299.062469
-173.259796 -60.492538 297.940033
-168.028778 -62.495228 305.622925
-176.053146 -59.375179 297.620117
-179.339249 -60.649918 296.406616
-170.672089 -61.158951 307.371155
-180.311127 -62.505661 303.844147
-184.409073 -60.465813 292.051788
-181.882645 -58.473763 299.043579
-175.424194 -58.600727 311.520416
-182.231308 -60.596794 298.879211
-175.955490 -60.608704 309.363708
-178.856873 -58.542408 308.263550
-181.063644 -62.057301 307.050964
-186.452179 -62.249996 308.713593
-186.681198 -60.176464 311.107849
-26.290346 -57.323483 110.469643
-29.316515 -57.658760 105.454964
-22.122406 -58.721748 122.378159
-27.855494 -59.976711 110.325676
-25.067190 -59.943737 118.373978
-34.826164 -61.123508 104.831444
-21.597584 -59.825920 131.878082
-46.660797 -58.656502 92.681351
-48.333057 -57.437992 95.099030
-49.675858 -58.573845 94.060120
-26.218594 -59.836624 137.624374
-50.626606 -58.726353 94.168732
-27.438576 -58.106979 144.199844
-37.864330 -60.040928 153.420929
-52.019917 -59.195290 145.987595
-52.205112 -59.560059 150.738785
-115.216095 -59.141712 39.483147
-117.460068 -60.432209 45.302956
-52.050079 -58.496159 153.129257
-115.426849 -59.504631 46.446949
-51.530590 -60.151043 155.200317
-48.196743 -59.710163 161.627747
-119.650177 -60.340126 42.796463
-52.119362 -58.536842 163.684341
-117.063026 -61.104889 51.606621
-125.334023 -59.021263 47.697292
-121.156769 -57.960556 53.837234
-125.494278 -58.599987 52.787388
-125.404922 -58.045288 61.316772
-124.108536 -58.258072 59.152641
-126.521057 -57.732738 56.092793
-129.560394 -58.968342 65.922592
-132.492798 -57.748474 63.508896
-130.309738 -58.817997 64.575127
-131.361603 -59.344070 72.848221
-137.201385 -58.478664 65.084595
-136.350769 -57.913437 67.565536
-137.086151 -59.216850 73.151825
-136.631668 -58.303608 75.520233
-105.605225 -60.508068 147.270676
-141.334137 -58.490520 80.777122
-144.423660 -59.873726 78.377541
-105.292412 -58.444794 143.684189
-143.023590 -56.753990 80.378052
-111.736351 -56.382565 140.679565
-109.067596 -58.400753 148.567932
-144.412491 -57.898872 87.986572
-115.084946 -58.767921 141.984756
-151.199295 -60.939785 89.481255
-104.801704 -58.145844 166.652817
-118.455177 -57.801392 150.298004
-155.787247 -60.051247 84.484901
-107.922554 -59.625130 168.562744
-109.497688 -60.036057 168.339371
-128.021973 -58.425709 138.557449
-143.721436 -60.335480 117.644112
-113.500877 -56.609768 164.081116
-144.022964 -57.422279 113.124367
-128.975128 -58.597637 137.808884
-125.888618 -59.213993 149.682831
-112.760109 -57.971107 170.071503
-161.897186 -59.798233 91.528725
-141.800095 -60.368320 124.403625
-159.204529 -56.657040 96.023796
-143.732101 -59.662319 128.036255
-145.518494 -60.125908 121.123245
-131.412430 -58.813442 149.590881
-136.062714 -57.568047 141.397720
-163.782242 -58.723270 95.829285
-146.335129 -60.246758 124.695549
-140.088074 -57.892780 140.950882
-163.947205 -59.931770 100.425217
-166.195389 -57.845970 98.162193
-137.161789 -56.578423 145.788727
-127.175743 -58.192326 168.703339
-165.672394 -58.186081 103.094940
-134.316193 -61.685123 164.356247
-132.402374 -58.205330 165.610947
-129.643417 -57.913395 166.177017
-148.767639 -58.067410 137.670288
-131.923782 -57.393639 170.292938
-87.672829 -58.822655 249.464340
-137.053009 -60.040031 164.742462
-170.512390 -59.608448 106.593521
-147.743774 -60.225937 152.228455
-147.470703 -61.953514 152.912338
-152.394363 -60.378403 146.742081
-173.577423 -59.010975 108.984261
-151.449493 -59.781044 147.085953
-145.357101 -59.672947 164.384262
-142.054550 -58.600895 165.342346
-156.571701 -59.695206 143.758865
-97.949768 -60.609550 248.892014
-177.462585 -58.942192 113.226379
-160.640228 -57.182690 142.063644
-149.698425 -58.877274 167.957474
-158.081329 -57.215374 150.354630
-181.051727 -59.891846 114.865456
-180.136169 -60.592949 115.929436
-152.630371 -58.025814 163.719864
-147.539856 -60.079414 175.812286
-180.585892 -59.635338 118.612480
-103.518814 -59.467152 253.436920
-101.636650 -60.158775 262.006500
-165.379883 -57.789169 146.684113
-147.698669 -58.502861 180.641068
-102.432510 -59.217426 263.841919
-105.378593 -58.293259 258.366028
-187.486191 -60.212307 118.707443
-145.385559 -57.787640 186.903717
-150.132263 -58.167999 181.835281
-142.416046 -60.321804 191.294693
-149.395477 -57.390434 185.066467
-184.392578 -60.601513 125.687920
-152.837311 -58.310497 186.895004
-144.126801 -60.171928 202.466599
-175.883316 -58.232410 142.139725
-151.570084 -58.744312 190.428268
-173.181625 -59.369061 146.452927
-141.743256 -58.036324 207.480789
-180.828308 -57.901489 145.028320
-148.683716 -60.285343 194.630692
-141.004044 -57.652962 211.175751
-171.482559 -61.155857 158.024933
-189.521027 -57.422459 129.074966
-171.789291 -58.195332 162.769669
-145.147064 -57.180283 207.836731
-185.911163 -59.003273 142.779205
-196.797531 -59.233097 124.525673
-177.329178 -59.757320 157.601028
-175.036316 -58.856022 158.867157
-197.068115 -56.278294 129.279037
-184.537430 -61.114479 148.022720
-196.795105 -58.731762 129.627228
-192.716507 -59.285908 138.668640
-200.029938 -59.090015 132.605972
-189.549835 -59.119385 149.257416
-201.812149 -58.386539 137.792114
-202.630508 -60.636860 131.616882
-124.222610 -58.366291 265.448608
-196.927338 -59.378044 141.408920
-122.517715 -60.062138 269.928955
-121.230881 -59.327023 271.954132
-203.422440 -59.696159 131.720016
-123.041145 -61.597466 272.981293
-126.022034 -59.108356 271.066803
-205.049255 -62.990879 129.666397
-123.840607 -60.767494 273.818665
-202.645218 -59.222515 143.197693
-199.876892 -60.567406 148.558350
-203.352585 -59.543045 147.973114
-204.850479 -58.721607 147.411469
-206.367111 -59.897835 140.029633
-211.583054 -60.601685 134.503510
-211.103226 -59.507458 141.756500
-194.862320 -59.720440 171.305725
-189.924835 -58.749416 177.357803
-195.583664 -59.925121 171.909637
-186.796951 -59.159660 182.181442
-219.374847 -59.684498 133.260956
-196.930038 -60.202530 172.523315
-214.309265 -59.488693 142.058960
-221.157425 -62.210361 132.991714
-185.674438 -58.923752 191.899734
-195.808060 -57.530888 179.849533
-183.397736 -58.263618 199.297348
-187.565964 -58.126106 195.683395
-187.205765 -59.331841 200.976624
-189.461639 -61.604012 193.582932
-192.514282 -59.151066 193.080734
-216.704895 -58.581169 144.767181
-137.247787 -60.482151 281.696411
-139.857147 -56.235199 279.568634
-217.612473 -58.583149 147.126587
-212.209534 -61.126732 151.869904
-224.102905 -60.391956 135.635956
-226.543945 -61.078396 134.353256
-144.458008 -58.511177 280.191742
-145.476608 -60.381126 281.308228
-143.498337 -59.192665 291.406006
-153.752350 -61.916687 281.942444
-217.488205 -60.188999 168.796936
-144.622986 -60.210972 293.795776
-147.260849 -61.551868 287.005951
-154.040787 -59.106503 278.789032
-156.881119 -58.082924 276.269165
-157.552200 -57.307423 280.932953
-220.227280 -59.112110 169.100220
-152.776840 -57.735573 284.238953
-235.974792 -59.896832 144.186066
-237.571014 -61.762310 143.591553
-155.919861 -59.670719 290.864868
-157.162552 -60.115013 286.777649
-153.151642 -59.145988 290.489136
-243.972336 -58.184666 149.323380
-160.642593 -59.049721 295.177338
-162.590881 -63.552452 291.854797
-160.820862 -58.479565 292.362335
-243.060135 -58.419712 148.912292
-243.461899 -59.508709 154.512329
-234.106461 -56.525570 171.035172
-169.624771 -59.431206 295.491180
-237.000046 -57.034668 169.393311
-246.748764 -58.003948 158.423050
-243.413940 -58.542751 167.972534
-168.195847 -59.385258 305.083038
-246.518387 -57.852955 168.354401
-178.357819 -59.511200 294.861786
-179.464111 -60.450623 292.140137
-182.742859 -60.187370 294.522705
-182.276596 -58.200035 294.101501
-180.578384 -58.190388 295.746124
-183.997330 -60.873672 303.616791
-181.339752 -58.178261 308.657562
-183.095856 -57.476704 304.247162
-187.042938 -57.452087 307.599274
-185.446075 -59.523941 311.954590
-186.945694 -59.859360 310.566467
-22.344213 -59.439098 111.974785
-27.872089 -57.127380 102.284637
-19.239679 -58.569305 113.265953
-16.830751 -58.110676 120.304619
-20.515255 -59.506187 120.043640
-27.688484 -58.108459 106.071419
-30.810223 -58.172344 100.035271
-33.747116 -58.206848 103.155975
-36.957500 -58.485649 96.965843
-19.737112 -58.570084 129.219833
-19.652437 -57.233177 130.089279
-43.249470 -58.868755 93.450417
-20.278460 -58.163235 132.613388
-46.796036 -59.116199 88.010574
-50.668659 -56.495274 90.356880
-53.233177 -57.195881 90.037697
-24.964201 -59.201180 140.958694
-51.802814 -58.569454 106.615311
-112.110542 -59.786213 -1.180948
-51.675423 -59.002682 106.249535
-51.562881 -59.507652 110.899857
-115.271126 -58.448494 4.517408
-53.472263 -60.778564 117.346329
-50.373058 -58.848385 131.754852
-112.858932 -59.051594 36.604427
-51.786339 -60.135799 142.061737
-45.214993 -57.503353 160.188110
-112.298668 -59.403652 41.417732
-116.585960 -58.827656 37.489407
-118.040947 -58.451332 47.350822
-115.798027 -57.697746 48.679428
-122.949608 -57.682636 48.292767
-122.780205 -59.196331 51.880009
-119.012619 -59.401787 51.520142
-120.340988 -56.826488 56.752590
-126.031395 -58.626972 49.367783
-124.657112 -57.516617 60.164070
-129.712708 -58.057732 57.006973
-130.963394 -56.803207 61.660213
-130.445984 -56.770138 70.104866
-135.301834 -57.173542 74.229607
-100.245544 -56.775070 140.866211
-144.047821 -57.954517 72.902046
-141.033615 -56.937218 77.103546
-142.450241 -57.069874 72.177727
-147.496979 -58.576420 76.406433
-147.001114 -57.658836 81.468079
-107.384491 -59.151520 148.410812
-144.891937 -57.618008 81.441940
-111.123581 -58.682285 142.464996
-102.397507 -57.458855 167.240921
-105.876526 -58.294315 164.787964
-115.308701 -57.599281 142.367813
-104.951408 -57.382248 167.584732
-116.262543 -56.865246 148.831345
-152.805420 -56.870419 84.771187
-109.231987 -57.907070 165.236710
-153.658340 -60.558949 87.908394
-152.662674 -57.180515 86.944275
-107.221954 -57.178532 170.852478
-120.845123 -58.073761 147.140244
-140.778061 -60.480942 109.692352
-143.148376 -58.228565 110.900185
-157.739838 -57.986660 87.051559
-128.234680 -58.410156 144.895798
-138.707626 -58.168388 119.147026
-156.447342 -59.191452 96.098511
-129.700577 -56.805557 145.967224
-159.752243 -59.951149 98.771172
-130.499664 -59.279961 143.650742
-129.250626 -59.197189 145.083084
-128.732635 -57.166393 147.981857
-117.927078 -59.238468 168.526733
-120.547615 -58.574486 167.855713
-160.747726 -57.646671 96.023506
-160.834900 -59.275047 96.658737
-119.179405 -56.920979 167.237717
-134.769379 -56.505722 145.584747
-142.640564 -59.078201 133.473068
-137.893555 -59.703579 144.932785
-126.366386 -58.854248 164.984390
-149.174530 -57.627914 129.550522
-125.045341 -56.919174 172.340500
-137.967285 -59.168636 147.886139
-138.667297 -58.494110 142.644836
-166.781494 -57.642078 94.475052
-143.666107 -58.696701 135.009659
-129.991165 -56.960060 169.909836
-164.377319 -57.888866 106.571014
-130.582352 -58.777878 166.800278
-133.068848 -57.523064 160.318893
-147.152924 -58.355118 138.417389
-130.448715 -58.205322 170.969955
-146.302826 -57.867161 147.532379
-145.271545 -56.967278 143.790100
-150.492538 -57.309105 141.203339
-168.381683 -56.820526 106.875885
-134.594025 -55.533188 167.880081
-148.592209 -62.230648 144.769394
-171.937286 -58.555183 104.860054
-138.662109 -58.071754 162.575684
-150.446777 -57.940357 147.226196
-136.798615 -58.075340 167.742233
-172.516174 -58.415039 111.750290
-144.411591 -60.506100 164.415833
-154.890717 -58.348114 140.727371
-152.924149 -59.195007 146.839539
-177.399628 -58.888702 105.804832
-146.803864 -58.060677 159.924728
-91.339813 -58.606800 256.133453
-142.852509 -59.955986 169.958664
-156.735687 -55.792042 143.940674
-145.661255 -58.570873 167.126999
-156.176025 -59.319736 148.586075
-158.642914 -57.756504 148.724335
-149.710281 -57.273102 162.310287
-153.313614 -60.882030 161.040237
-161.844208 -59.223728 145.043365
-162.404053 -59.775570 145.254410
-96.898422 -57.451862 257.902405
-151.119446 -58.573738 165.740967
-177.725510 -56.748394 121.005219
-156.127563 -59.740738 166.743073
-185.151184 -55.581375 114.696526
-167.989136 -57.195347 146.920013
-160.650558 -58.191471 160.057632
-169.736847 -57.512039 144.803925
-148.193161 -59.402931 186.158417
-161.186096 -58.483948 163.876938
-172.171768 -58.379692 144.194916
-147.194901 -59.683792 189.600189
-145.331635 -59.532494 192.032455
-163.845245 -57.136620 164.271149
-187.652466 -58.075542 123.987167
-187.961411 -58.766022 118.736847
-147.486267 -58.729904 192.287674
-175.379242 -59.771008 146.581116
-149.526230 -57.280373 194.388550
-176.503998 -59.258453 144.818893
-108.742363 -60.158237 261.708801
-169.273941 -57.206707 160.914230
-175.793030 -61.045219 147.434219
-188.632080 -57.087509 125.375343
-143.554886 -58.021946 209.585037
-192.283035 -60.021572 121.902885
-148.712448 -61.071903 202.844604
-144.076477 -60.401920 211.692093
-181.295929 -59.432568 144.178040
-181.566788 -56.722328 144.506317
-112.990715 -60.555389 264.326294
-194.774490 -57.971153 130.063431
-178.910324 -57.047256 155.697464
-178.076187 -57.513546 162.237274
-192.864853 -57.052830 134.659744
-179.444946 -58.767429 160.862183
-189.015030 -57.344379 144.533707
-184.408157 -56.308632 156.505005
-119.242043 -59.897556 267.548584
-116.998955 -61.002384 271.691803
-181.979843 -56.960949 158.245926
-192.238113 -56.309845 143.027588
-192.100906 -59.187534 144.016891
-118.436607 -57.707478 273.639282
-122.641327 -57.856525 266.841309
-202.668350 -58.963558 127.190720
-123.134460 -57.852009 266.075745
-127.746056 -59.207901 262.057831
-194.312149 -58.246395 145.406616
-202.843719 -57.625523 134.735275
-204.949585 -57.862232 129.525192
-130.066055 -59.563946 258.570007
-127.151894 -59.871082 271.862732
-203.988892 -59.654163 135.737335
-135.692062 -56.509201 259.971161
-125.365395 -56.642273 279.207062
-129.444977 -55.848282 268.271210
-197.913895 -57.941822 146.698776
-131.051010 -59.717236 269.069641
-204.220749 -59.084518 139.531265
-128.407974 -59.033794 278.714172
-133.018250 -58.936062 271.172150
-211.956161 -56.354256 133.250351
-213.788406 -59.089691 132.549377
-202.376526 -57.965004 149.991455
-131.479797 -59.945045 275.048431
-194.802170 -59.178520 172.297852
-208.567215 -59.513821 147.775650
-193.970169 -57.429031 173.441360
-197.689728 -57.999958 167.438156
-132.855011 -60.212345 280.019043
-135.405075 -58.089752 274.565247
-212.248230 -60.437321 144.357224
-133.943771 -59.548244 279.492340
-196.807510 -58.316395 169.970901
-183.932846 -57.669754 195.071091
-199.159241 -57.896229 172.404022
-194.641907 -57.517857 182.633484
-183.042099 -56.872086 201.762589
-217.093430 -59.421104 143.296570
-182.045105 -58.333878 205.189240
-216.463654 -58.425049 150.530655
-216.379333 -56.651478 146.882156
-218.819611 -56.845650 143.663986
-183.774994 -57.866379 203.672699
-138.105911 -57.911125 285.480377
-187.634995 -59.584347 197.762161
-184.898148 -59.458447 209.895874
-184.761047 -57.184258 205.965668
-226.111786 -56.898628 141.510025
-215.008667 -59.323524 158.787506
-214.082581 -56.918976 163.690643
-142.324524 -60.191254 287.640594
-150.286896 -58.528156 282.267181
-156.906357 -55.748802 277.140198
-153.290359 -56.792934 277.090729
-220.083908 -58.292297 169.417435
-159.137390 -58.258282 277.690094
-155.096146 -60.017315 280.490387
-222.063278 -57.611633 172.196365
-228.932220 -59.942696 173.870682
-160.702942 -58.919109 291.848236
-160.516861 -57.262344 293.798920
-163.371796 -58.646332 297.586395
-165.893234 -56.725029 295.277313
-166.234665 -60.408001 293.907867
-165.340256 -57.041954 297.840607
-237.271561 -59.556328 173.290970
-247.706909 -55.196999 156.250473
-248.437088 -58.031773 159.211151
-171.712204 -58.811844 296.857880
-169.593918 -57.861710 300.456085
-248.839096 -60.374004 168.311523
-178.758972 -59.214584 295.850708
-180.927048 -57.144001 293.202545
-241.590500 -57.572369 190.364761
-232.129807 -57.449165 207.425339
-237.677048 -58.113167 193.804306
-234.920120 -59.785530 200.939697
-240.578751 -58.053062 194.869232
-242.617874 -58.735462 189.056213
-244.994812 -56.571331 182.866074
-180.031189 -58.605175 298.473236
-256.539856 -57.417408 166.523743
-260.329163 -60.096844 161.090851
-178.351501 -59.798012 298.483093
-260.033234 -57.721127 166.495972
-183.202454 -59.332901 307.246704
-186.408356 -58.883026 311.284027
-189.577103 -58.366768 313.956757
-190.014465 -55.950943 310.380188
-191.315979 -58.558979 315.189911
-195.939224 -58.782505 312.066925
-195.398499 -59.557560 316.331299
-22.468386 -57.153358 105.971039
-23.466883 -56.481712 102.214508
-32.083843 -56.788685 96.580933
-17.336824 -56.379631 120.309837
-25.843079 -56.910686 104.775574
-31.319597 -56.427555 96.630333
-33.896446 -55.458611 97.333549
-36.812969 -56.118938 93.399612
-16.532480 -58.041401 130.459381
-44.740513 -57.443996 85.801453
-47.706924 -60.756271 86.601585
-50.765236 -57.273300 92.183853
-54.150410 -56.674274 97.120544
-112.531082 -55.624561 -2.414471
-113.471359 -57.488251 -2.023465
-115.150688 -57.582024 -2.137295
-117.221558 -57.950851 -7.326660
-108.935547 -54.802017 4.244381
-118.876015 -57.262939 1.379974
-118.372498 -55.904598 0.364701
-116.669281 -56.127605 6.185684
-124.318665 -57.963467 -2.242877
-51.062023 -58.638397 116.118935
-118.182625 -54.566536 -0.029828
-118.500763 -58.098087 5.353416
-124.921333 -59.194691 -2.995241
-51.307220 -57.840923 123.769836
-120.875107 -56.641972 2.417410
-52.722343 -56.770878 123.707123
-122.576622 -58.261608 2.151459
-53.544136 -56.859539 132.886566
-112.602272 -56.963085 35.986935
-110.953438 -56.798023 48.806194
-46.430199 -56.127377 162.835861
-113.456207 -56.742958 49.838104
-53.851402 -55.965492 156.936172
-119.418678 -57.460331 43.834763
-53.613865 -58.169498 164.776688
-125.124352 -57.444035 45.956070
-118.972076 -61.251392 60.875587
-127.561188 -59.329250 56.520016
-131.370743 -57.432610 56.412071
-125.426125 -57.565514 66.909760
-127.795532 -56.032223 67.865532
-133.441254 -59.327461 66.734589
-138.213791 -56.990154 64.683578
-98.096954 -55.632145 144.169022
-139.822174 -59.230537 77.606163
-96.583748 -55.648365 144.797699
-101.767525 -58.215019 140.896027
-99.586380 -56.957329 146.780212
-145.235641 -57.830704 70.513153
-102.737030 -56.042439 145.999313
-104.548073 -57.222553 140.238861
-101.984818 -56.786709 144.810135
-185.139847 -58.982803 4.466980
-104.616905 -57.513474 147.454681
-106.766266 -56.809753 144.116974
-111.680458 -56.756744 141.904297
-144.474548 -56.326294 83.805122
-109.013519 -56.389069 148.016693
-99.079330 -56.923203 167.925140
-102.414955 -57.980568 165.424423
-193.740707 -57.366283 10.620003
-193.097366 -57.454311 10.977149
-111.744499 -54.954132 148.724091
-149.348145 -59.864506 89.684868
-195.437790 -56.117184 14.758415
-125.423309 -59.081676 143.174789
-142.571884 -55.886787 112.787285
-156.919098 -56.536232 85.878014
-197.001434 -58.176640 15.285365
-113.963036 -53.679588 162.107193
-121.541275 -58.253117 149.530167
-112.257545 -56.815319 166.125488
-200.444824 -56.047077 15.774877
-145.116150 -58.510609 115.286606
-156.879318 -54.668232 97.049408
-118.741135 -56.273010 166.467270
-142.056427 -54.843716 125.251823
-117.236572 -57.352161 169.409683
-204.483597 -58.119190 23.022318
-117.412239 -57.014248 171.422348
-121.046318 -55.938408 161.929626
-145.799240 -56.362576 127.002235
-147.654221 -57.293301 121.160484
-121.157425 -57.671883 165.494003
-204.157486 -57.968544 22.587618
-203.128418 -57.161865 21.500956
-135.632141 -56.768272 141.446152
-163.461700 -56.833820 97.421204
-204.945755 -56.610199 22.831993
-133.114822 -58.459057 149.968857
-147.314453 -59.256050 132.886856
-148.527908 -57.366341 124.052452
-138.554413 -55.975765 139.394089
-164.817383 -55.479992 96.914932
-126.648193 -57.515091 163.412216
-163.138229 -56.802586 97.990768
-126.507050 -56.702312 166.540573
-150.276520 -57.161766 128.234665
-206.245911 -57.829544 23.454004
-146.629105 -57.135349 134.500259
-210.079895 -55.558929 28.910118
-146.393661 -56.807301 138.702805
-166.514740 -56.034878 103.222565
-210.752975 -58.340225 30.900063
-131.013687 -55.126583 164.955521
-211.567490 -58.463825 28.062731
-132.045837 -58.706974 164.538498
-167.827469 -57.010384 101.191597
-131.186157 -59.596672 169.049179
-140.022369 -57.983303 150.202545
-148.089325 -58.021919 139.822357
-147.854736 -60.139313 143.070145
-169.908783 -57.638721 104.847015
-149.409149 -56.215599 141.488266
-87.128479 -58.750473 250.420883
-135.028183 -54.752239 167.067780
-138.503693 -58.868088 163.087891
-211.964554 -57.902370 29.426371
-133.033051 -58.010403 169.605301
-137.984543 -57.240883 166.064972
-216.824905 -58.010498 29.837538
-149.648376 -57.138756 149.840851
-171.584534 -57.090237 107.487724
-93.277679 -56.520222 247.021805
-216.151169 -59.612755 33.483360
-138.930283 -56.660061 162.811676
-173.791183 -57.086300 106.400269
-143.176941 -56.535812 167.338898
-145.678543 -57.342155 165.721786
-94.974411 -58.270355 249.203720
-216.726837 -59.370506 39.531506
-147.556320 -53.938271 165.225540
-176.761322 -57.725403 115.568596
-98.616669 -55.346752 252.005157
-92.212143 -57.602383 257.516083
-148.484253 -56.926445 164.959961
-219.823700 -56.618362 39.216167
-100.110687 -57.902275 251.394897
-146.716949 -58.094341 165.477997
-100.874855 -58.601288 248.694229
-146.263947 -55.902863 168.483231
-163.069962 -58.118706 143.931549
-161.781174 -60.666550 141.321365
-180.693893 -56.236927 113.303665
-103.745415 -57.762508 245.425797
-151.648865 -58.909229 164.318817
-153.300049 -57.083057 159.191345
-180.619125 -57.405769 115.012802
-161.174561 -59.822983 149.771255
-223.602722 -57.455021 38.930649
-179.355118 -57.187542 119.044357
-219.828354 -57.775742 44.012356
-164.276855 -58.168484 149.350906
-102.967415 -56.770973 255.473633
-224.825790 -57.218140 43.606586
-101.955124 -58.372429 258.023743
-151.965240 -56.644741 169.043060
-181.885635 -57.995941 119.647552
-102.537682 -58.476620 249.067734
-182.869934 -57.164455 117.176933
-169.019638 -60.471630 141.584885
-100.629860 -58.730865 264.480499
-155.897736 -59.313164 164.972549
-158.715958 -57.893593 162.096436
-107.672997 -57.090229 255.346771
-106.221947 -58.235832 255.419464
-179.180145 -59.681538 122.422089
-102.351357 -57.511650 261.253876
-225.380997 -56.965981 48.918114
-105.455536 -58.738689 259.097168
-185.723801 -58.886429 121.416939
-223.944778 -55.800488 50.028946
-226.132477 -58.241447 48.263298
-148.257629 -56.930073 192.399582
-110.092148 -58.038517 260.019867
-144.343002 -57.526066 200.619736
-167.222488 -57.186752 162.383270
-172.150818 -58.287369 150.790985
-174.590759 -58.304234 144.045197
-162.474152 -57.187237 167.103760
-109.753410 -55.318977 266.032166
-142.820160 -58.101460 201.919083
-150.710541 -57.736626 195.736465
-166.584488 -56.889339 157.697250
-229.375381 -56.862675 55.140957
-178.571777 -60.155300 142.902817
-229.870331 -56.653561 57.136246
-107.942543 -58.368565 263.162323
-147.999146 -58.002953 196.544449
-168.903366 -58.531715 163.233185
-171.171768 -57.067078 161.070236
-188.341049 -59.625031 131.775391
-172.759476 -56.360165 164.071121
-171.661621 -57.551033 155.640060
-230.816238 -56.331757 60.576462
-140.468430 -57.636345 214.165863
-180.023621 -56.142685 146.630249
-231.636520 -57.660515 59.273964
-141.464615 -58.831367 215.735260
-145.346893 -56.770557 207.577896
-192.890961 -58.195877 125.183647
-197.239456 -60.923809 121.666344
-176.952866 -55.034248 158.436752
-228.590836 -57.668579 60.544651
-113.850395 -59.310661 268.889374
-145.100754 -55.933720 212.925735
-146.752274 -58.358944 211.744995
-116.005760 -58.421185 266.315063
-187.373413 -55.760319 142.267242
-187.802887 -57.998600 142.426071
-115.888092 -57.494385 270.640503
-182.675659 -57.482948 155.411835
-186.198624 -59.521111 148.000565
-196.750671 -58.934708 126.407204
-202.271057 -55.492859 123.950134
-185.827118 -57.377811 154.036545
-189.219131 -57.332531 150.108414
-196.698547 -56.651688 140.929901
-118.905106 -59.364368 275.764679
-126.267227 -57.339573 264.952087
-188.597885 -57.221172 155.298569
-130.815994 -57.310757 259.194977
-199.341492 -56.945824 142.665924
-203.309982 -57.908955 136.413986
-198.115738 -57.349060 142.427475
-197.953094 -59.494781 151.021576
-129.667038 -57.791191 268.155792
-132.529236 -55.715443 266.832977
-206.690002 -56.489723 142.351974
-201.245987 -56.589779 145.332581
-204.407043 -58.902084 141.729904
-131.036652 -58.718456 270.416748
-129.210510 -59.383076 279.557465
-202.345093 -55.821163 146.690857
-210.621323 -58.237896 142.014053
-208.737854 -57.721794 143.979172
-195.666107 -57.321602 166.642883
-191.593842 -59.189316 176.630051
-210.190140 -56.391243 144.556351
-210.841629 -57.703278 141.317337
-186.543823 -57.269058 186.697586
-198.783188 -55.925636 165.712006
-185.816193 -58.123142 191.923035
-211.790558 -55.527512 146.773056
-136.391235 -60.758228 279.283752
-133.448654 -57.168472 278.516235
-200.110229 -59.327034 167.982101
-213.471664 -58.476006 148.435242
-195.880646 -60.349110 176.007339
-216.284866 -57.275826 143.173340
-181.504227 -58.553844 202.128647
-193.725143 -58.000271 186.916611
-214.451828 -57.364864 145.274597
-137.935745 -59.538719 283.098175
-139.008606 -58.418221 281.048096
-219.167160 -55.109272 143.650681
-143.279709 -59.372673 280.720123
-192.072433 -56.729263 196.400726
-180.547653 -58.250431 212.164597
-225.292145 -56.509033 136.049347
-224.617767 -56.636307 141.477951
-225.446213 -56.506348 134.413528
-226.740021 -56.974239 135.534790
-180.250824 -59.283703 212.224808
-184.695541 -57.505814 206.327255
-183.968704 -57.584751 210.310913
-228.300217 -57.114319 137.589203
-146.981995 -58.221909 284.069031
-142.337311 -58.533642 285.650665
-151.254822 -58.320156 279.879395
-143.452972 -58.974995 293.690125
-215.882874 -58.038773 170.093109
-152.398895 -60.371559 277.635406
-217.741745 -56.679375 168.337402
-233.928345 -58.486088 140.146500
-153.783707 -59.241344 280.566589
-225.343781 -55.323112 171.248291
-155.041763 -57.036392 288.950562
-156.960770 -55.812595 290.087799
-159.794998 -56.537296 290.341095
-243.019073 -58.966324 146.958740
-159.508286 -57.963409 294.383789
-242.022125 -57.757488 148.542664
-162.072098 -57.724060 292.471008
-236.696335 -57.057297 174.344330
-233.956787 -56.734348 176.782440
-250.175095 -56.691223 155.954330
-244.422363 -55.982109 173.767792
-252.161316 -56.539143 161.438812
-248.066803 -57.570911 172.987122
-232.316940 -58.697292 200.480133
-236.085617 -58.120148 196.436020
-223.939865 -60.017647 216.195221
-228.613998 -57.459568 207.460358
-182.728210 -57.288994 283.338531
-242.405930 -57.947121 188.675079
-245.321091 -56.130260 179.766861
-183.223236 -55.457546 289.144745
-230.335785 -58.906441 200.526108
-236.588440 -57.754131 198.401108
-188.599426 -57.405544 281.599731
-223.698196 -57.485798 220.942413
-248.285034 -57.304253 175.278122
-186.377823 -56.836246 283.365082
-253.548569 -57.644756 167.629089
-255.641373 -56.468391 161.445282
-225.584625 -57.712460 219.347351
-257.528900 -57.361568 163.369034
-186.962021 -59.008762 285.693298
-190.782440 -56.155472 281.806824
-231.747711 -57.637863 205.776474
-251.677429 -58.250134 171.956802
-257.635986 -57.665363 165.225311
-183.850296 -58.846367 289.967804
-229.320724 -56.473946 213.310608
-233.586365 -57.052261 208.251831
-234.097763 -58.124268 203.484421
-252.632339 -58.655365 178.193375
-238.462708 -57.850704 199.254684
-246.616180 -59.713524 184.552368
-248.863647 -59.369186 180.297089
-251.227570 -58.395088 177.074570
-256.530975 -57.309929 170.324036
-259.253479 -56.378838 164.315918
-184.222534 -56.264637 310.429840
-187.114517 -56.876328 307.992157
-191.891541 -58.618427 307.217499
-188.015106 -59.208675 316.941528
-195.450241 -57.998478 311.155396
-194.380310 -59.113483 318.560669
-194.419968 -57.906586 315.712646
-16.367872 -56.966866 112.412300
-18.505068 -55.818012 107.716011
-18.574394 -56.979885 113.094856
-26.280609 -56.770302 96.724281
-28.575544 -56.745735 95.654938
-18.108892 -55.236965 116.659340
-15.426912 -55.576500 123.368523
-33.191307 -55.081264 91.195587
-32.650185 -56.946232 93.591362
-15.227817 -56.784374 131.296432
-35.932926 -58.215256 87.733749
-40.651894 -59.181480 92.285698
-16.427891 -55.779240 132.021561
-45.898853 -56.933247 84.657875
-15.693542 -57.431080 137.202087
-49.736221 -55.821819 82.571564
-53.094460 -56.304569 85.163986
-111.386261 -56.228725 -9.040715
-53.451252 -57.695221 95.330338
-114.776100 -55.496784 -3.805429
-53.042450 -58.806110 97.640045
-114.496468 -56.452499 -6.704628
-110.425392 -57.968262 1.326746
-28.477062 -55.393997 149.080582
-51.473747 -56.575390 103.836281
-109.436722 -54.826355 7.790129
-119.481750 -55.702236 -8.897164
-110.595833 -56.976013 7.944045
-29.785128 -56.231525 148.700012
-51.250992 -56.178108 112.719749
-111.133217 -55.981106 8.293759
-121.923256 -58.063015 -7.490648
-114.746170 -55.266273 10.329119
-125.581665 -54.081463 -7.505368
-120.685432 -56.031239 7.413949
-116.408966 -55.637310 8.276704
-127.131660 -59.480698 -2.385833
-125.185127 -56.838310 -2.130945
-120.106735 -57.826897 10.355482
-107.482727 -55.323635 35.226345
-123.041214 -57.044613 8.037906
-51.541870 -56.311554 135.036957
-125.475906 -57.441105 2.349048
-113.867897 -55.580334 29.877581
-113.020836 -57.220715 29.879396
-108.081955 -55.084404 39.749565
-52.117031 -56.071869 141.434067
-109.818954 -56.369335 38.339085
-110.325928 -55.705959 44.789532
-47.451778 -58.015572 151.749496
-116.100166 -53.648224 38.277172
-115.177032 -56.690166 40.002949
-112.224854 -57.471161 43.563351
-117.102989 -55.273109 39.356606
-115.090126 -56.276516 50.689991
-121.774429 -56.479580 44.780647
-54.849281 -55.291565 162.108185
-118.887520 -57.617352 56.570694
-121.974861 -54.506035 60.044300
-128.030518 -56.805645 55.486233
-166.757156 -56.296806 -3.894449
-169.408524 -56.224129 -0.866990
-130.453842 -58.461971 73.428856
-136.705490 -56.332710 64.910416
-132.200623 -57.414242 75.465027
-176.154388 -57.964153 0.814406
-173.017349 -56.094448 -0.970890
-96.276955 -55.181122 143.419540
-177.593018 -57.770592 -0.253945
-99.075714 -56.925213 142.896652
-142.121094 -55.671062 68.922089
-101.592491 -56.124634 143.360306
-181.272369 -56.709656 4.324830
-180.976105 -56.989609 5.503295
-138.443054 -57.944351 81.413795
-183.746948 -55.401215 5.307474
-100.370903 -57.214142 148.516296
-139.289551 -55.572289 82.830269
-93.050140 -55.445820 163.081512
-185.642349 -57.286251 6.338983
-95.673096 -56.145824 164.756317
-109.108871 -56.786938 141.501114
-145.562332 -57.216640 78.332359
-185.800095 -54.547703 7.879334
-188.545410 -55.230183 8.051774
-107.670433 -57.196888 151.318222
-95.239288 -55.893909 167.822845
-112.697525 -55.856178 138.619980
-151.679779 -55.472382 78.420174
-111.645432 -57.818375 150.238571
-147.746323 -58.538685 89.666832
-105.587982 -57.069401 165.995956
-104.926300 -53.923595 162.553543
-140.071915 -56.174545 108.418800
-195.653244 -57.477112 8.279043
-142.088013 -57.233555 106.207230
-123.012222 -56.106785 140.868698
-142.572586 -55.615959 105.446671
-152.111588 -58.167973 92.604683
-109.918388 -55.928665 167.636322
-115.637756 -57.370159 151.106979
-107.648857 -54.486523 169.667328
-160.067947 -56.550583 88.114761
-123.122215 -56.979015 148.809753
-156.623383 -56.798344 87.841621
-200.534912 -55.730946 14.774780
-113.645645 -56.495750 168.519135
-140.293961 -55.975780 118.959244
-114.593155 -57.211784 165.611237
-128.922287 -55.544277 141.977295
-156.268097 -53.815762 95.227531
-127.513000 -55.879055 148.071274
-146.485962 -56.471111 121.217239
-120.997681 -58.036049 167.361374
-163.621887 -57.020748 92.320946
-147.055801 -54.569866 122.595016
-131.559479 -56.644821 153.148666
-136.335617 -55.539101 141.156250
-137.512756 -57.980392 139.112808
-146.321747 -58.938972 127.597633
-123.784065 -54.956867 164.647293
-124.316269 -55.501266 169.708115
-123.251724 -57.296238 171.153732
-164.234772 -55.859550 101.674500
-160.775375 -55.858665 102.425041
-167.436752 -54.037998 96.337059
-127.318161 -54.029217 167.199188
-126.723259 -56.489349 164.136108
-135.370361 -56.724735 151.497604
-207.384155 -55.548225 29.932991
-136.938293 -58.749191 149.915939
-128.410141 -54.920116 168.942688
-132.761612 -57.816456 162.998230
-130.954971 -55.538113 164.852859
-209.566544 -55.559216 31.051399
-140.962189 -55.956860 147.997803
-167.429321 -56.849419 105.979027
-147.364243 -57.605610 141.568726
-168.505814 -58.837795 106.745262
-91.115211 -55.850784 249.610825
-146.349304 -56.685741 150.954483
-152.447876 -56.862942 140.794495
-154.787323 -56.329704 141.581512
-138.221512 -57.557034 169.100739
-169.216583 -57.383583 113.340851
-177.845718 -55.545124 106.728592
-147.538925 -56.803577 160.260864
-154.565155 -59.216679 149.252502
-93.329918 -58.462360 259.344025
-180.199783 -56.108929 107.724373
-91.896240 -57.005718 258.553528
-142.334488 -56.346996 169.351593
-156.178162 -56.533798 151.266785
-160.863800 -53.820652 142.842377
-148.647934 -56.152508 160.816315
-101.511040 -56.465717 249.276321
-152.109100 -56.644604 160.585770
-93.994766 -57.134335 262.615692
-102.944443 -54.797707 244.696579
-94.662056 -56.427372 263.508148
-152.341278 -59.058968 168.077850
-182.448181 -56.048729 112.773659
-107.088921 -56.941120 247.639328
-105.557320 -56.852650 253.506897
-154.590012 -57.471500 166.206192
-168.752686 -57.539215 145.515076
-161.380493 -57.382393 159.555618
-157.706924 -56.174397 163.149750
-102.263748 -56.426506 262.786957
-163.054245 -57.063206 163.617493
-170.535233 -57.129669 147.954803
-186.038696 -59.647614 116.914474
-156.786697 -58.167110 166.825439
-160.417923 -57.557293 161.434113
-174.799179 -56.254662 140.672623
-165.879028 -54.958939 161.898636
-189.147125 -57.006989 118.721581
-164.222748 -57.763607 161.822937
-228.582199 -56.169415 52.322258
-143.218552 -55.286739 197.881058
-144.168533 -56.490997 199.716187
-108.257126 -56.816109 261.640747
-141.197144 -56.795109 209.625107
-167.983582 -55.416245 160.508377
-109.118713 -55.422157 262.955292
-168.357056 -58.402657 164.221085
-192.021652 -57.698349 121.887947
-193.386490 -55.599941 119.991852
-145.685226 -54.842014 200.251984
-231.290863 -56.677822 61.276844
-187.962372 -57.545006 127.030022
-147.901230 -57.109566 200.593018
-231.531128 -54.615601 55.279530
-176.801437 -56.515770 153.648132
-176.691513 -56.614948 147.890320
-111.467896 -58.060680 265.982727
-172.016052 -55.378304 159.721207
-175.083206 -58.153618 156.397324
-141.486343 -54.166088 220.629898
-173.995773 -58.216633 162.882309
-185.676575 -55.341339 143.765884
-190.261780 -57.038960 132.248413
-231.542252 -54.354359 64.683281
-145.284805 -54.334862 214.880692
-174.804581 -55.979507 156.987061
-232.286316 -53.424881 61.154900
-140.656647 -55.376381 219.567078
-175.203766 -56.911644 163.408066
-196.646896 -55.142647 124.921600
-232.397202 -57.199768 66.256203
-185.278946 -57.177555 149.012054
-233.448715 -55.221813 66.929382
-201.160416 -54.616402 124.688263
-182.564529 -57.248440 157.874146
-235.770752 -56.027939 67.766754
-120.647621 -59.176270 268.087372
-192.268356 -56.006943 142.245102
-236.992737 -58.235157 70.246368
-197.587646 -57.260742 136.502869
-186.413177 -54.831924 160.500610
-193.723236 -56.649117 146.809662
-126.984741 -56.385029 266.507599
-236.713135 -54.737637 74.557861
-194.198334 -57.556961 153.735397
-198.470398 -56.189152 142.627441
-130.347504 -54.478741 262.414520
-192.162628 -56.736668 150.448853
-206.798965 -58.667683 131.968582
-120.440765 -57.062450 279.984009
-190.896072 -54.514343 157.817169
-207.655548 -57.377361 128.919983
-133.007843 -54.674625 263.565491
-206.344635 -55.076244 137.447403
-203.809769 -57.658463 142.391541
-201.371078 -54.700954 150.001266
-205.187836 -57.095009 144.650452
-207.992615 -56.511127 140.641846
-128.256149 -57.462090 276.693695
-132.142670 -57.516541 274.112610
-215.341415 -55.941967 131.412262
-217.822510 -56.917282 131.292725
-192.540710 -58.982006 176.462296
-189.760391 -56.138889 180.816055
-209.668793 -56.360928 144.024872
-211.809570 -55.253124 141.907181
-133.909256 -53.249886 278.047516
-201.300522 -55.191528 166.092194
-135.863602 -56.114185 277.809052
-220.015854 -56.710770 136.179672
-183.079010 -55.671253 197.133163
-215.010406 -57.200180 143.599625
-195.526062 -56.422459 180.428940
-212.982361 -59.276562 149.150421
-196.363129 -56.259640 181.677841
-223.764633 -57.148018 133.047714
-182.200073 -57.831848 210.621582
-212.439850 -57.560425 155.215347
-211.427872 -55.847065 158.087280
-179.420349 -59.079815 213.217850
-190.768585 -59.395931 200.152359
-178.022232 -54.703064 214.472839
-178.921097 -57.156544 215.758835
-185.162796 -56.882725 210.954239
-178.133575 -58.552231 219.981628
-183.432434 -55.956375 215.485489
-144.067337 -54.392738 284.367767
-144.575912 -58.890575 282.227600
-152.690369 -55.806831 280.153778
-161.064880 -55.562386 267.366913
-157.222580 -57.400059 274.461334
-159.003555 -56.132458 275.577820
-162.523666 -55.495728 268.910461
-155.914215 -54.018864 285.311890
-221.861420 -56.849827 173.787735
-158.777771 -57.572632 285.306610
-154.822906 -54.328236 293.075897
-241.444580 -57.457539 145.893433
-230.532639 -58.534676 172.822144
-164.415405 -55.799847 299.141602
-166.225433 -56.819965 297.933624
-241.343140 -56.624218 175.208130
-176.167877 -53.842285 296.758179
-243.431656 -57.409225 173.420074
-182.562042 -55.348698 288.506622
-183.905182 -58.842731 283.028259
-251.526688 -54.953144 167.696289
-254.506958 -54.501732 168.350800
-222.165817 -56.422806 220.288300
-223.300461 -57.109489 211.649277
-243.658218 -55.399231 182.297028
-214.798035 -56.705025 227.177139
-247.365768 -55.535606 177.383194
-181.149948 -57.366280 289.814911
-218.626968 -58.308289 226.239365
-254.000076 -58.375397 165.146866
-192.117599 -55.936237 276.397308
-212.375275 -56.314674 237.555817
-211.296600 -55.575844 243.621872
-222.640625 -56.081905 223.749954
-191.648895 -55.710567 275.013458
-217.150208 -56.902641 233.964050
-171.932144 -56.405712 311.568787
-180.626877 -56.632866 300.151367
-188.748932 -56.477032 282.071960
-224.104218 -55.076565 219.022003
-246.991577 -55.634098 185.371796
-192.497635 -55.996265 287.083588
-253.672775 -60.613838 173.208542
-261.343323 -57.763840 161.986877
-180.886063 -57.433887 308.091644
-183.836273 -55.181957 305.529816
-183.650330 -56.065201 307.528900
-184.679489 -55.457573 311.533936
-185.383286 -56.727833 307.441223
-20.297777 -53.305817 106.574051
-19.143259 -54.116558 109.616455
-23.767780 -55.795437 99.926926
-23.436134 -54.843960 103.966499
-13.700544 -55.562386 116.439201
-27.804329 -57.117165 94.783318
-29.914026 -56.266144 92.206352
-11.671106 -56.271217 126.682289
-33.870186 -54.240944 86.886169
-35.383446 -55.737503 88.119995
-37.930485 -58.643299 86.227448
-40.644192 -55.057899 81.841934
-45.942810 -55.565910 83.984070
-53.321888 -55.132236 83.556076
-105.269379 -55.119289 -4.802846
-106.525574 -53.757320 -1.366900
-107.398224 -56.929211 -0.050626
-109.500450 -56.361172 -10.225050
-110.881866 -56.794086 -9.107134
-105.048447 -54.704609 2.996378
-110.568726 -56.145573 -11.921069
-52.442341 -53.441677 97.079811
-53.388847 -54.494205 96.788750
-105.939667 -55.236252 3.735296
-51.229847 -54.137997 107.648407
-120.086090 -53.997746 -7.076995
-113.844208 -55.163410 8.790571
-113.697845 -54.666435 12.371138
-51.563236 -53.142269 119.428894
-33.013134 -52.563442 155.657837
-106.345177 -54.546829 29.132589
-107.329636 -56.388027 27.726078
-123.421387 -57.707680 3.400382
-110.878944 -55.711082 30.028286
-127.041977 -56.053249 5.890277
-131.040817 -54.983974 -3.585418
-125.435776 -55.776707 9.680760
-125.978432 -56.270145 7.822375
-130.426315 -55.168884 2.143497
-109.120079 -55.176754 32.086967
-127.357597 -56.629955 3.621159
-111.888611 -53.793110 37.036331
-130.883636 -55.131626 2.259108
-112.419113 -55.410366 33.141537
-48.034664 -56.549030 150.313995
-52.439556 -56.112343 146.660675
-111.957153 -55.039890 38.952991
-117.825340 -56.031033 33.128788
-112.809181 -55.845192 38.701927
-52.773724 -55.050060 155.728882
-113.054001 -56.602039 51.595379
-52.389156 -56.624355 158.935516
-123.541122 -55.566273 43.552818
-150.250671 -54.494678 -9.093084
-55.127979 -53.830853 162.141312
-54.623997 -55.508999 166.270447
-121.147003 -55.892914 60.244881
-124.598999 -55.767132 46.658775
-122.933929 -54.086983 50.418743
-159.251389 -56.128529 -7.316885
-121.556572 -54.559956 62.707764
-160.393127 -54.257145 -5.666388
-127.230301 -58.538994 49.525429
-160.198196 -56.012691 -6.869654
-162.065689 -54.352367 -3.314672
-129.541611 -53.122547 56.138069
-167.228378 -55.908821 -3.414471
-125.395317 -54.624825 67.560181
-170.875336 -53.831951 -3.077052
-132.440262 -54.653458 62.090431
-135.405579 -55.723450 64.735184
-91.943306 -54.583656 144.519165
-173.674942 -55.797928 -1.626634
-134.478653 -57.400021 74.204941
-94.768028 -56.474037 143.974213
-96.008316 -56.336807 145.139679
-134.155609 -52.844334 79.360893
-140.878342 -55.866615 70.621544
-89.505440 -54.032097 167.305405
-89.348015 -54.533226 164.724350
-97.841476 -55.927521 151.747437
-94.626076 -55.585999 162.952652
-101.169617 -54.070915 147.985291
-114.101448 -55.618183 141.097260
-108.330345 -56.111607 139.447433
-190.500656 -56.619659 6.051551
-150.824097 -56.876163 75.149536
-98.845474 -54.099487 163.349274
-99.243645 -54.321331 168.305817
-113.587181 -55.583458 144.161972
-100.868729 -52.679012 167.360794
-145.958038 -57.042313 89.234810
-151.093384 -55.030773 79.597939
-147.114166 -54.855385 86.803696
-117.291351 -57.282505 140.482590
-139.700439 -54.413162 99.907242
-189.723190 -54.308350 13.400672
-152.983963 -56.653435 85.624046
-101.938446 -55.606209 170.285233
-141.393280 -55.919003 101.728745
-108.925011 -56.641022 165.035400
-140.424164 -55.696865 111.036865
-110.262260 -55.246365 165.227371
-156.651062 -55.842098 83.078636
-121.373314 -52.977837 148.906921
-123.920479 -56.118984 139.114349
-143.884415 -53.783241 108.756134
-156.687210 -57.724442 85.360588
-199.159821 -54.194916 18.988335
-114.239357 -55.933022 167.636993
-126.134140 -56.369495 139.827637
-201.450745 -55.216679 16.672745
-113.973473 -54.789043 170.114655
-117.251572 -55.236473 164.546204
-131.247528 -54.643681 138.691574
-113.999947 -55.265209 165.601624
-114.303459 -56.138863 166.822083
-141.878479 -55.381065 121.734215
-112.487465 -56.799061 171.187546
-199.508408 -54.217552 16.948357
-124.821579 -56.268829 153.662537
-135.232452 -57.282330 139.289703
-146.840591 -54.871445 119.097389
-144.916748 -55.479744 120.113617
-120.658508 -53.525047 164.231674
-160.892517 -56.305473 99.477737
-121.308273 -54.920349 165.927155
-163.090088 -53.248745 101.815712
-204.692673 -58.343777 26.299623
-164.935059 -56.825424 93.370461
-207.213577 -54.491226 22.373308
-124.451714 -54.517792 171.227722
-143.239075 -55.350609 139.381226
-205.144638 -56.833172 27.182455
-128.401138 -55.213734 162.758865
-166.944443 -53.926334 98.311905
-211.036758 -57.713451 23.609024
-210.394226 -57.512638 25.862446
-128.877945 -56.088799 172.131790
-140.365387 -53.343567 149.395905
-147.226624 -54.637703 139.702545
-137.688293 -54.007694 162.603836
-212.523514 -53.745014 30.623247
-134.793060 -54.817009 168.580688
-168.559998 -55.545250 110.976738
-88.191772 -55.775192 246.792953
-153.187149 -56.052090 137.489853
-89.190742 -57.937191 250.494125
-85.560600 -57.892754 253.019516
-211.803558 -54.596905 35.386726
-215.305756 -54.579788 29.471262
-147.577713 -56.639267 148.219620
-90.086449 -55.662731 249.857346
-138.606461 -55.904610 161.861206
-177.600037 -55.301746 101.370850
-214.882568 -56.169888 30.926836
-173.101944 -57.741581 114.061798
-149.755264 -56.116142 151.436691
-155.115372 -56.611168 142.243423
-157.609573 -55.115173 138.345642
-90.496902 -55.409000 254.320450
-91.231537 -53.513184 255.933197
-146.051910 -55.291107 163.494720
-218.806625 -53.404743 39.187340
-221.494278 -55.730717 32.766830
-96.796494 -56.159134 251.432083
-143.233032 -57.365410 167.108658
-218.716309 -55.187271 43.561630
-179.713181 -56.294117 110.702461
-157.462143 -55.590488 146.942307
-165.885178 -55.030457 140.177261
-219.148575 -53.434635 44.050850
-182.560913 -55.834080 111.828407
-103.523163 -57.197475 246.046524
-218.235825 -57.441231 45.536930
-177.875397 -56.506191 120.973267
-222.658188 -54.803020 40.149086
-178.993439 -56.321461 119.191437
-100.587067 -54.793999 257.889008
-151.234528 -53.548080 165.809509
-162.076004 -55.300743 149.581451
-221.667801 -55.332272 43.843449
-163.192230 -56.816944 148.512924
-106.415314 -54.251438 246.979568
-158.143265 -57.523849 161.352127
