# This PCD file was generated using the MATLAB® pcwrite function
# from Computer Vision Toolbox®.
# .PCD v.7 - Point Cloud Data file format
VERSION .7
FIELDS x y z
SIZE 8 8 8
TYPE F F F
COUNT 1 1 1
WIDTH 794
HEIGHT 1
VIEWPOINT 0 0 0 1 0 0 0
POINTS 794
DATA ascii
-54.912959651156832 -93.166855563056743 -98.102368898206848
-61.867852079117085 -68.284425030756992 -102.964643958439012
-61.797431450128514 -80.157652913025387 -99.088038659224793
-53.858136273276678 -91.594622844100911 -103.749515121684325
-59.075296342928723 100.956037939351774 -102.624001226701154
-60.779711852386939 -70.901299878249759 -101.436732732040468
-56.547713042700991 -73.209173565892343 -100.991054193202999
-56.123118864394094 61.519704377168246 -104.621135938326944
-61.979504007142367 -78.432679405312186 -97.011531172500526
-56.525103412418467 -97.605820724143797 -108.163035669229856
-52.149092128207833 79.656876284295592 -109.183568223812529
-59.658317506528292 -89.557229898344247 -107.816678577231485
-55.894293591474742 -93.794998771801801 -112.146246662926785
-55.608103362963220 -51.364386722341493 -109.927144559492405
-60.867057483670393 72.347686503273266 -110.338215025271509
-53.742081005624328 -46.284058039340479 -107.455279440702498
-54.236674226695818 79.758181556570975 -110.506003680154492
-58.324185584633540 -40.124371269822099 -108.024613584064255
-57.876253288740685 77.074836866210902 -112.209702210072663
-55.186931022168913 -45.483150883386266 -110.847477790240532
-59.282201550434714 60.365282556289827 -110.740055544688829
-56.840297819690015 88.386227438768344 -115.469121204490918
-55.633736377617304 -37.296629202353088 -118.405398831293084
-55.238434574207218 62.455526761974028 -115.753404989046601
-52.779033026094034 -44.740508689344637 -120.101417611378281
-54.525788365327934 92.867394186242038 -120.891817406561657
-53.985756291178440 59.449530340639114 -124.937627536855871
-56.109908592111076 65.390351702707591 -122.076805359686787
-57.057483198710599 62.797925656491266 -125.917519879827651
-62.488255788383590 -30.784054269871348 -124.087559805334152
-57.563023502291074 57.503244375639937 -122.552952909462846
-58.099400901346485 -33.431028149955942 -124.670546222377652
-56.132330566314089 -31.288762417653253 -129.755243580758417
-59.439711633901759 62.430034906299667 -125.874483144891343
-59.241660233638761 60.907564873717462 -124.601634704121679
-56.586170372905457 -23.059684995486307 -129.777332428733160
-57.200205723072763 -6.591771680560845 -240.138969497433663
-55.271010416725566 -5.670315771490057 -241.307247355218095
-59.009495444028516 -11.368260603294010 -242.080375207213649
-60.809738644014615 -10.021232382933576 -244.337026618237303
-57.448517855701049 -0.372902756051771 -244.005750836742294
-63.501475317571455 -20.981133419401552 -257.311111367557999
-58.074917799224671 -8.844021077828650 -254.321966981848618
-55.653589417351363 19.868642238175646 -259.626918659926616
-57.532833660146956 21.955118608904822 -268.422264434835995
-51.783467812842993 19.798113496689911 -261.368637739732435
-59.793790548485433 17.194016158421906 -262.527419638590629
-59.309716882314866 18.737190015366874 -263.689800984936994
-55.055577068558151 23.376237316021051 -256.894990760054668
-57.270914601925533 22.682637469682614 -259.163617084049406
-62.196328724182997 18.520456439104027 -261.916703477423084
-58.458369537343451 14.410807513664006 -263.910599197566000
-55.026521850714005 17.129295203222711 -261.259867339846664
-59.310777002695637 14.653040755445341 -266.110364828873458
-56.610142148503392 15.349957639529142 -266.057755066116272
-59.821546875126238 20.651899199078517 -263.342584067254904
-57.626809745965929 18.107395971287993 -271.274860156118734
-58.776315492165729 -25.460905477788963 -271.906295199599356
-53.186204585117480 21.363714971072930 -273.767007576923277
-59.997778757511036 9.546657673294579 -273.259162417075743
-57.813191368727182 11.201516996373162 -274.588885068218417
-54.008108505710830 8.038768852666543 -271.835415182575957
-55.743781644760098 -6.100370885699233 -277.307450167571574
-58.937690849226286 7.368792322713947 -281.339968154793155
-59.353887785459499 6.012906666619086 -289.251142300171409
-54.199197952319864 10.335636446003846 -287.770710274474027
-58.219925914188870 -11.170213215748117 -288.013680028048043
-54.328585976755861 -26.970412713388892 -11.640489171024274
-58.625135767472372 -32.423646434091644 -16.420047590509981
-51.876665185179370 -27.485629102688439 -19.493614976964750
-58.987538822837678 -38.326438402448680 -23.374120288785047
-56.608979889647827 -46.546297166772327 -28.404831585514916
-58.621313608221755 -43.012493793515858 -35.910017703056333
-54.539433812337506 -34.940259997793731 -41.320561709456186
-59.941793088746337 63.807663510494812 -38.651073074597427
-56.874675169749516 56.856237385209802 -42.128879464105673
-51.814829983324515 54.226329460194627 -42.445272704864749
-59.625279233151190 89.030973915501264 -44.033840424818898
-58.885155029588809 34.866784791154302 -44.537912339444169
-54.569758090123663 89.060426761300036 -50.926168494785479
-56.783134972283378 26.371617397690279 -53.972375543956218
-53.410385221771733 -80.857373408243532 -56.329327079361988
-58.281362490517715 -81.298704070365659 -58.556662738633939
-58.580758103294450 9.375733392933473 -60.910323416133586
-55.734423514536907 22.328164206233524 -60.266953586164071
-56.031989688275978 -98.770711814136149 -64.505546483030344
-56.479832460395443 101.345732637167416 -65.714262053566245
-53.824482768247115 68.847504551882608 -67.522510628025969
-55.296091892013692 64.710687156508271 -65.139401613387435
-54.563040247517087 -97.790997199770203 -66.874491754642747
-55.067068944466904 64.774729583943326 -72.708194008501366
-58.291229390236559 -101.023279384334614 -64.148685797639843
-59.888799541524435 35.826940335019891 -67.188740524442366
-54.801698638807174 100.332282356939558 -72.664171811573368
-56.877775677066708 -100.470502011940269 -71.261116761634725
-58.685288345373401 -98.327867811188639 -74.080900076867451
-59.813253321751901 50.035778740786796 -78.044497134598572
-50.716734848426320 42.583489231158701 -75.629984575153145
-58.932890725025395 42.383260081730874 -77.963747105759651
-52.919479245701012 53.134075281345893 -80.658398720356558
-56.951166067435388 -81.651905224048235 -82.595125220299423
-51.080477882459640 -60.621441586741909 -84.716830547120267
-54.811255516412878 -60.448703244583797 -86.257745545709710
-57.594745911005049 -86.197949608770728 -85.836597826276275
-56.674151874113051 -58.859588189604054 -91.149282455332354
-59.558604900248582 -77.088974886915963 -88.226202909610379
-58.850444560953612 -86.833813653149335 -79.810061317062164
-56.573253485692483 -86.472493911620120 -89.193382647976449
-58.208560117607426 -63.346701417614369 -90.863021274383527
-53.510181333283548 -75.068370384968844 -87.643209337142920
-55.889316300140898 -91.146407690446708 -89.474048887780967
-53.693976983898430 -71.706699257624919 -89.099424854086507
-56.563231801706294 -100.998983776421781 -89.747106664207791
-57.185485999070814 -86.244693393227124 -92.359712821229678
-58.148621277168971 -62.847336058978755 -93.837839375083760
-57.056438571403895 68.528166314455760 -98.002350456643313
-56.329239578765694 -68.204847007879351 -95.698805358575854
-58.964902718493931 -69.555995171343639 -94.369185488621113
-54.682861903034009 -63.783339409548532 -95.582633112428539
-58.401450610747595 -63.727386966048812 -96.365410934070908
-58.613107914727600 -88.492769670243462 -96.655665593829426
-58.543896510410377 102.534279838387661 -99.455414158588439
-58.360019779666601 -67.563022869163561 -104.256180193977315
-55.091184489014019 -96.358931086984157 -99.056771680362544
-56.966207343630614 -52.542304175951323 -100.315951030919010
-57.693252456089617 -49.562796505882794 -103.668463210002088
-58.922608696732098 62.566726365012904 -102.581917094074043
-60.649278064504479 -55.654971491259772 -105.058041853595284
-51.556136785324910 -81.280679406215683 -106.572942080388955
-54.234671923094709 -92.821373957561107 -102.141692299045928
-60.163598782880932 -85.167310356499598 -102.694574168860441
-59.703033354219798 75.883433808915782 -108.714514297530911
-54.576767842443424 62.339133857222741 -107.359356350625532
-56.738102642722048 76.835069914658376 -107.583005751640485
-56.237036916503399 62.886724832538789 -107.684975325904787
-60.612059647176501 74.603588933109279 -113.088954951407388
-58.423570858119810 84.099502603071940 -114.740940222121921
-55.495497422739916 66.481239198172275 -112.957639474576411
-54.076287755367431 69.560143570187648 -114.421798983719341
-54.423483071365723 91.788482917075683 -120.999942798186140
-58.548184290743713 -40.239474537170551 -122.493333172174147
-55.095184326784434 73.130333087465743 -120.876132756671311
-59.800797730421579 -31.690640318910994 -120.828029446979656
-58.849973883876324 59.926966513697835 -126.544880060036633
-54.022048525245062 -41.622567742703545 -127.128958964396219
-58.701219894743716 -32.756642519688768 -123.143955910490206
-54.202751954803631 61.686591057061030 -131.810806924105833
-56.494156220190384 58.044719994575317 -126.643080239042334
-57.307844876674807 -34.069177917127533 -120.971631816348193
-56.124550142605045 62.876449678247333 -129.154271503997023
-53.420816587097342 -4.151551112272467 -237.793760729826687
-53.541822259420208 -2.831064165895136 -245.334923340766949
-56.800995480608506 -13.029201435514352 -242.449779433797602
-54.632956208858879 -2.243974639083470 -246.243175602840836
-60.656327526159075 -4.064068682226909 -245.575731312865571
-57.198759733791931 17.341178793953354 -246.514998697684916
-56.904486964978837 20.334866544610225 -244.891558847061248
-64.169283000565002 28.217958271689962 -251.174417432517657
-57.618480223611776 -15.482172181709821 -246.499664338627696
-64.154971111969175 -18.292370589243458 -254.623339304960240
-55.600615839911825 16.120886372674033 -249.430499209806669
-57.472833477237188 19.897591210543020 -259.091815512029541
-60.497298115343149 23.469712375391783 -253.834897423034988
-57.166337804016045 -18.752510549476536 -255.656223217980937
-54.878017899985892 23.779836414405128 -254.077071947572648
-52.808526682791417 19.242858706653212 -261.635546683076541
-57.315136455858095 14.086792863757085 -259.973238657113711
-57.387986397779692 18.480009799418077 -258.014963214492980
-55.484819501625672 20.574246693987320 -262.762303962179999
-51.978959119846657 18.018347249389855 -265.397397394175584
-56.945993747098484 -21.042414815078299 -267.464022964930791
-61.616417784800952 -11.182489115183321 -269.611494698538365
-59.610905285763096 -26.192037207957270 -269.150153433212665
-59.382850686641213 15.461115864734122 -270.023330464673222
-57.271997628004449 16.401990668585711 -272.543541386512857
-59.399072437041859 14.247006318427209 -278.693428618322400
-53.852501494919032 16.182584511349255 -279.696134045402630
-60.349147107925404 6.890302779031296 -280.261709936038926
-60.008602952270948 13.009687277931160 -282.063710783986323
-51.949130141577520 15.878141040164914 -282.523682846336271
-54.961604577925051 15.172490477323189 -280.709256750533598
-54.674122226855715 14.196551910001530 -279.934366571338160
-55.393606827539770 -19.409048811719657 -284.657945301603093
-62.032955038766239 -13.178732279397760 -283.368301869367770
-58.733328862829566 4.338317868061160 -276.941170919505055
-57.080537650745399 -10.172140479025424 -291.644094387329858
-55.357845981729454 2.561628534059154 -292.349030452990803
-52.862728752964443 3.501151571816997 -289.890494199411989
-52.996004640225863 -32.442706880882128 -10.050353340091306
-58.023630264360598 -29.315096216437080 -21.209812310972524
-57.426325719471500 -13.267088639605975 -28.754151691412527
-55.112855417454618 -49.359020751973290 -32.184466303262099
-53.027737298416177 -39.184841790949029 -35.163360080853508
-57.318348116791007 -29.634929348574467 -39.265083402128901
-56.367795726171671 -35.669314653524424 -40.628747399522602
-54.019822784734501 58.015241033838997 -42.682790376318493
-57.651760264797225 74.615772226858127 -42.792698275507043
-55.489340911080660 78.837348976441348 -42.629917266638238
-55.824321262378405 51.020045512645844 -44.420433287068334
-50.637571366787483 43.170959676424161 -48.506270569492720
-51.531528811721749 18.695994713100863 -54.289275378535336
-59.527560378674821 17.726348475660593 -49.153438089205750
-51.375798682822072 88.881872958456185 -52.438095472611060
-60.792389920726237 15.265249914159051 -47.520530302043603
-54.768221493571595 -76.284026224829844 -59.427205109535343
-57.496527527435376 -73.293124932403458 -61.602152369301031
-53.431412571486490 -81.413307648273047 -54.719156138413354
-56.743769117072240 98.760696471233814 -59.190170983607132
-53.888952532364435 -71.097235538838930 -57.408458363586242
-50.992446702042592 10.711311924859391 -59.247253971990155
-53.229943553705937 21.861609327396319 -61.814342838028125
-55.947224418171402 16.104297418307784 -59.635604838661813
-52.616876258360726 -96.168041941887537 -57.141062284610044
-55.982802529857345 35.017286119852720 -61.420353887253007
-60.315286860774542 65.083429905880749 -68.796011457914616
-54.844069023320138 -57.757032275184564 -71.233752274128562
-61.285598910078697 68.812970597877438 -64.885277822332696
-57.907913035286001 64.357324120375949 -68.320138753302658
-57.156058590525518 -62.997563289752875 -73.677853195283490
-51.140114796887886 42.118716510738608 -73.667855593947991
-54.140008619460225 54.714797588192937 -77.341213053725824
-54.267858477638306 37.081550445292251 -79.823111885045009
-51.763657689133844 -78.885460823145621 -83.676873495964031
-56.394492254510190 -82.135960485467962 -86.174895060063591
-55.281617570000762 -69.832436860614877 -84.072316114803044
-60.819947849669639 -71.726050468161048 -83.361644488155505
-55.487836261777780 63.371940869423504 -82.635097910116855
-52.113385135471873 -87.353294398912055 -79.379303101789986
-56.366521090017123 66.071612820992755 -89.738911883375920
-57.018963062932656 -62.684436732895961 -86.575006378818244
-60.055954070467259 -74.733324001764615 -88.900267543954101
-58.662467614596764 102.177150877398375 -87.203375325155349
-59.867575968085966 -94.277891439327590 -90.200620806688192
-53.047531976153365 69.660337915358028 -90.637625967234555
-57.711404611742815 -63.037025726423593 -91.243330001766495
-53.875068924003259 -67.719480565587503 -87.932180497791208
-57.093221446250311 -67.228948062141114 -91.928521721265838
-56.553111600930634 -70.416677527476878 -90.971718784323315
-59.512463293391981 76.527495431177755 -88.090074515369650
-57.551284366805390 -74.380503595985772 -95.170937993858985
-56.263177338398279 101.538016596725029 -95.208565398098841
-54.470481751472988 -92.354764629893083 -93.338396387753278
-54.500313890136518 -99.086955901546716 -97.002147152535954
-57.428078568228102 -62.396387294123301 -99.587561472867506
-56.080139973344828 -82.768069528041153 -96.897790129406744
-59.704820533496061 -79.253497460960517 -99.591630095221646
-55.988980826682138 -92.541914738519651 -99.806829375678660
-59.151619077910283 -98.726006767290357 -96.710884055827393
-56.601591675984622 -95.310921545665167 -101.596953259994109
-54.717359675790853 -64.757654015742276 -104.314865073152433
-54.624286962135528 -93.892010350984251 -101.908804364580121
-57.786854259987194 79.293299923172526 -101.781395273622920
-51.379070873512624 66.347669602217408 -99.696063564850803
-57.623354941415379 -93.779266107778938 -101.265149575036773
-55.442036666482331 69.687948641133573 -106.713331652521362
-56.359477503905119 -83.065097383498866 -100.181348837826874
-51.806903793073737 -91.097658790188746 -108.899174048528195
-49.606403825666142 73.092645211642221 -103.495287105682323
-56.994464942206093 -50.229520765486910 -105.231640513533776
-54.499007149957315 -41.157935154349538 -109.987797788143794
-54.212845671310738 70.588310166556383 -110.142264510601947
-54.612087351664073 83.187673964169406 -114.603687004114803
-59.256083023192360 97.433759853819893 -114.138321153505785
-55.032316531962948 -50.863327834587459 -114.524978197628187
-56.397162600459737 -42.261008635742279 -113.830035473807811
-54.663223366333263 61.421360646306368 -112.423636070229975
-52.729716782591197 84.160482745581405 -116.347819412550336
-60.137718115136160 68.711366912493773 -111.226502602030877
-56.828006941300664 -39.978812001837412 -119.702631669160326
-57.014270205582719 89.807302634771986 -115.664243522717655
-53.433472643403064 -29.337633214631694 -117.602660211662737
-55.663798841909198 92.499790401176440 -122.371210348503254
-59.723190257266943 91.297978908101356 -117.785597764240947
-54.909749246772542 64.829216748907143 -118.675396261449919
-52.366372053881790 -43.112946855997151 -122.493337826757994
-55.271483812454512 -34.365629503638175 -123.179995786426616
-49.938721951096134 60.034111413353344 -121.797509385458710
-59.377290600085011 -6.162924138634692 -236.693451486279571
-49.795385935982530 13.500689796908281 -235.276064882920707
-59.326808758346665 3.908847180771363 -237.389374548470869
-52.819842916158670 15.837335192146504 -236.171959443742224
-57.775040545547959 1.222668503171899 -237.179298918041411
-54.903818500785221 4.499229793770841 -239.622262241187144
-50.990871823161477 12.022540331525304 -237.443293937788951
-53.723739808503993 -2.832842718934138 -241.543717750445950
-56.772016369637690 17.213326785812875 -235.524857286847833
-58.696828647360036 8.410016126970426 -238.254154135289042
-54.381346172185985 7.950083164926040 -243.452561011447528
-51.779630719690893 -18.427683371789634 -240.577282076946005
-48.298790993787975 -20.938623574359656 -242.575866507706053
-54.564369273565980 -18.919763251331361 -243.927749261159732
-56.867268112214134 -2.245150095579533 -245.461973688768467
-51.732476263096487 16.545298110232181 -250.807568445260188
-55.106619036790683 18.517123136657144 -247.774044889805850
-57.869535745351435 -30.092592127125940 -251.239926381431758
-54.358441785862944 -28.351342133908499 -245.050316702664389
-53.144985680105471 11.618776648591084 -250.527039623565656
-57.374989647536822 20.136604805884264 -248.514653260004366
-57.513876282009399 17.133363632809008 -250.485603129011508
-55.287706877801760 -11.274928139220624 -252.140749095204313
-54.077631911681024 18.924466501847533 -255.268405353171147
-53.500743437899779 21.259274285710656 -256.384215803499558
-53.494829331275653 20.038914362990596 -258.683382596153933
-58.154635000505763 20.936272465712371 -258.165044018099593
-54.937100282684810 -19.605777050673076 -261.359059927024305
-53.651792648977114 -27.288459914169167 -260.013885359795211
-56.414498295692134 -25.898809570239592 -263.012504058726449
-54.924170687117723 15.275156674413822 -259.237502785400352
-56.077272441163181 -25.389031933188143 -260.152618711419223
-48.862739981433400 -24.588488048686450 -264.086355075880135
-57.438532927237063 -24.580699737092957 -265.867478650473572
-52.644091614926936 10.135130493696614 -267.199516945924643
-50.343980421173903 -13.188229764430497 -272.597310534495932
-49.679017031000903 -26.978763074811159 -272.097977250710358
-53.630781422872779 -24.696800776809383 -267.910436080049237
-54.502740116361061 -23.267634719111282 -271.041027456194740
-55.099408870802797 11.356467432703333 -271.325946199069392
-50.696130076075733 -16.493899749941367 -273.629746094518964
-57.401962822373449 -19.428165641154298 -269.211215422311000
-53.373601784205974 -18.359045522026616 -278.764193759652414
-55.007294235737952 -18.280343538246548 -280.860484471182417
-49.009701914404644 15.912156640450306 -275.051385899267018
-58.802688803525456 -19.957914303096878 -284.275304334813711
-53.125765501546589 8.631666499789162 -280.264801287868067
-54.862684097349515 -8.825814018270467 -282.181610099422471
-56.845270993703032 12.335440340599840 -285.352559669386721
-50.512054738881517 12.108153014798557 -283.712813155132608
-56.681392471599921 -19.305926748355294 -279.945136519731307
-53.127756531960806 -21.271331589501926 -282.496069136457777
-55.276819848617386 -15.599660652357937 -281.266403382096257
-60.281990357414038 8.959828825483925 -283.394368617815360
-56.426657962278050 12.754394509898937 -286.327579652494762
-55.359050912617583 -12.045712162471181 -287.003350357960301
-57.643496463210468 11.595716279293770 -290.038981305796199
-56.535460915842371 2.804107177464947 -284.294481728072185
-53.397058652081235 -13.483600480915063 -292.848307092837842
-54.714884290233620 -11.092866142252236 -292.157578215483056
-52.678271964407600 -2.200909211374023 -291.476914015990474
-55.914656073833413 5.595661924428053 -291.592353935453616
-52.886960967833843 -6.157600448701057 -294.258962521824571
-56.626402131101521 -5.893680080694590 -292.933217569043279
-54.756645699103302 0.403042652855511 -288.055830987088939
-54.235424439214057 -9.562897289983519 -294.958857188557204
-55.540839079761220 -8.675332141027264 -294.945787854409048
-51.808551260900522 -0.442816003000453 -296.612580433263702
-56.935706575842580 -1.365801624622314 -295.809688513777417
-52.665582287106837 -11.074575789361477 -296.080517844322628
-54.658134403036598 -48.418151241561766 -17.283982585269534
-57.390126588101054 -44.692306698585554 -22.728567692222367
-54.198897031953074 -27.230924310336313 -32.935365029282877
-55.553058926166258 -39.272229289207679 -36.771008337158527
-55.280975913863763 56.861355170094292 -46.030958359850374
-56.386559717598111 79.441470524370416 -46.300870217567464
-58.348468906691721 84.017556915039492 -44.585609017876848
-53.686335247217265 11.247024743968023 -51.326763288759032
-60.313008307935320 8.811583826474868 -53.514162776610782
-56.275179278594500 -87.401389993102299 -57.323859670857047
-51.788963962317560 22.795718313069500 -61.577944266813823
-51.621982539702252 32.233553819399788 -63.061681105998630
-56.596237392077015 -66.393880128908506 -59.877355169638186
-55.203467748612198 -93.248403440897860 -65.382652441664106
-55.946021764998974 63.592573604922116 -67.941574039188438
-56.937657943835639 -66.800551212657481 -68.722296991697931
-56.399401283987622 -64.536927440872716 -71.322418504288024
-55.863638546119098 65.191753723578273 -71.605657997913809
-53.182902109614282 65.192557625903660 -70.299710297784543
-56.110541300204403 -58.202404609069120 -75.004833082369146
-55.046572205401020 -82.568275764926781 -75.845715605834371
-54.925225833084774 57.327463366871854 -80.584628955722266
-58.579550361905675 -77.340441285342337 -82.101739681766020
-54.875699083430710 -104.039918052696407 -78.942013861117047
-50.750491960454589 -81.688255472326802 -79.850807136643894
-53.146683724267213 -59.585364424768571 -77.824816271501760
-58.004693703701868 -72.466479981643005 -79.616794133546364
-52.203865328485868 -85.952708645283280 -83.436657280511710
-59.882065597319155 56.332127037747433 -80.765136624722714
-53.688221876247447 -58.293314182481687 -81.996779273822810
-52.003672291631887 -71.881697250150793 -87.133001259763589
-52.284828627554305 -59.482210256538913 -83.551853284527198
-59.465032310015665 100.516035751224251 -90.257435066755420
-55.335412768424497 -91.890632354826863 -85.643550831657507
-54.965187089862368 -98.218586796570932 -82.092144062479079
-51.443758388779784 -64.015131533544420 -87.250657821235961
-54.081637507162526 -94.385070864110830 -87.472562593304517
-56.770423603203916 -102.594080506874960 -93.879453977337647
-54.943581889672764 -78.674768152659723 -93.694850847238044
-56.188111806473948 -82.813893089568140 -91.458445590285621
-51.458661463576497 -90.869129214438686 -97.877033051961718
-52.105620167848656 -69.516284609389317 -94.593153306595028
-53.673431164352337 -67.206093525073257 -99.610908833402789
-50.002578182675713 -85.271673064460515 -98.057634422350120
-53.100885316710972 -94.674845828854700 -95.986483884444709
-53.531431529618068 -100.962024323634864 -96.144819950887580
-53.035154561790669 -57.813382468075609 -98.154937261090510
-57.569650616375512 -72.354735519999764 -100.408869255631942
-52.136699599284221 -97.933855226805548 -95.377616138208921
-51.963162088847589 -94.440655529615483 -95.749091034141045
-63.067265193869630 -53.456339598562515 -99.476489002942202
-59.677051358239048 -65.873938029150466 -103.301969206821838
-55.517918628295256 74.459027583810411 -100.533543658651993
-55.983244638404180 -96.727132587811965 -99.094199773314045
-55.274472047001900 -58.685744187671403 -106.131972609303290
-49.832165399096603 61.489194554213022 -100.731436669140280
-55.689870496503140 -56.462774655539278 -107.144711842228602
-56.633138211138174 61.910086217052203 -104.257883212603531
-55.141819741482045 -43.453525945401942 -101.067049615300078
-55.521761797759375 67.955124957044077 -108.991491733678274
-58.587147519842581 76.565508045752509 -108.219400963014692
-52.908109610213614 60.747732773014455 -107.654697320875925
-55.964359917978094 -46.154035551981728 -113.009927008487978
-59.246027227134071 -47.280841159425172 -107.945840335755662
-59.941201314714561 85.493935401725295 -113.149796731414213
-56.449921689900215 76.974624835632511 -107.335094026805493
-57.341408815934685 62.838747524464331 -115.649152795981621
-50.174432981962923 -43.878100996738006 -107.940794445722389
-54.573268996764774 73.931029841728659 -110.524454021041976
-52.967490965193527 -47.329460254075890 -112.443795259439526
-55.097804699713450 72.030139378111755 -116.244598015670604
-58.059110333586609 70.163661736641629 -118.878517974101953
-51.331981028005870 64.631914980109528 -115.429023027881598
-55.840393360719432 60.743267190886527 -116.477712084667203
-55.182709927490109 85.663243054240183 -115.091416033793280
-52.976709542265894 -40.778648819996107 -114.211450166198460
-56.538267331870180 66.549498661381719 -117.602366700319720
-54.380930342167041 94.316831386837819 -116.850214738119305
-55.629577906437746 62.123619559856984 -124.408449533435387
-54.884547797655834 68.540833274377860 -121.757914380663280
-54.354950480139763 64.861554659387480 -122.275368675230084
-54.766820694742435 15.646841715849543 -241.364250145459579
-53.680852190005666 -12.978588408233856 -234.810821747727090
-57.548376796297006 -2.739282877918392 -243.613100485666052
-55.805427910819652 -2.538463832161297 -238.735492746802805
-59.518075472544538 0.157697015548899 -234.235340427409881
-59.738374336169549 17.267137774512527 -236.281501938513401
-60.196971169881458 -19.361763971511042 -238.572749913148385
-55.465266260542492 -7.550024177627336 -238.206954287486809
-51.950798683396251 -14.702850835752802 -238.088361603105540
-58.796773200197514 5.931889810127636 -236.618865153789329
-55.387893660572317 -1.491316720150174 -242.767597576479858
-55.977125708903031 -13.802233974662267 -243.866401696409383
-50.997752280253032 -2.168281721856395 -238.543100755675653
-55.917180047955071 1.222680328838343 -243.334611644014529
-52.301427333317264 -19.993922859906306 -240.647347559014065
-54.866100392097167 5.941825942101285 -242.398402146422171
-53.796070455358922 -0.329654217949602 -241.722684875914837
-54.689545945829572 1.118076214840041 -248.084282999823301
-55.756549131219515 -21.537091346631517 -239.771573417548751
-53.175139696958240 22.960949770210789 -239.674952469965291
-52.644454711571001 17.380596496676176 -244.782209927661569
-54.917537887309102 19.494264260894685 -243.917245775210233
-54.217800538342402 -26.445457933391019 -240.866371767587935
-54.792059088437519 -21.553727534107882 -246.177442971031411
-57.535041869397389 -19.415378055854490 -250.236144049258655
-53.694130076372453 -22.576402331965163 -243.472842185611853
-54.569634403383546 -20.390534149446889 -247.688485401038491
-54.351383999934221 -25.001174884361905 -253.159359666357517
-54.891650384506207 -18.387479283512381 -255.149724322635734
-52.773010902477651 -26.781464857851393 -250.810338129998513
-56.932985587117564 14.062293776378791 -250.116235390802927
-56.684670844892516 14.870673555580469 -252.915799351414620
-53.795034741598144 22.066390344663805 -253.188118497462483
-55.753937390089774 -21.484385833087259 -257.619863572798010
-54.829456255158547 -18.359762008335252 -257.388927895817119
-58.095905948562340 -23.241889247948752 -258.058688319178884
-55.416126707076373 14.651042124459931 -252.817395873226701
-50.892954097127877 -25.839824734979960 -255.125683971316221
-53.075542184096236 16.396963688366473 -262.611606251585442
-56.543677340558176 -10.711778475630197 -261.247357949262494
-56.891296536631323 -27.658515896220926 -266.459725611845272
-50.853722316771261 13.135101975672374 -262.796867669407163
-52.564590163005150 16.507024887669559 -267.824471710452315
-57.714179820485526 -24.873717704204246 -266.445286134494665
-59.706362162931988 18.688480481296491 -272.034058735139467
-56.168396101369510 14.657629872615143 -273.455620425838390
-53.889582457818207 15.586383668209047 -274.739234589826538
-54.752769120237296 7.669402301878791 -274.394146035091921
-56.337443166865683 14.420827895729714 -281.788383726715779
-53.390402011157235 -18.181785202610712 -275.493635592159706
-56.102025549691014 5.730507544299686 -279.109195316195269
-56.717213515556054 -11.100266748400408 -287.042795362303821
-57.454154578482139 -16.210940123608918 -280.560777816504356
-52.724176023594573 13.437421916135385 -275.431886451043397
-52.514277949173483 -14.305629181904841 -281.705623075190204
-53.927902282674204 6.422127842085589 -285.348140115020840
-55.364921709007064 11.726232810004218 -281.178483015703989
-53.013129082211869 6.029292105829041 -286.304090479881779
-49.560970125518601 -19.067740630892867 -288.776584090216943
-57.155800771028943 12.748626585963612 -287.870372115645750
-53.535462109165003 5.764826496096605 -285.583720159953657
-57.687073334167366 7.082769806878946 -287.322246648454097
-56.322044681619921 -1.728299967312418 -295.907902531744185
-54.393872490441481 -0.759976387697449 -289.891666543944552
-56.731270678462622 1.709869960978633 -295.168278130039710
-50.486004096049406 -8.408151765957111 -295.866919731042799
-50.864617664969821 -28.302734494351757 -8.262446825356049
-52.609072523943951 -38.707531621145598 -9.469368658604282
-52.102949534470142 -26.778150425528477 -10.506412423233465
-51.603784831115910 -44.523458240537508 -35.056298189113114
-55.682403198616591 76.143309216652526 -45.389259009670262
-53.261899307314749 56.838764399817073 -47.921807137156634
-52.310109269084656 93.444062703182823 -49.847482601409759
-50.021618265280793 30.046957320779793 -53.295046142220137
-52.604477102501960 20.582189354157517 -50.408030667707799
-57.096606633356117 92.283838756500700 -51.245781633999371
-51.515398551657036 -82.942608953712167 -51.946819327003588
-51.274327412584604 -81.725746640863449 -54.497463193065251
-53.412554461266367 -67.803004363071651 -63.888055938542976
-49.303013474379270 22.191042168838528 -59.161127633762490
-52.890000030939753 -85.378369539385929 -60.294787267036803
-51.835639406036734 97.577617334277235 -56.717873934408388
-53.789666020227550 68.463438257827818 -60.797643520130578
-59.346837297804569 62.270985841885995 -66.344815990655519
-59.072760752879788 32.275689479729934 -61.475356822134358
-56.038786283673105 -64.843909440149432 -65.466715026035260
-51.160467892555964 36.093974440660837 -69.775941298430268
-52.263862148714310 -100.826360692199302 -66.193141382211181
-57.927612437114703 100.704105058241169 -66.716301707001278
-52.660603849905996 64.654756450265054 -74.948459783825498
-58.557584228216776 -103.389479806100681 -69.539581126381023
-53.586502156938003 40.947596710757104 -77.738267436992388
-54.004698648363252 -76.977465036488837 -78.191254191013186
-58.369608847345994 105.813265907026093 -75.677498132789097
-55.616209513518207 51.688376816518236 -82.490425420196530
-56.521676309066827 -73.783951247727288 -75.454812714278503
-55.278255353065781 -86.478500950744589 -77.730234548238258
-55.342316032024101 -65.334206479577304 -81.988712086231629
-56.174824422057398 -90.941872893796642 -77.761613571292088
-48.207321782480861 -71.668242710871738 -83.478090644556573
-55.652027647317333 -89.023999004112412 -78.251333815998237
-53.924157773590323 -101.121406907146337 -79.420027477193827
-52.089882264792145 -90.845882805825582 -79.684183264657975
-54.086360488702077 -92.408535529614753 -86.732239779776123
-52.846737438984675 -96.635532013874496 -86.924085725950476
-50.461133644608068 -96.498608848655152 -95.430527657337365
-52.605579298727328 -84.813675577159046 -93.328021637796780
-57.273318578492358 -74.327425339477770 -94.722109080153004
-51.240718673637879 -91.939379091321626 -92.981922426671872
-52.751166471274253 -72.699263710506713 -91.196706188558551
-55.863592373235711 -93.406130299451846 -94.949995453454719
-53.432798116626877 -70.533846072940833 -94.007677293656442
-55.517753575091255 -91.503167395785255 -94.569822693551473
-55.937733962615468 -91.111612557620347 -96.796115029400269
-52.324131763987964 102.234615624353523 -96.529063951217921
-50.373073472612354 -81.956229594494260 -102.386826334608031
-52.800191470257147 -95.167078554598177 -104.039475363134471
-53.445624127886006 -57.834762648193333 -98.633217510029723
-53.999308859254150 -69.015588261068800 -95.969871752699092
-49.722375562326675 -54.188762379669591 -102.200831864580621
-52.956097114507592 -61.635129271797936 -103.158224368126071
-55.598954785623008 -54.550136212345059 -105.785799578149408
-52.540005160909679 -53.121874348938888 -100.150647799654337
-52.657472792757851 -55.399627541076818 -106.900529507218494
-55.768279619653988 69.265769853307233 -106.077549643727281
-53.528421434944079 -54.257563741141873 -105.992692248732652
-56.051235395008561 66.621292382560256 -102.778091209355864
-54.780828872983001 74.262668712931500 -107.988661309124268
-51.152003495318112 -44.117447948446973 -108.042708989277273
-56.206363196512882 100.859291769605434 -109.515211271500903
-49.810104703696048 -45.840611660192629 -106.151373468411549
-55.949978240518206 66.792061188068914 -105.947668275347326
-55.042070298715956 73.886478979798923 -109.436566253076137
-49.873889939873784 68.532858148404287 -112.567348215250604
-53.370233876707559 79.060737847764472 -115.091188087128302
-53.669930277786825 68.189080249255525 -115.036848791525273
-52.559133791633315 82.815998052943016 -112.936100438142788
-54.022758588951206 72.372636303517069 -117.271519203874504
-52.183451029604818 60.994426482746832 -119.850386668175787
-53.738048879160466 63.350776656151510 -122.892044304988971
-50.179754055424119 7.095039107427832 -236.396394169952202
-56.443762845418242 16.478537064412311 -231.959910911407775
-49.444179420523632 3.684645902225365 -237.724294133318040
-49.829914912924096 9.260505294133273 -237.302067508416968
-50.068421980472628 9.646281919232759 -235.552245934259929
-56.445677761631430 -0.264395689440658 -235.740296254133796
-56.039728448714115 9.127699411402965 -240.825725399129823
-54.920202727385970 4.751485846199210 -238.603406809561875
-58.326658278795193 -9.976559220241178 -239.317102191908816
-48.147889454533107 15.485046440881874 -240.074860895720519
-57.246321185071892 12.731013544622121 -240.430091877673590
-53.255712764701592 11.645532201666835 -244.127744737265544
-53.665405159509746 -0.779724000328105 -241.914089962900363
-51.663848476830097 3.944630135247566 -239.822641414233800
-52.649669291920603 1.913400020929390 -239.065856235293012
-53.051205250913632 19.680204331384253 -243.393911708392238
-57.012882786360670 2.086247657679279 -244.982879063248390
-56.370746323492064 19.049217133514492 -239.617791750442535
-51.281572638820670 19.528076556586484 -238.341699569558926
-52.473599997017011 -5.777517773703909 -242.976167991111282
-58.218891128801495 -15.742788722197940 -244.040421095458100
-50.618275790727004 -11.179456580153028 -241.227895897349242
-53.446567134881157 -18.864237271871460 -246.721372955644938
-55.503454013893325 -15.230811362866064 -246.027672877685745
-53.009203905871821 20.498494995532106 -245.426973979801971
-50.210508985896702 -19.709814200961791 -245.203255390316315
-58.235620726308774 -6.730537420082415 -246.151019210222387
-51.808790283272472 14.878995340792702 -246.251307062965594
-51.821495754740063 -24.016784360517626 -246.476076613556131
-55.418448635746991 -4.073596308821057 -248.838217265097086
-52.300065687364402 -15.754132131839288 -251.330204080781130
-49.234021803032100 -29.619109888489465 -246.926558321950807
-54.584943478345174 -26.733159644919777 -249.872323700436425
-52.467290793962086 -26.333130218658766 -249.597571565929798
-51.188580513086883 18.136603690767117 -249.615324512194348
-56.306060731698999 -29.561759560341745 -251.911985636598956
-53.673207909772607 -23.276936917444282 -257.021668966787331
-50.547679094775170 -12.101518615322441 -254.237923084205647
-51.449413363706967 13.196839474880784 -257.573730337550671
-52.899815760167044 -24.750469824822876 -256.397597071587995
-52.083657898997153 -25.405437448212378 -257.757378331091502
-54.897754161726439 13.249849290335696 -257.684381674372389
-53.781990737620056 18.448842783531440 -257.198938774137730
-49.649083668700392 -24.331871913934467 -262.965244087092003
-54.464940049676372 -22.593635936923373 -259.962400625541534
-51.907710995239398 -28.634054108596850 -258.684312866700111
-53.039606075567455 14.665722073865679 -259.874923277139658
-56.613441395701003 15.966553330130679 -262.929536115885355
-47.784995915414541 -25.218132766569216 -262.975204701729069
-55.448884587184303 -23.451006065117735 -266.563834843662960
-47.374344326830048 -23.343376957204701 -268.992227549912343
-54.033417819164853 -26.141588547632153 -271.688037094154879
-53.296161381000218 -20.613359059538979 -270.163436329901344
-52.944411439639104 8.758625801793906 -275.924452852621414
-55.017620537679562 13.252969323005868 -273.034947671777104
-48.172697676095595 -21.413386028874015 -278.869550026790307
-52.558887384937428 -19.851305091423576 -282.905736888368949
-52.940993217952560 6.176159605828078 -282.794862010823408
-52.500624466525437 8.232762626903291 -285.441408718339972
-49.203646125791224 -19.542660657969421 -281.095732189720195
-50.748370211622550 3.319310835878968 -281.813888562551767
-51.121764121605338 10.815078583883128 -284.272524722434412
-52.658377434166574 -12.357637702580032 -283.854636445888559
-51.526705978166092 12.616963386475295 -281.417685069277638
-60.563714190139521 -14.713566692067786 -285.569887059328380
-47.479800679218471 -20.877581426815734 -286.323001741702285
-50.401543416089176 2.895214520768362 -283.719324948072767
-52.038868436741190 2.427583083805494 -283.210491299695207
-50.329864419578712 3.932546359183675 -285.379231859182994
-57.190757449349491 -19.388513610395840 -286.291693466795380
-55.151936818771610 -15.578579150085609 -291.445911120396204
-52.242576804860498 -2.960029659381346 -286.263020815387165
-51.037590916789384 -13.604738074589061 -289.849548541579281
-54.555114292214562 6.331114902899106 -293.201048260494076
-53.427860530457231 -15.742089944801158 -290.373538647605471
-54.189569422070981 -11.736048026122385 -291.070275418947631
-56.426576461642057 -1.262729086191489 -290.572700903707982
-53.732481271783932 -11.526344481828545 -289.464289394220714
-56.272437553355942 -9.622727424162466 -288.807826580733888
-55.001458621303719 -0.432305963971281 -288.430800170840826
-56.606222153827048 -5.271394148562067 -296.125806671392240
-55.200096928030057 -7.307070490085550 -291.775265355198542
-47.575057345245220 -32.114925742826202 -12.399917645316430
-55.512103443012975 -37.283042727510654 -8.491548782988062
-51.681113217567642 -19.041794909050754 -16.852170240898708
-52.229428667901843 -20.746609024613687 -15.587270342394174
-47.642181170935700 -13.703133307452388 -17.099663151686716
-52.764168023924093 -24.331155118923920 -18.858557323572239
-52.953816969905738 -20.876871115731543 -17.950801962515381
-56.105061539605479 -22.632551502629806 -20.280467718706859
-54.951249261342028 -46.438135854001892 -21.149669585753202
-57.364039245993538 -24.526090546257588 -17.418976840285225
-51.193028732335222 -16.698653555248658 -23.475169785234705
-57.137002373196054 -23.688288066180480 -16.880816260728828
-51.617576335401992 -15.652161192457811 -30.689357614817528
-55.060412232209501 -24.544017643004988 -31.768259136582287
-49.779155385764845 -19.671133175464874 -27.408724684428098
-54.295606154782149 -35.548701552774055 -28.211843593084815
-54.243785129371652 -22.348064975676266 -31.997225977752841
-52.018748839773217 -29.374971489777121 -34.877729749132342
-53.231170635745265 -22.380677076730599 -28.043077295177763
-52.125409652815144 -35.362211856647384 -34.575176045999378
-53.645952273979042 -20.435459848862113 -37.416077396711778
-49.115229162476815 -33.200448546441400 -37.840977114139854
-50.908257670584163 -23.197145912081357 -35.696282714692586
-54.735762532044333 -27.737748541617449 -40.488331544704536
-53.260709145584237 -35.669839214042788 -38.645971312002295
-48.742316036114566 -32.631979059544101 -44.126890557952805
-54.887225852849589 -31.113878494367057 -37.109306038999868
-56.015357774022760 -29.332790810733130 -39.389506667864751
-47.997985164626847 -38.043995936609157 -40.423168867120836
-53.252675283085075 -36.700576896986938 -38.639541650632601
-51.620144083417173 -38.334723306888897 -37.206806949299214
-50.010271058974588 77.024958151635076 -38.834794847388459
-54.540722919882725 83.439734846422851 -41.730287739112335
-56.832088110012762 19.844707507853776 -51.866079535843163
-55.209162283068807 19.825145979416803 -48.579412881101106
-52.691672583252306 13.646353516314484 -53.381140506353852
-53.613157896389829 98.434591037825200 -53.743194950596163
-51.573385732953078 101.391392277746519 -55.863063954360925
-51.836015139045209 -91.872925435380537 -59.076065604318792
-51.286957068768110 12.521322816451878 -58.414850932664606
-53.948774343888672 -62.956523719563890 -57.103586095454197
-50.474283956190703 65.076066146930103 -58.732584685995427
-52.488843984001647 97.910977119733332 -65.011727876468484
-51.411611915581659 -69.432199938040839 -66.141740656406000
-52.131395888282341 60.492094866840823 -67.671588801783926
-54.893543340002246 -107.364268315657341 -64.146553403936849
-46.844690725661387 -64.778934898756233 -70.647855956673041
-51.352160545884701 -99.117060048295102 -67.096228023310644
-55.027838808574018 -58.827426339043107 -72.218496892704081
-52.002088513010534 -71.028505732636560 -72.837116950736160
-54.588729591236344 -64.874733183931113 -67.129504559954029
-52.013011298821020 -70.569521314145689 -81.805819625278644
-51.670590950044705 -83.545001326181577 -75.172802717581462
-50.645454213450094 -74.366301264911456 -78.061128775208445
-54.842372675924459 101.238235029098661 -77.033943032917989
-52.275139972413406 -71.012326795155758 -75.351100877673545
-58.299283259041566 -79.255580390943067 -74.300878357165999
-47.483489502766041 -68.428289642100125 -73.802922095732555
-52.697193875721375 -106.595349889634591 -78.088680168237033
-55.807712555515153 -67.954072095842335 -78.944147035256051
-49.940344975001040 -64.777913092689587 -80.245649804100779
-51.847992563199341 -103.055109704080323 -77.977402324581689
-54.291011549393936 52.183414186684359 -80.575507688796534
-52.877181116638596 -87.182141405316159 -85.823785112650370
-53.767853693854605 52.193923689133904 -85.610829429274901
-54.378073496892242 59.079550733399664 -83.710207702011900
-52.729213466297125 -100.382298061001805 -85.507473244105825
-56.658436495149530 -96.474692531209826 -88.837888964966353
-52.944121248517860 69.076252683657316 -91.564907055642649
-53.260337300770978 -81.123801615843718 -94.874059094434898
-51.912066345741188 100.535185915211784 -95.625475543542805
-49.307456576745594 -74.965673390499433 -95.643020950081450
-53.716648344265998 -100.126861950060231 -97.935938646312934
-50.088725944228287 -79.990183578640739 -95.489017547251024
-51.251219270663874 -73.500377279998446 -101.219691688773153
-47.188134545879088 -74.365633951142271 -95.728687967772643
-52.180330426399863 74.422237414392910 -95.353623673281646
-54.661538352091959 -69.273826136869374 -96.912104926356704
-53.036902090328198 -77.759343667450779 -100.659772474852076
-56.291322761874603 -82.438820004136005 -94.859679523941651
-55.246605705169031 -67.626161372382313 -96.021348622146647
-53.584510488348855 -61.283353555914196 -100.604919001921203
-49.917725692419083 -60.995971592539938 -100.779644744458409
-53.723116863143211 77.092873822348835 -103.806870741987083
-51.155100198854633 64.825251162430860 -105.031148466642563
-47.603503296138811 61.595045241753994 -110.684875275954397
-53.520305068300047 71.918206683390551 -108.779891961822926
-50.297064961087081 71.636729078403022 -112.943866716638780
-50.973128210364969 98.353783247438756 -117.568333427270332
-52.254841659282626 61.934665990325058 -117.146857885048988
-51.704432245877413 68.814007559037904 -118.420816128151642
-52.044558463499442 64.332306169233647 -118.648623509665867
-52.921095897098063 92.058703407261362 -116.247453041202533
-57.725171571701040 6.247421306964146 -240.855422246927276
-55.355026945238400 6.385264122928063 -235.766455377715999
-53.707680957061271 -14.796854253502815 -234.553162083081901
-50.512458838283010 7.940971533114041 -234.187463143155185
-52.635262578689606 -7.942483168913675 -236.469590188159970
-55.970411762319252 -14.791728993339419 -233.812441632079441
-54.926458983722526 5.581290399095551 -240.193878416585221
-51.839961421046887 -15.210496794728197 -237.152732966295247
-51.980586750528047 -16.856966086014260 -238.120028777603352
-53.587753783068386 -10.607042545035897 -244.594905555962470
-48.365407264175246 -20.065556016431437 -239.818411672724380
-58.065371537233517 -7.776041342056361 -241.416118139212131
-53.300012195682093 -1.361111841828323 -241.744894186815912
-51.913660846023369 -13.354112398307604 -243.830628993320317
-57.845577295305752 7.785937031219903 -236.299754446777740
-49.653771170715693 7.523411097103982 -239.762959032795578
-52.755590881170228 -0.682482974423921 -239.867159231060526
-52.002200336742419 -2.799491898668705 -240.179926171415104
-51.944439221700961 6.805818324230054 -234.625830364721054
-50.621522895949873 -3.233947754917046 -239.919285797440523
-55.818065072321346 -9.956262951973072 -244.614971819122701
-50.932107118512263 -15.349642832702610 -241.827233900942019
-51.848696509178360 -26.266879957563170 -243.085492962072124
-51.681653966767044 15.795156379051729 -255.248220832825382
-51.743543738653415 -10.459788058447023 -248.491554683728964
-49.543150703258995 -20.350379033938836 -247.634277937504038
-49.954762865604394 17.331383318836000 -253.677091752227653
-52.708075886605407 -20.652355213556945 -251.337037780862090
-49.074334009008751 14.675477856093512 -253.319596941170573
-46.284871007499888 11.859469067383648 -255.386309126284914
-52.604658302042608 15.657520822305971 -253.457432444877554
-49.974087211987040 17.197066834583232 -257.487549284522743
-50.206135417996585 13.898172085881187 -256.395386934379417
-57.111131048063250 15.732206129016685 -253.193835295228467
-54.453790475374703 15.416887311367518 -252.639325362296916
-51.591150354856566 -27.387703820722688 -258.716052243266006
-56.488492014492557 18.608796901290550 -257.758240833195885
-49.928765744046096 -24.169379129599651 -261.005293791389818
-48.104605719118680 18.086134499724501 -262.968130331082477
-51.238157544275296 15.903759725859260 -259.999720509651127
-53.172546785279607 -22.613264079525162 -268.937051594607226
-55.167189916051754 -30.351151960396173 -264.868673898461509
-48.748841797558889 -22.946450376797930 -260.187155603934457
-48.933157001499509 -24.185924317956299 -266.832974837731001
-55.565550256224213 14.694938903211440 -265.718305236945810
-53.735988589669610 -24.311060333977203 -268.959387665510405
-55.350764487180513 -22.145390919864358 -270.551049843222813
-57.304645493042074 -18.538579855504889 -268.265151807671316
-53.924527232008529 -18.590608423822964 -269.491556230850108
-53.072654141368481 6.921707960609544 -273.116836033102516
-54.968176227307737 -16.087223789195363 -272.071341349737338
