# This PCD file was generated using the MATLAB® pcwrite function
# from Computer Vision Toolbox®.
# .PCD v.7 - Point Cloud Data file format
VERSION .7
FIELDS x y z
SIZE 8 8 8
TYPE F F F
COUNT 1 1 1
WIDTH 788
HEIGHT 1
VIEWPOINT 0 0 0 1 0 0 0
POINTS 788
DATA ascii
-73.008561434596047 -27.039049427678215 -39.616300205897033
-73.233590914960217 -35.116011357181293 -40.756302478221542
-76.047253623232535 54.795807085927130 -46.451128262031396
-70.392610775041135 45.103533683916730 -53.086987984809021
-70.128403776892227 36.613742047834528 -53.465390168385483
-70.514755998600762 80.097987633660779 -55.545891080593314
-74.828428910439428 31.556281088079874 -53.778673794159126
-75.155358821376510 88.353890134633033 -54.784963098999803
-76.246527323541656 22.818705238556007 -60.152969359422805
-70.958931131164292 89.761943140512869 -66.070217930054454
-73.143738151329501 17.835627078575598 -66.396778841033992
-70.926472722877406 -81.618641996005465 -65.945896547895060
-72.159325806727566 -82.773382782696444 -68.802624163289678
-71.801097942856103 -76.819856264965011 -67.880666547228060
-69.705730133424055 16.518589197905584 -66.976948473374321
-70.838227072345603 -84.073027012671844 -66.400408582578791
-72.250677764876997 93.253770063155329 -73.705521335381363
-74.112041358889300 -88.886176489415476 -69.224571590739643
-74.865094987159026 -76.756048520571397 -72.368899614688502
-70.108830559963963 -92.215831226328007 -71.664792265339543
-69.621453238722665 94.963099370997966 -77.232545752297767
-73.034929115243486 26.858402720551222 -76.130190292749035
-73.147341652177843 28.407795997053231 -77.166601214512283
-73.070265292689783 -96.847844115519095 -78.735699447893239
-73.296770844125362 -69.143463280793100 -77.885002650824958
-69.784102663854426 52.340408092911140 -81.718937456178949
-77.284942415275367 54.313341584264151 -78.341996521837970
-67.765160638956004 -99.311382938129327 -84.521658860557324
-76.227173057874737 -96.446902923566853 -90.638186861567732
-75.358058411818334 99.192477061184761 -86.056765319449767
-72.301829697025383 -95.319459834355698 -88.527969138878888
-71.594363262087526 -98.443558099594156 -96.314625353520427
-73.785477010205938 -60.409490123728894 -91.840492324743380
-71.528082289376059 -51.326890491600523 -98.400253808039579
-71.110737436007597 -55.759505080439929 -97.381675431542178
-75.473738320006561 79.205924015957805 -99.225395286038335
-73.120677046585101 -96.728482194095506 -97.779408148543226
-68.620915680025988 72.995481377405639 -99.640107876890212
-73.314227788135653 75.882032488808619 -98.340606692281611
-73.371169514714722 74.600285604127222 -98.002354902337842
-69.237114135185649 -73.876151052453153 -104.439734018466268
-73.473910265963610 -89.067007260579416 -99.928939506787458
-74.768669560624659 82.500686425008624 -103.969748500647725
-72.063128239116509 -40.256950555913846 -103.352614064140795
-76.591485518145021 -50.449890249492455 -100.300722910926609
-74.612042701450605 -38.943804414322273 -107.262620173349362
-73.398562772036712 -52.912763667234330 -105.883498587542277
-73.073614954600757 -106.864645930646361 -111.218445684750705
-70.133595880431315 -34.629089839539091 -113.257701508379583
-74.923780829412763 93.263403551610551 -110.731709605390435
-69.350279798638596 -103.340843496484496 -113.000638080576138
-71.679642884228727 -41.266910130713171 -111.727213331995699
-66.592221078852916 -34.459326443793167 -116.674768492280876
-73.664415231494303 90.478669646147765 -111.496377646921317
-75.520791706383591 -108.265326082474076 -118.278435785459962
-72.564237840235180 -42.362346118187624 -116.943491830421479
-72.400816617292151 92.896838226032415 -120.883978875290154
-73.933694222945121 -111.677626199832673 -120.136657501819386
-69.819501710012332 -112.462843634339038 -119.404785603055942
-73.060263354365887 -41.255574533347925 -123.671635434963591
-72.867964179550953 -112.970852213695565 -118.398612400352178
-73.675122107051649 -37.721160343810496 -123.848467218352496
-72.187362913117141 -40.272201203129271 -127.146696026066365
-73.502621344183140 -105.152049353422271 -125.004235612032943
-73.063356752791165 -21.333796710422948 -127.992907531886090
-71.975182836153380 -110.532645964900297 -129.275788962523308
-66.993270339088298 61.156569053531847 -127.533491026651632
-76.369347082392039 58.537193599522425 -126.489231635836902
-75.480509828389145 -106.940047302789296 -130.359264500976195
-74.953315561776705 -114.603308741902012 -132.412732762635954
-73.825146676001907 79.354172591337630 -134.454395295259047
-72.609936660110236 75.403507005643249 -132.281511875903306
-78.568196668086543 -115.832494220976002 -133.047962113802924
-69.483849344523648 65.694637202389259 -135.261577254503436
-70.516615508699857 49.859183374067150 -135.340773401822389
-72.835193879422789 -100.458872699017249 -134.815068737019914
-71.906837368442154 -33.651920832722404 -136.719641874802591
-71.058892554048214 -104.770584711332873 -137.138326878674491
-70.333524057354978 60.372919534504646 -137.009098547918086
-74.383264852489262 74.271884805652221 -140.275958630778035
-76.129790524409444 -107.569438013061699 -143.148250286691109
-69.837051797459679 45.861508107699933 -140.655751395299774
-72.110194457629575 76.337802591302690 -143.264142983109423
-76.316277500541261 -116.333755651923553 -141.428864834678137
-73.755092652744651 70.272295238510921 -143.614505962432133
-65.998848913789530 -20.116915538152007 -141.758699972578626
-70.129827875461672 57.989064003342307 -147.264299518034591
-73.318977627541059 74.014295877291971 -149.527425296915226
-74.325041582839717 45.676195439075457 -144.015847966490696
-75.063908720894077 -110.524725636293638 -144.869951358793401
-73.313985016253355 -33.174171889655511 -149.467704987256923
-70.675817306424420 -18.514727760717633 -151.310198240579126
-72.258625053101468 -106.436803254585328 -145.642544573903109
-75.856824347729912 -113.215360206663391 -147.033190069182439
-75.261870878523666 70.308137595506508 -144.752203140033401
-69.343659775414437 75.685250024962059 -155.999025980093819
-72.073670520973351 -8.991775054253237 -150.727953898951284
-69.800599214686983 -6.955336042152418 -154.479703520402808
-73.346500807995653 -114.094670758380275 -152.975163433854078
-69.333879917321198 72.913331328065667 -154.733675059547465
-70.362006239791441 64.910734592594778 -154.432675853195633
-74.039853509461537 -108.266537959174670 -152.823548193392554
-74.085154733726114 49.896620619795321 -154.450718036038722
-70.716193715145209 41.525509000485840 -156.116204000497845
-77.357893582311604 -17.571124439128294 -155.045088762359057
-74.500539270379534 54.547395009133098 -153.867162384938467
-75.696143755717216 -16.848144384237486 -156.310514952735730
-71.641436043137119 -13.144341727675277 -157.510201974798576
-72.972737013966949 63.802977110238089 -157.830723864913210
-70.122582216008951 -14.084884361643212 -162.852359670643381
-68.074922685812822 -111.914541218172147 -156.064151631417047
-73.384182239714974 -108.670360615644583 -155.383357791094369
-71.236193145729771 -12.399384627886095 -157.485510316429981
-71.815865892166357 -15.814635211042944 -156.094361453005348
-72.740443619100262 72.124504252241110 -155.704864142816263
-74.796664689000835 38.876750147645019 -157.720496366231259
-69.447006979754207 47.069603777799202 -159.980890941984683
-74.379084756886627 -18.034849166453963 -159.387700170152868
-76.924946794992238 -101.039432973505257 -161.051251300840931
-74.669138637055724 47.825572489732110 -160.159504168396040
-75.091061376180591 -116.954780099582791 -158.897730043465458
-73.707760779283532 2.907658574348224 -161.525129993754859
-69.702459256926133 -109.669654714764377 -163.483748653547934
-76.309767037930570 73.800602362130732 -162.889064838141280
-68.431038740179417 38.925145426425019 -160.552091312716840
-70.535450415717449 63.571004794205180 -162.340553530348473
-70.588067441990631 -108.081300981180505 -159.730046732994481
-71.108420575165226 42.144183753536694 -161.580818447091758
-69.051107088675437 1.610058311234229 -162.749632839089202
-75.166813893032142 4.079522076591000 -163.860919161535634
-75.543160423632145 70.250109906311181 -163.006271108405059
-70.258962628006188 67.244518388397211 -164.515032895755240
-71.003136286169678 36.856382421418687 -169.822117312795683
-77.775635688748551 -26.804556718234561 -168.590165332892809
-75.764526359265005 -105.060873955019886 -169.585789643635195
-72.088636613657570 -111.637548542873390 -165.612984345624852
-70.597654464953663 66.755833981824935 -170.817993243869864
-73.288486215469433 34.221462095075324 -167.176920060110263
-71.827094921242804 -107.004578700383504 -162.840781509713707
-72.471389718303030 61.216099624907365 -172.985840740755009
-74.420242716089106 47.781804339284307 -170.999623542672509
-75.687368562330633 43.778014402866290 -168.420186995710765
-72.879548374319086 -107.349528836655949 -168.944066706710714
-75.459087878970777 64.118760501027339 -169.293312879902601
-71.820386478697145 28.136056321744618 -169.376608531104438
-69.975150512445282 -112.035488541511540 -173.410416585253529
-74.515817057106958 -106.967402282399505 -176.490198572988049
-69.734869703044055 154.704593673341066 -177.103099307385975
-75.175141140920985 143.317310312088296 -172.204560504417032
-78.461682595851656 -97.995719437486514 -183.220016246526313
-69.916993447277747 -109.230232603939584 -174.065778827285811
-72.798335172581218 24.415147278432645 -174.675653615399540
-69.898415804789394 -18.359243195651921 -175.914930636900067
-73.192848162521543 -13.807868317322198 -177.952385880014248
-72.694913728587693 -108.671504884350384 -176.013102377449087
-72.840904705187825 36.662430238082919 -176.866677469701870
-72.984556928520348 37.138362177993841 -180.279816175987577
-71.303161852824928 -25.911801718207755 -180.622330935982205
-74.965982185025297 -102.104793812166506 -176.458896383092508
-70.125495554739615 145.358267055480354 -180.731204473166684
-69.085744977650634 -23.421179942080752 -183.434486384460200
-70.896038411017429 -19.145624409627185 -182.929720716696835
-71.060921070304829 24.116317917442188 -186.996267562315154
-72.720282075933014 34.567296849990626 -180.996194335775698
-71.870033557829231 151.418233890735451 -183.772908545626649
-73.315849907227346 -11.248221231776787 -188.930508178578492
-69.651156288303284 -107.789787158952450 -183.723263824804121
-71.554313317042926 149.097758715800609 -186.245813172843185
-73.243333083620769 -103.185495419014472 -185.648909110048521
-74.728230347676771 29.809755618087770 -191.417640487251902
-67.774852598339805 -102.263670502975373 -190.863681532004165
-73.671134319045393 156.644397684681195 -190.663263513299711
-71.386501231418407 150.941953723773736 -191.872798959626635
-76.638700741953926 -17.728451097619988 -188.537424862319796
-72.402952469275874 -97.879556293553208 -194.037032622665379
-72.353517132643788 -102.948937605942177 -191.780659830125529
-71.791642802598119 24.964432838263530 -194.356542152867718
-71.395710501135554 133.105481788739183 -190.424505307748888
-72.597380224080283 125.344026988107800 -194.887038901890435
-73.395166874495374 130.327545120142986 -194.375645233305988
-73.671045681732409 -17.697023383138902 -191.680368810652311
-72.075652917631956 148.936727095366166 -197.330586955929050
-74.755182689473401 -8.223126388295894 -198.148832819798542
-69.107210752348294 143.605219030457363 -198.215854291816669
-73.681045036087710 21.159577472410447 -194.958790677395712
-73.556575041387262 134.054732504982326 -203.501380794456196
-71.367047186038818 -97.762058139553019 -195.610858604133369
-68.503481154113132 142.085835641097503 -200.041217867054030
-75.080872297435349 -94.635944739250348 -200.671766444489350
-68.975732641671257 132.823084734769139 -200.742411635852193
-77.664203589958589 14.781168792270361 -201.404808518397658
-72.573266277726063 23.846097567976884 -200.151905202433596
-71.894997677569123 133.021166190887413 -201.692726905511421
-68.259579766714126 125.554301321473432 -200.224056584363552
-72.553112907463643 -96.221220965304227 -205.811224072621059
-73.691927777346734 -15.825399593149768 -202.454231062652838
-72.480411776855291 149.765972189547199 -203.891767086443252
-74.974114869135889 151.209635303000766 -206.151221907791268
-73.604862342062816 9.593304023613239 -203.745765140838671
-71.982699458060353 -16.875563945496403 -207.116823007840196
-70.168309048575793 171.029453519393627 -208.868984308865322
-71.903547670851594 -4.602443642159474 -209.523815682775648
-68.960663837433557 24.074339138806927 -204.940597045671325
-68.523365362221128 165.998180653114446 -211.751849406709226
-78.738158924243251 -16.501505191829750 -209.237703766593938
-76.402868565452451 -93.065842924109631 -205.738831810821324
-77.730409085900973 78.671207330122058 -210.536022114791649
-76.508131910634361 -88.036576049769991 -209.259364225996222
-74.733940439459388 77.763230734588888 -213.378511151985862
-74.337560473470361 9.610590567374402 -211.501171573049163
-73.555826719199800 -91.153037298687295 -213.533450830235523
-69.409442221163857 159.330230251587864 -212.900846526349483
-73.696882111103648 -89.514447323252227 -210.610597295251665
-74.443916261692209 34.533100589238416 -204.475143259345458
-70.586789354175863 86.045826353988474 -207.972764656084735
-75.813432189835297 28.428901400035183 -214.586596602808612
-73.251208695043871 -79.163909075016420 -212.684907921396217
-71.416194687809309 96.883285998323913 -212.619253709390136
-70.297757627498200 -17.485473822886032 -211.179852239517515
-74.126873759045040 168.281646876711875 -213.232648069204913
-71.039227935038852 11.295583550051505 -212.488191599102180
-74.872792084301523 148.920720052394273 -220.598928747054686
-75.084352207101176 157.247632633991486 -215.090479204127291
-72.848894525692558 -85.031193857697275 -215.138548918337960
-72.675195531592522 151.733674772761077 -218.706257883261571
-66.354573541014105 166.959664613525035 -217.049565368558831
-70.859898687366581 25.874535720509737 -219.509137238137384
-69.995653338509825 90.790776990821016 -214.889975638517399
-74.816946491869302 -9.405116089017062 -220.288468672745324
-67.092023393815239 157.393101785726003 -214.772932725732858
-72.832098446907679 -85.005210767979321 -220.162741097747670
-72.354006582918501 27.273822569053397 -216.731927693250185
-73.828221080118567 -0.735840058645924 -218.499426526233918
-72.739209996623984 -12.586401699571866 -215.702506745494418
-70.638678105074561 -83.466675310213731 -217.632561672881934
-71.671060196774306 -77.650856826067212 -218.101810908992093
-77.841247002854544 -80.442532791868757 -217.886652477234065
-74.949376834081136 163.048483849992806 -221.497568599058013
-72.629139216093051 107.122604137082575 -221.665146093281805
-74.386072893626519 98.372469303300264 -220.493003226934547
-76.441842051333040 150.612182118338268 -219.544589028922417
-72.309180705288924 -87.294263108232130 -219.142221975221787
-72.711425222666236 161.564814355196631 -224.454520590152782
-70.161660682861921 160.699179724448612 -221.213332604890695
-72.221550035427285 154.412967866331087 -221.720966145754829
-70.565761302523683 19.611203765633373 -228.383447570279515
-74.195824486674567 -0.954907063008117 -221.112192831225656
-73.291002606593707 -73.780330858973997 -226.550866468671842
-72.764346897655315 -72.847789625710234 -227.364921072662469
-69.530480558924125 158.589255878720252 -224.051872935968589
-70.533395019263594 110.191015633113579 -220.254093861919813
-70.005726388799090 102.443147862060243 -219.929813273144589
-70.875299504181186 169.009439715263881 -222.596837110237743
-67.104510214987897 141.485013630350124 -225.141608419774116
-75.238734245091052 15.638734645302360 -228.071718118632305
-74.384781051666579 9.384232363343035 -222.879935756532603
-68.750144892275458 130.465568332288001 -221.318759313401387
-69.884505629130828 121.135546924940925 -224.079343696614643
-73.675942361394064 114.250786603077373 -223.395156964390281
-73.163071883033410 16.407172659456002 -225.778345535230784
-69.614353432599088 -82.387324927592530 -225.439333714111910
-72.447799257642117 -82.374095031958134 -225.424143249804160
-71.649779204530091 160.000002117801387 -231.254265371419933
-76.405729651313081 148.233749958529501 -227.369543102445533
-73.561342910358533 166.775425935354491 -227.639590379041465
-72.996351076096929 153.730872610143194 -222.944352818551891
-68.572453866965546 108.292834054727024 -225.976080961586661
-76.320711897143468 17.510834807468648 -226.837701707284907
-75.354905387484393 -15.759344117451754 -226.136007912525713
-70.553106704750974 159.930452425136849 -224.829320074532774
-71.543247111779294 150.740286269719803 -227.506135112939887
-74.867522437265450 -0.283499599259074 -228.934466345728794
-75.120433171256892 -9.367117028400683 -224.865912787859600
-69.691774816494146 125.332565380249093 -232.665745854259825
-71.452957321853404 165.393416004262605 -228.180959003768805
-74.786488436635253 -72.902645694471445 -230.410740679875033
-70.048311972605120 163.359853679574968 -223.910279579238193
-70.051226603743743 113.408601298204559 -229.244279167170788
-75.936888589152446 13.307051924521774 -232.075734670851318
-76.339923531326534 -16.862195289265351 -226.850851475357103
-71.839521721607696 114.420898717417131 -226.025931173354792
-77.934079102150378 14.435920740440798 -229.392198056110260
-73.712624649032222 10.970160183171730 -223.538520314166163
-69.910049391402026 149.581946279587982 -224.599507386585742
-77.942321854828606 122.585132707835385 -231.668658583536313
-69.749904148616636 154.221780443354874 -230.286666446658984
-76.315961204032931 147.014942684077283 -226.831373855856839
-70.173515143158497 -10.974392712744351 -228.786579340598053
-77.324973582520471 124.989527813314695 -228.153685871287735
-66.800965512050666 15.658823141277395 -235.242001047113405
-71.921503172769732 -77.989016828113705 -233.671437658382615
-69.006466521364715 4.122886024070295 -231.909648533416060
-67.209327592660728 149.004721756336977 -231.119897415773806
-75.911093513349201 129.007841539557660 -230.639922644818142
-71.738296720382039 15.656679421068148 -233.449622884515549
-74.313957197797748 141.254950922910240 -230.744991630295658
-74.944246739091511 166.939655312861674 -232.901457452521782
-72.992154977982153 160.898732094897895 -234.410383444184816
-74.609470891041326 156.449362690186774 -234.954844566829280
-69.529655354894857 145.659118217942847 -231.730778094509276
-68.063214097117552 -63.941931355095093 -229.583577288237933
-72.180045104582788 -70.865481804331395 -233.517000694480458
-69.943900983678745 2.629013538173499 -237.136007614587271
-72.668910224236740 -10.688000479177919 -236.452804101739389
-69.884008009682759 -16.556593221571749 -235.925798385061910
-71.777812148577652 157.803091977366876 -236.732834788207896
-75.530098608470567 -71.539823864335190 -235.791656968178017
-71.849597971464661 -8.516481085255254 -236.515924822215908
-72.503003716636471 23.585351991415482 -236.419812169362217
-71.517062966205103 -15.234414552473126 -236.838067678252514
-72.421522690808558 -58.215638032984948 -235.958763705474752
-76.568733623653770 -63.306154221551083 -235.586508363355904
-71.422141955372425 16.169656947895113 -237.894613488290020
-73.864198222867515 9.954138089276224 -239.057429372841909
-72.735967572571155 24.516527476056076 -236.368002950080324
-68.245277705269814 1.281509777909294 -238.355181846826014
-73.779665888089610 -12.690121883553044 -239.354298082433445
-71.101182312914176 27.483177454181057 -239.367567882607261
-75.762494390638579 6.276725450042336 -241.075564906888388
-73.548891554582781 3.943705153094292 -242.063484893508729
-72.950627814993169 -4.306161421479500 -235.283114950564539
-74.342857166295602 25.780771630725546 -244.196215391025845
-71.052176635646646 22.036139641656021 -239.795127260355912
-72.849392833480721 -52.836295402259111 -245.153711761942901
-74.593194750755188 -9.816482414692626 -238.854361166974854
-72.602140037685544 171.954169861866404 -247.405050268924299
-71.865511052986960 146.922918108405128 -241.117443844515066
-70.160639203406305 4.325375930531445 -244.389115018629155
-71.913018789058484 6.451136624271061 -245.177125886464040
-75.707280756405567 -61.492615886325559 -245.643115388118815
-74.228423916193407 15.637133611802572 -246.565603074413076
-72.946265856272504 5.529426033551942 -245.323560143722403
-67.982470948747533 -47.232627463428251 -244.617740911927996
-69.951405254601767 65.990709389160287 -239.931022045586644
-71.859179393820583 61.751158691606591 -240.512115494664386
-70.789197926567965 12.536169553361947 -243.736173084983676
-73.541156260812627 -51.704337826971624 -245.682899402884374
-75.029092201987865 79.416349506486412 -243.169186725009382
-73.054104254165139 -53.039442543726736 -245.919139982392466
-71.469615729907005 60.124453114377225 -248.864164306100207
-75.536437380912503 13.770106062475234 -245.393277812461008
-71.125729004703842 -46.365392821377171 -245.892224987526305
-73.428696295195124 81.519245006346722 -250.465163450181137
-72.392761364113852 20.953433895304304 -246.954652041870048
-70.689044921924790 68.708204437127094 -245.298134966293048
-74.320763634055766 -25.385031167614262 -250.895316854784824
-70.045559687221584 147.251693099117347 -251.875140251769238
-72.821515743662019 17.342031636276872 -251.670843939506824
-76.460429741252838 14.254895983957205 -252.954233441424265
-72.127996919357443 -18.405918442806414 -253.001321468986134
-76.003676400513783 99.309742982481367 -255.855573660613459
-72.218475691885246 145.768497439880861 -249.953824939000867
-72.540909199064075 122.080999980250837 -252.951514932018114
-74.005128055332762 101.214728719747612 -254.766606396606591
-73.790433248740015 85.467610370283040 -251.811347149237491
-75.354246035703056 142.274972402377131 -254.503342443640378
-67.499763148479815 105.272696696235727 -251.943975227298438
-71.128925216868666 108.288660816100219 -254.478938123949064
-70.419792692736152 91.778890095664593 -255.530633602076819
-72.857847546306729 115.797415940009714 -255.442141609038288
-75.086631222738319 113.035948386145449 -255.627396225616963
-74.953880873850068 103.885598379884669 -258.261274622693975
-70.500094375138119 104.973999534353993 -257.379467887638157
-70.521779827167691 108.150032745146547 -255.641393019509678
-72.222469009340429 116.422131357690319 -261.259476154843810
-68.050587593236926 141.014095674228344 -256.309782897420519
-72.017517639429556 119.923805380810279 -258.401979954700380
-68.811416342034917 137.749251100587912 -256.181500512969194
-72.370467509934429 -21.767231437834816 -258.677524336938745
-68.118202015767608 168.838567569374788 -259.601555505654289
-69.940898004065772 128.931615158991065 -265.665200967686928
-75.618774013525538 148.603054326805022 -263.781402278794246
-77.500399448511246 -16.228666520033006 -266.214596310096624
-74.491087674633732 17.160526741908271 -269.049349851141130
-68.456468723738965 145.775423527327803 -266.272636096946428
-75.224473409394932 176.001572172103351 -270.655497643518061
-75.833823210977144 -17.955851792842040 -279.412913833929736
-77.622048885851569 7.608400017359548 -280.300672105036256
-74.823838397310482 -18.475173600905496 -275.825961974035181
-72.879718717573510 149.172222058699816 -280.204450569251946
-73.926231834871572 9.102176193338966 -280.015024666626516
-70.917395856240887 130.618397151473914 -280.855904646243971
-71.048514883410775 148.363580288422014 -280.484295563605826
-71.666016830652353 128.129897281191404 -286.532388849910944
-75.370458756885469 -11.274442895532751 -278.915089573783121
-74.541498759677154 141.838683535433830 -282.925245959038648
-74.377898258425816 62.897087098642082 -286.035359814925073
-70.306787002654275 51.465186967592665 -285.965612240966095
-73.904546980189849 127.519929712499717 -282.944669469383427
-74.178774679041140 70.434840669663430 -287.888115756453431
-74.209525916537544 103.843516060549490 -286.306414542381503
-71.177852861111518 90.836264687492445 -281.879216359695931
-75.652304284209819 44.882805788924692 -284.598315726722205
-70.987486703126478 31.086815915726500 -283.863909727470116
-71.738026035554768 28.061848914893449 -283.657881428982819
-69.879884219298347 164.830206983747104 -288.836469011547024
-73.874176273619000 119.281361885948243 -283.234476463145995
-73.546867243992324 115.342792956779078 -282.267491160558905
-72.278233475525070 35.004646884917520 -283.499133909925263
-69.666567716705146 26.409258185939429 -290.851020667201681
-74.289426636850791 14.100663813657508 -284.966090354578739
-67.728087710652574 -8.048905816451635 -286.347127745500757
-73.426776636295571 -6.494510670971378 -288.734935687962604
-71.959411124449488 58.905885025568587 -289.548792854358169
-70.203731715898314 52.738550308439820 -289.672200502709984
-72.893453444556158 41.694476754317279 -286.598241824849310
-72.355160564710175 37.603567678206801 -290.042245596922385
-72.654871029232979 22.198136434427912 -289.035755744464097
-70.900264359537715 19.246331314430744 -291.998288978832875
-70.217714170622870 21.468437013942591 -293.905949710788775
-73.897298008860133 16.475719313957299 -290.188472173053469
-72.213234594966735 -13.472015424093339 -288.994821054572526
-72.204537897986597 91.915599693648275 -291.249073609651248
-72.899468870714742 165.374190704459352 -286.161277973215647
-69.431233765289193 94.245738526165624 -290.976638211792761
-74.800989640143754 -0.421754843413006 -291.541654394228033
-73.295005437405848 -4.346001552459967 -288.385512935174518
-70.572888929349602 148.533897041075221 -295.263180495137249
-71.062707811735919 -6.199612022211829 -290.228739298269943
-72.262437010764287 132.369695419300683 -293.236891990794220
-73.913958340898958 146.763466644582849 -293.627503227546526
-71.038066465871808 154.171170338964998 -300.423091469434894
-72.045696378918322 155.589731793848983 -295.562240776507451
-70.425182302128192 154.826816103461766 -300.230956157630828
-73.381383101959614 159.644765678897244 -305.373151525102969
-71.876532298577345 157.470060856705771 -305.546221328190825
-73.500698289933538 152.931851959629455 -309.426481274494790
-73.523541596000527 151.466143176397935 -310.728504123283983
-68.743035254179333 -34.395431403846011 -15.651333427662717
-70.326616833517605 -38.585628018289576 -14.534235421998655
-72.946304356578764 -23.067321215937451 -10.804610484126183
-70.170894316245025 -36.920052316578428 -11.613495620394659
-68.462279969675919 -30.028157192806354 -24.193649003079663
-77.811591745108558 -36.180742646244724 -15.630155843196778
-72.546312979265693 -25.626098932651669 -14.687337603691146
-74.539542350517365 -42.188584034592743 -13.344930395659333
-75.664781612420981 -38.571088069655794 -19.176436794998651
-70.806107484752971 -46.739220561554745 -21.380945005440250
-74.608413436419042 -40.376173208925145 -17.662716121434336
-70.140616954710225 -43.892380416576657 -21.496900610500560
-70.131559598071561 -47.296990306168873 -25.145088930258630
-76.877747685667586 -46.951966846683376 -21.289404656741574
-70.522890443966020 -17.524032501973778 -22.825440061163562
-72.207136031042637 -40.465441853783759 -26.903378438598377
-78.369452767098636 -50.108978343999240 -33.193254287703105
-71.958847881044818 -19.727429098163245 -35.617093264435695
-71.599877138899586 -41.260560965358401 -29.713087791712667
-69.424408480337163 -37.825353620982789 -30.246498153091867
-69.780109127831793 -44.154419593405926 -33.167785672169764
-72.334809656609153 -22.601983852615103 -33.333003173723306
-73.374110870422442 -43.957174201927650 -38.318852499880116
-72.487223638968572 -40.727127767151373 -35.155556401207868
-73.383604446090061 -30.059843908652674 -43.786373883318312
-71.443014316930089 63.494168353125296 -45.219811809375720
-71.091015197600868 58.479363494362126 -43.577514388075606
-69.597262991292453 48.686063661812661 -51.674997198378342
-69.093824739373531 77.465518660627140 -48.367624060284356
-71.966150478426286 72.777090926094985 -48.590245431705497
-71.029649622553009 40.342176446043858 -50.673858327831695
-69.570899800973251 -90.110815436527531 -70.887914851400481
-71.996185911666373 -84.813510658027042 -67.471059466992017
-75.468253099116453 -85.667859778308909 -71.005618734863006
-71.943614720496598 -89.602217315252858 -71.100797806569204
-69.840450358932728 19.376930395291691 -71.560742592197030
-71.672288292480715 36.928913080637145 -76.160826276430484
-77.895136178767004 26.291316304578700 -77.641026536756868
-75.277822657487576 33.731059081482520 -75.394701410756156
-72.407089777678678 40.363709908158583 -80.627765887248586
-67.440940572112183 -99.491185217615069 -80.970751480114231
-72.089638995480058 54.931735068898490 -86.127594125666278
-70.840960791150962 -55.306002404472345 -83.220151799168974
-69.104975736922981 -53.994298832376280 -85.475640555269166
-76.759280002591936 -55.740609654585171 -86.429456139847119
-72.360315180315126 -69.324310227552743 -87.347758709529757
-71.845590475014760 61.810707472153268 -88.818531723136374
-74.007903044486852 -54.403378032789533 -91.316679176072697
-74.484701032224450 67.390858709361311 -89.300895366795416
-68.432143714865077 97.542026369728873 -93.637288400362891
-70.259483961638054 -41.211764123699275 -92.283110873033834
-70.957431228474164 -101.305966268703344 -91.548926369564214
-72.761054884703285 71.346264521643462 -96.075528756682488
-66.922703036805984 -105.996029176507193 -96.805267212664575
-76.182502689445158 -104.062579776542179 -95.070737712398653
-75.285106686120244 -44.729532982666612 -96.789312604350968
-72.069421500495494 -97.750638288830174 -100.309582041836904
-71.095766838676496 -49.480742524563524 -99.337890400967339
-72.932620578648496 -68.150583457835310 -104.240435772920506
-77.041348585818753 -107.320127711906281 -97.553208394125775
-72.414759764502833 -39.500364852251117 -96.678615662986360
-73.835436214580568 -76.395536335059859 -99.487365584376263
-71.711850299533666 -91.604442115347510 -100.662320202065303
-70.353549605726656 -102.821277468497513 -103.946751058186123
-69.119444956171733 -53.052384725681080 -102.976350740097956
-72.025329556675729 -39.267951967346605 -104.960752551957938
-74.817993256194697 -50.796109154630905 -106.524707508001882
-72.702786995928960 -110.403596976350414 -106.406335492455966
-72.525796036679225 -107.327003265259989 -106.580071921584960
-71.525425333804534 -33.753439590187817 -103.940461084097350
-74.383998406148635 -46.729778370831603 -111.023723529245629
-75.753938299731232 -104.660623648566769 -111.192067146281545
-72.636226521060621 -111.451503684048902 -113.817407431432400
-73.890848442531208 -107.850924805048194 -114.770541199667079
-68.281153604195083 -41.178879360982648 -115.298600035482508
-73.948703780411151 -31.993589090251007 -118.425501187076136
-72.164905748007698 93.104792806501891 -117.475105503702494
-75.588545515904272 -47.418456811678787 -116.136085994344342
-69.719531738625250 -107.689572257025389 -120.362645843404934
-73.433662104930448 -44.862862821366924 -122.438673215309848
-65.425882609931335 -106.204462671366485 -122.482729408256560
-73.219670682863566 -109.790628611472698 -124.573305231139315
-71.821425739072197 -31.294429736093313 -126.098731969805158
-70.836010487726199 -35.420590790063670 -125.906751791670345
-73.437370406054100 -31.399547367698155 -123.067259793148011
-72.180355579145186 -35.749204314141004 -125.295264815548336
-71.895025347540866 -111.893422421321659 -126.500000431239670
-69.909214141334232 -114.313891839099881 -128.308446579688706
-69.542948130316617 -114.345717291762412 -126.679913675146494
-73.835731393490633 54.881018194004135 -125.402915041089045
-72.026259284076389 -35.899056409622048 -126.325863839426262
-70.360288085658667 77.522921159661408 -129.516886593138196
-74.868370423680460 -111.154012580035044 -129.522099472641543
-72.737714356100156 -111.761977169071727 -130.428551969264731
-69.477889496954987 56.891473291473851 -133.547358357549967
-72.060340384228738 -40.457614086610477 -129.685465469418716
-70.980586946789671 -27.207515315461038 -129.993308854741827
-68.010558438877823 60.468909364248098 -134.685710363148814
-69.981686261132026 -25.939644962143117 -131.452328334202463
-70.822057358428495 51.202486990051845 -134.579145432798356
-73.105734439080138 -30.274242926847911 -133.652983083833021
-75.264967468008820 -106.939691804435597 -137.354835332627573
-72.417691503945179 73.806814698891500 -135.132235204391179
-73.224805921567707 -108.592973267273962 -136.727058580889121
-71.438931982202007 47.620652112134515 -136.563168528301588
-70.745313483194494 80.658568591467997 -138.514187369627621
-69.299533776965816 56.880869445454579 -137.647371597708968
-69.495998213403652 -27.257889618151520 -140.122611592108740
-73.312846749473607 72.073394514572755 -136.340802647028795
-76.645815670940735 -21.425564303614053 -141.351433030245829
-72.569525119891154 -33.975608193981721 -143.139025381115005
-71.246235655445446 50.061513225221724 -142.347486102336660
-71.254404130643067 -113.335838277097523 -138.809179574657747
-71.469760789024434 -115.954117471369315 -145.433393213472300
-70.002585493491779 46.704505715169411 -136.764271189742630
-74.547418885792240 -37.287395204855805 -144.263280225272240
-73.299991387177954 76.709779541433221 -145.726921903162946
-66.320507215808419 68.216069363172949 -145.321237644433751
-69.414483235488348 48.309555826878928 -135.828187750169263
-71.193135512135555 46.606168495328937 -147.153026177639958
-71.916719115644767 -37.399691579987703 -140.278267961007970
-73.325652999535251 -117.300574346619172 -148.757291461877827
-73.564643279885317 74.989260953095126 -149.014735937939435
-70.702121417456780 68.843541643148455 -146.552070398789681
-69.520914467816439 72.072935515107957 -141.734415275996042
-71.156265806141263 76.154930063824310 -146.456841954592903
-76.320350879067917 57.381868696335665 -147.990269615169154
-71.658282214946752 -10.106443126397224 -146.954060180491268
-70.275729873590237 -9.002183537150668 -144.730544517601999
-72.980697017411870 -18.993828403533886 -152.083463896893363
-69.769790482854091 -23.170809101078056 -146.971864254634852
-71.517402416956841 -12.517205175977431 -147.643747851321876
-70.131608377381113 70.962313467574177 -152.379459659140593
-71.262024612405710 45.212689574366699 -153.931079899482057
-72.281708302242578 -19.296115407646454 -152.557597893574723
-73.322731124912565 -114.101525185512230 -155.404519690430533
-71.278620484054358 -1.228121135765658 -154.594251974159647
-72.502933547674019 65.578703683405763 -156.246842519785133
-75.903686623668790 51.687156195961023 -158.046495206239342
-71.535472083517433 -8.960266478956999 -158.213349784441675
-73.820845750498535 -34.415015777617590 -155.068602356822225
-73.513869427629089 1.713168855356306 -156.701236347417392
-68.721432550044455 -25.851945584910766 -159.358237473466090
-64.964240455759423 -23.176762897868073 -156.146000545656563
-74.158583983159446 67.634831642979847 -158.881401647539803
-69.678004037895874 45.076260426720715 -160.902098207334291
-68.988602152811225 -110.875012827893656 -158.419772162269595
-75.638173878705814 -11.155752875475562 -160.865507756932089
-73.189589807762161 -3.889119511247298 -160.757894479478153
-73.038686005063738 74.744078228283755 -166.362107514368262
-71.998201911389032 65.723191577827009 -158.340281986041759
-70.093859471738298 0.488848213923317 -163.577620470319005
-72.765607842595173 48.648635430917743 -158.309837470193600
-74.316281458178196 38.781481712252209 -161.729989962327636
-72.313383664192372 -111.704698397685775 -161.713554038863975
-71.945603825403367 -29.093713309853428 -165.064388426715283
-76.500557822440001 -20.082506585586735 -162.073956801656607
-70.851092522438037 38.796059733795893 -170.761525175343536
-70.478414065379127 -25.485407404279478 -173.255091023137282
-76.266423846154410 26.558251054208082 -171.151297499184892
-69.293473801537445 -116.669613276630045 -167.628154152031158
-71.340522371921367 -18.331540775546443 -171.842465721169106
-72.685967098497500 -100.356760016974391 -175.465082177798223
-68.738484004963084 39.646133451924577 -177.297036557456039
-71.732246324948377 -13.278676505316792 -171.831190863245951
-72.399498210441038 -110.698395316712094 -175.970037591805891
-74.246963734770020 27.143557422658287 -171.505144521577762
-73.460247711846364 32.037995054332683 -175.161074237443785
-67.660318386411589 156.275260362391293 -177.070052413390329
-69.619101721984478 146.423917046651752 -175.746168942005198
-73.781761827146099 29.311365769751358 -173.068029970483337
-73.583682126481051 -101.077851416095044 -177.582735110089345
-74.390096239479107 -23.051190132524578 -177.453219688082868
-73.333993079789934 -111.746122569791439 -182.787307643885953
-69.089684806163987 146.304612307646437 -180.326321434005706
-67.972246078894244 142.607431028898048 -179.186341601720159
-72.770426063942224 32.720038192033229 -184.456139120701692
-70.870123642837186 24.075708376282702 -182.085593432093731
-71.866698072634264 -12.566472473171599 -181.837856425143087
-66.182396320120930 32.329228469568662 -182.415417961840546
-67.695463930616157 30.728567059959261 -184.507959454371019
-73.212510667557083 -24.668683616268847 -182.843949170249658
-76.115485212214310 -101.841070477912652 -186.037795436834557
-73.593345054418364 146.979772632730146 -184.941285413686529
-65.697216527161913 33.379850941797400 -182.103592922296400
-70.360979130481169 -21.266795377191443 -189.282453023029916
-74.867729040253820 17.171637560442534 -190.164468451111446
-69.350901068399196 -99.768128907714384 -185.709599518515574
-70.074694887464204 27.847184738372636 -194.818195293173858
-73.389123537241645 -24.056517874779640 -190.622009836334684
-65.730723298260884 148.025281997546102 -192.540543828770893
-71.142444771056461 -11.335743379955410 -193.747865967552229
-72.402408634756313 -14.444620163572438 -190.696030664131229
-70.237922250792494 30.557910180702063 -192.343076175678561
-74.570596997585696 -19.803229817973424 -190.802576448596881
-72.049302444181521 157.593827933314515 -195.372135127508045
-72.325388644524566 157.821514669836006 -191.289011129269198
-74.259563084177529 123.697244593793712 -193.598070368341524
-71.304448651989375 117.532830896555538 -186.689131952678224
-74.043068253341801 143.836730805541436 -195.204670907323987
-67.861743533495016 142.256737048674069 -193.835496899467188
-72.640315642256567 -93.413775949353507 -196.338603095382581
-69.320519801326128 162.537496565768436 -200.446966415012156
-68.713178528757226 121.130298673478464 -196.330357474088913
-70.648797977503449 121.648269389488433 -197.425727581172112
-72.185560941869284 152.364523067631893 -201.615417655039039
-71.108339238671945 123.507061047842569 -197.139974190018620
-72.638931264311623 -107.601514727296234 -196.278481011592760
-68.827318970811007 166.795326325953539 -199.754633590962442
-73.898388217596519 153.040184738038931 -197.643329640427453
-68.869907005968315 -14.774003610536852 -194.350307293637456
-71.873961747129414 147.014877081284681 -195.551444315159131
-70.250963518525595 148.428377013701464 -193.588657540133454
-71.758391766285939 -4.219776344743342 -196.625780420681735
-64.615916458034562 146.963764950760606 -199.881251907580122
-71.563939707915964 127.089441720911978 -200.003774788699445
-70.809293131391996 115.440963288083637 -199.557275814092634
-68.623279444873702 164.706823675550851 -201.773526435215388
-73.467137829581574 155.905665664698574 -198.080292286955995
-72.946138942509975 -97.937135258508405 -196.235969657184143
-67.943872801442893 144.388580035967635 -201.294249850096946
-67.884441660993218 117.380933332864359 -202.874180004437591
-74.271250543539225 10.851229789774003 -195.163701915548415
-74.250266002051234 155.437070963681776 -202.223908812361088
-71.271198855095491 141.860658635204857 -204.496206660623699
-73.151102192521520 26.573989070881971 -205.327336830655327
-75.786050280802371 -97.237301282815466 -202.745987513661333
-72.955325913431977 168.705340941622381 -199.596689964224907
-70.245931799710064 167.538481684706170 -198.995018522041960
-71.345028770969193 122.919543761509956 -202.090993520491622
-74.558970512100856 153.473055104825590 -202.010599341502399
-69.216260963660702 -9.419763664320879 -198.815770894804842
-76.945597623898820 164.318679703580500 -198.996897862652446
-70.705896484894694 150.168379214882634 -200.495214806949662
-69.226478086970175 -97.493300985394356 -209.704800730363161
-69.138897620444737 149.996695043848121 -205.401326625355438
-72.057451366447182 20.775706816375742 -207.288322273752101
-72.721503770196961 -91.497031476597726 -205.226551739364027
-71.458999460096805 162.728695801711922 -214.110430173222852
-76.116540615993785 -13.696376428829957 -206.673308523876926
-74.694772615790797 83.119222831088592 -207.150359935397177
-72.153657501643295 84.683964162935226 -209.821721819858311
-72.166966298972241 -4.003459183474280 -207.647236997848893
-70.835770019200723 151.756529899646324 -206.598548568551735
-72.396630442463760 76.694290090035537 -213.562011227566529
-71.772399901082252 -93.467064173597237 -213.854169346676343
-69.844769745545179 -7.341636788612663 -210.878263355433347
-73.456854300831978 -11.307896371375765 -210.636974043398681
-72.687739682553342 153.909699404021893 -211.347318799453376
-76.356407343083532 -83.715605801146083 -212.351579579689911
-70.923741953370069 94.342478769328750 -212.801617878962759
-70.111742653255689 18.879312590667027 -214.349462372574436
-70.567450549208729 11.188230107335137 -209.793311693076731
-78.954879628260485 -15.968500871742094 -213.993887336163482
-73.613969371842757 88.819742668623078 -213.588938759701620
-69.326171535562509 -95.552267294802363 -211.279527737429447
-74.356755486983886 -87.900024648372352 -212.099902164815092
-72.390022396114219 98.960679443119631 -217.068706225885279
-70.373987825310834 90.739628488829311 -218.481805298148544
-69.834945885779575 22.581134260803253 -214.953956725172503
-70.155675309727613 104.033743303061939 -220.763972796038473
-71.128659064731480 14.117752987520710 -216.212144935567522
-74.265396441703544 -9.249780926002117 -221.344052393579830
-70.469100777979534 -79.461124794201382 -218.379651303253553
-74.806463343270536 -89.192056871300494 -223.536963584383102
-71.859176143599029 -5.425968260492946 -219.714281623144387
-75.646408719679968 -81.600829915350985 -218.459540753828207
-71.947931391746650 28.632947337591091 -214.054170190024081
-72.018165792109855 7.821456179211516 -217.318979398491251
-68.345541900379246 24.724271127706963 -216.942257712143231
-71.316673965600444 -6.539632262802447 -220.927506607846709
-64.140381558930073 -13.760325957676381 -223.685467239452322
-74.670440101491494 2.624967671188077 -221.739744767313539
-71.805996295072617 -83.864835998616513 -221.986518274831184
-66.670784506290630 101.848528800631442 -219.245929537981539
-69.894743819165072 144.950089730150722 -224.603205998935778
-68.028703686292914 24.577334205844966 -226.930504062329646
-75.243793383694793 16.639214547639547 -228.613429952755354
-70.955077118175964 150.069479199032173 -222.157418372889623
-72.511855723359176 124.380116962236201 -222.760533744743157
-75.589472958709734 14.754260347165248 -220.604044809732812
-76.205117848415171 12.287391742063985 -223.210277089883249
-67.291910575877722 141.350337509751142 -228.734758279449352
-71.647570542268866 22.849421974302153 -225.669306964562935
-72.107503405091805 105.171376370110181 -227.926275838379581
-70.497520892479756 -2.896840388835606 -223.671951747032040
-72.573468791032013 -12.819906544868733 -226.986023756282549
-75.781714414880355 115.689883010491300 -226.701355802367374
-74.322359143400803 -9.702401772690211 -225.247597598528586
-70.495564652214355 119.219248985322352 -226.451761430903872
-72.845921595941164 110.193270086578025 -230.936904857545386
-69.363477184215824 -6.405537352034337 -226.546849235396024
-73.668523702183890 -69.019002604974929 -226.308608380626225
-73.177142271019989 105.634384387291647 -227.444666931004548
-70.366744718998973 -78.920474915227359 -224.550300915563867
-68.649237574732425 14.795896949625490 -229.374719611670997
-69.069347488840094 15.460099760781434 -230.920621011662973
-70.006998787183278 -11.272185114807192 -225.386492723756163
-70.907219328596952 -64.758477564081488 -227.355108291499107
-70.643844289139864 -4.740870987752569 -229.107678475782052
-70.847912629711800 24.865849404882667 -228.131354892976162
-71.644077048850875 115.716047802114247 -231.480365257294807
-75.718104739520911 -70.505274029582850 -230.199994591365027
-71.621931627186740 122.424916010811089 -232.735050069640408
-70.510017721861146 145.587459431154997 -226.296090515701309
-71.139118035738164 6.935608613598059 -232.513975239541708
-67.147155167304604 142.307724819148660 -228.220902190905690
-68.977449059798914 3.415954256915148 -234.494322124198476
-72.482563194653750 -13.622921631148268 -230.658967518134176
-73.257558618020269 15.811816139456869 -233.264525708325948
-75.335146793159822 -64.349079707515216 -235.010914695776421
-74.964207567834535 125.430301641567652 -232.061832186613429
-68.307047450219997 -19.208058470497761 -234.148554695621783
-68.744214167169488 132.907212443234357 -230.355367353153611
-70.630451640177327 148.834248340845477 -234.601061783026921
-69.623610798895186 -65.539853456945096 -234.577756629493109
-66.495818458327278 -65.684637612375141 -233.659341481259247
-73.243110001852187 170.111932579767029 -231.134355581668444
-69.929625553058472 9.661029135071892 -237.715500054172026
-72.462037548014550 7.452693159729379 -232.164680164763354
-68.408789090656882 5.347413507981869 -239.136404617094342
-75.232446024536955 9.616286471637279 -237.434189400138308
-71.472618229202098 -4.299506771033664 -239.004516794580638
-73.578324541908074 -58.747574854076205 -244.467103742568412
-69.321368478208655 161.481729865586715 -238.827277689904662
-72.393788500648611 -0.086728086867995 -234.456870014663707
-74.826629859515464 -69.731704803831917 -235.380201881478627
-70.890639942704070 -16.550832653618226 -239.912204359365518
-67.032517193295149 -66.057551481842282 -239.340418606401613
-70.546364543545849 7.136453778876160 -240.903206275939226
-73.000613754808285 20.228036539920286 -240.085525886862484
-73.058224722140380 22.690415442539258 -239.022901340764065
-73.447799210191235 -7.166979540238030 -243.663877787255956
-70.666045938948201 -7.269115359660242 -237.528723748602090
-70.782290568162466 -2.462591062053316 -238.560298405405689
-74.408185318038420 12.886868353341139 -235.578924802838486
-71.846141107336877 -4.008350173608169 -241.231258642191847
-77.246396264962669 -10.905162138465316 -245.384117286526106
-72.777085244951792 -15.032150307070523 -245.362705359053450
-73.830361334176089 -11.685625241312025 -246.664126627373776
-74.310977965295962 -15.923615882704024 -243.979019931759410
-76.234755347470184 67.514089856845203 -250.845483417754593
-69.231394897992672 12.221515693106127 -245.648910663692106
-73.295481921697998 73.536470564033252 -243.862134185075121
-69.220954125607719 65.803989879039989 -245.524154207629323
-71.519171211439627 149.765742390126803 -249.322365742948534
-72.297061567239084 -14.299830062422888 -243.951072809809091
-73.990685233305669 -44.007821601442529 -251.809829507795541
-70.798762536088574 84.597316863052612 -244.243840335114129
-70.048809339571022 -48.969184391196215 -250.356859711811381
-74.200198765742670 74.661415118200921 -253.010146037440705
-72.608324632764905 168.878651432433486 -247.961211891281891
-72.911147974950254 -48.077495934698312 -249.636344715440401
-70.247494814370995 90.481806661488292 -249.824544694654179
-68.696787180087952 69.639860005266058 -247.564712205927066
-73.526882784305243 -44.185369185062953 -247.733320248403572
-70.772733998047769 91.853304721238786 -249.584171915404852
-73.989114849276518 70.495237684282912 -251.073901090397385
-70.137540952162666 75.600018121985471 -249.585946947657106
-71.632741164168820 -41.237338318400440 -251.831759814874403
