# This PCD file was generated using the MATLAB® pcwrite function
# from Computer Vision Toolbox®.
# .PCD v.7 - Point Cloud Data file format
VERSION .7
FIELDS x y z
SIZE 8 8 8
TYPE F F F
COUNT 1 1 1
WIDTH 794
HEIGHT 1
VIEWPOINT 0 0 0 1 0 0 0
POINTS 794
DATA ascii
-54.344559142160549 83.873008375926645 -115.310907410548211
-54.332206117034161 71.952149693571570 -115.749118689460303
-58.609346789579980 -40.018236493133116 -118.900862804226392
-54.587915577227299 85.225785163092453 -118.154136593332069
-56.373903049728845 -36.685144909662206 -119.074541147587368
-56.306550158572847 90.884883708914288 -119.602126774866946
-52.974485521685686 90.954961509983377 -121.321260902901315
-59.272113294725379 64.155722457245176 -120.207322733837700
-55.723880654840528 -38.153145569830826 -120.719723153694417
-53.554435448967823 -34.471418799690319 -124.754926006223158
-54.635652063902995 61.223661091548166 -125.243110311909561
-56.753671499166380 -2.542787939388312 -234.409330665851144
-56.671650585182768 15.049630847238802 -239.332030737604072
-54.835587738208623 1.534490473495444 -239.187187856998634
-58.061940991054762 14.142006393488861 -239.383623355918843
-56.390290889892924 -3.210561768388052 -238.150364430506698
-55.699772981613734 2.683341321777636 -241.645888714325764
-55.590625998555993 15.094851166095399 -239.498856688275396
-55.046200237755322 3.787838469062279 -239.281768610782478
-56.234659812497640 15.977952378020365 -238.233976338334486
-55.200208275573317 11.035188011027621 -238.929966884040027
-56.160084428824831 11.615657636145919 -237.926304646479934
-56.664589730085304 -17.792872091196529 -242.840932841538034
-55.288094046202012 -20.741973471098191 -239.905027720000248
-54.799340722912433 -20.582048247262030 -246.124982785555659
-52.217330479807615 -3.831528559516017 -248.434580727560160
-51.971492630516067 17.796745811834331 -250.339179696664047
-51.405568701232717 14.888773838634460 -247.286850295368509
-53.573775372403780 -26.255522668566847 -251.433488277679288
-57.631620351362322 -23.317502485904040 -249.666009605640056
-52.480235390311115 16.022959683095884 -251.930798675309688
-54.911326611838675 21.168841075297802 -250.430278895455473
-57.883889567498180 18.912039508398376 -250.190997581422863
-54.056319323330619 -9.692235196219476 -251.645997372089568
-54.730316208239060 17.349124392098730 -252.402358259174150
-53.470210852909503 23.745515466304589 -255.205787007451363
-54.991814563955479 22.097948359615096 -254.739235848818822
-56.062568549750722 14.441568151544297 -255.089503973583987
-55.297861317474243 -22.143183095443078 -259.522285011891881
-60.631226757327504 -25.367110110335155 -259.395953085900260
-56.043810105095432 -24.082344760896895 -260.777276168512060
-54.012670642288882 19.613347805203233 -261.737610444254813
-58.368116862629343 -23.897406843881171 -264.013831489025790
-54.098935615692788 -25.032347352638666 -266.533818116503767
-55.345246194234740 -26.312395200535022 -264.189081257363284
-54.451595414595893 16.287852273614327 -268.889214297992623
-54.044480261397752 -13.767024201492170 -270.517973144532505
-54.095245530937149 -22.855230792417544 -272.333838322758879
-57.241448458644342 -23.658123084976097 -272.470566382684183
-55.262757337997762 -22.153126401670320 -269.921668190732476
-57.952399154585073 13.072515711320831 -273.289399582399540
-56.228713445547712 -23.091475671924680 -273.512513611025668
-57.354610048642613 -20.260906208650290 -275.053073966047975
-55.679196421009422 -20.881677583540490 -278.782137353132043
-55.764102134329164 -16.764000991210068 -277.246794851243294
-53.729128274508263 14.709478246685219 -278.081107099071517
-51.920479390485120 -18.612782472482291 -279.298839906387173
-56.004233826500780 8.072768658410936 -278.929913988378985
-52.560952440676971 -6.432359442196107 -280.585506642156304
-53.660927456030798 11.909458518551132 -282.352735030989606
-55.862877455239641 12.316484810815044 -281.128888118650707
-57.487701442582093 -17.948570381091912 -278.110413045806581
-54.947726087593757 -18.421162864225767 -286.164842617941417
-54.989494423685066 -14.243354245878827 -281.277418039057864
-55.552762209110888 5.322279548615491 -282.512672647383113
-56.167624904511591 13.765351935661997 -282.529762663525560
-55.366124037992890 -15.659427617628321 -285.334226321729147
-54.304642559424842 7.245121190799701 -283.916842814121765
-54.302254391252923 1.024286585007242 -288.394738673440372
-55.430310920226276 -12.095657527012586 -289.252992827082437
-55.531548582582268 -15.067165457617360 -290.429306032149555
-53.791829798394069 0.104431587250633 -291.422512165844182
-57.398442013633584 3.404534127526132 -292.591812452037175
-53.662955116226534 -8.471896118724622 -289.837281654037668
-56.094920381796605 -3.443652149283435 -292.348875662313446
-56.548097648950396 -5.082478190875542 -289.709371145987745
-58.879506570847262 -11.973572650621387 -291.011897839031292
-55.007720905377695 -10.395712183222685 -292.047314342115499
-55.872102147198987 2.241451968889318 -292.004071669887594
-56.438240829647860 -3.057417987937499 -293.215570996089184
-54.060396226859552 -6.998887747216441 -297.505960093441388
-56.872100652469683 -44.147630697013106 -16.916383049842743
-54.986329028139068 -46.318788084345940 -20.605334572333884
-55.094338778549442 -25.531795732401719 -34.480233667587079
-57.325546087108364 -40.522877902521543 -35.640931132824242
-51.183476081197618 57.184477856288815 -43.709933310559336
-53.287298538630438 82.160668255861665 -48.377108937627611
-56.722812708270105 85.905966258840579 -45.036566816535014
-51.965346431274106 8.881931394725186 -54.468117564281584
-53.689186291776593 8.253766752699983 -52.694132708403984
-53.566983807532004 -88.986394272060451 -58.974952234111640
-54.695589719237482 29.188004923666750 -62.644563030587761
-54.830494768863772 30.044974846598546 -61.672201823507535
-54.947860103899608 -64.554708473692898 -60.798722510690013
-55.811386139303131 -99.913209806905073 -62.702318964609098
-54.416485704463668 63.385873687357218 -68.617202423220647
-52.440578809987876 -62.788814758955510 -69.363528306354112
-56.248603985407826 -60.726364489434580 -69.395360273840453
-55.297089837064014 63.235771218091010 -71.449248903254826
-57.851045028605952 66.855967190739520 -68.610699297949708
-53.965910647032672 -63.351276071345410 -74.826957053790622
-56.282060960915331 -83.905144011715976 -78.348298196645544
-55.309400096575835 48.394396143935381 -82.489071398222450
-52.780757288771383 -75.853369559314544 -81.620120672678667
-57.053911784017245 -103.320893167690230 -79.454789416724452
-54.898457721232020 -83.118433522697600 -81.482059667033553
-53.516612989426498 -62.118075522508121 -82.340949293548476
-55.602790487582418 -75.486317774336158 -82.903642842998011
-56.319222451988466 -84.984796609817039 -82.686622995159340
-56.133907623982331 59.577539128094166 -82.875894134202483
-55.132746467595155 -64.670509308144233 -85.009551675591950
-53.556010923483640 -68.793966620293389 -85.190685422925469
-53.557513720317850 -63.905874990273318 -81.664551042877804
-54.490338702674748 102.120814623621300 -82.514058341665091
-56.477543040781519 -90.331321500184401 -84.208389140880143
-55.685709070511074 -102.581774958582727 -88.047500384682948
-53.664988394287732 -64.087061474081779 -87.458713384470258
-54.546405304566264 -93.101362595522048 -90.707827889525248
-53.573415259438541 -100.489955825975613 -89.226782964204887
-55.818031781119267 -82.245354596467976 -94.375472970696507
-54.881230933106821 -87.499684459517852 -94.440790885264079
-54.764636992447770 -94.047397109793636 -94.922225023676432
-56.230933377891326 -67.294068964161951 -92.885436292832452
-52.866070253940578 -61.165832390955586 -95.260771944626669
-55.574541415013819 -85.061631382763551 -97.143715328521736
-52.351030836822517 -92.539673310691583 -97.912842741901258
-55.472925756118734 -102.571981181498856 -98.503071522997175
-58.785437209808990 -56.603228012610707 -96.585929739767707
-55.634515751211936 -73.087546957241031 -101.172793372183705
-53.421365093961398 -100.130478609970837 -102.098301114775040
-55.261383601573257 -92.915374125271697 -103.261059499943514
-52.773490514435188 -55.234232397350027 -102.113916870837542
-55.000138093822841 -65.233685307868939 -97.874839687340483
-55.992421417070084 79.394643399006668 -100.409339026073468
-55.217384098389346 -94.481973457244081 -102.215646889035696
-58.530870475256037 -62.570107211754774 -101.130017718212230
-54.160083329515594 64.203582597405088 -103.228331667613574
-56.668957531874121 -59.609688496069467 -104.927430638729263
-56.332645258667505 62.770622463106129 -104.535442355515301
-49.582150187340709 -50.532970997911889 -105.465997355203811
-55.186597144132556 75.352727547388014 -106.004623958279822
-54.055150056384861 74.838877790709475 -107.753511201170539
-55.910591051138297 64.610173755591660 -112.530938010504357
-53.770062931503467 -45.782602351264181 -110.465398226181350
-54.409096108480938 -48.798842966171343 -109.761438904030456
-56.265788342396377 81.758676514410880 -110.986638436267498
-56.446924419825393 74.798013893555733 -109.654413754640331
-57.652825160258757 59.410850944707029 -112.595551780724662
-51.405020663858679 -45.203903975503238 -111.520453053195979
-52.265832492661829 78.055463489601593 -112.525238295652045
-52.818227821185879 -45.676681733485431 -113.657241760123711
-52.573269479688939 71.700658131336596 -113.978444297605378
-51.740048329626319 70.193297608148796 -113.270324638666423
-56.948657940179274 65.919294569431088 -114.873342059823273
-55.225915852877506 60.132038652203363 -116.635994459880067
-54.809234773214143 84.978808578371570 -116.779561485099933
-51.781542323594891 -38.359500339160135 -116.322316949304621
-54.028958598760873 67.172757303985463 -115.564808025208961
-55.760063331289416 99.216219866216377 -116.680325923024185
-52.528376858036467 58.454298914152851 -118.968352524679176
-54.616723029706307 69.891953575183109 -121.543966558817402
-51.072103669959773 66.563033020951664 -126.671347018634563
-53.910301774857537 14.721672972500293 -237.351455185355320
-52.869693845588721 -6.614120096028769 -237.374978435242042
-53.555112434785741 1.334707906111721 -237.732026205236338
-57.188856632083699 -1.210035515001880 -235.009606157687216
-53.568911747167974 -1.673736566976348 -235.240985511710505
-55.852015757563755 20.439549674728205 -239.209355969465179
-53.225459281991320 -16.096511992581892 -240.573155691554859
-50.506258525643545 -7.789313183864692 -237.524591564946746
-51.936392995610227 -18.393267317925716 -239.181157563602738
-52.466913987338415 5.406733822076637 -236.307356340135527
-56.050977876220756 -2.839798869363660 -237.667399777051827
-58.049271127076921 -13.937872927698328 -239.064289049584033
-55.894338439776398 -7.221784227764704 -238.032289976202719
-53.723436090638984 2.571736658516671 -240.540723761843765
-55.969249480583613 -15.531100494982475 -238.833078649936823
-53.774816927642313 6.822276472219547 -240.187919351089278
-53.499006163780066 2.639510395117741 -238.660501252523886
-53.590616244552741 -2.053706967145208 -241.221521396421679
-54.605968310926798 -16.234003397216902 -243.574892370646666
-54.956462342665638 17.344598800181210 -240.482477960267175
-55.812690035403868 18.347418434856145 -241.299365482917636
-54.000504490106273 17.165411650129045 -247.773300915101828
-52.872777499084499 -24.955629765785993 -247.505272561734301
-55.876420353495249 -21.338250716662962 -245.934545264535444
-56.121369198452413 -18.609518937593030 -250.526170051626110
-56.694551448351191 -24.391233741929003 -244.999764397019192
-53.121993016771562 -20.072112557855935 -248.422907921692115
-56.794982534218136 -21.064920127711478 -250.931421172526342
-55.534728182062494 -24.212077011974099 -246.762809372541881
-52.702193145062878 -27.949931543802734 -254.470206342605053
-54.717896263427690 16.571183866189010 -251.373475516736335
-57.893765439973251 17.104461700997277 -254.764736042341639
-56.526438415633528 20.314118501989011 -251.809595721368851
-56.967958672440972 -24.005127978986952 -257.395861707462188
-54.499763381849881 -20.727203481065363 -254.191545068820744
-54.142106399390677 -25.648889600604665 -256.631296092787522
-57.090524916897486 16.391107137499070 -257.247021741062724
-57.774523784521364 -24.745059812627048 -257.712322516253835
-53.342692661586440 14.835477441418551 -260.393262460302140
-55.953629164239338 -16.247553849366497 -259.549876224438435
-56.250106136136331 -24.558497149182934 -262.006885573049544
-56.449449949354232 14.590952186024401 -263.660339407281924
-55.622047299939652 12.857748393462456 -266.339073759810049
-53.789586542690380 -22.138606728850622 -266.247206750083308
-54.631300429733621 17.684869047753139 -270.828269720639582
-50.312752081676599 14.641408942679043 -269.355880450899122
-56.175411419249144 16.481585020710988 -273.586239678519007
-55.003510726852021 14.584594077044690 -271.263247287037927
-53.864695316593760 11.586855007839471 -278.294490033695126
-58.826937224963494 -17.424462553645586 -281.931432063581667
-56.752116824931171 7.374512795158677 -280.121690899505666
-53.983740265510676 -15.766820423006294 -279.968712906172186
-51.450107335932508 -13.590110316949978 -281.105732765508719
-52.478648336701674 13.577923229063284 -284.154330940940724
-54.699481188856673 -10.367816201728258 -283.158583971660505
-54.291229281806636 6.091528763034703 -283.688145541024539
-55.862684200703477 8.746727758674648 -283.093221468404295
-51.829811945175969 4.926474433343058 -283.914369910924336
-52.719926667951384 -17.290395724747956 -286.274915316814031
-54.346075613409504 9.160605738327991 -286.386291276749773
-54.036629887045059 0.539064205062047 -293.379129478741334
-54.997354671692264 5.420934833486840 -289.170051636548862
-53.597606280882857 0.639135114863984 -288.630072928421725
-53.647390054969463 -2.863596425031349 -292.255576163432124
-53.922710401867832 0.615913651140471 -295.375693284468696
-53.410912650654161 -1.861287720362300 -295.531523554200703
-52.719109295175144 -30.381701107300422 -10.706248513445273
-52.577893519812598 -39.575126017124724 -10.796981067970838
-54.825408554212252 -28.524649737943001 -14.157345485441100
-55.178235237605399 -46.291988280642151 -35.049044519322223
-53.439454470496329 83.076353363308286 -43.559679596075355
-52.297936347676846 51.750037483609816 -42.252056218357851
-52.790544774891806 89.267134944035675 -53.015087321720173
-53.766862057260916 32.667310076193203 -50.569181820583367
-52.586382148660313 22.360162044390144 -52.349199728998094
-52.622637661856302 94.230294225831003 -52.499668389109118
-53.660173510509779 -85.594842953480011 -59.245102389696477
-54.591460699497148 -82.313400014489915 -56.535307251511000
-53.634992773264386 -70.885630313705889 -56.811537522606720
-52.266940178399672 20.771958153763467 -58.686957803344114
-52.451117941300105 -95.347293904149012 -59.567279557086650
-54.096172262746272 98.138591079922392 -61.910321187058820
-51.597605862314786 65.825565832954865 -61.503065669273049
-51.660323136980693 65.177850475363385 -60.679955291964696
-49.393579927737711 37.823228151860995 -63.771065069331655
-52.432632095250781 -63.145151792973394 -71.378104382018762
-51.896862393393100 36.102443274835089 -70.012374548109307
-51.163467876478812 -100.768252880270794 -68.635384389696156
-52.474917806147559 102.288368280208786 -70.445793098529521
-53.742812138137133 70.213699962993587 -69.763169462703019
-54.776379845634736 -101.768577613505840 -78.200174082067903
-55.061350888760906 40.348661882354641 -73.558526671521122
-53.461578132801854 -75.953294040394326 -76.643182248651939
-47.907939070479131 101.881864686129404 -77.179134497574069
-53.487456028550234 45.910341948379120 -75.401389534548500
-57.000276497190001 -66.411713245285938 -77.931263588596906
-57.169794790297559 -85.900864069493508 -77.933570629778984
-53.073146240370583 -62.981746494705618 -79.505373224547299
-54.036577801662204 -93.365707105461439 -79.328988323305111
-55.777989797866447 -68.571331907186106 -81.109679351273527
-56.569006589122594 -92.792318353082464 -79.118220592357630
-52.778397764196114 -105.584125002292893 -83.371785672975861
-55.812755133332132 -92.454462526447003 -77.923271192437781
-54.116066107718133 -90.007078312300749 -86.262477088996917
-56.018040195527128 -99.668163792528588 -88.943431026924898
-57.355529069740413 -96.440186374938364 -92.832493998811017
-53.679341027138200 -79.078192506016791 -95.163272393998781
-51.174541818248535 -75.831897521808344 -97.470382405859041
-54.716885521638282 -87.035836602725524 -93.896668070469204
-52.561677554386542 -70.591747847156768 -93.391410947723386
-53.333780153307927 -92.450366635402176 -98.263978382060614
-52.646346660456722 -67.917661808395465 -91.734965527797328
-54.540096072333455 -93.889316941996242 -94.702255508226401
-53.990860477138433 -92.294637879601154 -96.805748158461626
-54.262417902488693 100.987614948574546 -96.002714284301859
-52.705995708883393 -80.194080833596203 -95.153150435982553
-55.171319584235967 -97.136035654783441 -98.515667942318672
-54.639010070826572 -59.063248419326065 -97.588317077378775
-53.409294097942848 -67.889357361726823 -99.714793390645013
-53.036684587862737 -55.771266425498226 -101.155803883755780
-56.420028654584570 -65.113052699143608 -101.052075876861565
-51.217313530610689 -59.346131896695169 -99.064293973563124
-50.848170621620646 -53.016177989208416 -103.742170440583649
-53.654068851130027 -48.993593402310701 -109.122429223213402
-53.176986007255685 66.110353574518683 -107.853782619044978
-52.278029840941464 -53.214619907968405 -107.504447630963696
-53.792408910795558 68.863405250289304 -106.824442927920700
-55.665054411398806 73.757356831719349 -107.707288321557698
-51.090368290162985 -49.414104929350479 -105.437773388479130
-52.569861024552907 102.107746485251724 -109.692973125045540
-54.689851087760907 -46.047702866692283 -107.631870689829526
-53.703411599908605 67.664599211588040 -108.452912621294630
-53.077308064150493 74.560936794519051 -113.823564864723139
-52.691173469856800 71.694769849968438 -111.750324713407693
-54.555768704978739 79.994354917441825 -112.851913413143606
-53.953238907475438 65.766926896817267 -113.463937112154795
-51.813681002160472 85.594199821370466 -115.885153941680798
-52.923325385427610 68.003036853356505 -121.103127584144730
-54.070020203209410 60.258775553033736 -121.614505699941162
-52.019651974275796 66.765501832640680 -122.703135501600414
-54.353715197809123 6.698371080074468 -237.118310276242624
-56.218798075768852 13.253914056935580 -235.038261197575281
-51.842811613447587 -1.838428986618771 -237.590898982030154
-53.551227920406681 11.243758550124324 -236.229560302456065
-53.723823428846700 4.340277560589112 -235.010441430256975
-52.575807627579522 1.354701573605570 -241.257238237396308
-51.568768471651317 7.407395855906421 -239.977141120732682
-53.829651313406885 2.528104344247409 -240.148140233726195
-54.251715274749493 -11.306188129615265 -241.106912272537244
-54.780615199712337 15.448432557207939 -240.825215797314968
-55.740391494150629 10.883314514835902 -241.264660075063034
-55.109585569554433 5.739141707026544 -239.290468572578220
-53.454493842910694 -1.164296138823989 -236.890146913503742
-53.249528135605885 5.118635809192336 -240.801191074715689
-51.679428545838675 2.548396726153410 -242.028076858227934
-53.344198377979772 14.574639093423082 -238.407411722202141
-53.219444978480396 -2.984005830813026 -243.314168145208725
-53.330367216143458 23.114197132220276 -243.383575269147315
-54.798897020577819 18.883814145378139 -242.844563650910487
-55.321234602518693 -5.385976266324066 -241.635174374880819
-52.529197301117343 -19.087576683841576 -240.152269567467243
-52.310265729204779 -15.115698342730905 -240.845267634702822
-54.196962901784786 -18.546031713545545 -243.026294611459349
-52.921667515010249 -12.288972163408342 -242.857519872603405
-51.981160462544302 20.216167509866359 -245.174949574803719
-54.946381802960083 -20.939852179539074 -242.982524868808071
-57.577640542858070 -9.758006087268198 -246.939820534721463
-52.737622624380379 16.602587783762552 -249.774342268076452
-56.358931628309584 -20.125245887242336 -244.790913363129647
-55.431938980351795 -7.946815403133844 -247.746916469724482
-53.003554801974232 -18.208498532030351 -245.864592622030784
-53.930139007076690 -27.972580055393134 -246.998046542154810
-51.900546255611772 -25.397815951035128 -248.703242895354975
-52.534584596457520 -29.405050163378238 -250.584148625497903
-53.825575404467827 17.041760803406095 -250.393462360382472
-56.262530787353128 -27.239449489271788 -248.420987221061381
-52.357080016172191 -24.764577760774134 -253.737305461851861
-52.599650742838755 -10.374056077810970 -257.372842079020870
-55.695200881553696 15.415438680272173 -255.964615783738623
-55.349032749249645 -25.011369635012553 -257.514039290691528
-52.722173152134680 -25.668309169809312 -256.249365748056164
-54.313405530696336 16.372848012934341 -261.416231143894549
-55.802133766844591 15.552331811344134 -260.151411222369632
-51.283020858883447 -24.247030018412602 -260.040395985541409
-51.689703482617325 -24.126320059983740 -261.834359322848400
-51.062876415544167 -25.508314960049692 -260.821584481414220
-53.543743081384335 13.047573991001251 -264.644189776458404
-53.728774020354344 18.131766688646341 -264.594052738569758
-53.697446802278741 -25.909764190145623 -267.356690786755564
-52.957268837002637 -27.473156717269081 -266.094194132220878
-53.638191975003110 -18.813757845449228 -268.675224451182999
-50.629452574254714 -28.686189058761730 -267.352141427155289
-52.285448403900794 -23.758066041694065 -268.681253325652563
-57.138338447136391 7.540690883474328 -272.296192251529078
-52.095828087216027 11.832099999998110 -272.715332818698187
-49.144926435525761 -24.511051525485762 -275.042204154662272
-53.757011892631382 -20.165332984847840 -278.897754093366530
-57.553298808172535 10.856319005183220 -276.766811478220347
-55.838603020839720 8.170555104362963 -278.610132206922231
-54.088979717141981 -21.567369249741237 -279.458320690892890
-53.507653729057537 7.498923655516077 -280.085336190837950
-55.898501476701583 9.159711260384748 -278.860960222309188
-51.997402889158430 -18.139217802894844 -282.104714266909923
-51.753343651719021 4.951909223342321 -284.799669984028867
-53.132044208941601 -16.117763305491845 -282.198998124611023
-52.531445685216092 -19.589466717711641 -284.198895812000046
-50.766663017053197 7.804005645568582 -283.208519107950679
-53.334860823095688 1.205150148262215 -286.861065305990337
-51.488384117822115 0.330626299540070 -285.234148429862216
-50.869572026620972 -18.745588034874004 -284.335890515925485
-53.117754866569854 -12.186990649277563 -290.647701899355127
-53.082447670216965 -1.115503701033787 -292.065130236817367
-54.709952617634620 -14.133966380152764 -288.983920044562296
-54.265417071062288 6.397783431728980 -291.891180907729108
-52.511779525862998 -16.883602224294027 -287.688538791643907
-50.149966562410846 -10.247945912258288 -290.093082768694785
-53.057794950810468 -3.607115551324822 -291.625843429202291
-53.013634651263700 -12.096718154411848 -292.257185706330688
-52.456544438122179 -10.588800917963296 -293.450614175630733
-52.798227154287318 3.339707403381174 -294.391601207546273
-53.186895518471978 -5.583594208753580 -294.592242200662383
-55.253173890693773 -11.389524004282134 -295.621999473729829
-52.653062129989017 -32.874028862447169 -11.219855171171977
-53.829736807866617 -36.364894559140303 -12.108601904145155
-54.292352094312662 -22.344312149392110 -11.952239502137051
-50.165024723832843 -21.220206259767121 -15.211994265603607
-54.259755665256662 -18.592100278354170 -20.718938749906172
-52.056949115871532 -23.902024190353849 -21.584333481768947
-52.980564474881966 -16.634710277161251 -16.761029231498554
-53.913228413800361 -19.723910637621465 -19.695210704986359
-53.166039826041754 -47.341606473797341 -20.506468540970641
-51.761090767570053 -26.000680547204770 -23.439861987544454
-54.581702914503346 -15.404599301157166 -22.992579015877688
-51.608946166786232 -25.432148792812121 -26.286002196590822
-52.825434839353996 -19.165940159641227 -26.155875878640330
-51.200545588581484 -23.805611032899382 -30.897126441664572
-50.162076992018790 -17.819923441933909 -32.997123826982843
-54.947484702509662 -43.915315852562983 -31.117579051173735
-52.451092936276794 -21.607513452907487 -33.545381652366736
-53.839769538584243 -25.490820446503253 -33.755895889660600
-52.543434281011820 -16.930895171134733 -31.894217736192573
-52.037181959223176 -31.337628720550626 -35.110700581316145
-50.049563902107806 -23.001557470893562 -38.371211893200808
-52.559633885401951 -32.603165468578950 -37.039202297774843
-50.761599349282029 -22.445394682673175 -37.885176461809444
-51.979739960368228 -26.679842945235965 -39.865402082715498
-52.232867479575603 -39.751251016213224 -39.941909751720338
-51.324766997029776 -29.950009637224426 -40.062388841987712
-52.629490973364113 -33.349804021506365 -37.151845071144095
-52.855889051415950 -27.437881360912257 -42.477769877510035
-49.925358814752649 -37.475363704876223 -39.338821054025821
-51.544570606815832 -32.513948791174933 -41.538303865425746
-54.420975971377359 -35.188204282913659 -39.641348329268197
-51.119851013503563 77.765670763529741 -41.881332578063414
-49.671962068571609 89.336656148321012 -44.606473546588916
-54.125080185459474 22.901774197180902 -53.784849651671507
-53.577173029951460 16.397381398505289 -52.754281597905333
-53.426863725098336 13.577471560137559 -52.817080670275033
-52.422795468745370 96.364404165439481 -54.902897641289989
-55.223292029401300 98.702377532272592 -60.509826243357125
-50.230994245710313 -90.356285697593961 -58.869893631966995
-52.342450810678685 14.184048342988641 -58.841516672906998
-51.293754103182131 -65.970536534054645 -63.024098689890295
-49.918834289693571 67.254557523247684 -63.465467468050065
-54.726871386983646 101.546694233573575 -63.061726891843364
-52.510504322847630 -61.801232734954176 -68.941069002410572
-50.596909471441016 66.862689005892804 -66.400977486251904
-53.238031238657406 -101.259935211193891 -66.719030668129022
-52.726471746514520 -61.801681382897407 -68.141615533061611
-54.007350329557696 -103.267563468971844 -72.472881225155490
-50.698236659444852 -62.712676110976886 -69.473105420714688
-51.973051080896866 -70.520307233539512 -72.158074521812139
-52.513903075577090 -61.192005882741888 -75.241146749657986
-53.212574750578241 -74.017145958359620 -75.466059361614597
-52.654001642904738 -82.403411486770210 -72.496020500538521
-55.497088773733516 -78.229304834734663 -72.578336255703789
-52.222820602340001 103.091817039450405 -73.211989546318847
-49.467372551662237 -67.745850878786896 -73.580577026617789
-53.946903435237488 -82.953411631262711 -73.143601739336987
-50.854917188799789 -62.523028708660860 -77.426148508696585
-54.576536745758084 -102.065962760763398 -76.401008506890136
-53.547433700887964 -70.703870678012976 -76.993277033938426
-49.801469839284067 -65.158610836624732 -79.200117349610252
-52.112443205499495 -101.035685329083535 -77.554016918747578
-56.659773258416401 49.579174115854208 -82.990056187211479
-52.573260879545813 -96.090861991806548 -82.547538503587816
-52.802396255557440 54.967563059785142 -82.760805088411644
-53.872841226474243 62.351727882663305 -84.450332681005563
-54.300049096681605 -100.606151911631187 -82.204001635130112
-51.495430623377331 -92.964237693967632 -85.590959909783379
-52.766768794920459 68.097890962480705 -90.562201832035271
-53.555294261531415 -82.441467595290305 -93.175498394231468
-51.409859265826420 102.325416301242612 -93.132802777869045
-48.961456922503871 -71.368119982927823 -93.014361535652853
-54.527088220091493 -98.662224451042633 -96.230041532756985
-54.089424110443666 -80.855843733866820 -95.026720058152193
-52.381495405163477 -70.685128868552354 -92.781716558621667
-56.989916360656650 -73.170193646445085 -95.603643885824809
-54.311701784257316 72.346186469209073 -94.586237763070400
-50.143525456780729 -63.496913325973367 -96.716733406571635
-52.725278456714214 -73.701630093589060 -96.475448479040864
-51.514075601469507 -78.589036440981658 -95.690935666334525
-52.143932662771213 -63.420201302175769 -99.769183665161734
-55.923101882495658 -60.870904329829870 -101.122065100485699
-54.209081302838932 -58.248645204818644 -103.885479301768669
-52.768036375958062 77.159253630072826 -103.983922441168090
-53.336854242529959 66.538018342132077 -103.589243626006152
-52.352367074872319 61.266680058168006 -107.646802709171595
-55.344328444690369 75.547810351734896 -107.239822812146230
-51.895522576833748 70.384295546843219 -116.600817380352638
-54.452288410505481 101.689773708370893 -115.804668988326782
-53.653426094239826 62.952106431348838 -116.460440307079637
-52.909315575310387 65.457342162549224 -118.048854981425265
-50.598508379493573 64.779374344350515 -118.338016704684946
-55.241881521022385 93.300763790957745 -117.266112759119324
-49.742911932433699 7.040050081985608 -237.466442151407620
-52.103265308157937 0.476203744282388 -236.342857312683435
-54.116419869109379 -14.902955678973814 -239.611594174863797
-51.544690059103516 9.754669771782634 -239.272060181059061
-52.158890512627579 -6.382828701284678 -238.614315772426124
-53.871192820885540 -10.500817776742091 -238.059993259284994
-49.852854033348464 5.602249821417464 -238.799351129224021
-49.157291208181910 -16.080366981952370 -235.752925423131359
-53.774774813315616 -18.446170452957460 -237.315685513484851
-52.272543843905979 -11.911399665956688 -236.557599253056537
-48.940990517758472 -16.718308608378042 -238.914888225140373
-52.567423869716556 -7.047830148305492 -240.144830428745479
-49.853189243191586 -0.223246618914300 -238.502537755446212
-53.404564718228386 -17.188719811397341 -240.973824947050161
-52.478154856723918 15.162919243986947 -242.283557034771661
-53.572385456136409 2.907561361345127 -241.200869406461095
-53.165717583619376 -2.713850143069019 -243.202269945586266
-49.095808055319139 -6.708197510856454 -241.267254730552821
-54.013001034050625 6.079162138114221 -242.472061196011595
-52.854641146034744 -2.433803696852596 -245.275107185922138
-52.582589739926377 -4.747997318505540 -241.449254988925730
-51.134099098588159 -13.588076349131910 -246.312496839134866
-52.699295903576207 -20.361700888371871 -245.677008002401180
-51.248538798375066 12.995905751670096 -247.524269217383107
-53.123476141688819 -10.560352276020950 -246.326350372925049
-53.440305570026624 -19.783388884316093 -245.861927790024168
-53.973114909709025 13.484994640211182 -254.263794746453755
-51.303025511555376 -22.973175910503784 -250.896583552427387
-51.639110718894422 15.333132145711627 -255.395741530410021
-54.174832226145355 16.942658016861387 -252.709951963751564
-52.985077481717646 14.509532144628906 -256.295063231570339
-50.747051077625542 16.227518130468262 -256.911675281842633
-52.798787051441586 15.062400759419761 -256.444014642299294
-50.889626357058326 15.930820593151605 -255.135231761203329
-54.270311217812889 12.405537451629669 -256.916791482753922
-50.866524305356393 -26.527191148662062 -259.971741860296220
-53.854814577240752 18.517464359465027 -255.458377723852834
-49.752799844354101 -24.933847056470132 -262.878434160823986
-51.412883373143941 14.646347720268654 -260.688889322908892
-52.305946257063113 12.429797141584416 -264.369840114947692
-55.906738057390633 -25.272197746296015 -262.367733565428011
-55.222801708027184 -29.043157165954064 -262.014798034931857
-49.453879953446439 -19.307613259930694 -267.989881055196861
-51.307672277841583 -22.855536011205185 -267.935758339752169
-50.972967727917684 14.262782347930145 -267.872883644454475
-53.927806904492790 -22.260499966648904 -268.084585398174227
-53.287903987273388 -21.179655713752304 -268.655734018507019
-52.989888929374800 -15.834138468759054 -269.350426518113522
-50.113210949382783 -19.582938932951432 -270.419524244041554
-52.572054095966600 7.991732486905884 -271.021449426015749
-50.202497923448846 -13.857305396411311 -273.574508394928046
-54.513739180798240 -21.287150792688479 -270.113760587234196
-55.509321632515217 -17.845378649417391 -274.959724571095478
-54.570858948273219 -20.401180529902049 -275.241119572084642
-51.846918569121655 7.666942567886218 -273.830558538697119
-52.108936112564187 -22.255343336742094 -270.649642290885140
-52.649461973245117 -12.560299716084137 -274.326790541207856
-52.606387362710763 -15.731851902012913 -278.734283676047824
-50.353905957620469 -22.071826607757096 -275.366963481610014
-54.106209812753001 -16.925337370920555 -276.365853416916764
-52.416515698824433 -19.882434522868827 -274.206669704438468
-51.639696668232688 -21.460593136071623 -276.187571962903803
-54.731805102068094 -19.394070556012561 -277.321225042467518
-51.856541945832547 7.023723169787831 -275.899679868581529
-52.670209477107761 10.650566762192408 -277.406672800277875
-54.462299498644093 0.145282631965119 -280.395826916163628
-54.514527686684012 -22.271088615160934 -279.199108693182552
-52.743172681819793 8.188749332270678 -276.596992865658649
-55.992721561379078 9.450993936398742 -277.407434343779755
-50.711338930026827 -17.008076132645883 -278.720836665758327
-52.305313300845619 1.902767137014654 -282.160702251662485
-51.567699690468132 -16.711943943081423 -282.668974322191787
-53.317669926963923 -14.055275310397441 -282.502709044697440
-49.897941209575386 -15.371815159914043 -283.934198607885094
-54.116860398729571 1.316670081747034 -285.879932085734310
-53.170253697196863 -6.430467977732121 -284.173936306375424
-54.693378014879571 4.894940647988095 -284.670127503455149
-51.739335775064113 -13.186843554874532 -283.657524632117997
-54.384026649083673 -0.572800728096850 -289.278105814805542
-51.459627381120391 -10.717741149999380 -290.192844037037730
-54.209693862076314 -10.191239866205164 -285.304972027187034
-51.106252549985193 -9.678726756923307 -289.466500626801405
-52.264505793101890 4.700614835465270 -290.756323465594448
-52.169734117409924 -3.089102714824434 -289.279390532539310
-52.874833656685503 -6.549140055374059 -289.393205538850566
-50.773499118705089 0.601514984560488 -294.746088328768167
-54.874555420318941 1.775719754546332 -290.358446316578977
-55.227419752337013 -1.511851911813263 -296.778660579246775
-54.506101744269102 -34.236807780085940 -10.789247211438189
-50.033880384775323 -29.280198933477362 -10.994586881947852
-49.095761975699823 -36.610513306873663 -10.252750031065414
-49.909571000828620 -23.885398094269128 -16.388746739321068
-55.408144782212155 -39.699616124946836 -14.409375870698948
-51.431742470189725 -23.299928074405603 -15.208224834942580
-52.446924595415545 -32.142423951761586 -14.849475125401719
-52.133608252334263 -36.452254000874539 -16.534891110035709
-54.836589100019182 -45.060565504752795 -19.571295385526916
-52.504578806952438 -22.663889320215670 -12.508447608002371
-50.432809066557247 -27.120113374573627 -17.311800082121554
-52.450920300191193 -20.631122642295402 -18.300168991027920
-52.479588852410977 -45.030882781842870 -15.384268608843723
-52.273447146803150 -39.580427072789583 -12.934142234145142
-51.756139730244875 -25.587991786007375 -19.798557918057625
-49.400200747484867 -47.212267425646687 -20.485634474640896
-52.532497208840411 -41.321141431089245 -20.426738112100473
-54.624046780972073 -26.345285242171546 -17.884650169944713
-49.950660846282396 -23.962787987619532 -19.577837610286775
-50.042476171806427 -16.843259912498393 -20.673904781312658
-52.925790593400848 -39.843998113056067 -22.257933447125875
-54.310752141660572 -42.208643356265640 -23.044928268107778
-54.836197861384953 -22.596070314115252 -22.492902935031246
-53.180197037712219 -43.280729916683981 -23.646324291900338
-49.538413571430986 -23.100540614700197 -22.351013880811099
-50.639663308447403 -42.260343379323864 -28.187808801084515
-54.190821740104958 -18.097845995655369 -25.303688524756293
-51.666520176557150 -20.023587689397626 -25.465741940807273
-49.084871779125081 -41.199116748404954 -29.909855091827897
-51.596228944875008 -20.727750920995508 -26.718290991037254
-49.819882547793107 -22.767536519095842 -30.772043565027531
-51.662489518239894 -46.264945622921900 -28.638357142656883
-51.161801847070265 -20.621554527234643 -30.306738067985460
-49.608261457686559 -39.096586759729909 -27.403880173463836
-53.126160265309451 -20.244911476275096 -30.631893773320215
-52.185202814043777 -24.479248689270566 -34.055030864516254
-53.097535965188669 -17.928995147786466 -32.715779671497785
-50.284518603214039 -24.307601449827441 -33.576317056995670
-53.620621010979377 -46.370721457226693 -32.983048436389886
-51.647029475570527 -37.679534703957110 -30.928350515050049
-51.598995262626111 -45.876787721556539 -34.662207525133766
-52.032707869615024 -27.720662216884069 -33.072253252980779
-50.622778975373059 -36.470718357885382 -37.854401977494121
-53.427834844371048 -44.297393792413580 -36.245321636638778
-52.613468468228589 -28.953900685302205 -37.234783316593010
-50.664571985340380 -21.822850825127738 -36.291698090575011
-48.188980038030920 -23.196713292943230 -35.617964690208630
-52.171789154035146 -32.016282719201975 -35.333408325709314
-52.514694647371918 -43.507756690667620 -35.444428026072643
-53.130835390730482 -30.332339870848315 -38.675144040770356
-51.559674000952555 -32.475751135286060 -35.647185343658990
-52.781665190343581 -41.006871873472036 -36.088666865133476
-51.381805537915021 -26.825887782874442 -37.886440605365003
-54.968176885587290 -30.347505100365836 -41.443049956024886
-50.686726643906312 -28.755886100999231 -38.118758807946499
-50.519179321468286 -37.050156600412642 -41.583715918299312
-50.478701096407221 71.186033417786348 -42.162435254090440
-49.680959533649734 64.429580047737304 -40.553556821957379
-53.931547684823997 81.835104594757993 -43.657098637214368
-49.645754485756527 44.056180161232348 -48.181175269969174
-52.102388628057980 30.941650808158588 -48.556464876425110
-50.227187355755561 11.741909990173488 -57.911994542641331
-50.825925774152992 9.765245727676133 -57.204212350543983
-53.718703634365951 -82.246254794605420 -60.938838653032043
-50.814531320308205 22.372177469506571 -60.583535524303620
-52.663322353303542 -93.301247059055314 -63.347815992610720
-54.559849922127320 24.511199510419694 -60.909957024087745
-55.230802167811937 33.493199876301418 -62.737262447683072
-54.105645127497255 63.028140621435256 -61.374085109315118
-52.212717991449281 65.141469161425974 -63.831119989906242
-51.748122119654681 64.572137997439285 -66.893488353358435
-52.308650110624185 64.788941810387456 -65.187754146923041
-53.519412255159779 -74.207965753475648 -72.773575916204081
-49.261943685500256 -79.030226155902696 -71.985602827755514
-50.277545232357120 -82.135091022117564 -72.916091097925715
-50.250231125800759 -63.172587918322023 -71.514152141612584
-54.524555474328032 -88.393408382468863 -74.328231945089925
-52.381017572412993 -90.079036797367692 -77.650588865186606
-50.133680572948563 -59.632308891544675 -73.559268100743125
-53.797395648836101 -91.805364570774216 -77.364543811783022
-49.749555941502408 -58.226810336867715 -75.954913828337212
-52.041975686521681 46.410162179496893 -79.288677668661222
-50.164557154931160 -96.098013688846208 -77.071138151144908
-54.385417986561400 -101.976379884961560 -79.385695412575757
-51.130086621789715 -60.542604780648382 -81.088344034491001
-53.092618290794668 -60.726437343882047 -81.264571834251171
-50.861291206377658 -94.920086996967655 -80.509130460711162
-52.350494780625247 -99.761315510935731 -83.169425939868290
-50.835213107129213 -104.483828996245208 -82.882117011704267
-51.247901100728832 61.225493181202417 -85.776185841478139
-50.650463610219383 -62.113361500129656 -85.760137205878337
-52.631309391383105 -98.469839148841587 -86.691999038309390
-52.067572175974661 -60.146423689929151 -90.688492370038858
-51.751868100985895 -59.916236035566456 -88.301787974200067
-50.080665992395524 -98.033347192015398 -89.732775591084831
-51.172421855558959 -96.372710949921029 -91.743582754837874
-54.776494348809358 -59.921581695434000 -92.967911631317122
-50.042433835624436 -98.999330051330602 -94.979258702368639
-50.839411122041334 69.063405876613672 -94.016988212514761
-51.185122808784811 -62.652074689936427 -95.189512526906441
-51.309710733999673 103.270585383518878 -97.597677072786027
-51.108587620193909 -64.284291481170683 -99.910220067644502
-51.458224416073136 102.041754353862316 -104.688709357856723
-49.981827783599968 64.982892898961097 -104.821325703408263
-51.695369532636754 79.284875500768351 -107.029532818635445
-51.230378446712130 71.232256706718061 -105.284335015194472
-52.597192739294769 101.198706108878341 -106.621297767502057
-50.713299672528990 71.910557318268545 -108.688597657711867
-51.028461247234361 63.748280646070427 -108.652765213185091
-51.641086959590865 81.310866460095809 -108.645625275670881
-51.816451956876094 71.117693677962706 -110.672293443655533
-50.799529050549317 68.090888799327928 -108.734488870243467
-49.470216997694706 63.444815794215238 -113.221391989201365
-51.128342494767445 99.104628084052507 -116.514454596437332
-52.912529289384487 93.086519920911485 -116.530748319256716
-49.837205375122430 96.153089969613902 -116.957369548579166
-53.001792657709771 93.244778177220596 -120.033849252709459
-51.914388135420040 1.392724476947434 -236.413472950564369
-53.077087700856985 7.891400562067822 -235.555355454158473
-50.425661226348694 -2.404461098716389 -234.671477225730257
-52.500071056281890 -9.268539382665464 -235.146824672539424
-47.740105016355557 4.318226197748553 -237.014146035678920
-47.723250902796813 -1.585778345173571 -237.126487558959042
-53.332856768504008 -1.185777870042966 -237.767996273077642
-50.570401162449137 -7.220445480074410 -237.699832603267453
-48.862946233244841 -6.277093563946385 -238.044600457722083
-54.004391971634213 -0.467455748363972 -235.440592340027678
-52.168792845122894 -10.593746966135024 -243.052271902931665
-48.609174484962807 -14.458813243858064 -239.232233474290837
-50.047821931794537 -19.247021022101226 -240.875683846146103
-49.825829106246786 10.519372681194200 -241.885877022997903
-53.567514308618186 13.081917236913499 -241.664511274018508
-52.410334281331885 -15.768107127576364 -239.451371799127259
-49.576496864354411 -14.951507017996381 -244.642519171786489
-50.984662650290872 -18.899893881391158 -240.998019298970632
-52.205430685703561 -12.296239584803478 -245.279339297668145
-51.943480805763890 -23.393798218845063 -245.825799263606513
-55.393760305645209 -27.472287715101107 -244.708043234184032
-50.673231544220002 11.861326743879024 -247.095596834017243
-51.774757623224730 15.565821861948942 -244.968290037821276
-50.325869054576607 -30.161920808868651 -249.166530234152560
-50.701794784512451 -28.437858382729669 -247.878358634927338
-52.531295767048697 14.787640318292667 -249.188498299656828
-50.721887662478316 13.881349211087963 -250.399182366819360
-50.100327036858523 17.803225097126905 -246.396128194873768
-51.345832615713114 16.020224446723908 -249.475608247027225
-52.342236213386620 -25.039977364771442 -249.973119807379646
-52.544071325649618 10.847009651325992 -249.944017592308654
-50.925647926650399 11.548772807078711 -247.839803784352512
-54.746089453273612 -14.573453748226846 -249.923196391676044
-50.809453551564914 14.744140302097488 -250.030275925979339
-51.296853757834555 12.324103653972735 -251.085972248993244
-48.718968318332152 -5.201919036056807 -249.282684408467617
-51.865456524785316 -24.835244603125645 -249.458591858591916
-51.136965477494762 15.964624283245911 -249.316369934158445
-48.990104953502886 14.096752342230328 -249.620712997483821
-49.833661965215015 -29.659365384407820 -250.657402747593920
-50.329961364995803 14.961726602644639 -250.542137601058386
-52.720970491305700 14.524532892437499 -251.676779789437290
-51.244654204041964 -6.030024653907192 -256.013168259134886
-52.037414542176791 12.694973886760163 -254.862847859665351
-52.155368928010496 17.064252492753184 -251.460189978616569
-52.348796869050403 10.555440637327294 -255.313553606512755
-50.938458175667371 -18.646857715188236 -251.892619023468285
-52.647807753367026 12.925604106724919 -254.029536898530608
-51.745786161396389 -22.737463461093682 -250.573286688426805
-49.613111470534562 -26.503142625112762 -253.799465437455666
-49.307857402534879 -9.592724866749665 -252.721750360233159
-51.857718873451063 14.868495736485281 -256.938053198634350
-54.623993008456011 -17.113952396953863 -259.806091614698687
-50.531521327700517 -7.971268036780183 -257.456109940891167
-53.281820185300234 -27.790589025302133 -256.303598172926513
-53.607370287310246 9.381956082854671 -256.569324649785528
-49.996877050423443 -25.904807106034969 -257.435231531744307
-50.217543135266503 8.472515066213113 -262.473125815897788
-51.845378930437214 -14.472955838906735 -262.234514956524094
-50.772432781899020 -13.558401366052555 -259.627457483011483
-51.374606550078546 -27.973589597503810 -262.471256523003717
-52.334363829907645 -2.129420762264149 -261.700804783447495
-49.530231355291576 -25.276799553861448 -261.314605369410913
-48.140293945271701 12.920906727577961 -267.247560371001725
-51.359130880466807 -27.873623279549221 -264.049584173595406
-51.286708806350681 -12.371492093183193 -264.256072652730040
-51.705216170106070 8.288197528789905 -263.066859761624528
-48.931857977037204 1.308653709820613 -264.814661776698244
-50.793798886088467 -6.619672270043861 -262.307065278512766
-49.144865174102968 -25.852840510077556 -267.072126018064978
-50.697007110753418 2.153577258000203 -264.863504502136550
-50.454886644524166 12.549816283821977 -265.154499629695806
-54.115713744055711 -26.942942063330360 -270.044030465243964
-53.047743961367352 -7.976250833164938 -268.656401457999436
-49.598336528194118 -14.075679073565997 -268.013474098083918
-50.954111575420917 -25.104507499485031 -270.871778671593802
-50.863572810741289 -25.540495496259130 -269.038158145402292
-53.139468966426200 2.703421126703820 -268.828809724065366
-50.106693805906666 -23.274229721612116 -270.290904946087210
-52.788178165851050 -25.411555571772222 -273.357712519457948
-51.080192965294529 8.157699358712073 -275.004011289284051
-52.197565318824971 -16.380255438311924 -277.064852257907091
-51.388362175617800 1.708651038619998 -272.786732456999175
-48.165467026730042 -14.825397022466589 -275.210944286621270
-51.018863418116410 -15.587865354860408 -275.387568363104037
-51.543372538514795 -23.276407355374225 -276.287519212000291
-50.844854765501758 4.805293618020553 -276.334293655774331
-53.323492301338753 -22.450914080963631 -278.548714981969340
-49.509214910236317 -6.432660192216790 -277.276458660313665
-51.442306393662435 -24.275365059785067 -280.123901900050100
-53.346657424297860 -9.419610274343867 -279.368126944324217
-50.736327727115260 -18.541272524086622 -282.188605870588503
-50.982238148712241 1.190424167893955 -283.352418165051233
-50.480131722690601 -14.616089974822433 -290.284839029313048
-49.718562132208611 -9.069955691809193 -287.324186701836368
-52.971053328578343 -0.476016074270233 -288.510732996688546
-51.947083887124606 -0.842342562531427 -286.491671345404939
-51.538888445429599 -17.140689623927869 -292.445066709391654
-49.352366683872319 -9.655510250776031 -289.580646009911845
-51.860359420904729 -5.110547765718127 -290.052275811603238
-50.982471535656792 -9.401384129547280 -291.494551970694943
-48.236394311960723 -4.592686965787474 -292.068951279827786
-53.183299029191105 -3.397873696251223 -292.863182563159569
-53.239667397789944 -6.548764116507490 -295.195181829002877
-47.570108475973754 -31.174038896859102 -11.018640678159310
-51.871494371809597 -39.494314258288910 -15.709615775538005
-49.549660027223652 -39.528311279769078 -13.918375685737320
-52.868088359638840 -24.892603236368302 -15.473853825737123
-50.268536461579714 -33.804905106812292 -13.098955764126636
-50.010929152500566 -36.695159581307536 -14.132826674714426
-51.542491437932014 -46.435979592359232 -15.483955751250868
-52.914508252197429 -25.332810225027472 -16.234110756364149
