# This PCD file was generated using the MATLAB® pcwrite function
# from Computer Vision Toolbox®.
# .PCD v.7 - Point Cloud Data file format
VERSION .7
FIELDS x y z
SIZE 8 8 8
TYPE F F F
COUNT 1 1 1
WIDTH 794
HEIGHT 1
VIEWPOINT 0 0 0 1 0 0 0
POINTS 794
DATA ascii
-61.873556880395050 55.089223490529434 -134.151890765485490
-60.660122567201128 62.070606746718497 -134.084904522698110
-60.503765286569440 -19.353896201711290 -137.478612443979699
-61.412524009295161 -25.708153743936570 -137.841009790589823
-61.595174252891475 150.878779052568433 -192.441570089727776
-60.195994886007036 150.299844012839998 -194.220389910550580
-60.839742856330012 145.148851211353644 -194.214428342538042
-60.754523219072034 155.621220105773347 -194.287877391961928
-61.037487020705640 153.270280537017072 -194.561631474961871
-60.854270290752169 145.453602732489799 -197.777866594679011
-60.419064933167803 149.489717716756985 -197.107051650059304
-59.945360360512026 147.612993366322627 -195.849734021538836
-60.978870152099709 156.554827551261923 -198.334631289480001
-60.132968298147503 145.417763721446704 -198.929219616281870
-59.851180698903740 148.432554750123671 -198.859769568040747
-60.389406406009371 143.468501455961331 -198.442131025731697
-60.286601613657602 153.214145792491223 -198.282223478242855
-62.150154800386936 149.196836725598899 -199.702175793857350
-61.622721222902065 146.191922254028498 -201.679915515985044
-59.720217601748601 144.144720632113177 -201.322428679527746
-59.632796230609188 154.909316889724153 -201.998531116706488
-59.843442182940208 156.494155285743318 -202.449859739270551
-60.841649416220925 144.898451987828309 -203.443338100674282
-61.214559868632811 151.640683219550795 -206.006441282024440
-59.964008130747565 148.353696344337237 -205.753847859933046
-60.720813336155565 149.325313410450008 -204.097302785916980
-62.230342768959325 151.860765922426282 -209.879297606967100
-62.163567330817436 150.445555813871067 -214.290834210282128
-60.082915980527588 151.144494838737160 -216.665830935243207
-60.666518814546194 151.996846334005198 -222.136797722882307
-59.100686273112636 149.244387221305971 -222.235485522197223
-61.172780945582851 150.791686588376990 -223.526938693315600
-61.119335734476927 146.942685071388325 -222.193589325901598
-62.979380329195877 148.539743961090636 -221.696884293364832
-60.932417976843723 155.242387536575706 -223.607106094333403
-60.048364566824262 150.911876135016854 -224.741073134542091
-61.030357795936006 148.638984184604084 -227.527621298086387
-60.777603315137881 144.777466373449698 -226.796055492260479
-61.403447571843984 145.144470580010079 -228.925463076303146
-61.155558407673411 151.214548542269029 -235.096459506896025
-60.304704735476442 1.479214702099551 -235.736491160054442
-61.911222550301346 6.835271463219309 -235.660396805924819
-63.227859120360364 -3.228351459301083 -238.360205412029615
-61.133582120709995 -19.345998924045752 -241.435907646873090
-62.147509172686568 -4.894334544146890 -243.478837231374229
-60.176989934828640 6.273196181109427 -246.951815845354133
-62.160088033129000 2.384577040122844 -249.789809704847045
-59.763568325071134 -1.679973308238557 -253.750212076938624
-61.599662577073268 -22.059148731166982 -253.684790756592349
-60.499702599173055 -3.777827917077979 -258.954468705916099
-61.749217881276046 -3.647258112514392 -262.516014366493664
-60.453410158523376 -4.416363777506144 -269.951455314438874
-61.422631541375686 -23.268411634597950 -269.126254843454717
-59.815903419245934 -5.750211072363506 -271.847794258006275
-61.046545810671304 -17.769755937892842 -280.193983657849628
-61.730757750794112 -18.621321433781077 -281.433904729864651
-60.667994760836329 -3.714472586412561 -291.678167107206718
-60.082744078070640 -23.006374544952095 -15.847147061611690
-61.104885433787750 -44.531400949214884 -16.727263083460617
-61.794172894637462 -25.088235437067699 -20.258747437844189
-59.683796677961375 -41.175733135099570 -27.425986435918425
-60.147510066031060 -45.699779638202301 -34.210242380142788
-60.393757252306393 -21.235750935728124 -33.426004338385340
-59.124214086339933 -44.924209242383341 -33.465966412507591
-59.644810181870710 -29.214052131658811 -39.905696808066089
-59.437070901641775 51.232952386219459 -41.794529737566066
-59.617894643352010 46.860945669651677 -44.273841649487622
-60.702881054551185 83.234202858485332 -45.986606224182388
-61.436280583713589 -83.186674419079566 -57.530059349509052
-59.559210303459004 11.247448171541219 -60.730451287245344
-59.282404532967156 19.301224314334071 -61.195410377421062
-61.746073024923042 -100.152449885209336 -67.893202372026465
-60.951582001935343 -61.383510006128610 -75.636317043035987
-58.972379019142664 40.482562974110124 -77.756904930921621
-60.122436802216029 56.140263047075180 -77.524667836394983
-60.114388421230586 40.295316602785867 -76.635033163628592
-58.787079848870292 46.111595937866035 -78.817095479302665
-61.253997003421858 -103.393252585661628 -79.256542230537349
-59.821112570872494 48.737603312251444 -78.996229576887941
-60.479511476484724 48.069919570194003 -80.390619687897185
-61.864490490430725 62.213330024335313 -79.817943920344973
-60.503492462644651 -62.104192734950772 -81.702757300148463
-60.661519995177244 -59.011835589587776 -80.856662520264308
-60.344334441893160 -60.708649951287761 -81.487659729548014
-59.627688261394482 -58.609544612806026 -81.793989222906447
-60.695106980303841 -62.516734999945868 -81.126585656360149
-61.449553256762741 65.502109182134177 -87.258512949503682
-61.395943672746327 -56.175462776183700 -88.662193539427577
-59.771144591794105 -62.587059195424942 -86.985978955438355
-60.606682827222606 102.473316653292301 -89.223661751610464
-60.272546611238582 -59.069407991515611 -91.052697856755003
-60.494348448009788 -58.960136068527241 -91.381815771933020
-60.771038791123338 -52.994497858653226 -90.417508867727364
-60.531780510468785 -62.374594909856370 -94.379600612138290
-59.213179470927543 68.205090142366586 -95.604580151879929
-60.737040697136457 101.710595193418897 -97.511716224494890
-59.033629352589159 69.572249205423262 -98.253873981242833
-62.730619702066107 73.274918242904207 -100.295364052929841
-60.030688049337016 74.626675512980512 -102.062807732691880
-58.922640224187049 102.610280773277481 -102.387749071588459
-60.377849311958805 -66.007414568887313 -101.391102234117341
-60.894408303399544 -67.218230629898102 -102.640835795204794
-62.079092966288052 75.875759009996685 -105.097306372702420
-60.035039855033567 67.340886335966019 -104.227055486894841
-59.804625451389242 -73.525601076754981 -103.118724484423922
-60.102690531198810 -82.326836027457787 -106.103944654138658
-63.003482851018809 -93.711992567247890 -105.798777980410875
-60.945567274694795 74.194235420068694 -108.735093102560825
-61.433319554682363 63.376193044153133 -108.344507846463159
-60.676595273850488 68.634128391384579 -110.536460552856468
-58.682156125689609 85.242363665610412 -111.726860874733788
-58.939375110489415 80.112684106362863 -111.710820195275176
-60.126490248348063 -44.983262207931041 -112.422682483395903
-60.170135957917616 99.668468370755207 -113.189207002692442
-60.867100387717436 60.287393834491610 -113.920655344686224
-61.316535750410956 -41.885553912272648 -115.591332120203546
-60.782516732387705 -37.961512763619616 -117.033002457175940
-61.533790239821492 -38.720865733143235 -116.435923365342560
-60.767831311971747 85.210185607622094 -117.683777855186818
-59.692094016642770 -36.435742351280140 -119.206950120277071
-59.821790940982339 98.089974174925089 -119.547006102920193
-59.819280882829233 -40.942274241875438 -118.480061421761263
-60.293044803462955 83.784225025773651 -120.099205700082479
-59.771533068814968 69.174106822194716 -120.682204334171857
-60.407805866458581 57.488855240416925 -122.478017259354758
-58.826631566803066 -30.926671758032327 -124.102776154727266
-60.687787962054522 -34.359027065414622 -127.329137187449561
-61.090179742787058 65.425585077867439 -128.767617278508084
-61.791209341421286 -27.754860348233557 -128.046421902160148
-60.101415408893438 59.566417439222000 -129.612168517692595
-61.258873744816839 62.166271620755772 -132.315570280806554
-61.141400656615652 56.536182903606388 -131.935047275899791
-59.857759479839920 -23.062402977083853 -133.847759581668441
-60.773408077527016 -28.770300528516202 -134.796892146271517
-60.315521365812714 57.659651268049544 -135.860565930577707
-61.620993676590324 -27.142051184173518 -137.380724679274664
-57.818782836341299 -21.304929167726883 -137.129635585175293
-61.052395190355284 -21.988448888647653 -139.199266656842866
-59.954440123996918 150.831368645265485 -193.478874194553896
-60.147548561660976 147.211151903210833 -193.119879182435824
-59.962262627806254 143.396525849686356 -195.244912648716166
-60.133811873028989 153.554413801061543 -195.014323252654862
-59.854364255385086 149.558998542941396 -194.447352998582630
-61.109436066303779 145.731967910396321 -194.485550239750353
-60.146038179582987 154.998657226715324 -197.345549086773303
-60.466506369559760 151.679036170180382 -197.102628678419080
-59.898142053247533 148.307416671136252 -201.833140960082915
-61.105766637790097 144.487209189674019 -201.767639566678582
-59.945826639543093 152.074457380262118 -200.560463917340201
-60.289993233947591 149.500755067947750 -201.352398809687969
-58.549548264662981 145.633883585488917 -203.262624389750471
-60.979601495060642 152.380196567224971 -202.506970433069540
-59.874433915342351 150.882373456631484 -202.596402567072403
-59.947887142225490 149.882263378950199 -203.341754485624534
-60.766112272554906 150.557989678001292 -209.225216274073375
-60.482619831403206 148.190937307967630 -209.678698877637515
-60.902014498196237 150.169011161028294 -212.612965609715076
-61.695587714718712 4.494828969929792 -235.788261819209652
-59.606165426511900 0.809079313389994 -241.340626857133230
-62.380702858118106 -10.087955769179787 -240.751218714373920
-58.893896253549883 2.910596796669124 -244.104912788229910
-60.728943619986921 -3.171700028889285 -244.035995482142511
-61.764344010647626 3.343945373246167 -243.737302876174311
-61.083880454640088 -19.751658143825100 -246.658066996917313
-60.823085067599841 -4.914999407644746 -261.231822163607319
-59.356754928488854 -19.586440201880308 -276.942162512214225
-60.212706827252646 -2.952052827799299 -282.487318049943724
-58.190781329762451 -44.166242783724293 -15.699629205923809
-59.355242982373547 -26.265872354801409 -18.642992757504615
-60.826808193545382 -39.755696877042254 -19.203886118933898
-60.898958643016122 -24.588775970473769 -21.382536716563461
-58.927343615674744 -19.133880863669390 -26.572940574505068
-59.911376134177715 -40.959031661608755 -28.535956787833765
-60.175657398590225 -25.113580898154822 -30.969135456751662
-60.228825638524242 -18.445791111986384 -32.630320397101279
-59.822330305029034 -46.295568030447512 -34.716862463354310
-59.820149654019296 -31.565910597236702 -35.996658853323339
-58.590796862813747 62.860343333122749 -41.048629923157726
-59.289913132807570 59.841066920352418 -41.724245915366936
-59.388771984740075 40.538823990564453 -45.020459141804160
-60.330731010181637 29.778737085339163 -47.445610158766691
-59.639966690438186 90.627625073793467 -48.703438894263392
-57.889683280984428 92.647988800678235 -51.850527459586971
-59.551532603358993 12.764095979559745 -53.642977455830135
-58.671981659890818 10.615128097249592 -55.762232045467265
-59.443368295462164 -79.238875603910373 -56.141464447207959
-60.476410698418640 -74.392353969761160 -56.741504640860114
-57.207402350045790 98.363414663124786 -59.283630310706762
-60.215431013903505 -92.379354632659869 -61.058194767179522
-59.557699104185794 -95.002430034318536 -61.367416508496305
-59.832763591019756 -67.107210944790594 -62.737868666073197
-59.421504451144358 -96.556679754334112 -64.591735895198539
-60.712552628526367 -63.896022371401031 -63.550115101380314
-58.799152521002256 35.314953818793597 -68.107562386786455
-58.426851304235292 100.588147875361628 -71.581692776731714
-61.381065157999871 -102.827284081971641 -75.818783405468523
-57.873784214916896 51.722174223689628 -75.937389488470558
-58.525156884167899 36.655401332407052 -75.871915523111042
-59.936851426439411 54.132305721032068 -78.136422413267937
-59.903095880260537 51.101665691744209 -79.759235063459286
-59.748414176679020 62.228347422884781 -81.980074544372670
-59.138415285829659 -59.491033787398052 -83.465875597189296
-59.045410526330322 62.307231489455759 -85.956361117785903
-61.119833212815649 -101.526411007851181 -86.514462182826350
-57.669108816936152 101.766812856620646 -86.427038317418848
-59.222213038587462 -54.409398803072605 -88.358885727725635
-59.130908093830946 -61.101902420054479 -89.158274090171375
-59.130744919616099 -58.643853026696384 -91.731875680234282
-57.973503487838393 72.065273387771015 -94.797172076146353
-59.278658834920655 71.304752286919509 -95.541868487834222
-58.481083116794323 73.414139770839967 -98.695873975259474
-58.322594222366256 73.023860631180980 -98.739023227660127
-59.078144048985870 75.328125681297507 -103.455868529240021
-58.478570040169707 -55.001042266733307 -103.980185382749951
-59.617027582062093 66.338056566078748 -103.970963867327782
-57.882710944873573 -52.716697267839763 -106.592476484241402
-58.986979503408008 70.757003487236233 -105.004759537966407
-60.069576190548510 -76.785129240169965 -105.399479729618378
-58.757670762923709 -75.306243857826388 -105.220336513488775
-60.309212722045004 73.223703972436908 -106.490363201305485
-58.529471615421365 101.757617100647280 -107.822051806667844
-59.810994631661266 -47.636695886702306 -107.553118213263218
-59.325096143205343 100.666118954057353 -109.429960426548334
-58.680967945464076 -45.314652604017553 -110.124634975427981
-59.112629998268460 61.671932809869269 -109.502111158781190
-58.567076383656442 64.970113582115317 -110.896347166109493
-59.886074787965903 -48.703479052047243 -111.901236907931462
-59.178535640264876 82.413513825197853 -112.364677898999261
-61.068754015935291 71.298921907139643 -112.869202034075869
-59.269979722356602 83.858988479332311 -114.163140823983937
-57.883375934346724 -45.430870118600687 -113.316651061763253
-60.250747017018448 72.363299557520904 -114.345629610588020
-58.469354937479395 79.425093544325478 -115.064118288319975
-60.386268569199714 87.149088624659868 -116.823323726429933
-60.465258610278255 72.533119848863663 -116.853135984703712
-59.000702303170797 58.493310852386806 -117.936789646539609
-58.994519731440370 92.399035916586470 -121.061141481869996
-59.041233154541423 95.087693364875449 -122.833731190867709
-59.164971864576252 68.631179415974771 -123.513642474386216
-60.061178285024440 -37.808923838507212 -124.472524411606642
-58.995902203632184 64.008435999443563 -127.676759042665793
-60.286020341093845 -24.788408481470903 -130.748027724954028
-57.785647811786170 61.920991266344494 -131.061247506087597
-58.818950141520141 -27.086126081859462 -135.678328815346362
-59.115586661385095 -1.277887992053707 -241.686868101884954
-60.240350229157805 -5.463562621788001 -243.235911148020051
-60.553154362101282 -19.461771641679299 -243.245423352794830
-58.486590522088676 -1.132862798601115 -242.741682796184620
-58.453305323478013 -0.902240612438367 -243.573473497728799
-59.336989290981634 -4.924859971148503 -243.759550845011063
-59.299558759824407 -18.644913282263243 -248.674731498758916
-60.357421916900797 -23.169611446826679 -258.383208399912462
-58.812979001074339 -24.693709384763256 -262.449223977535382
-59.415809075082443 18.252504907007825 -265.730292551162620
-57.509765848225896 15.939269010027230 -266.466832052499399
-60.265247241013498 -24.061145445065893 -267.290403492390510
-57.805604357595861 18.049949214844816 -269.325444900797947
-58.656012681396483 16.206440416618591 -269.266144533146189
-60.426442713300943 15.028097702594749 -273.611532326573183
-59.613980918929315 -13.887493320582351 -284.213461939802755
-60.672813959740729 -4.107390274390073 -285.651313336693818
-60.165509389220112 -5.851292850405043 -288.839818545349260
-59.898560908853732 -7.854189743650807 -288.898871126595509
-59.296940947363339 -21.062854670557957 -16.712056648049245
-59.172938739087805 -44.734213729725639 -17.123015633253921
-58.685972229908373 -20.829784419789494 -18.835573498404361
-56.376554470620313 -18.124774764303599 -21.184938406090509
-59.373432873072638 -41.424145453225535 -22.965437219916122
-57.728397399412053 -17.732360123101603 -24.274142454229874
-56.830228228822548 -24.630434878951640 -27.844392559322536
-57.219711967517732 -16.725495449760736 -28.676260123601434
-58.782300073044816 -22.761366293120414 -32.615532496921141
-57.497909006435130 -20.746026674510553 -34.673911532677742
-58.494358910769165 -42.772812528163499 -37.206013507739421
-57.355200261920942 -32.146150236697423 -40.136725999505323
-59.194279563182619 -27.626821039468364 -39.472281225631242
-59.610582561681660 -29.990081823256411 -41.453661535377982
-58.359835173758754 51.691764239930627 -42.426991522015271
-59.443853744630132 78.748806425322471 -41.707511812439080
-59.053329550277972 47.975974294028816 -43.411073117301761
-58.578281824562588 32.307718422923323 -47.914762976170138
-57.912072114821399 11.664040422122959 -52.448684610679614
-58.358578391982931 97.184823111193353 -57.828835412191168
-59.353344816857266 -85.305091400031415 -57.340421076202908
-59.445197702445057 -87.764236671505685 -57.082551466093811
-59.017353433776059 -71.863050245941295 -57.857636942198241
-59.233664476148803 13.722214269488855 -62.523829081633842
-58.332331915775811 101.133585082487315 -65.282164849757734
-56.471557407846127 32.797593817259539 -64.817683766963043
-58.574600614297715 -96.603053468341855 -66.086164557511935
-58.532318122374228 -64.260118656682820 -66.270584832860777
-59.229645514466263 37.626909638838704 -72.862300592141679
-59.388200835374761 37.992258507620420 -74.674938738437874
-56.863014102729259 100.711349157768851 -77.772575868674465
-57.474653800971389 59.516515200195592 -79.981861807722353
-59.554240818359339 -61.249799941984527 -79.768634270424300
-59.263286898458830 -59.413170547608821 -81.824297444544740
-57.391671160534962 -59.942046379666444 -84.738191639929866
-58.495337158792765 -62.017977071670032 -85.251133483439219
-58.909753093689353 -60.022027083643600 -88.680746497935218
-57.712268640789560 -103.661997068097577 -88.200813106218973
-58.932600479465577 -56.914932455149291 -90.585464126936614
-58.128932197580482 72.464027181245783 -96.290084111396723
-56.768923552973618 -64.323587659251146 -97.049842065553207
-58.293870306756894 -65.368888642624896 -98.968542572292520
-58.697320738064512 -63.645668480375036 -98.400605636603061
-57.349564221630054 -65.638813516129261 -99.758551497518908
-58.582916000621090 -65.628724110853682 -98.921030013415603
-58.310665487527380 -57.273798440252101 -101.837943132926284
-58.247450460254392 -76.050353663826243 -99.874319025717767
-59.698038560443536 -61.964576167378667 -101.412585151659954
-57.596005853598115 -54.309949938853947 -101.021658661974328
-58.851463490442406 -58.559603127131908 -103.628761993003735
-60.046810565673496 -75.635141617989078 -102.471513354516219
-59.102893243961212 -98.830738905396160 -102.029671954453107
-60.173371378424918 -78.929422123922976 -103.018626822386295
-59.112147281355774 67.025867848826493 -104.401393012458186
-56.032435167055112 66.407922477714720 -106.163021286618587
-58.230594838933193 -55.564860191668579 -103.840506102667192
-57.825116416323574 -50.125631149398799 -104.316408283840758
-59.109035691482042 69.067847046501427 -106.731905677826745
-57.635765168275931 -54.259049001948654 -106.136557314689725
-58.919442533651356 -80.886130062517282 -106.716735313483142
-57.239286561495881 71.663438375787990 -106.456914280542250
-58.577289479848012 -83.524129402134790 -107.986177258981456
-58.778138604261919 77.792471624715219 -109.476367361516665
-58.633040677782091 62.463229267760951 -112.617050804341901
-60.254102983846565 -39.926334032781561 -113.427111475233232
-57.935392892401516 61.048687040430849 -112.593321653881546
-58.576612403016419 62.002404234327038 -113.526756118552711
-58.723896217971649 98.943121064770210 -116.426622145191644
-58.077676121006775 85.843817608733389 -115.277006581347081
-57.421237833938356 80.922976786547281 -115.097795789301031
-60.092393383841909 -38.103288573017245 -116.094847755330974
-57.182673446667813 71.940345329762081 -116.442672360361428
-58.345081670757871 -44.795829116306521 -115.465278441785387
-58.112772905381526 83.495082848050572 -117.859807756502846
-56.992994413055314 89.031645213889604 -118.634423081482751
-57.303297446865393 90.576912443104362 -120.729842503144241
-58.418974612255631 58.154358395540775 -121.080598899023926
-57.860353388065661 71.875018317742999 -120.742021958656579
-58.710757919022200 -40.585194898410805 -121.613122359282372
-56.120788147390513 98.023447630362156 -121.052602547779571
-58.152574528183465 59.163502559340323 -123.342779857616250
-58.189579973666170 68.604174443378412 -124.275067047358505
-58.966942586907948 -28.825836267431981 -124.324202873729831
-58.109683222604652 65.283236505827233 -126.395476335323892
-58.397402377504804 64.620212126570067 -127.308741114670113
-57.270181168765461 59.689957364702565 -129.825956823959245
-59.682186732547770 -25.540929100895823 -132.030361467011943
-59.316953950670666 -28.025330730436430 -132.093594887174561
-58.608406622064649 -26.559674045175786 -134.283389135760643
-57.794265274290510 -1.199819768534082 -237.210307457404269
-60.266067386936733 -16.149016720155519 -239.932859224414187
-58.380500969223938 -0.851972615216218 -241.489512539051134
-58.734530151030476 -8.868484959598327 -242.193499108956246
-57.159017331999621 -21.360642092454221 -244.317014721759534
-57.319317604243594 2.551533222388279 -244.633257219796718
-58.212750549077867 -18.643263642086445 -247.910828969291629
-56.782211453485800 -0.642219273991654 -249.032843596137752
-58.431067605993796 -19.962762694085640 -249.850003844005727
-57.627850533674810 17.969933126928076 -256.499062900944864
-57.369835907821702 17.979537929804795 -259.770959388979861
-58.543543039529055 -24.303983215401487 -260.051372107467500
-60.195139927018481 17.786613363640452 -262.348699241192378
-58.162517202351601 13.600687907010395 -271.894457339718031
-57.174609655153183 10.819063191863394 -277.096081956603484
-57.136761652597215 10.714874384705304 -280.221463226096489
-58.862271418606099 -6.843589596596278 -279.896172691723734
-58.487621178502351 -17.015189954660997 -281.429123488532070
-55.545879871792863 7.366183834476057 -281.653934155863169
-57.310357618386760 7.781287508838879 -283.668696078242306
-58.164559548939131 -11.001846006415468 -287.637218875848021
-58.180324766322492 -36.275327343598960 -11.558764503337086
-58.973951033357146 -32.650465846799726 -16.373593160053538
-58.554581584315315 -37.983136698404827 -15.847971248827847
-58.251378440726739 -39.465863000418288 -19.415471205448096
-56.846645062482921 -16.874305094103775 -23.737916274421806
-57.758131234961986 -46.486049837988539 -25.689162751808283
-57.452978546206296 -49.075755240446064 -25.173288165444134
-57.073742029676104 -47.584379150644637 -30.445912271767941
-57.462038976534508 -20.279196588317728 -34.974065319346266
-57.947871793412702 -30.009374492652981 -36.873153992612963
-56.166579932136379 -21.718630000588146 -36.452417843845950
-56.234982969141477 65.423280227175240 -41.495983064477628
-59.114951889804487 74.714957666327066 -42.062920518533176
-59.043126262755138 82.489047485206882 -44.513262730986895
-58.036235031570797 45.403930940269902 -46.508326602754387
-55.967879760589035 35.108498796475189 -47.403798203855850
-58.520279528059170 24.046337607414280 -47.782010718591316
-58.818142523037196 18.243054723930769 -51.114301300728911
-57.181416193832469 10.881934832630025 -57.763565963693317
-59.242922769708862 -92.585400598528352 -59.123136321758302
-57.578956943468462 -68.715105444601363 -61.599657742973378
-58.907238049128871 19.841399335651104 -60.694219653220102
-56.311139757197701 -68.171534836075821 -62.048503373167684
-58.451798277175662 29.553481113267228 -63.605264152381153
-57.808341850807125 67.564714825212548 -66.570833369637938
-57.005461058433880 66.534668424586343 -70.457386416598396
-58.231325170225752 -61.737757367368594 -69.582735472572139
-56.977485021512891 -63.393240727787585 -71.746354000074248
-57.246679544170071 54.906243029829632 -78.887970622529252
-56.815396462851517 58.452390876925485 -81.031961579330101
-58.045055090155756 61.573706963884526 -81.668122706106075
-57.685720712490948 -58.097910918762871 -85.542793923797319
-57.796605858540801 -79.195273240217119 -89.741799939539447
-56.922293074267358 -82.073067609868204 -91.529775848777916
-58.538472557680329 -63.334698647817248 -95.378112992008198
-57.380134608758524 -76.652939334423095 -92.679410291706063
-56.940832761016601 -100.938756628575078 -95.153137677512689
-57.619103396096079 -63.914567167757568 -96.609441513881180
-56.318118075411718 -79.493445986776067 -98.656720849533812
-56.533082434962793 -60.873262263998718 -96.642033399379400
-58.329170772945531 -73.988033699512556 -97.214080610335856
-59.715005576407869 -100.263248780363142 -99.024936449113156
-57.816163980547309 -92.176285368979833 -98.463332116472429
-57.397078367547792 73.848199047834413 -99.688836441283343
-57.446407686206705 -73.034288487040939 -98.727443028530345
-56.727269666433635 -69.027964284167865 -99.478409954175447
-57.173477981867386 -89.303583816870685 -100.956353681724920
-58.359220798134402 -63.487955895269991 -100.524663060431379
-57.399242046418379 -83.141836709187416 -102.515967782894691
-57.053319592022667 -88.392739742447731 -103.778968447524392
-58.565988965790424 101.422295810153827 -104.738016711701604
-58.906026272039306 -69.032592965018509 -102.077907220725251
-55.887103082722874 -73.680868631128519 -104.056190192430279
-55.415026963524113 65.649726202673449 -103.597807735575330
-57.792175859386582 -81.296222709523718 -105.355830280317278
-58.538150600303815 -95.550582420303556 -105.540134960380541
-56.957103208830901 77.157827892281958 -106.372753411452067
-58.352803447727865 -86.872320677874029 -109.137048438812911
-58.111110079138250 -91.675644963658243 -107.135335538156923
-56.991457741227435 -52.177249699849078 -109.821757992124518
-58.037240122129859 73.155464698344048 -110.037020345068370
-57.829702055737286 -44.706307487261697 -108.937865208076957
-57.158996722229411 76.219131131469197 -111.322596622417706
-57.150732430795216 -41.076814793324345 -111.969597651663520
-57.956569026909420 81.874800278520468 -113.271871439803434
-59.019262703768284 -48.118994126802406 -113.988595059806258
-57.759851633589889 61.326762573161481 -116.101163568608200
-59.187911976885992 82.756154386544324 -114.603546543472362
-57.761848722641133 -34.325105986040263 -119.790142009607564
-56.474936801586772 61.238891754322928 -119.463524984976544
-59.146706261413257 -41.466458493086790 -120.408810633926450
-57.077956621556872 97.588140661037983 -121.206559192466230
-59.097111734944413 56.539289328500921 -121.451076728116035
-57.325983027753459 66.792988228149355 -122.879097232647638
-57.526555580579554 61.404003438656737 -124.191792260254118
-58.710078716415133 -39.362387021266898 -123.511849186265565
-58.323935228384158 59.315711889719935 -125.826804010339259
-57.368756265696227 -34.000631822860825 -127.106899723710086
-54.719439867178593 -33.137236147281023 -128.405421147499254
-57.569595171414470 62.608149086588739 -130.126846442895669
-56.069882691826088 59.767458135232843 -130.739340574765805
-57.544144743259309 -27.704060772961757 -129.355699963092860
-57.442352920429606 -4.927177456194591 -239.138508918310549
-57.636414041339961 -3.327787084449530 -240.076308764409958
-57.622669738139464 -12.878257593030341 -242.810463460085629
-57.402819120954142 -11.416037322097177 -244.176257277940948
-56.936301139138202 -1.270139690343097 -245.782188609470012
-57.264999051599254 -22.073976692671739 -256.331112741078471
-58.747046430176866 -7.750248469546243 -256.458814424419757
-57.673967621877814 21.119997396921573 -259.293622193368719
-56.461488255729186 17.146404830234829 -259.411048364167300
-57.076726442473827 20.165836659570097 -261.205075052374468
-57.567751662453155 20.045106468548500 -261.418109012997661
-57.288378494971766 19.044414006184478 -260.581851724383910
-57.726711935978592 18.144754388045659 -260.351962221592999
-57.150668364201699 21.738692177650890 -262.513796228507829
-59.073639574431084 16.613058750540425 -264.276859466864664
-55.686456302365627 20.325712014465335 -264.666375471253161
-57.045979153963806 17.847028144964256 -266.934093500247570
-57.475336087097340 18.758697769018696 -268.406119617560250
-57.190622720189957 15.576218995850740 -269.264066284055616
-58.718382298860028 15.281914225173159 -268.999718292733291
-57.413212768028032 17.923134477934795 -271.528882367665972
-57.788461882575604 -21.853095460223138 -269.875015446897407
-56.156564209546715 17.885215909986197 -271.528467568760107
-57.193523532334211 16.029205364927378 -274.171327283863093
-57.055249721275636 11.867645588843862 -275.504085549973524
-56.277420599437256 13.184648017270261 -275.920586086297760
-58.023164321983188 -9.791836919884078 -277.956840079493759
-55.819250692181562 9.187908272545370 -285.384029178875551
-55.446582845870083 5.723680105021145 -287.977973003786701
-57.842235242612460 4.087407851092054 -287.289284017679847
-57.323566322329526 -10.169678498788848 -288.295551869699409
-55.996877848653746 -25.397001508995938 -12.772389434384014
-57.053598701824264 -34.604683070601979 -16.649083216259996
-56.587656429535649 -28.923441644464546 -17.173359458755012
-57.877773865435259 -44.239058968522492 -24.211340925123963
-56.834108266661538 -45.483084540198675 -32.034915480085367
-57.014991498531103 -43.157338016620436 -35.737014220851954
-58.174586777425212 -33.999600374087564 -40.572883573606362
-56.714682458946527 60.688016419823967 -41.787682247135486
-55.574022186253387 56.730182480968558 -44.108234941118390
-56.109341820284932 52.275712940779144 -44.390745706076089
-56.003481986770332 87.949509860421855 -45.753996690158402
-56.374977666572555 36.054768691575205 -48.864786517859834
-56.235410834695010 88.761787493366441 -48.053514578313255
-55.591465700980059 24.937473487880752 -49.768332616208440
-58.147402636928696 -81.085250281306699 -58.395023709892818
-55.907461889588618 -83.399395998981234 -56.946808123292172
-57.150954225559943 12.863782809127583 -60.310241377761159
-55.128219324708645 24.526553471258612 -60.973087117264953
-57.329300481618652 -97.610320496210335 -64.779898787975370
-55.477178851446354 101.109145058406469 -65.539170004659297
-56.252631147295823 65.975161939789018 -65.174616386100581
-55.051151029057856 64.550427421719519 -65.331495364447051
-57.267319177469723 -99.685547819132495 -65.689657123043588
-57.255929956401118 64.577853224917845 -67.817160015808227
-58.734508493763130 -102.587292463163081 -68.785181823980409
-56.099481821327245 38.048200928788845 -71.151277693391293
-56.339162528142687 102.363088962023426 -72.932656381647845
-56.868573512897186 -101.166793830883577 -73.229088967062779
-56.660860229494311 -103.838247290918318 -74.637943905551694
-56.202370805182397 50.764954833074654 -75.179679479991734
-57.939383882479220 49.213070905485736 -77.890755873508397
-56.994029800023412 48.011748342709197 -79.212546170015870
-56.873870538225368 55.109837679216234 -80.491209845411618
-55.999042657204654 -83.417512032459058 -84.100120375839921
-56.422498898495064 -60.004658614512479 -84.116513223020647
-56.333495435063483 -58.880771510530508 -86.182067324427805
-56.345349212133364 -78.831120646361654 -84.593138639150737
-56.325272195836895 -58.315158538827596 -86.781335383782277
-55.704688264736255 -76.526513789405939 -87.913190967327353
-56.957067215129804 -83.179416644092242 -88.654565205596398
-55.886262442562447 -88.327411984733004 -88.278901117667530
-56.995521538210646 -60.090674375875459 -89.704080335372197
-56.598234084570734 -72.454644231318255 -89.437907272278366
-59.530663512854190 -86.695846770479733 -90.784368661053023
-57.462003013142819 -71.480554622901380 -93.454398629244949
-57.012015858267411 -101.997927404431522 -90.678594672704619
-55.485473548903862 -91.490739867393401 -92.315211036758257
-56.456952575577390 -67.218923968645001 -91.836354030452540
-56.283024741058611 71.442764182654400 -94.182335294561284
-57.053097947901726 -68.558368462812481 -94.651121886004148
-57.933217066938397 -71.381892241378409 -96.002292259974965
-57.368763637446669 -63.888062039564460 -94.314988466254064
-56.934784734578486 -65.486644277217778 -96.150925420256300
-56.492829255709793 -90.370404593835275 -98.280439517478982
-56.284706389077613 102.490217887001052 -100.064093029043519
-57.829908832824032 -68.089947073319877 -100.594070834809912
-57.368615352101990 -98.794202914612342 -100.858151365241710
-57.033345856799386 -53.943697419209279 -100.181562530620496
-58.576028950581247 -48.736887596104680 -104.394391567861888
-56.835183729839727 60.586022076468140 -104.277373893936698
-56.964248335048609 -56.562049440762955 -105.158013775389207
-56.398772114401190 -82.716760262749730 -108.023463871925884
-56.222397452131489 -94.586956318900249 -106.040585110817261
-56.286616734768948 -85.280593246185688 -106.983787424876581
-56.298878628322456 76.825119494970849 -109.805057156048164
-56.636528792305441 64.716616821543369 -109.483567594976719
-55.623924668609305 75.464770714115161 -109.303464776195383
-56.255977273645556 62.866315134603724 -109.913391623540349
-59.135565301639282 75.558166202072428 -113.130808923304500
-58.967187825567493 83.676590933438078 -114.081902974827742
-56.819002209104298 58.619335792816059 -115.392184367128152
-58.550998945185881 69.624098999531341 -116.804824791525661
-55.158763601247465 91.793947512364198 -119.340162011281819
-56.590839428080329 -39.538665366037200 -121.165972692099146
-56.700458376474707 69.399605708585980 -122.115611660605566
-57.936565561516645 -33.514526953236697 -121.013326965861424
-56.520508121042134 63.823593602176736 -122.956127214875622
-55.288786963374399 -36.023982828810979 -122.084721708013447
-57.157437107725563 -30.958548285315715 -126.257365411211921
-56.189457388418745 65.525519272306610 -128.345729136735343
-55.360905416393251 61.461218892164183 -127.142169680268580
-58.014901132609467 -32.432895266434031 -126.753248017864891
-57.313374209237494 64.138841127635558 -126.207077787281321
-56.515822261602317 -3.618810428790617 -238.361795046771476
-57.631400048723116 -2.342221894937722 -240.817572988022704
-55.611257379006339 -11.925889744327897 -240.495466666546974
-56.779123576720316 -3.652569248117447 -245.018627189097316
-55.764024240899325 -6.720496786591337 -242.398873350765285
-55.316143946369259 20.145931049601248 -245.881285754250314
-55.982469983887952 19.308448916964210 -246.431256183445157
-56.610105625591473 20.557500674960110 -249.494712005314426
-55.878805626795156 -20.011573876634774 -248.719020770927528
-56.189608617849473 -22.096916643193644 -254.412175176901854
-56.852171199874419 16.642377268225648 -254.538480296808956
-56.858184347750843 21.278384378233106 -255.359252869008287
-57.134471983250755 21.521990904445591 -256.363123838728427
-56.322524839536428 -24.354706831897804 -255.889829837888271
-57.953145976883924 22.011769624991508 -256.780181796522925
-57.190153416093658 20.107726611241631 -259.865647399424461
-56.709646951325816 16.528715607992655 -259.764511556966454
-55.799730572653083 20.061984091609929 -260.272442065050654
-56.042502470709117 21.965721947901244 -262.408475060477087
-57.051618344566933 18.642808504334763 -263.570193722863564
-55.976159904514162 -23.957612152416132 -265.896945920407916
-56.409991787540967 -8.954524677983720 -266.440183285830813
-57.440340988905334 -22.828452182309135 -267.495860872676985
-55.695094193672126 16.476959772577793 -269.443897208555939
-57.488837048385385 18.375236355916577 -271.418359395668176
-56.641147489926787 15.326008358647044 -276.450942221060188
-55.935099455163154 10.614412443461836 -278.734375489842080
-57.361754727598210 8.616069258162012 -276.350087961314841
-57.267155296881057 12.709600751431584 -279.478842412270581
-56.436426917573236 12.845055638956316 -278.939481428671286
-56.202525271188001 12.742908092127969 -279.849869416202125
-56.253565476702555 12.235661747761547 -280.077542380326292
-56.767820442292816 -14.322723881541485 -281.606253866872123
-55.819419164586485 -12.995911263084761 -284.554017734148317
-57.767948205748020 5.245796472400176 -284.282852338572752
-56.611896319565020 -8.823963084638349 -286.288457044049551
-56.872608318011245 1.357647221600248 -291.294009665701253
-58.234350755098873 2.859536934555354 -290.680653071561721
-57.864047616403496 -28.545876130135124 -11.863100298769462
-53.283973518726363 -26.836606503329257 -18.253315161832539
-54.633494446379068 -19.363461108844930 -27.884783267977078
-56.996323458442156 -42.717280686258611 -32.201581898671328
-55.406631502198373 -36.627581521581483 -35.706502483763110
-55.541657487282130 -27.881457295269495 -38.295232704103277
-54.613221349748507 -29.215095689731335 -39.029107535703950
-56.806219857076798 62.772268415806650 -40.801471059570467
-53.874619324464916 74.615770517206016 -41.217702525471509
-53.484532666453170 77.947120775485530 -43.560729539062748
-55.128306649841058 46.859885697054949 -45.619170543664801
-57.022798512052631 39.947509729271388 -45.993641765917353
-56.735423359588701 20.980330125388779 -50.445914367649323
-56.296196759580354 16.701669726658082 -52.280623280675108
-54.586615454067321 93.125290234505471 -51.353882211574579
-55.426388987336011 13.304869398607922 -52.422061608144155
-55.983898687878295 -77.486449959427247 -56.989835847869465
-55.123420209224044 -72.784440352474803 -57.451717174962774
-56.488019048075451 -82.435395077621450 -58.521017069226048
-55.810715330120303 98.725346049294487 -56.815899831191985
-55.219173042205618 -70.002784997836457 -59.256804208975872
-55.971524023939857 11.609702443218676 -61.691163067275170
-55.521680033590037 22.051729765594342 -59.570044341232474
-57.502676841103330 19.054185409075160 -59.711549631519269
-55.013400124621448 -93.160268317251649 -60.430188451485861
-55.341611314722172 33.398386122948821 -62.724328978919395
-56.326182779887432 64.706278085222948 -66.295501655830805
-57.042903635293925 -62.187013437068586 -65.935195869111809
-55.838339370560689 69.601196314453048 -68.363370991647727
-55.379708036631854 63.525629427987361 -71.664890925166418
-54.047772053558184 -62.219591705916102 -72.414403312796296
-55.345401251130276 39.449411405185288 -73.807223628574121
-56.260449989380753 49.602525172286960 -75.627723636363541
-56.266807706815833 41.926973068888763 -79.285637460467910
-55.370358766424495 -78.208199857606047 -82.445343727519784
-55.800151093501931 -82.133049784740948 -82.072252650091727
-53.410073703265184 -73.765411314366347 -83.047550996742331
-55.376696556915775 -73.479478095155741 -84.563098909946291
-53.758501880804708 61.072056729338051 -85.686401822644513
-55.029368006567950 -87.521244171906616 -86.242614295376754
-55.795307937879187 65.542237080044089 -86.183482772300934
-55.587020802207149 -62.092121451586280 -87.145912753832903
-55.916813061877185 -69.579486553740324 -87.101004282367839
-55.332008108937622 101.430055455421353 -89.823430994247516
-55.206131657077954 -88.909921487213083 -90.390986671352167
-55.774521689628457 68.937710131372640 -91.987246222384343
-54.282268772169601 -62.476653525277314 -89.478652477465417
-54.574204899008230 -65.601212720083126 -90.823492689442034
-55.250328932604816 -66.719233249343091 -90.162245393019504
-56.502396759816222 -69.562331315534266 -92.199987407945272
-54.516496244974881 69.294981278980160 -92.846176237908494
-54.778681030092116 -72.800705942821608 -94.209177898959709
-55.443006133228756 102.316954298317555 -94.317014558059711
-55.198414353513094 -92.840558321700968 -93.637906806829037
-56.207964846548059 -102.575506707550673 -95.321289433444818
-57.020854587653488 -60.453736236088162 -96.977308371450505
-56.594596105682058 -82.826179720308588 -99.150180892408557
-55.554966685230703 -76.549504573880668 -98.222748162877096
-55.564055743555372 -92.628494950745903 -97.803284636072505
-57.068889738416892 -93.823769588640957 -97.813521297517497
-55.353843558972734 -92.676844037976551 -101.158449884704993
-55.304722496715854 -61.561527968807717 -102.746902516963090
-54.929561719237498 -96.973940471895617 -102.591458459721977
-55.219274834214787 75.852092944297951 -102.745269857158448
-55.939141444385839 64.756086731845556 -103.773977847833990
-55.234167548568607 -92.757321851234153 -105.319058466800826
-55.601628478289740 65.237632133057076 -105.670499530999393
-56.085936371021610 -86.028987074551253 -105.922239602800644
-56.259082843550850 -90.643810100125521 -107.399085380408522
-55.270057393592396 78.188946836345565 -107.929908111814143
-56.825256005057057 -52.183895217116635 -107.959381742770901
-56.338297157312653 -45.082101517723181 -109.493182513379693
-54.709477144146703 71.460275791694698 -112.719606663767124
-55.874173494075606 79.945783109436732 -113.684381828679051
-54.619439796302515 99.843655082794783 -112.910515360873276
-56.603468828515965 -47.764185592506408 -114.834971484059793
-55.813786973698257 -39.965202040524339 -114.480140883212243
-56.138167329616905 62.548659922728078 -115.444975526299004
-54.210036667556409 86.071505865605658 -115.210143400543856
-54.895408897221081 68.608622997027666 -116.598857877827740
-55.053586487338976 -38.906926707596732 -115.079351248883626
-55.501826195256939 89.176109142099335 -118.188211364614773
-54.343609418712255 -37.080144764728608 -117.786057909115570
-55.695577851765179 89.980108417591708 -119.475067387296221
-54.843303100279286 93.741781613844012 -121.413976453977767
-54.904373361714413 64.077559208163251 -121.895062381069280
-54.835500772094804 -39.174177410146740 -122.180021380375422
-54.528545934548397 -35.521581405396169 -123.972105088332825
-55.502815661826958 61.384838134974409 -125.513552796097372
-57.528013572911661 -1.812214567670813 -237.165548024349960
-55.252507453240050 14.150056058141510 -237.624362227336434
-54.196922885042589 -0.357664477232610 -239.112100906632207
-54.552426053053992 13.622468875249659 -238.045041216013857
-56.211205018641024 -3.584070088325377 -238.206344655263763
-54.871253994505864 3.057506395762499 -239.588700963697022
-54.625559748975292 19.573633911848351 -240.356112687348002
-55.150886332324781 2.200455242288049 -237.363642733234599
-54.254890806541837 16.105075774763574 -239.733363892442213
-54.995751496018379 11.667023999338490 -239.328629903683805
-54.736172012420226 14.119323361950494 -240.939952802937313
-54.396388243511872 -18.923008041056701 -241.231184241833745
-55.064853376523757 -19.173549582716692 -241.735890290377085
-56.899804570703125 -20.089534201269128 -244.664596663345350
-56.349246378019110 -5.387507074545973 -246.524484280058715
-56.089146852637334 17.974617437489993 -248.752356471525218
-55.460776631109553 18.012987279055032 -250.068034801221529
-54.836596515709779 -27.302278818086045 -250.159583808026468
-55.944954008537437 -26.806248569625090 -250.898953248440392
-54.439854776360406 15.630854679080615 -251.494396919393466
-56.862448309536639 21.585691732875247 -249.819118487980433
-55.773337303732944 19.144195628904281 -250.777744278453071
-53.782797964154881 -9.813632817073612 -248.991028207211997
-56.117253830551981 17.575054066894950 -252.127139166577990
-56.830239330859158 20.879956321193603 -255.725112943774150
-55.096430757949413 19.628514991775440 -257.483999278444685
-56.287128673907951 16.580484470383922 -257.888641693637737
-55.922626938692083 -23.859376167541832 -259.252646221035036
-55.695242122382489 -24.468252732335774 -258.979944655533757
-55.906914377576470 -22.570070458260840 -260.406531575006625
-55.941870637637770 17.985754254331525 -260.414418632527145
-55.145665693455911 -23.570274979537871 -261.784479691471688
-55.104686645596836 -24.195418715797800 -265.097946882792996
-56.409448558746675 -25.849657597493948 -268.184322390135094
-55.318779694938002 15.287896252468641 -270.299214220438273
-53.820454727044527 -12.839868522871198 -268.800464938802634
-55.488284518604743 -23.247686191135127 -271.035281003249111
-55.666396200334866 -25.955289125173675 -272.339001695021921
-55.576892370578229 -20.402200176264049 -272.377071882878056
-53.651728599509553 10.871416631142798 -273.467112630704776
-56.999496775259999 -19.434056907795696 -274.554855249771322
-54.138450163800393 -18.503077092543041 -276.204292700709686
-55.572742044021965 -20.612558514785764 -276.546071188504754
-55.545237136123497 -20.900834885915152 -276.007186961063610
-54.585549367677658 14.991306465837665 -278.765971247145501
-54.201545515501017 -21.445763519143267 -281.864941347650301
-55.229542512131914 10.123573340780990 -281.506872448984325
-54.778879830434491 -10.150296657721805 -281.790160778941640
-56.334098613738831 11.887447790884536 -280.335878848302286
-54.948814813395884 11.830038724876292 -282.087161177007260
-56.268742082996610 -20.121948053874089 -281.563136991646047
-55.642972810125812 -19.020106271828361 -282.706435059415014
-56.582632699506235 -11.601916353233060 -283.184377084785126
-56.976537699231464 8.813176161035670 -285.808108078101327
-55.806427148125415 11.286639848147281 -285.055991200673361
-54.355001955699912 -14.625724284534336 -285.559667702511888
-55.906057754863220 4.926726008551602 -286.370850281450259
-55.949825828952761 3.736217826200190 -288.400781913628350
-54.797859834870515 -11.280474414633412 -289.480336655749511
-55.057376492780982 -14.293418895328134 -289.213244564303295
-54.538979614996045 -0.338243790222815 -290.690593226730130
-56.746187808348765 5.732229904794236 -289.629356634202395
-55.275061353252923 -6.660730087581497 -292.292855336713785
-55.285344597732390 -5.181495927577360 -291.789959753589642
-57.599398042378567 -4.649580889854953 -294.310865917011256
-55.023769008214231 -8.907605036715871 -292.623025192267733
-54.210830243207170 -11.085433158711467 -292.179583289008349
-55.870800499570251 0.237704776209147 -293.046801919895245
-56.417205870861139 -4.429800015262312 -294.878770176898968
-55.872302199591395 -7.615391757659813 -295.314411882125626
-54.411327296309658 -45.281663827759722 -18.297482223068911
-55.609320644174957 -45.559208442202952 -19.994711005059084
-55.419134360871766 -24.335191814459979 -32.790524847272508
-53.860755416963038 -40.557515624200832 -40.255137297185193
-55.192221107423769 56.701761547121883 -44.135876173270937
-53.463588990298867 82.938565106809733 -43.820839006786777
-54.691761502965548 89.396503781056282 -47.198173802980698
-54.730858053942306 13.019600044005333 -52.566975144368719
-54.055478426797151 11.041084918166273 -54.272642706487602
-54.090976457373429 -86.209911439070140 -58.654974430160394
-55.326996097198545 27.726750557000369 -62.466674008087210
-54.318558647701032 30.540489579573997 -61.115578961839610
-52.631221537251449 -64.358979931043038 -61.175605838416665
-55.080700652354892 -97.735677424772632 -62.885956991531344
-54.448166116663884 65.879504094383861 -67.985567522087067
-54.745867964758595 -62.744875702719995 -69.117546895802647
-55.681729564108664 -62.529337139101543 -68.781055924590319
-53.519902687255914 64.482163483512764 -71.157627829189167
-54.968407472940804 68.763170158188075 -70.235767320614542
-54.856376574842066 -62.093745741628851 -76.675648764806851
-54.718891731807368 -82.084150989134415 -78.834696844445219
-53.172734421556022 48.792318388801512 -79.126500091077901
-54.047499565020111 -77.644854458380522 -80.704608078857348
-55.545225366581967 -103.723472849496034 -80.220823061922687
-54.903644781666777 -83.290246741995873 -81.178655694798564
-56.116607846602854 -60.660190108315426 -80.646185215274741
-53.631001227578999 -71.969399821002071 -80.022549750502634
-54.523767503839807 -86.820180294951882 -80.610431817479167
