# This PCD file was generated using the MATLAB® pcwrite function
# from Computer Vision Toolbox®.
# .PCD v.7 - Point Cloud Data file format
VERSION .7
FIELDS x y z
SIZE 8 8 8
TYPE F F F
COUNT 1 1 1
WIDTH 792
HEIGHT 1
VIEWPOINT 0 0 0 1 0 0 0
POINTS 792
DATA ascii
-81.355273973564664 -2.617368745112057 -274.276480840468309
-83.828527340483916 153.985043214066252 -277.347056736537354
-83.241388090952327 136.756818659824916 -287.761709758495840
-81.476171715573003 150.579653775953972 -289.137133219118198
-82.261020736040805 138.652645729246160 -289.128954476325191
-82.638744213052007 66.400598933948956 -71.012711165002727
-81.304248415899437 64.315037798823397 -69.926242966751246
-82.187858744680838 57.311935835872752 -70.196967707396098
-82.474722383945135 54.031047373258609 -73.336333000464890
-81.944148141186517 45.973352238879691 -73.499333417788463
-81.633130558754985 62.293720053600474 -73.735839047420669
-82.867465019810311 72.410360247083119 -74.697409933796365
-83.037379539712887 55.229854612628934 -74.439183267952814
-80.906911219173551 66.739303175967578 -76.522341579322301
-82.631946953137870 41.456589176896053 -74.327197070347680
-82.447917328129250 49.473108440174812 -74.876617780671950
-82.362374444490115 40.687585047838496 -77.965198244348613
-83.029026850304589 78.644371454000321 -78.571034053620920
-81.811160685258116 37.497672100612810 -78.500681517304329
-80.882070046999658 78.047909619700604 -80.934891559957563
-80.050120364021566 83.518658304276414 -86.684403132903682
-82.962404909778428 89.049771455185933 -93.278942264088499
-83.461488746273105 57.460832051947619 -91.298004020726381
-81.421180290839729 87.416455993921360 -95.797988763697688
-82.041143570037818 65.159854446234704 -98.409601029779836
-82.669224077339791 88.137867966549820 -104.863271998893680
-83.357980580028666 83.219468975108398 -105.068867712552816
-83.282392258825396 12.894197391303901 -173.387848660195431
-80.959183481767496 17.659437077883581 -173.327199085092843
-82.429073250431557 12.343206336428153 -175.270695509291301
-82.413247110792327 14.162014211805829 -175.789207848970193
-81.900794981162633 23.844740369038291 -174.386813222168371
-82.612425120213800 20.775387550230427 -181.760042239057839
-82.366011236209346 33.112054366094455 -183.801654065556335
-82.024005839058987 149.338836117415440 -186.466657678378368
-81.625128092407763 146.364521934438443 -185.453267897421028
-81.307693528323384 52.368965052895810 -186.686761980431214
-81.911860557675240 44.152951819309983 -191.499264452007168
-81.865333225402267 47.004220843544019 -192.738426357054550
-82.735910034511420 33.674381152223035 -192.013856629746385
-80.768182209644976 45.456543744691643 -193.549942473599344
-81.964585665480598 151.217758096022834 -193.747029253460681
-81.604419750599007 50.978599533019192 -195.824743172773594
-81.802928808987886 154.108359919403966 -195.419536330216374
-81.664351611509588 149.252189351889001 -195.797877761531794
-83.123987750088048 146.245335897940805 -195.364313978757650
-83.388735663802748 145.493604502709502 -195.821789511609040
-81.654683655232446 50.385198727910328 -196.398943720999512
-81.551581634727995 151.535880175327804 -198.138234621280077
-81.726515661929142 137.486760557212847 -196.685637139375359
-82.584165844052549 136.194724665754904 -199.851542930047970
-81.996416735520100 147.264148588375264 -199.837234849186530
-81.933297941852814 142.969952031835874 -199.802128091932559
-81.191839064209702 138.020743180609259 -199.211866156112706
-80.801068451989991 47.472430562434070 -200.151391129697259
-81.835659289826410 60.366748956029731 -200.763312248661634
-83.795843941635738 60.614592714492638 -207.920182999028270
-80.959971481520540 75.747068882359628 -208.425066040923667
-82.642840398649213 75.380425010590116 -210.963714211805438
-81.465035524248833 71.814814766172589 -210.647330283434911
-82.449616830449386 145.763309857162341 -221.894279848161005
-82.077539958601406 154.506715048481425 -223.361631721066743
-83.502694403237172 145.503976752825224 -224.664106445518314
-82.134680919165305 147.317670671455630 -225.927659571427455
-82.913530759609088 154.295610934934842 -225.654186935126575
-82.739417611544440 147.863317429247417 -227.422086107257400
-82.128605363838616 -8.615101360568742 -228.226978640890422
-82.141816919106120 151.188503602487259 -229.165842909473156
-82.655025961645478 146.208885252941769 -231.934481100985181
-81.463704331757171 154.070674005391680 -230.964348902261577
-83.006471076271410 148.840415543920500 -232.030740979259207
-81.777962078771068 152.125223404241638 -232.314572158742749
-80.437157582454901 -9.627375390101388 -233.433907088069958
-81.657556812449542 -14.477081008545628 -233.320314300291670
-80.840930409097737 146.320801461305194 -233.171793591678750
-81.526653179362867 153.017972936826965 -238.615364402597010
-83.123796139106545 -7.925184940456402 -237.380135224860197
-81.322265752997538 147.208906176998084 -238.015376949806893
-82.568945490852542 149.858520518809769 -240.412755690666899
-81.223355940124563 -14.434921539429347 -239.577137433017811
-80.580337252632305 149.427469255674140 -244.967347004168573
-83.188345497747790 -13.109812319656523 -245.148251036657939
-82.480269948701419 -5.211938395428064 -250.303675324525756
-80.820489920400973 -1.128423251290215 -247.289460907946705
-82.331147052728539 -7.743804563662106 -248.915118130467874
-81.341723455674440 150.145565416248957 -256.136106080854120
-83.440558398100947 137.364404987638494 -256.586988143368842
-81.755292343538954 157.447583555675578 -256.116634715133443
-82.675538466835846 149.060714991229048 -258.776091748924330
-83.486644218820388 149.825216676721396 -259.506148998164406
-82.099235407171676 -12.689997716696800 -259.353571291842911
-82.305515421635775 10.420635033799352 -258.788601199841253
-82.075831198254249 140.091617553955984 -262.129299127554361
-81.213618042979988 8.851234964596394 -260.159495014160825
-82.471665711742773 152.966710006822581 -263.244752770207697
-82.597594234168454 8.828417474441451 -266.497993517928819
-81.157009517024960 147.013238007294547 -268.497766305580626
-84.299038938163264 3.335421022271038 -274.081250931245393
-82.686693057388595 2.010445093335525 -272.693760116037993
-83.123320269468152 -3.549806400882930 -276.170627693137817
-81.434920935315063 154.349847178156494 -283.462868811393093
-80.951373912970766 146.085599793763208 -284.345233490334920
-82.110501406127099 146.978168315907965 -290.454618272742948
-81.794331190032537 62.162371807703785 -67.739130142714103
-79.834391585802749 56.508664751428967 -67.917770306247903
-82.158070406008449 73.720729843281049 -69.525232031689612
-80.797371746573560 68.226851902102510 -70.157065069886485
-80.663501626527008 48.748897299939891 -69.131270903834704
-80.927516799397992 72.196357331822313 -69.088218874771144
-80.414941731008213 42.946377738327350 -71.493146656598753
-82.204829510393736 52.180588475467971 -70.895833580484009
-80.936529122704968 44.121415982427472 -72.362155473454195
-81.959699652551848 36.603921816038579 -75.420151122485265
-81.107495283418885 33.728119238642336 -75.309807325631354
-80.158280514770595 77.816054742246905 -78.567935986499165
-81.765951066007702 37.213544156548188 -76.827692475999243
-81.608595960023521 36.140029016717051 -80.011461013813872
-80.414714874906977 82.656784420322438 -80.267360150375936
-80.736782301527427 42.374986813461113 -84.092452501810030
-81.520824468888534 45.511479149983899 -84.610438053508375
-79.940674765395514 90.616896181321948 -102.298073360241006
-80.560536006192734 79.508560704076402 -102.301131221515007
-81.736294174402204 85.874092590268404 -107.344241253359428
-81.570685827113792 -37.393265447749918 -118.891835970830996
-80.547773839931807 -38.499129184453949 -121.253400034596893
-80.427478065185113 -32.644678427000223 -122.598994695164080
-81.082835539428586 -35.125639227377825 -126.320668962369396
-80.913520304979386 -34.320447531367634 -127.390202850335015
-81.596892024104378 -29.666824761912682 -132.218034147537850
-80.737316105595980 -31.644937619921812 -137.791450904061435
-81.049784205658398 -28.609488564249396 -137.596599212263840
-81.520735278438877 -26.469801951374791 -138.069323085222265
-80.333031996224634 -27.002209914115156 -143.855258455477383
-80.669435400135171 -26.757960224036374 -148.899138347654826
-80.270979926460072 39.101717911058998 -164.142080908422400
-80.995401129969011 6.469538049750822 -171.942613417426259
-80.078021748251857 58.936052767126867 -173.524845715798790
-80.841441901255010 59.396742810741436 -174.169017281642141
-80.462972296646598 13.379579798629118 -174.263997924370358
-82.692798526037109 15.115195655001225 -177.153948563920522
-82.359757416647071 26.282330455890165 -180.478145223405022
-82.526446803992599 53.767595647728712 -179.854779450062068
-80.582910261450522 51.564417439180026 -183.366467446090411
-79.102131312415267 55.836477079038019 -183.642412862393826
-81.644269484373439 27.997798338705884 -187.802371355324084
-81.972754812265975 54.462064333132410 -188.730356081984013
-81.831160834885821 37.436792640458144 -187.299089556973684
-79.499269094567936 46.398727247642896 -188.726775369233167
-80.218522041112010 29.373747464973807 -188.703773084016944
-81.162304832440384 49.137009621106237 -191.983119370929558
-81.137259011949240 43.975735574056451 -191.887795277110513
-83.194276857920983 43.406144025368690 -191.132268561162448
-81.689665147934107 147.771418340716025 -191.526272184735859
-79.511962758280958 34.102324220039996 -192.202034438966791
-80.153751342979731 146.003872259325561 -194.127433464267597
-81.550781354453349 50.371138163085469 -194.063264767761524
-80.885076476560812 149.011713641945306 -196.406035382315423
-80.658301147782396 143.403937162434943 -195.362353393721804
-80.763883021165782 138.799669092832431 -196.288259210659021
-80.978677498747871 39.672540728208133 -196.541497455411246
-82.696290628888846 42.517330235310126 -195.570436929794397
-81.843476170555590 155.627170594558038 -198.899888593075531
-81.682603016001053 147.053961467025090 -197.952137345585953
-81.027628995736109 151.374446722555916 -198.511991710079883
-81.405946376611865 153.766202068541020 -200.221489927324740
-80.092055942084485 149.256700484353246 -198.339570670187726
-81.571452240296054 44.041115171311361 -199.355373572879103
-79.985571823156249 40.154632791948011 -199.417573920489218
-81.425985382556647 149.347907519440156 -199.704955677216532
-80.261617400932067 148.924540037478778 -198.782151682873888
-79.393061668074935 143.661378819072326 -200.427423484752239
-82.517813552816847 59.987056683655545 -202.053177793554767
-82.000140335360740 41.243611933478185 -200.313745483456728
-80.459209900871599 152.028151818942149 -201.313128023778944
-81.495078612325599 146.186003532996125 -203.510030405872669
-81.817827027795289 51.364472884354292 -199.087530467737707
-81.673005615085984 63.052151048540281 -201.646037266768190
-81.039044964941525 151.042310279506978 -202.328660700802061
-81.221241677831344 147.301961050983977 -204.144016080851628
-83.874504965982638 69.996365298269694 -206.709565319499546
-82.513803688326220 56.571525336108429 -206.416414454606638
-81.149168164129591 38.929028245803146 -204.739658781160045
-79.655639452586371 34.598544679092015 -207.372955169393066
-81.507815664689772 151.593665599052059 -208.651283623393738
-80.523117132488096 147.165420464431890 -208.091072282288167
-81.796757104138905 151.589890254168949 -209.437392531333558
-82.206581540098298 79.624786606441717 -210.260285720239580
-81.533883403319180 79.515883329890386 -211.315329221381290
-80.250415139710540 80.137880875627630 -211.788923219639742
-80.248692954758951 149.224510900892000 -214.818762624573054
-80.378361573797235 -8.875370599182292 -217.282434241128698
-81.443468283476975 147.004374076215839 -216.543147013137968
-80.801988427534411 153.091532267525906 -218.168906686371031
-79.853953194370419 -10.732126530189690 -220.245588367772314
-80.812997826033907 152.091446183014085 -222.578456770307383
-81.233267961296278 -8.894122962404882 -222.700597428041959
-79.884807890360833 -9.959956356044589 -225.396151056962395
-80.818364176109668 154.801745475076473 -227.751949467918422
-81.337030515868591 135.523982966400382 -225.221252739055359
-82.099872078396501 -13.128720317757177 -227.627747662262578
-81.864556212633403 136.746182928709203 -228.698612502948833
-82.356823253585262 -7.337119360882550 -229.220371298911346
-80.179939253046228 -6.444299951533791 -232.566412986503536
-81.193586730279677 -9.905087766705325 -236.040416916479472
-80.529068056927741 152.729999343493432 -239.540336371137244
-81.247685748223105 -13.345479090925759 -239.903056365672256
-81.036553645669315 -9.951288577204798 -238.819897315423873
-82.138864563509074 -11.895576613522705 -240.738476052511402
-81.857183468856647 -13.825789831064158 -242.780372809907220
-82.421906629537773 -9.312750691852342 -245.818335008308196
-81.364434124098096 -13.223207246918323 -246.077422846354096
-81.233717910735223 -15.068380891502169 -245.639555560418586
-81.105682403756617 -14.594973561386581 -247.602829421741802
-81.482254566091726 -19.208758541457531 -247.757848610004885
-81.906262222117391 154.190786455614841 -246.844628288096999
-80.206917695806794 -0.351872893809474 -248.059477863096902
-81.497823171047045 -7.932369284239090 -248.763439520283129
-81.676507669747480 11.454981902804141 -251.119045496833792
-79.780267673446374 145.548549783465802 -254.731768408125305
-79.971464287776541 139.596038083919950 -255.480795773415252
-82.084761772528850 -14.369657393729913 -255.843542298785337
-80.792172118874731 10.830668665662335 -255.264294566514820
-80.873981808533657 -14.285296417229439 -258.355452245991501
-81.943633665572733 156.260421125709740 -261.310254544965971
-81.958006504406185 -13.985153142578188 -261.539681609075956
-79.991385187999413 11.188658163350778 -265.968741066796554
-81.660773573064063 -10.993663613210670 -270.187121647322840
-82.840608356503253 6.208399643600414 -272.823144163252607
-82.783012158241277 3.231905642186661 -275.008605750040374
-81.130860397092974 -7.462110906602961 -277.109150309648101
-79.974786062476213 -2.295299719546205 -279.685351489471088
-82.313244975816389 152.055794952792127 -286.795786549190893
-80.730474313610614 153.154941182374245 -286.759457193700939
-80.872030661908610 149.624636178640031 -288.467267846710968
-82.053534037161924 152.663189219575457 -288.510252827257148
-81.582518448408948 150.520252319077173 -289.577588320418954
-81.277920516972969 139.952806250060746 -290.409012332852001
-82.033620498600570 149.020221798895307 -295.114510335549255
-82.800301926609393 151.724643448836588 -299.289586322203263
-80.811335739629115 63.208001854166575 -67.150817605080192
-79.155989740247207 54.764425364186799 -65.338039798760320
-78.674048575716753 60.712259269315815 -66.395190556718930
-80.452563477748271 48.920072515824614 -65.539808543356216
-79.119627781041174 72.051091904319762 -67.259915391022972
-80.474968238014910 66.911323256563648 -67.710539615949401
-79.988349284944732 43.591018038409906 -67.528830168155409
-78.604918203884893 39.823350761164335 -66.698008651222324
-79.555505114685175 44.395241650136427 -68.243168942469751
-80.465216476421261 77.237144379866024 -71.008452194864944
-79.172683538361539 42.828857888641075 -70.420254827112018
-80.596978128894577 77.085356835969179 -73.007402057963915
-80.357010551237863 35.854545098289528 -72.352362875534922
-78.907878209689713 84.075535803193887 -79.990449512402122
-79.425123109494962 87.515620504296677 -85.140992386967312
-80.139050927577401 51.062358815976943 -87.856808449982069
-80.947477093272980 89.255936782801285 -88.410354776672179
-79.254518014587148 53.543642069850009 -90.187930976261597
-80.462718077978622 56.667476608809629 -91.363457334177511
-81.605848619149910 60.537616469228581 -93.897497956405104
-78.613230364689088 64.653534721791715 -95.590895999893917
-80.253293928755880 64.041125022651329 -97.113018722002451
-81.670011959082487 68.701775902911010 -97.901003433785974
-80.339226250236919 75.324130540227912 -99.939953266739593
-80.625672013470506 85.819110592751102 -110.443733379985204
-80.063952848496200 -40.420340097274718 -109.636089207300614
-79.773866972619246 -43.383338476852863 -108.217269343463641
-79.063029698455480 -38.608764032489510 -111.721482319734577
-80.454617274548156 -37.480426890231520 -115.316503435130969
-80.202459864560353 -41.376995288403712 -114.931353246694783
-80.317494208224488 -29.563708010322955 -123.012097458054029
-79.635761987466907 -38.356857891493526 -126.497615016965497
-80.336485118359775 -28.791668844258172 -130.657965244142730
-79.808848950035056 -36.416384198699859 -131.236337476154176
-79.095339003662843 -33.134866541984337 -136.991977605393856
-80.568671246403696 -26.483188969042985 -140.814739847918048
-79.956533246160788 46.879701148924077 -151.797324721638574
-80.230310581977093 47.925150714742934 -152.113366500872388
-80.707287607357657 -27.387854208405095 -150.943101913555182
-79.600533697231199 -23.653010597974902 -153.408503004877502
-80.224365577065939 44.905100092399856 -154.039574978284605
-80.566918425824625 -24.899758826019902 -157.399141874809828
-80.865700114427185 46.394741862850246 -159.963639485951717
-80.212861648306671 43.851508016442637 -157.769861187116362
-79.908020347750963 -22.318496672247221 -159.692661756170679
-79.421678908420375 38.324824052169610 -158.393508535479270
-81.640641494763358 -21.190407512823704 -162.487853016847822
-79.832719056397394 36.444562732722481 -165.173345635677009
-78.568575924680005 42.500042206657703 -165.103056038059634
-79.634746248258494 62.827959339027593 -165.842019041385129
-81.741661021213645 7.829950852579101 -166.833632068072944
-79.809000879387497 -24.175887286083576 -168.194086966560377
-79.728674394676332 34.431595640082442 -168.061134222129482
-80.302395416402547 62.664960091923319 -170.524985616506598
-80.930126636183232 -22.683926332993565 -169.788657735951574
-80.435885446934535 5.352449598803695 -171.565830751523976
-79.199686931865728 59.202030209813948 -169.642885981754262
-78.724041858897380 34.831143623703269 -171.183808933084123
-79.694151372031101 38.205558453732642 -170.713635896652249
-78.922069912525842 62.432881126413506 -172.646458171139727
-78.537344892684160 32.404996067545937 -176.094287766725813
-80.293035814271960 30.017727465109921 -176.278338246613629
-79.685786565244527 54.361756338794414 -177.880382282149327
-78.402148465515324 35.956329087233144 -176.761501820767734
-81.183396799841773 26.468398320976515 -180.156547431794792
-81.144499831054176 27.188507201384386 -182.272189313902544
-80.859562966054696 20.283077585897374 -181.909492786671677
-80.470615483713786 30.321419987468886 -180.527130948709868
-79.166538565060307 31.714505087126284 -183.350562626327388
-79.888263118371185 33.190928614418915 -185.097140306064972
-78.731658415576973 25.203792808844170 -185.053274203964889
-79.993465517494826 152.474772457117155 -185.370426886330705
-81.323682241295103 146.264650776356717 -187.802036688591016
-80.606644432377990 27.646342645441216 -187.801437821659562
-81.377903792703108 30.677627103224513 -189.006204558475048
-81.150046577768876 152.332941250515915 -187.301638543117036
-80.243840411179107 24.441745618411417 -188.208533416599920
-79.714395583976128 38.893606105936627 -190.124530286077061
-79.623312876789456 26.561592034161517 -190.808577409287807
-79.471608180080139 43.593362234966371 -193.160918904486209
-80.178683099471840 39.218992217704383 -193.123174104678384
-79.825545997713064 24.692261515648852 -191.999782318049313
-79.460839617569903 41.390694760314616 -192.121187714784185
-80.136909399953765 21.956146789020533 -193.606351216979078
-80.654685633878884 152.827073489673154 -194.221205759601673
-78.824314605094727 41.837742168553810 -194.320071278409728
-79.389570620638992 48.081048866864151 -195.132787674916045
-79.119892358775303 148.365440556510265 -195.545029849601463
-79.100609332371931 137.034096115617785 -197.524054861279495
-81.174865361559640 147.531712502067933 -195.557680603323462
-79.982895541804567 41.065603191469847 -196.415598533853029
-79.263788956517871 136.702422164502735 -197.861558937119213
-79.133226566985485 22.425386997700336 -197.513512608103838
-79.822313790975315 52.375950072833803 -198.042528403886507
-80.885921475778403 43.640629784735530 -198.615218253510960
-80.193586289588126 18.173703653135060 -199.855206392431825
-78.416931858715813 137.099524492920665 -200.425073315235778
-81.522461176165265 19.417710263080252 -200.924937619806599
-80.661268058475002 56.891664077474786 -200.360866308564283
-79.534023915363662 50.280141385941668 -199.377656064578105
-79.526504095812214 19.320904486587825 -201.604113418051384
-80.882867795903238 42.603184365733064 -201.872184125347729
-78.909829996513352 53.633344938053938 -203.709367454552904
-79.935105972828111 34.800986072592110 -203.933979518392931
-79.712680581292801 -11.847977680143659 -205.499425056690910
-80.735904153381824 72.923500752344921 -205.840365511069393
-81.608240341509415 60.071156562323701 -207.404435731721748
-79.087091370758188 33.282050902894511 -207.922447841753012
-78.105710100870539 35.312500152790655 -208.070893677084570
-80.295471628925114 65.947828731609135 -210.194489762522494
-80.222205167611094 14.213644406196671 -208.834004037601147
-80.640546139946679 150.002467764309046 -211.896078974619570
-80.287556692387483 12.022925576744537 -211.576607189642800
-81.089693000303399 -7.999971500300724 -211.157626994983360
-80.745246244072177 77.484630869225938 -212.726494416731384
-80.570354748900172 28.935661878501101 -210.817770864809148
-79.986995972272396 31.041991760177527 -212.247549997140226
-80.847342803142951 83.029139739284986 -214.222081043660694
-79.017745990177488 78.966197925025128 -212.544266266994526
-79.774396042195860 -11.185890953152017 -214.145780123770351
-79.729029337950195 -7.255285333347123 -213.444479044930432
-78.749721482194332 -12.545962620118418 -214.975755573599486
-80.793699844828680 12.162053797750071 -215.545281443764850
-80.188505635528188 9.243444667291003 -218.095866735722154
-78.658505416368811 6.972271538711730 -217.721366609992003
-81.393960039490494 -5.707002870044025 -219.855436056006965
-81.084985603446015 4.477776109892623 -220.378361447498207
-78.917684426889352 6.205127566601294 -224.100097816271131
-78.781393202327934 4.111521857802835 -224.327357550033497
-80.702249508329828 5.207862331789785 -225.387823114455102
-80.406647923740934 -14.144821467917790 -226.629787706931268
-79.431312895938206 2.711120157799488 -227.130857523713985
-80.869407452559628 137.403137861192164 -229.509449837086066
-79.753979429745399 154.555168293466323 -230.697596253596004
-79.204202553667926 147.170435274117096 -229.469712382653285
-80.007920757646431 152.018567159779167 -232.198067609628822
-80.494101376412232 -9.004480615785761 -232.522289328616665
-78.854096847632491 147.225784440729882 -232.276240504397691
-81.421778227505385 -16.742611487474793 -236.056485267164163
-80.310997274033568 30.698531897768980 -237.330266784909469
-79.834143831222207 37.217597862479025 -240.611699573025135
-79.635313705183265 35.371631940509559 -239.621479196503373
-81.541104254042679 43.897695879689323 -239.943000538453475
-79.578804767486247 31.267299800374744 -241.815580451545770
-80.092203119918693 42.656284329899414 -241.216047928338526
-79.071405828113669 34.983819093285206 -242.712944863445472
-79.414414341595048 47.722010267845398 -241.826873105446538
-81.537625356872368 40.941844120906616 -243.934745725025749
-80.739638260760884 -8.095179100864694 -245.503323758107996
-80.213457781953011 4.591021263099980 -248.149558386307518
-79.077222461327466 3.796091710206252 -248.502738565460078
-79.605991364527341 -13.299226878679521 -250.194259900333805
-79.023544575556599 11.027938558619356 -254.701363898499665
-80.812417131919148 -15.074202216730143 -256.378434162356825
-81.310482391334631 148.243386699803580 -256.725315457924694
-80.739595936244527 -14.188241481350747 -257.018126615414644
-79.860662814294614 156.650708056514247 -259.905708976440110
-79.527156898010503 -14.147494800837407 -269.147414175702863
-81.147635346162076 151.262258818373795 -269.641060992957819
-80.690607896611326 6.220326032000566 -274.926220592085315
-80.875116560201391 151.778750098538268 -273.653252811828395
-78.823542386716014 149.555092802507744 -274.470506638680774
-81.318841180022872 154.740778189726853 -277.323815076060669
-79.414860312597398 2.862564014854941 -279.826552417568678
-80.556593836424511 -5.083918065384379 -279.989579858570892
-80.826737517486137 147.165471752431330 -281.886387576453444
-80.089667428212010 148.087803755021980 -282.768735481892975
-80.520422694419750 156.371037335698531 -283.467140787981464
-79.990903159499055 144.250963354946037 -285.281379165729277
-79.520745496458687 147.417640828084018 -285.553423316614669
-80.558860085789505 157.458775879231268 -288.255376153870202
-79.739040092247038 149.501625824488002 -289.087999081824364
-79.589579340710657 137.493085279171282 -289.326346441415353
-79.697817901574112 144.735375087669723 -289.169866457101591
-79.123121137164247 158.562426209255790 -292.117601060282311
-79.654408682344098 146.741556585539456 -291.453495961103727
-78.911783563196806 156.861104457419572 -291.429671084278425
-79.252452027939754 154.279136107909096 -293.610153253682086
-79.402291962061824 153.720826473629245 -293.932504815186462
-79.546346557686419 150.391250275490791 -299.993675804327779
-79.476114738477662 153.924719184508291 -301.933719345537781
-77.967934860253465 57.938595906491067 -61.556193665305116
-78.520955966609364 53.956564334895276 -63.465579744358465
-79.440133019110164 70.728355113774796 -62.633728002168127
-79.627138782709153 55.380991606169530 -64.628903299735612
-79.878290786462472 69.351653933968834 -66.086718209957226
-77.725394111919400 48.808599653556023 -67.163012956118990
-78.698433932309456 77.292726221336068 -66.674322099401266
-76.954550683503200 30.533110313198701 -72.473944173535372
-80.957755593008187 30.771887450834551 -72.717957523226119
-79.313833043545770 28.926432689127779 -74.980666233716079
-78.536999455966907 83.950162148431474 -74.096802615572287
-79.039803113150157 30.465078901756499 -76.018903385561629
-78.303913455391267 86.184150001054192 -80.241540964682628
-79.863577866558245 93.090585150437207 -93.915676086372784
-79.442640471553517 77.785179578672469 -98.989837831192446
-79.386586509135086 80.546576876676852 -103.349262746898219
-78.978100875067369 -45.649524532433198 -103.612878360070070
-80.178817579837556 -44.600633211907663 -105.135032276724843
-80.894631351256479 82.584537939958153 -104.174630019087644
-79.728009060247217 -41.501719375717329 -107.817522206698484
-79.197542516250763 84.454474338782205 -106.656636435892693
-79.647148095217716 90.999794556417271 -108.668428288512573
-79.530158750963054 -45.898143872422843 -109.279759826326313
-78.327045581402047 89.150092705631565 -110.566275495306144
-79.186556908892157 -37.323459969493328 -111.902378580644850
-78.840194254306894 -42.979903658391201 -114.232538604991007
-78.649379525744692 -40.606736462437723 -114.359549327272177
-78.426679613901015 -39.732306237287261 -118.227449183748163
-78.531876291376676 -30.424182512603963 -122.407258177350855
-77.251133698995886 -34.968590309617895 -121.558323545418332
-80.700551009515578 -37.553336920741998 -122.932340298460218
-80.695334939518219 -31.203488301195186 -128.049796675659309
-79.758367683591558 -33.427667084356870 -127.629524069653542
-79.413224630713046 -32.235780196168335 -130.414167522492960
-78.731883081630002 -25.744668525314410 -132.659191978857365
-78.992640595731359 -35.831141544508363 -134.228370300857193
-78.458062903767043 -32.367455858778193 -136.225698559431635
-78.535319217500373 -30.716638090573994 -139.902576702212372
-78.762467458692612 -27.327513029499972 -141.963736905545971
-78.379748652390020 51.605957836338405 -146.327320489784086
-80.298519934456294 -23.028322706129256 -147.851454351710544
-79.883905439422236 -28.306994204812938 -148.242582927170247
-78.565965345751891 51.539488734597057 -147.743646232617152
-78.662455031372318 -27.111018366480373 -148.929113890604299
-79.669761137225350 44.446873207956770 -151.292445204596874
-77.834733363780913 50.184910847865460 -152.630738517398129
-80.511749319470695 -21.578221307645883 -154.303767887294470
-78.430863404992778 40.459822599510062 -154.139997286540961
-79.226662922992432 -20.253136852527948 -161.334149063895751
-78.642492768497078 65.894884419710479 -160.171662205227108
-78.524999612879128 47.822406364120368 -159.831670339046099
-79.728363760446342 -28.760224889581472 -161.731545192766447
-78.101692306381537 67.554274556511757 -163.823407686931262
-78.544305195686647 63.119769535837953 -162.221550167081375
-78.186040903889761 35.374085313583805 -164.966345315527576
-78.945966561353742 5.204276270460509 -164.854203823251908
-77.870447779308279 62.568017087084890 -164.594192650201961
-79.872199921300620 2.283166124756962 -165.407506011783028
-77.872426267596765 34.585230780830621 -167.368288432346418
-78.814350135901734 42.238855424235545 -167.193804827840125
-79.116273682489407 67.167665643918824 -167.379062073031037
-78.414368820790045 -24.135064206316265 -170.488387042574345
-79.689170939071317 11.623494970355912 -169.013282402658803
-78.926538464495223 -18.220058761340098 -171.525429213986655
-79.749453892547933 14.511461392821730 -170.954285746427786
-79.956856450353541 8.034953354511163 -172.253830191908776
-79.139544273010713 38.724612498376679 -172.649394168265758
-80.026429126828788 28.189063238316585 -174.354009030423953
-78.171792133205670 -22.929019964108882 -175.572900926599317
-79.762971841848923 10.318821502710708 -173.612215637368934
-77.555215131516320 27.087910584141017 -176.274135972055092
-80.521112208751390 -18.851935263419790 -176.102101770380273
-78.749654457038531 -21.884184541302105 -177.794063390219065
-80.176455548070081 36.420774799550792 -178.696781659201918
-79.698172025716858 59.944694333352281 -179.921182081560829
-79.420396521660734 -17.553155456082475 -179.543969417310080
-78.917305420713333 52.331304879959767 -181.117170268426065
-78.901636414656224 55.317413163363696 -182.166070262573527
-78.876784105813485 53.807589493471717 -181.278065165451039
-80.391002814305651 22.983571986819079 -183.085434117269870
-79.252198258284409 56.101281496910609 -183.103671897828633
-78.395300795649788 149.255169594045071 -185.835182428369450
-80.317973011846718 51.096004679242156 -188.760361198231351
-78.471439578996325 -17.672497842360478 -188.155239185827725
-77.313078535928511 31.767670720207686 -187.312471708929991
-79.693401165325739 34.239337258357402 -189.090106170257428
-78.516757336836164 26.008015624289293 -188.053253174248084
-78.781626157773644 -17.856450501549809 -186.762508143384508
-77.455236050257454 30.641917867217064 -187.729890686244005
-78.992056969886974 45.379689440814197 -188.369402684285745
-77.528151152042881 48.192944047876772 -190.176104041938743
-79.122599881647432 22.414179165424429 -191.873478774542519
-77.978618973034727 146.753280286970437 -193.501713638032982
-79.251216659235851 -12.250818837004722 -194.395145897254139
-79.917385292125445 19.164262555102425 -196.632429585394135
-80.196496749756321 46.027917530269200 -197.532810931444715
-79.063452648886397 24.353083063835470 -199.217679795999032
-78.808726996718420 -15.824839051218731 -199.178343568843928
-78.425199754146476 -11.938657358673654 -198.880993227120712
-79.793706353499061 40.470258192588879 -199.159660553879007
-80.694782246319804 53.616487634872975 -200.463084751503459
-79.008118691348315 -10.975740259573209 -200.882383822438356
-78.187815876195458 143.342335421762755 -201.040322628352669
-78.955357871911289 154.124996088172651 -200.444865804885126
-78.172657196623533 22.965421393659717 -201.070759948412018
-80.793035537340330 56.185186769054802 -202.970724099428907
-80.082119008837793 151.553268039251208 -202.394552283926430
-79.186168350160898 147.432771356006583 -203.279403424260579
-78.642093432023614 -14.074470094074016 -204.696730036786533
-79.733306589476811 65.009218600712927 -205.478115730437025
-77.920886376439796 59.424389274556596 -204.568253930670352
-79.162989164150900 72.137446086920889 -206.975117511303353
-78.342406061152246 61.212261830563442 -206.688660963552849
-78.467464017741634 -8.362500828344876 -206.008189806119731
-78.692037433208625 62.973154574130540 -205.145631579582272
-78.690898530398243 78.403513312913645 -206.818207098674975
-78.212181669388883 11.857615489884354 -208.945289865314550
-79.027285103261093 65.619584495852848 -209.605269673396151
-79.182014685630122 19.543779801469359 -208.961083539767515
-79.530870972233416 83.358912157712297 -210.557650111952341
-78.292425227726099 9.783878954582262 -211.368306947093231
-80.126641989355164 73.231680651718818 -211.965914358807936
-80.313211392864602 87.802778449975690 -212.586523969722379
-79.056959323244953 26.760903532671414 -211.394811739931981
-78.513013786086745 -6.446627675338028 -212.466031163709971
-79.846013325095825 32.349482864321956 -214.122121980555988
-79.530817641523470 82.810972087815529 -216.167067639082120
-79.383360892103568 7.865048740746002 -214.566328214114577
-80.847387196641819 -14.139831432976099 -215.821147774049791
-80.161467354504325 25.539865598876695 -216.627051138969591
-80.035098407617198 28.290061472571100 -217.602987379987894
-76.820343837752731 -9.147143445640816 -217.704369584579609
-80.072378540081033 13.292138063792844 -218.069066497578461
-77.979445019928150 -12.033875574213589 -218.674928806013668
-78.423214613014991 3.820229120913940 -221.904591844720130
-78.254513561159214 -10.141780320454414 -221.647483312231003
-77.493586590801414 10.190989295571320 -221.022845598911289
-79.782378853793773 -5.936844339616887 -225.479832693177229
-79.917272858154448 -10.382670861036615 -225.761342669823307
-77.135205548155866 144.477322315810056 -224.752034191284224
-77.876825044598519 1.341023296068356 -225.475857522716012
-80.092188939621906 151.000784642536360 -224.610798941641349
-78.194489474169529 151.687447833531621 -225.584561972927304
-78.713760111573578 -12.364139624961387 -226.217056335484244
-79.731900812946165 149.777359471020844 -228.086474493775285
-80.104353654334844 148.781345941264021 -228.567051683156564
-79.222357654357495 -15.124862965620476 -226.292579553512752
-79.458896837638832 150.928773062861325 -229.240194133542616
-78.156357127261131 -0.483430515425931 -230.223878205385518
-78.169995754589394 4.724228490678122 -230.445663457720286
-77.631548814809250 3.395942158642001 -233.256580659392853
-77.930979403081679 -0.688411764673889 -234.913853152487548
-78.644094309956273 -8.058550581630362 -234.828646554871057
-79.695931445877093 -12.565739155861113 -232.647494726795429
-79.660660190210223 -5.100398780410006 -236.952944335641490
-79.440608443732927 30.929506533742824 -239.073327774144417
-80.550271196981740 35.276791744233371 -238.895014228179775
-80.096087825880574 24.513764554510544 -238.215191047226995
-78.501637239077553 42.739922702447323 -239.849562139876326
-79.149326706289926 -16.605933679824986 -241.512744408160444
-78.918377812689741 28.657049421414875 -241.215330989223219
-78.879634611655831 -8.292063451403820 -240.853682178743952
-81.256393480858236 -19.801882492907016 -242.819220925534410
-78.028422164918766 53.679491862438667 -240.811583197564516
-79.542744782422758 35.730784316499623 -241.436427066425836
-80.340611088899408 55.366770512507571 -243.280218591916309
-79.951742798332873 50.791198410179682 -244.054587209270977
-79.462679681036434 54.997230393517974 -245.805416709289403
-78.910112959142864 49.691347597266649 -244.462548993322457
-78.469827610292768 47.026391041450644 -243.299815818995512
-80.205386240136733 -5.885217937214540 -244.364957752159000
-80.105673006087329 150.976488521144091 -245.265804783452921
-78.356397400711089 149.194475626892853 -245.612968053591231
-77.364678041187886 -4.598449856979319 -243.892442743888353
-79.042186844967034 0.590024934666826 -245.682537781621647
-79.190079205430905 -16.435030570165747 -245.809813922108219
-79.542391182039623 -20.116313615737784 -247.630644470320220
-79.704022751967500 148.851741946749314 -248.839626077808589
-78.712612920604883 148.060438063087304 -251.856223331314112
-80.657403813968600 153.835551568682121 -252.509053594796512
-79.424483169221133 143.708990204678315 -255.788574566785599
-78.819949272492607 11.582891586138306 -255.928967350015284
-79.114250221411993 157.415737378320898 -255.734175675759616
-78.945928001950747 151.853331386717429 -258.040681486776066
-78.927994570885474 136.256246618618604 -256.970610502699003
-78.866189587692276 138.316406236815141 -258.752729193691721
-80.104487678791898 139.716027653770396 -259.671029160352475
-80.364115933934642 13.108954584261115 -261.320593103013493
-79.894850040219040 144.374717918028352 -260.889747979755782
-79.713295388853339 -17.464568499360890 -261.963190089815214
-79.406680054410984 -17.439167235250089 -261.109386514201844
-80.037457291341624 154.642457486442140 -263.605928610104229
-79.217505929880829 148.105994021915762 -263.692126315719918
-78.699792190405304 153.431847484055851 -266.229635254602044
-80.668481718157537 -16.164693904467676 -266.105709602246066
-79.710319420191837 153.984782317733902 -269.327655608672785
-78.819592229040296 149.034215148324250 -268.240382432949843
-77.267819075173549 151.250551334254709 -269.809947680609127
-79.548815434461261 -15.348266374039849 -271.170852938039502
-78.646629139433131 -11.759343864622794 -271.816237951962080
-78.734548362255765 8.540835690219369 -273.517892354775881
-80.097058844679495 147.334225331479416 -277.458372187634097
-79.898615402405397 4.590121058594709 -277.877183951204131
-80.070362374425841 -9.470269597640490 -276.432959875445022
-80.855806272556109 -0.298166959353930 -279.044967637231650
-80.715398673652047 152.063336129564192 -281.002348082066248
-79.702974037445884 -1.926630234798756 -280.705701531469401
-78.484360614802156 142.123321948639699 -284.150872162124017
-80.329545385443922 139.432219410943389 -286.430709429179956
-78.470200306209676 138.910033748111601 -288.939332628085253
-78.360641659835608 140.165818982248311 -290.153575395171117
-78.480020503528905 142.647972354126352 -288.383317628882878
-80.147923959764228 149.152743221988629 -295.090433310801984
-79.429984510218134 154.072694505793464 -295.346227371160921
-79.614690760669774 149.736645949967738 -294.638830804104430
-78.326077671212801 151.114801131863430 -296.930315712859681
-77.451988155015073 152.616512199847591 -298.964302617522776
-78.390520084105660 149.495951691894220 -298.408886887243170
-78.717775310809245 61.444547860598952 -58.469297785542174
-78.355218545138285 51.376319991220576 -60.612198126936690
-77.837491653111826 64.186948801694427 -60.821860962381542
-77.474363218435343 72.997151073323394 -61.035385749075282
-79.419427167668999 68.989411768898677 -62.023866314649560
-76.828399539161254 55.102195946909298 -62.232654956825279
-77.495273188143088 45.131771144557497 -61.671481318428050
-79.563107538382525 47.527738341625735 -63.139317650727179
-77.321740078607533 43.168095960540775 -63.828492406629920
-79.311850230443341 77.566752214057942 -64.273662104702268
-79.864942593474936 76.453103586133665 -64.530205094295212
-80.935705250313120 33.965626740192192 -67.183432572992928
-79.672866554479711 81.376745008796462 -69.081188669519193
-76.970211904707028 30.286774763769071 -67.562852253054544
-77.004852827497544 26.599163042840672 -71.353416142990980
-78.007574601408535 28.801548549704599 -74.341012727578843
-78.031433562341235 85.989490270188512 -73.525905642685927
-79.016384512993156 40.777216350293365 -82.636974772281505
-77.832478068954188 -79.560738791057076 -82.900201352570988
-77.854936706465409 43.324721305901505 -85.408808478387286
-78.619946221756976 47.182882629737428 -84.330677086297868
-77.852177869226182 -79.047850218327966 -85.803376480455810
-77.840838502885958 51.282554780970919 -87.289237000311005
-76.756416684904138 66.513084406465694 -93.183074445305863
-78.204390725781352 -46.870402516887644 -99.430467104564130
-78.139386936908693 74.673147827873237 -99.934736252508912
-77.597933798702144 92.709853638434424 -101.534514892361486
-78.008834509625643 -45.121977301224710 -100.191882470642440
-78.686637573966905 -50.113448680825975 -104.255662643906831
-77.924391453408376 -41.182706821410946 -108.614508609500007
-79.251061991889003 -39.512306162520794 -111.421985451629610
-77.500040940082172 -41.332949795099594 -111.451898292985049
-78.121684492318522 -41.252070400172975 -113.291698040839790
-79.491970961677794 -36.936381275191764 -113.285472698504250
-77.611782816647192 -35.298116239675025 -117.169701700491729
-79.303348673193184 -40.776833819904134 -118.732767980343027
-76.119856241576116 -32.080555859625420 -122.775440103142998
-79.500365870822279 -40.520224402035147 -125.975663511073236
-77.952665491619541 -36.548168453586442 -128.288746937311487
-77.547853171238160 -27.942510250981901 -131.597031989844226
-77.885762788294159 -25.846547694544238 -137.600586509226900
-77.820721608153747 51.133288187805178 -142.937784321064157
-78.813383298848834 -31.985878680263738 -145.348738173527011
-77.547077682217832 -25.391757492969511 -143.451165131165538
-76.574542219939843 -31.017392477222366 -145.791840439124798
-79.248117961940537 -29.885258247669398 -151.445436352003071
-77.940206649841471 -29.119408317513233 -151.688465643353794
-77.896709885119108 49.094542123890619 -153.095690498431310
-77.686849707005365 -24.610102919331286 -153.345527633630866
-77.088810388776437 45.160816944153240 -151.693748182384383
-77.624691420684087 71.022037804596749 -157.030284614887847
-78.556774566210848 66.991276811359526 -155.069674112644378
-77.255933925768716 42.942562404412875 -156.236154623901626
-77.349059427892598 70.587877004074883 -156.764294399899427
-76.705488733733247 46.265461833039168 -159.112946339088865
-78.549263105452809 -26.698634466137591 -158.914297993858185
-77.724938062610960 65.300725564405639 -158.058780006107639
-77.504092859932939 -24.045414358987415 -160.551153863852704
-79.043595902529731 -24.576412216965025 -160.562571763291487
-78.103774224622327 68.989548520170729 -163.871699278048851
-78.959022019722326 39.346429481391205 -161.362186561173445
-78.243189047020905 0.848561433055950 -162.421385422969422
-77.396081541510895 -0.693659815912459 -164.869020866929191
-77.830007119777477 -24.845830296905095 -164.971417721677938
-78.625744546957080 36.598394894978171 -165.250335750171246
-79.865632405925950 9.494928958565033 -166.769479595415788
-79.946628506188333 -17.264299015965008 -168.123183717333831
-79.343527465869343 40.564019057712756 -167.954876231376090
-78.690582121851364 -17.491087354570965 -168.983479290323032
-76.734607569458760 35.115540429679506 -168.958558666506406
-77.268030261479325 37.881886163235365 -168.803070196173735
-78.869990335824554 39.435517191587074 -168.954925091981579
-78.407500468633714 64.365163450242989 -170.088859106445710
-76.022912709914962 62.477171612482472 -171.082231622856540
-77.879602502565220 -22.089899013565219 -171.806414558689426
-77.855204919076570 -22.805250375158867 -171.238819011542944
-76.716535077747096 61.734779187318665 -171.670526631805387
-77.282387355365998 34.351374225804832 -174.024912199854469
-79.273743469533343 18.541063440655314 -174.305846205515877
-77.648414841774056 31.823118642148152 -173.817524698632440
-77.956938491272098 57.448726651163383 -176.736636884929311
-77.763780045797517 13.253754227549583 -177.358541365153769
-79.376166968503014 61.874894176301048 -177.227118087666582
-79.406704896435514 35.500655003544658 -178.621825357305482
-77.486997920943580 29.682904737238342 -176.480419998026946
-77.369429571078925 -23.157363731221078 -177.871045677827738
-78.868974495521257 21.962952422131398 -180.272383557929288
-78.019077025122570 56.612927288700341 -178.704061705938301
-77.110480291115550 -17.079824967573391 -178.056213857602813
-78.136261338407834 53.656671022052890 -181.335145283905916
-80.129235448910606 49.847541472536072 -181.554709765357813
-80.334978142143797 21.849989167574819 -181.590543609846037
-79.206831748254032 60.118668936241875 -181.583767990225454
-77.838528697035244 32.521596552629674 -181.802447482434758
-78.991346374978349 27.753689005730646 -182.283059117402274
-80.039092615486439 22.883550846365715 -183.337735714087358
-78.213582438049684 -16.579623360606206 -184.737579037921535
-78.360155823642486 54.093474526196033 -185.119827440580508
-78.675376587693052 29.836106973308045 -185.495495046474900
-77.130798267929109 -21.503844518560349 -184.292207081531245
-78.423203115142655 47.493542643922844 -185.716205198549858
-76.155118536634305 30.394246173069881 -186.334435050378119
-77.180558429116104 55.847621679644810 -189.717025089873687
-79.097882012671448 -12.125556501459558 -188.419018013384516
-78.518993838374968 49.203233601878374 -188.490368686716891
-76.862049037866271 23.027387145992847 -190.479201345733742
-78.890013072220881 27.380543909000870 -189.458321467520307
-78.270747323218515 -18.829217903545480 -191.226409749014067
-79.522601251465844 43.298472207041719 -192.095324528239956
-78.787244317339329 149.933435388467615 -191.342625554977730
-79.517341469819783 52.423060291033373 -193.585078729210039
-78.538822538961313 24.871471933900288 -192.834648815321060
-77.337764675727470 47.567006115312623 -192.786865997555054
-78.217490929762278 28.203853076395944 -192.516087019496524
-77.889649381569612 25.426861911328064 -195.192757023202887
-79.325338381827365 42.625259442006808 -197.708664700616708
-77.911712755743238 38.374209419462559 -196.390013796705688
-76.111622763568164 22.835041948589485 -195.965722688009578
-75.872211145825332 22.042121413470397 -195.886199476651115
-78.770731239233669 152.531337264427748 -196.373689424054504
-78.560149926503641 43.227023741852868 -196.643257762445558
-77.562417668744899 -9.393440634060259 -198.794019588770851
-76.675162373027959 42.086082406793849 -200.625332496581819
-77.449903119740071 -16.750342917242847 -202.431487278902466
-79.117435374481090 17.966784011755557 -203.809143669860873
-78.815197656201377 34.363502837061027 -204.424760770806017
-77.408421469065587 18.411757064355957 -203.963587296512372
-78.176635087673134 65.634930281479740 -204.081459932002986
-78.224039981828028 36.014338844199649 -204.224478961771638
-78.215683777831146 15.309154585389416 -206.329749017653626
-78.267326657820348 66.761936123375207 -206.035694042809183
-76.728291019040952 70.022753211881025 -206.453813732498475
-77.707644917621906 37.789740042126624 -207.710713728122101
-77.511176055501195 -10.905318498076513 -206.879854468538156
-77.969238017160990 -14.911441087834582 -207.446819059691649
-75.887634753968896 67.958395241392552 -208.393437440709988
-78.216259119431356 15.594043662991179 -211.090107254407314
-79.508465026471256 68.045987279675913 -211.238972050895086
-76.410945395341770 12.244543694899848 -209.018311644993531
-79.857649623596018 146.427554641325941 -210.303905655345687
-78.433515403532425 31.477660416889687 -209.755519225912280
-75.986537441089183 15.590419893287249 -211.754469014001501
-77.519126430905175 -8.542583816500924 -211.581370811270432
-76.928957196792638 86.344223391696133 -212.242250768444933
-76.663942417079880 -11.761634701369330 -214.668266710895523
-78.054948678163115 77.865668473655461 -215.017505545520805
-78.745933013876723 88.731850319276404 -214.145630448494273
-77.318557869957473 11.640175269117007 -214.208715289993819
-76.820426131668242 12.121674349749497 -214.181605234384506
-79.625820160614580 148.201160157569831 -215.423633441761467
-77.294384926921310 -7.368592560960883 -217.774821102865445
-79.301250320904074 22.218142287906467 -217.660378807094645
-79.040955705775261 28.783154931715874 -218.627694026244797
-78.287253327798055 -3.346060578317162 -216.481207006285445
