-24.569585800171 -81.634643554688 -214.969421386719 1.571442961693
-32.851085662842 -74.273254394531 -212.983596801758 0.569221973419
90.838584899902 -78.207672119141 -218.521377563477 2.004593849182
-78.816169738770 -76.701644897461 -210.089981079102 0.940132677555
13.049949645996 -78.011558532715 -223.424835205078 1.825487017632
1.017974019051 -76.697868347168 -214.613281250000 4.086661338806
-10.643840789795 -73.588020324707 -220.707687377930 2.095666408539
-97.767921447754 -80.583488464355 -217.542816162109 5.527641296387
0.358447998762 -73.888580322266 -226.311874389648 0.954330801964
-20.908441543579 -77.467651367188 -220.761962890625 2.517129182816
15.212210655212 -75.704544067383 -221.008346557617 1.817905426025
77.024368286133 -78.231941223145 -223.992843627930 3.042083263397
-157.997375488281 -82.721458435059 -221.279388427734 6.933079719543
-18.567319869995 -78.272071838379 -222.182571411133 1.849469900131
78.086105346680 -75.028717041016 -227.526336669922 0.611828744411
-147.102050781250 -77.908317565918 -226.446945190430 0.744207262993
12.279603958130 -69.294586181641 -227.787368774414 2.418103218079
-9.408536911011 -77.100852966309 -222.921493530273 1.057255864143
2.594980955124 -78.802551269531 -223.372024536133 2.816211223602
18.017984390259 -77.177970886230 -229.619567871094 1.878818988800
63.752693176270 -74.514343261719 -237.532440185547 1.852767229080
73.625328063965 -75.974586486816 -238.902496337891 3.895149707794
4.027253150940 -79.579536437988 -237.532394409180 1.805898427963
-2.176059961319 -72.945999145508 -237.368316650391 1.659460902214
-4.402444839478 -75.910491943359 -238.738113403320 2.511451005936
-2.212106943130 -78.406845092773 -238.222961425781 1.658886432648
-51.172389984131 -82.004333496094 -234.601501464844 8.753177642822
0.265161991119 -76.824676513672 -239.043594360352 1.713813066483
-42.589958190918 -72.845756530762 -247.238037109375 2.697555303574
2.917342901230 -72.556579589844 -246.217880249023 2.589798450470
4.475626945496 -78.167709350586 -249.557312011719 3.041986942291
12.314462661743 -76.752754211426 -252.972183227539 4.550338268280
14.295257568359 -71.450584411621 -251.393661499023 4.954091072083
-84.115226745605 -81.127677917480 -247.098175048828 6.862823486328
13.128376007080 -78.580085754395 -249.152542114258 2.162380933762
-78.975936889648 -77.777343750000 -255.449050903320 2.322585582733
-149.460006713867 -75.326591491699 -256.609710693359 1.205562710762
-136.270721435547 -76.220954895020 -259.267089843750 1.477938055992
-142.501403808594 -77.035667419434 -261.467224121094 1.139861702919
-138.450134277344 -79.547523498535 -259.535400390625 2.055993318558
-157.981704711914 -83.242591857910 -265.517852783203 5.198192596436
-152.460311889648 -83.188133239746 -273.122802734375 3.307131052017
-152.730484008789 -81.321807861328 -264.334838867188 2.095000505447
-157.594955444336 -78.408119201660 -277.289947509766 4.299807071686
-169.865570068359 -74.271232604980 -282.383300781250 2.494329690933
-136.276733398438 -77.845222473145 -282.430969238281 4.737242698669
-56.169612884521 -80.268615722656 -284.601654052734 4.390856266022
-67.734008789063 -77.479446411133 -279.164611816406 7.278018951416
-78.378761291504 -75.793357849121 -286.473480224609 2.106184482574
-6.268884181976 -80.310119628906 -284.248352050781 4.734892845154
-132.252914428711 -77.413162231445 -283.459899902344 3.062216997147
-3.842087984085 -79.303672790527 -288.664520263672 2.525516748428
-140.625396728516 -80.192276000977 -285.159362792969 2.352889537811
-99.233367919922 -81.363754272461 -286.015411376953 6.512111186981
-86.626266479492 -76.712539672852 -290.042205810547 3.795808315277
-165.398208618164 -80.189010620117 -287.572143554688 5.347107887268
-145.947448730469 -80.591629028320 -290.544311523438 1.982201337814
-121.985908508301 -79.612876892090 -288.542572021484 3.893748760223
-74.035140991211 -81.288726806641 -285.338958740234 5.747689247131
10.210225105286 -75.727424621582 -292.705322265625 3.119888782501
-39.466316223145 -82.078704833984 -291.685119628906 5.650600433350
-24.039800643921 -77.934707641602 -292.603302001953 1.033714413643
-139.178283691406 -78.185310363770 -290.608673095703 0.825107872486
-138.564743041992 -77.886810302734 -293.817443847656 3.137939453125
-149.057937622070 -76.563735961914 -293.690002441406 2.194315433502
-154.560852050781 -78.717445373535 -299.360992431641 2.322739362717
-154.355209350586 -76.601066589355 -306.286895751953 0.221794962883
-58.744426727295 -73.227607727051 -55.233493804932 2.982174396515
-78.318046569824 -69.806167602539 -54.194240570068 3.857873678207
-80.202033996582 -71.755455017090 -54.155113220215 3.630869150162
-28.005586624146 -73.091682434082 -59.317771911621 2.928248405457
-21.852714538574 -70.990829467773 -59.157878875732 3.026278972626
-81.631065368652 -72.192977905273 -66.974929809570 3.858145475388
-89.495147705078 -74.320037841797 -68.670845031738 3.798891782761
83.900253295898 -70.576011657715 -76.138854980469 3.404696702957
89.319114685059 -75.422996520996 -76.816772460938 1.075000524521
-96.612144470215 -71.458656311035 -75.667030334473 3.914117574692
-31.940336227417 -76.280715942383 -73.357582092285 3.598659038544
91.461975097656 -71.012321472168 -81.306228637695 5.146305561066
89.398818969727 -69.326751708984 -89.005271911621 7.473180770874
-95.303680419922 -67.202774047852 -73.020568847656 2.658802270889
-51.469974517822 -71.191352844238 -83.615547180176 2.631002664566
97.543304443359 -69.604087829590 -90.926948547363 3.407007694244
-59.373905181885 -75.704475402832 -86.827079772949 6.144060611725
52.392272949219 -76.204765319824 -96.204376220703 1.260752439499
-62.757907867432 -73.470802307129 -88.272399902344 4.747375965118
48.312316894531 -70.385406494141 -93.361877441406 2.045113801956
43.038230895996 -75.909118652344 -99.026695251465 2.816414594650
50.410327911377 -72.979606628418 -94.922248840332 2.566022634506
49.390846252441 -73.165893554688 -98.704078674316 1.704343795776
41.637092590332 -71.879722595215 -108.530776977539 1.778635263443
106.994377136230 -74.140144348145 -107.020240783691 2.043515205383
-82.859359741211 -71.046440124512 -109.790603637695 2.962983846664
-87.956306457520 -71.465583801270 -106.749809265137 3.768953323364
107.031341552734 -71.777557373047 -115.708053588867 0.800830483437
42.942783355713 -73.979545593262 -116.708908081055 1.662192821503
44.657375335693 -71.434486389160 -123.076194763184 1.169623136520
-90.598693847656 -76.236297607422 -113.503860473633 2.194659709930
109.501358032227 -74.361228942871 -116.717132568359 2.295091152191
109.736473083496 -66.819648742676 -120.405899047852 0.825662195683
39.935607910156 -75.162643432617 -123.562683105469 1.375176668167
106.867584228516 -74.638755798340 -129.292510986328 3.518800020218
104.535636901855 -72.233688354492 -133.641616821289 5.339861392975
25.242403030396 -70.581535339355 -135.511871337891 2.193163871765
110.502349853516 -73.227737426758 -141.200164794922 2.457633495331
106.205413818359 -74.385299682617 -133.076690673828 4.363620758057
-66.851539611816 -72.512573242188 -135.005310058594 5.117315292358
-60.825542449951 -75.318389892578 -137.659683227539 3.611131429672
23.683015823364 -70.880271911621 -142.995422363281 2.925644397736
-55.663299560547 -67.667984008789 -132.404602050781 2.761552572250
-78.685401916504 -70.790786743164 -139.318176269531 2.455016374588
-74.845420837402 -72.504631042480 -144.087158203125 1.028643250465
99.755355834961 -76.517044067383 -142.918167114258 9.405420303345
-60.517978668213 -74.441596984863 -145.465560913086 4.310488224030
-76.217506408691 -72.836166381836 -144.955398559570 1.426204562187
-45.312183380127 -73.628211975098 -144.468627929688 1.512506604195
110.761703491211 -69.310279846191 -156.702178955078 1.607391238213
22.559631347656 -72.610092163086 -156.373260498047 2.385972261429
-79.878295898438 -76.396965026855 -156.987762451172 8.346815109253
-56.257251739502 -76.031486511230 -156.141891479492 4.762887001038
-39.167011260986 -78.635276794434 -153.041900634766 2.152229070663
-42.789943695068 -80.194114685059 -152.677322387695 1.349754452705
-74.292587280273 -78.164047241211 -157.860900878906 4.784388542175
7.103980064392 -74.374267578125 -161.553329467773 1.786870718002
-53.764812469482 -74.001800537109 -158.578994750977 3.378110170364
-49.576221466064 -74.481109619141 -156.906250000000 2.241442203522
26.769933700562 -73.847404479980 -161.952484130859 1.516080498695
-37.162292480469 -76.020912170410 -167.233657836914 2.636570930481
-74.366905212402 -77.944618225098 -164.143386840820 6.404339313507
103.261062622070 -73.083068847656 -163.669723510742 5.005148887634
105.896369934082 -68.558937072754 -169.522888183594 3.141540288925
27.009199142456 -73.291458129883 -167.229553222656 1.623885631561
109.097869873047 -69.438964843750 -168.142944335938 1.916503548622
102.521186828613 -75.308601379395 -168.795608520508 4.324961662292
14.777471542358 -77.917823791504 -177.391891479492 3.114005565643
-31.977745056152 -70.744956970215 -172.900726318359 1.151096582413
-56.907848358154 -77.149627685547 -176.787017822266 0.931955575943
106.784767150879 -74.267425537109 -180.888473510742 1.819187283516
-40.609004974365 -76.428398132324 -179.842269897461 2.850690364838
9.623148918152 -74.254280090332 -178.311599731445 5.883111476898
-37.189983367920 -71.485527038574 -174.325714111328 1.260055422783
-60.194789886475 -73.841598510742 -182.419723510742 2.575203657150
-153.243927001953 -74.840377807617 -181.125762939453 3.300498962402
-153.697509765625 -72.893547058105 -180.323440551758 2.967902660370
103.423263549805 -75.941192626953 -181.147232055664 1.145117044449
14.339790344238 -71.626785278320 -183.648101806641 1.599130868912
-62.575473785400 -73.432189941406 -182.657119750977 4.697947502136
-52.297561645508 -78.118759155273 -194.275375366211 2.937609672546
-52.356597900391 -72.479667663574 -190.039505004883 3.164011001587
-53.664432525635 -78.534027099609 -193.116439819336 3.495386362076
12.778912544250 -74.229713439941 -188.935104370117 2.347772121429
12.873200416565 -75.472595214844 -187.820571899414 2.518062353134
102.116973876953 -72.574661254883 -197.474624633789 2.047058343887
-27.821401596069 -73.817359924316 -196.279891967773 2.085969924927
-48.474868774414 -76.435653686523 -196.942001342773 1.442907094955
18.624429702759 -72.848388671875 -197.015304565430 1.039984226227
-47.517982482910 -73.481803894043 -196.464721679688 3.530030965805
94.073112487793 -76.188934326172 -201.757324218750 2.455021142960
-41.795688629150 -72.143814086914 -202.126800537109 2.895306110382
89.992057800293 -78.652168273926 -202.724746704102 4.035026550293
15.260045051575 -72.440658569336 -204.644775390625 3.277995109558
-42.935264587402 -73.048149108887 -206.359466552734 3.895133256912
11.885083198547 -70.901405334473 -200.369888305664 0.892622947693
-26.742046356201 -76.778038024902 -208.905517578125 2.728628396988
-44.705562591553 -75.733993530273 -203.899688720703 3.543162345886
87.654617309570 -76.062896728516 -209.300704956055 3.294209241867
4.313302040100 -74.492851257324 -207.092376708984 2.191702842712
84.481590270996 -69.434082031250 -220.143249511719 1.481924295425
-13.120431900024 -78.354278564453 -212.548629760742 0.505212962627
-27.714271545410 -75.421508789063 -208.686676025391 2.120752096176
-84.244445800781 -76.354019165039 -211.224090576172 1.749100446701
78.277832031250 -75.231910705566 -221.040618896484 1.967951178551
-24.032505035400 -75.952766418457 -217.947052001953 1.201078295708
13.354393959045 -72.727127075195 -219.328094482422 2.466812133789
-30.389923095703 -78.986366271973 -219.401489257813 2.171478271484
-33.936828613281 -75.087852478027 -216.120834350586 3.103618383408
-104.957672119141 -77.648315429688 -218.272567749023 5.709753036499
-12.533713340759 -74.315605163574 -221.086853027344 2.131886720657
-25.552808761597 -75.257156372070 -221.649612426758 1.951500654221
-5.467074871063 -75.517700195313 -225.298614501953 2.638129472733
9.089408874512 -79.203369140625 -223.915679931641 1.882568597794
-19.506074905396 -74.432907104492 -223.108245849609 1.635817766190
-17.532932281494 -83.021080017090 -224.611160278320 4.853305339813
14.257794380188 -77.235984802246 -224.388534545898 1.887479305267
3.649070978165 -76.095367431641 -219.582962036133 3.579867362976
2.336993932724 -78.373962402344 -218.437164306641 4.613099098206
-135.025405883789 -78.403633117676 -228.472747802734 2.427769660950
-17.291408538818 -74.747192382813 -227.390441894531 1.710870623589
70.975212097168 -75.381927490234 -230.971694946289 1.533043026924
-20.966951370239 -77.547813415527 -226.888916015625 2.101791381836
-155.749313354492 -79.883285522461 -227.091232299805 2.326378345490
-135.290374755859 -78.192192077637 -232.616638183594 1.953065633774
-15.890468597412 -73.937538146973 -237.141174316406 1.089576244354
71.158828735352 -77.185997009277 -228.433776855469 3.910983800888
-12.140213966370 -76.748100280762 -229.300186157227 2.099264860153
-7.618470191956 -76.436706542969 -236.476806640625 2.844227552414
61.058734893799 -77.017959594727 -240.413040161133 2.574449777603
-1.651538014412 -76.525085449219 -244.103408813477 2.229035854340
61.896358489990 -81.115226745605 -239.785263061523 5.870707035065
-161.115173339844 -75.994918823242 -244.078704833984 3.638822555542
57.648433685303 -71.541191101074 -240.373840332031 2.176553249359
-41.791824340820 -74.879714965820 -240.841247558594 2.280003309250
-43.918838500977 -73.533302307129 -242.403778076172 0.858829081059
9.648708343506 -76.597305297852 -238.546432495117 1.548304438591
-52.397544860840 -80.636390686035 -244.906051635742 1.385440349579
-31.334777832031 -76.879432678223 -242.927520751953 1.810871243477
0.704654991627 -72.982917785645 -243.846008300781 1.652744293213
-53.993015289307 -78.159149169922 -245.398391723633 1.244141936302
-148.979537963867 -71.887878417969 -245.331817626953 1.979129552841
12.796985626221 -74.783195495605 -238.740295410156 1.733556032181
-154.952590942383 -81.846145629883 -239.069641113281 5.098423957825
-77.211051940918 -78.480659484863 -246.893875122070 5.016988754272
-9.279714584351 -79.849578857422 -248.909164428711 3.441675901413
-13.790275573730 -74.012054443359 -250.062652587891 2.452564954758
-87.220275878906 -77.527992248535 -246.294311523438 6.090806007385
-155.349777221680 -76.146446228027 -252.049316406250 3.159215211868
-155.019958496094 -84.236686706543 -249.744735717773 5.003654003143
-92.048057556152 -78.061607360840 -258.747772216797 5.424237251282
-166.427810668945 -78.693840026855 -258.308532714844 5.933438777924
-130.216537475586 -81.625846862793 -254.297714233398 5.787340641022
21.080207824707 -74.415000915527 -260.382537841797 2.538454294205
-160.499084472656 -75.349349975586 -255.729309082031 1.853789687157
-149.648544311523 -73.068252563477 -256.658782958984 0.827962398529
-169.760055541992 -76.826568603516 -257.334197998047 5.716802597046
-141.436706542969 -72.223648071289 -258.450103759766 2.701354742050
-126.969322204590 -79.201042175293 -260.932586669922 2.758553028107
-166.342834472656 -82.281135559082 -265.069335937500 6.720794677734
-149.885726928711 -78.078834533691 -257.647979736328 1.253526210785
-171.553436279297 -77.955764770508 -264.063781738281 5.908012866974
-159.582641601563 -76.199714660645 -257.817596435547 2.282245874405
-165.787521362305 -74.860748291016 -265.247192382813 1.604687094688
-174.862777709961 -76.585174560547 -260.247833251953 9.153340339661
11.667702674866 -84.806167602539 -274.650421142578 3.412724256516
5.343817234039 -77.652755737305 -274.111389160156 4.650447845459
-163.782638549805 -76.457695007324 -275.738861083984 4.168367862701
-163.697952270508 -77.783393859863 -271.468780517578 3.022180557251
-172.871643066406 -72.794479370117 -278.183624267578 4.977224349976
-162.154403686523 -77.445960998535 -270.303497314453 3.446193456650
-158.183471679688 -73.126731872559 -271.264648437500 3.201921701431
-155.437896728516 -76.084884643555 -271.084350585938 2.864661693573
-143.354370117188 -76.265113830566 -278.727325439453 3.821518421173
-167.466018676758 -78.016334533691 -276.358154296875 3.845801115036
-159.309310913086 -74.825691223145 -283.884674072266 4.307433128357
13.242870330811 -76.154350280762 -283.591888427734 2.562609434128
-159.339950561523 -81.219238281250 -279.968322753906 7.392992019653
-165.600036621094 -80.716423034668 -282.296722412109 6.491226673126
-168.461563110352 -77.072273254395 -278.160919189453 3.122535705566
-133.216110229492 -77.037437438965 -286.664672851563 1.859557867050
-37.318065643311 -78.998229980469 -285.624298095703 2.492511749268
-50.580978393555 -75.652763366699 -282.957672119141 2.759922504425
-74.185417175293 -74.260833740234 -290.204345703125 3.307746887207
-18.507637023926 -73.231575012207 -287.322937011719 3.635798692703
7.405367851257 -78.270683288574 -285.533142089844 0.766113996506
-7.799380779266 -79.723678588867 -290.753234863281 4.031459808350
-118.030303955078 -80.314506530762 -289.527191162109 2.524806976318
-103.708740234375 -75.929138183594 -285.490386962891 2.744603395462
-119.799560546875 -78.236190795898 -291.418731689453 3.219515800476
-108.976158142090 -78.252998352051 -287.200805664063 4.639865398407
-98.920066833496 -80.544425964355 -289.901916503906 5.261100769043
-53.415393829346 -76.510452270508 -286.239440917969 1.256456255913
-122.868728637695 -78.591102600098 -287.800140380859 2.368138313293
-91.863945007324 -76.365890502930 -291.250427246094 2.433314800262
-121.142807006836 -77.794212341309 -292.856781005859 4.162855148315
-140.627685546875 -79.353927612305 -289.527160644531 1.126187205315
-18.438987731934 -74.418342590332 -294.466857910156 3.574498176575
6.044877052307 -77.648880004883 -294.313049316406 2.097217559814
-158.665252685547 -78.362480163574 -292.699279785156 3.806892395020
-165.626464843750 -82.062828063965 -309.888916015625 13.088068008423
-68.170928955078 -68.713516235352 -55.195690155029 4.804466247559
-61.782409667969 -70.370338439941 -53.187801361084 3.801637411118
-59.347743988037 -76.256378173828 -58.700157165527 1.176192283630
-76.561515808105 -72.129165649414 -54.483524322510 4.116511344910
-44.528476715088 -77.032577514648 -58.640369415283 0.923756778240
-80.175170898438 -72.668067932129 -57.795864105225 0.710073471069
-82.361038208008 -72.836547851563 -62.841228485107 2.366428136826
-21.249109268188 -74.652687072754 -73.236358642578 2.808697938919
-20.464534759521 -75.554298400879 -73.161506652832 1.627202391624
72.160987854004 -72.302894592285 -77.300903320313 2.397081375122
-38.853702545166 -72.761734008789 -81.944267272949 2.989506483078
-40.500385284424 -74.479858398438 -75.001564025879 3.302723169327
65.004478454590 -67.597640991211 -83.235931396484 1.273837924004
96.159629821777 -75.009109497070 -88.792335510254 2.123823165894
-58.016830444336 -72.971183776855 -93.019546508789 4.246799945831
57.398601531982 -72.967216491699 -99.642471313477 2.058270215988
45.713176727295 -70.224281311035 -96.936134338379 0.828385353088
46.233779907227 -71.425415039063 -101.032775878906 2.050589561462
34.836135864258 -71.180259704590 -103.569183349609 5.687949180603
107.975326538086 -72.596260070801 -100.323715209961 1.982254385948
55.986782073975 -68.363601684570 -93.191398620605 1.851290345192
-100.322967529297 -75.099586486816 -101.556488037109 7.407946109772
-78.875579833984 -69.896423339844 -101.354133605957 1.193765401840
53.495899200439 -70.090530395508 -99.406364440918 2.268350839615
40.127605438232 -67.389610290527 -104.296707153320 1.482634186745
39.806533813477 -69.528556823730 -106.547462463379 0.969175219536
-96.968917846680 -72.271148681641 -113.347854614258 4.418379306793
33.420742034912 -70.342407226563 -109.634773254395 4.307317256927
49.539390563965 -70.091979980469 -114.142715454102 1.967275142670
40.076831817627 -71.735443115234 -117.849189758301 2.006412744522
43.566791534424 -70.323509216309 -124.325325012207 2.009884595871
111.288528442383 -70.629890441895 -131.092971801758 1.618210911751
-59.991897583008 -72.231277465820 -130.394348144531 1.495073199272
34.598842620850 -74.947540283203 -136.053710937500 1.684816956520
34.431064605713 -72.301391601563 -134.890731811523 1.776931166649
110.681091308594 -74.098472595215 -140.719635009766 2.393970012665
-77.065841674805 -71.387290954590 -130.947784423828 1.632427453995
-59.740451812744 -73.654785156250 -140.062179565430 1.602595567703
117.717979431152 -69.687995910645 -137.918457031250 2.824456214905
-75.995765686035 -72.870147705078 -138.871231079102 0.646886169910
-53.915172576904 -71.423873901367 -146.059860229492 2.611699342728
-65.752677917480 -69.662712097168 -144.775238037109 3.311112880707
103.376556396484 -71.472663879395 -140.901657104492 5.617950439453
17.457944869995 -78.021087646484 -151.356384277344 5.689662933350
26.257604598999 -71.578712463379 -146.607070922852 0.757249653339
-48.066741943359 -72.148788452148 -152.923583984375 1.989752292633
-67.868118286133 -72.912467956543 -153.000350952148 1.321342110634
21.608369827271 -77.846839904785 -151.021133422852 3.095423221588
-75.727272033691 -73.404174804688 -151.648605346680 3.494182109833
26.699024200439 -73.799324035645 -150.623855590820 3.225154399872
-39.728733062744 -74.071800231934 -156.718551635742 2.542358875275
20.886613845825 -72.800216674805 -154.540740966797 0.819774270058
5.703277111053 -74.747840881348 -155.942474365234 1.928209424019
-75.532341003418 -72.739204406738 -162.065063476563 5.196150302887
-53.233764648438 -78.323181152344 -157.738510131836 3.520828723907
-63.780403137207 -76.661834716797 -157.610107421875 2.282935142517
-54.419525146484 -75.529144287109 -157.469100952148 3.032930612564
1.569545030594 -73.258659362793 -160.304916381836 2.171434164047
-38.509494781494 -75.474739074707 -168.544692993164 2.149255514145
-44.129047393799 -76.328208923340 -165.662033081055 1.771469473839
16.738454818726 -72.728027343750 -167.243133544922 2.227945327759
-45.088546752930 -77.412811279297 -168.422378540039 3.411118507385
20.973556518555 -71.406211853027 -167.883239746094 2.676819562912
113.062500000000 -68.552055358887 -167.000762939453 2.134200572968
-36.720413208008 -75.042533874512 -172.355331420898 1.689013719559
23.863111495972 -76.924514770508 -173.720321655273 2.379558086395
-71.915237426758 -74.956092834473 -170.068344116211 5.910333156586
-63.401859283447 -72.251213073730 -170.426239013672 1.981776833534
-47.811241149902 -69.792701721191 -170.015701293945 5.774533748627
-66.231277465820 -76.205070495605 -175.499725341797 4.140669822693
104.176048278809 -73.723068237305 -175.809417724609 1.570412874222
-151.791931152344 -73.551147460938 -173.766448974609 3.045234918594
-146.907394409180 -76.463783264160 -174.369506835938 3.572642326355
-62.689807891846 -73.278022766113 -174.488739013672 2.001822710037
98.846069335938 -73.424743652344 -179.065002441406 6.425206184387
103.855186462402 -72.054725646973 -178.215911865234 1.595471262932
102.054214477539 -70.957672119141 -183.132125854492 2.247175216675
19.600952148438 -75.640762329102 -189.861373901367 1.373862266541
-40.120952606201 -75.207992553711 -179.218688964844 1.527999043465
-139.284729003906 -74.446418762207 -183.663986206055 4.387235641479
102.572410583496 -70.260726928711 -185.623031616211 0.849196910858
17.300024032593 -72.428871154785 -193.892410278320 3.329178810120
100.794929504395 -70.586868286133 -196.112487792969 2.015994071960
99.556282043457 -66.500877380371 -197.212799072266 3.863888978958
5.138654232025 -83.937957763672 -196.788955688477 8.956131935120
-137.439193725586 -75.796295166016 -196.157394409180 1.428295850754
-128.845703125000 -72.313529968262 -195.535949707031 2.149587392807
-147.486404418945 -80.096221923828 -200.115829467773 2.200087547302
-135.804565429688 -74.142044067383 -198.602935791016 1.590946435928
-125.712539672852 -76.283912658691 -200.099517822266 3.379635572433
-25.699407577515 -77.443748474121 -203.884658813477 3.758191823959
-30.639478683472 -76.248863220215 -203.099517822266 2.696726083755
-133.382614135742 -76.687431335449 -198.564727783203 1.567548632622
-144.731018066406 -77.246681213379 -199.322906494141 1.378433585167
-19.098512649536 -74.399971008301 -212.092773437500 1.465849399567
90.843872070313 -72.958930969238 -202.465896606445 2.712059736252
-25.357625961304 -77.375198364258 -202.262145996094 3.106615066528
83.171920776367 -68.366806030273 -211.607452392578 5.282897472382
12.783470153809 -73.575119018555 -208.317123413086 2.753532171249
-9.750342369080 -75.013046264648 -214.929244995117 2.769410610199
14.154994964600 -75.074645996094 -210.223266601563 3.196288347244
-37.259853363037 -71.616958618164 -207.227752685547 2.425628662109
-90.149269104004 -79.463920593262 -215.783447265625 2.706385612488
-99.357704162598 -78.488739013672 -215.928161621094 6.139882564545
-15.327359199524 -79.072242736816 -219.905532836914 2.765966653824
-100.065063476563 -74.684059143066 -215.749221801758 3.091004371643
-100.369377136230 -74.738800048828 -216.579223632813 3.166561841965
79.920135498047 -71.118125915527 -221.297790527344 2.476316928864
-28.181083679199 -77.496681213379 -223.998474121094 1.909302353859
-26.838245391846 -70.079956054688 -225.694732666016 4.206936836243
-29.006597518921 -73.755226135254 -219.767700195313 2.920487165451
-24.264509201050 -73.835433959961 -223.338134765625 1.213224172592
-23.465257644653 -74.133895874023 -220.918258666992 1.511162400246
8.079540252686 -76.056701660156 -222.002395629883 1.061251640320
-142.636825561523 -75.795158386230 -226.394485473633 2.622503519058
70.876350402832 -75.002716064453 -224.960876464844 5.083397865295
-8.378423690796 -77.350250244141 -229.488479614258 1.981006979942
6.064104080200 -78.738815307617 -235.245468139648 2.037133693695
74.561882019043 -73.148933410645 -231.943893432617 1.410185217857
-129.152221679688 -77.185798645020 -229.712738037109 2.887193679810
-164.115997314453 -76.259315490723 -234.129028320313 1.643270134926
-139.720611572266 -78.278755187988 -230.436065673828 1.301508426666
8.506237030029 -78.676483154297 -230.960266113281 2.604602813721
1.735021948814 -73.752388000488 -230.037170410156 2.479262351990
-127.874450683594 -79.266036987305 -231.503311157227 4.493238925934
-7.390287876129 -78.633636474609 -238.438568115234 5.483239173889
-153.326660156250 -74.541847229004 -234.608596801758 2.613675117493
-9.182216644287 -82.219299316406 -233.602172851563 5.998508930206
5.521093845367 -73.634170532227 -235.947143554688 2.642255067825
-8.017954826355 -74.846855163574 -235.673416137695 1.624992012978
-9.101656913757 -78.850708007813 -245.398635864258 4.791296958923
1.967507004738 -80.270286560059 -237.958541870117 1.983983397484
-167.423889160156 -80.759292602539 -240.555969238281 6.651213645935
-160.422637939453 -78.853805541992 -235.526397705078 5.093050956726
16.018411636353 -72.781616210938 -243.214859008789 2.701834440231
-8.604486465454 -78.548988342285 -238.459854125977 5.796023368835
60.294128417969 -75.683982849121 -243.952484130859 3.157528400421
57.629314422607 -72.168548583984 -240.808944702148 2.263015031815
-169.735122680664 -75.061866760254 -241.262954711914 3.521753549576
-165.422088623047 -73.282806396484 -244.985275268555 3.514124870300
-155.966674804688 -77.046859741211 -240.075057983398 3.445318222046
-61.628791809082 -74.312759399414 -240.723327636719 3.832251548767
-13.695529937744 -71.137290954590 -244.245513916016 1.445553898811
-59.763847351074 -78.174896240234 -241.981414794922 3.873241901398
-159.463470458984 -81.353340148926 -249.494796752930 6.314685821533
-62.246883392334 -72.715957641602 -244.704010009766 1.033590555191
10.849995613098 -69.642356872559 -247.713012695313 3.001360416412
-15.104381561279 -77.049438476563 -245.546569824219 3.957541704178
-13.731225013733 -73.795524597168 -254.183990478516 1.058124899864
-166.145660400391 -75.066062927246 -247.558929443359 1.810867786407
-169.033233642578 -76.635147094727 -247.658142089844 4.103676319122
-89.239051818848 -73.881088256836 -243.991622924805 6.799020290375
-169.331283569336 -78.186820983887 -249.662506103516 4.703603267670
-152.608581542969 -77.684112548828 -253.448806762695 2.104817628860
-78.305992126465 -74.273002624512 -253.011322021484 2.311792850494
-102.339996337891 -75.254661560059 -257.037445068359 2.942689180374
-91.631027221680 -77.242416381836 -250.336227416992 3.596793651581
-139.341949462891 -78.489593505859 -256.511413574219 2.271499633789
15.731249809265 -76.019706726074 -254.665359497070 3.920959472656
-103.227142333984 -72.013809204102 -256.753845214844 1.529993891716
-105.624305725098 -72.158157348633 -260.827911376953 0.758219361305
-107.139198303223 -70.375518798828 -259.008880615234 2.422552108765
-119.876121520996 -77.186203002930 -259.249664306641 4.520967483521
-114.863441467285 -78.071395874023 -260.938903808594 4.666688442230
-121.056526184082 -77.518363952637 -260.420349121094 4.936505317688
-150.804504394531 -79.426368713379 -264.417907714844 0.595467031002
-134.245590209961 -76.629493713379 -261.299926757813 1.809401988983
-158.178390502930 -73.402000427246 -260.890625000000 1.857801795006
-152.601623535156 -77.714080810547 -269.474029541016 2.987696647644
-171.361358642578 -77.837669372559 -273.197784423828 6.408817768097
-15.584848403931 -78.362464904785 -278.341094970703 4.912160873413
-133.922302246094 -79.960372924805 -282.573455810547 5.918519973755
-145.189575195313 -79.772285461426 -285.519744873047 1.254938840866
-48.872035980225 -75.060905456543 -289.024322509766 2.083814144135
-93.189010620117 -76.092643737793 -288.996704101563 2.199790716171
-33.449012756348 -78.787483215332 -290.442138671875 1.228251338005
-39.636917114258 -74.879570007324 -291.339416503906 1.882932662964
-125.295585632324 -81.061286926270 -282.990997314453 5.146466255188
-25.450466156006 -77.355247497559 -289.207489013672 1.865511536598
8.593262672424 -75.157470703125 -291.194824218750 2.099927186966
-59.493286132813 -75.676208496094 -284.962036132813 2.140208721161
-125.509605407715 -76.309318542480 -293.313568115234 1.843254208565
-83.159233093262 -73.039596557617 -289.139556884766 1.604105949402
-76.041740417480 -72.733184814453 -289.903778076172 2.598469495773
-35.272590637207 -77.510673522949 -289.828765869141 1.923409104347
-105.411918640137 -76.728744506836 -288.747680664063 3.214489221573
-118.812568664551 -77.120079040527 -290.337249755859 1.796235442162
-17.266241073608 -72.718101501465 -298.826568603516 6.354393005371
-168.440887451172 -73.837669372559 -289.903594970703 3.429949998856
-156.407516479492 -79.430549621582 -298.955596923828 3.791031599045
-158.294921875000 -78.174415588379 -312.797760009766 5.420258522034
29.853328704834 -71.828399658203 -17.690418243408 0.254477709532
24.199892044067 -73.130615234375 -18.252941131592 1.978981971741
26.138612747192 -68.017807006836 -22.200803756714 1.518278121948
20.565116882324 -66.723106384277 -27.757549285889 3.323162794113
22.741989135742 -71.605674743652 -35.104228973389 0.706322550774
30.748210906982 -66.718299865723 -40.294464111328 2.101634502411
18.510282516479 -73.269844055176 -43.606754302979 8.262108802795
-58.920288085938 -71.026733398438 -51.468605041504 3.356794357300
-33.878936767578 -64.093833923340 -52.042964935303 4.753938674927
82.024131774902 -65.739166259766 -71.407096862793 6.823943614960
-93.293495178223 -71.701019287109 -72.975212097168 2.783157587051
68.458549499512 -70.073173522949 -76.783508300781 1.074498772621
-40.364158630371 -76.385002136230 -81.035362243652 1.976923584938
-96.998222351074 -70.232666015625 -83.099983215332 2.773754119873
-52.823467254639 -75.811569213867 -80.569145202637 6.634521007538
99.965415954590 -71.804687500000 -90.651847839355 2.153970003128
-96.802627563477 -71.477859497070 -91.386970520020 1.882703661919
63.273529052734 -70.475631713867 -94.509567260742 2.254349708557
-101.090293884277 -68.622169494629 -89.975669860840 4.926183223724
54.044208526611 -76.530639648438 -95.971885681152 0.883020162582
102.601249694824 -66.734214782715 -96.383163452148 1.207666635513
-74.880752563477 -73.753990173340 -101.274429321289 1.639714479446
40.162044525146 -66.376327514648 -98.276573181152 4.419638633728
75.158927917480 -69.695343017578 -105.829978942871 1.774148225784
83.790161132813 -70.346107482910 -101.903236389160 1.374793529510
39.653083801270 -69.094169616699 -102.429092407227 2.797202825546
104.260276794434 -75.745742797852 -104.753372192383 3.398865699768
-97.982635498047 -73.937408447266 -112.328536987305 4.456053256989
105.532440185547 -67.569091796875 -106.452301025391 1.896227598190
103.516769409180 -69.971603393555 -112.134162902832 2.545898199081
31.348064422607 -71.823638916016 -118.924987792969 1.499131321907
43.292007446289 -72.480781555176 -113.539321899414 1.393164992332
41.676322937012 -76.013458251953 -121.824851989746 2.009569406509
32.439624786377 -72.179771423340 -121.181381225586 2.200524330139
39.928180694580 -72.370788574219 -119.501647949219 1.721120119095
43.903854370117 -68.993530273438 -123.439910888672 1.558660626411
104.024971008301 -72.216384887695 -126.043823242188 4.766970157623
110.635025024414 -69.516639709473 -126.836166381836 1.462547659874
28.623182296753 -75.115005493164 -133.220214843750 1.388391256332
26.641441345215 -73.804100036621 -136.432678222656 0.734854876995
-73.968986511230 -71.875556945801 -135.494735717773 2.571313381195
-56.392654418945 -72.735588073730 -125.780075073242 2.354611873627
108.686035156250 -73.005195617676 -140.607818603516 1.334900975227
25.810373306274 -71.302871704102 -134.186309814453 2.365719556808
34.890769958496 -66.741981506348 -137.601364135742 3.240622520447
-83.963226318359 -72.633148193359 -140.516067504883 6.178781032562
25.026166915894 -73.423377990723 -137.714233398438 2.171619892120
19.080953598022 -75.521125793457 -142.554016113281 5.041747093201
-49.978305816650 -72.246818542480 -144.621887207031 3.303650617599
-76.920257568359 -71.730499267578 -144.420257568359 0.924027264118
-57.858646392822 -73.220420837402 -146.224960327148 1.653741955757
27.675474166870 -70.249626159668 -148.730255126953 0.284949630499
-58.421268463135 -73.462043762207 -153.569976806641 5.786752700806
32.494441986084 -70.836296081543 -159.485824584961 2.005951881409
25.676599502563 -67.236869812012 -163.749740600586 1.898065805435
107.145866394043 -69.421562194824 -157.452880859375 2.462564706802
21.327192306519 -74.356185913086 -157.150802612305 1.094712615013
12.233065605164 -73.459579467773 -158.980407714844 0.806911110878
-43.995113372803 -80.170890808105 -153.160720825195 1.368096351624
-77.180282592773 -70.831848144531 -156.255874633789 5.110030651093
-50.512481689453 -71.197677612305 -159.287902832031 2.306586265564
105.134674072266 -68.925552368164 -160.340988159180 5.516408920288
32.179767608643 -73.019126892090 -162.482788085938 1.209704399109
108.679107666016 -73.626579284668 -166.705963134766 1.469405770302
-39.325523376465 -74.043449401855 -161.826370239258 2.437516212463
14.583298683167 -66.739746093750 -172.320587158203 4.451669216156
-4.383309841156 -71.631889343262 -165.231140136719 3.334660291672
-36.228004455566 -69.998870849609 -164.094467163086 1.353542327881
-64.914482116699 -70.315185546875 -166.589614868164 2.485694885254
-34.968666076660 -73.986968994141 -164.852416992188 1.263241648674
-63.362205505371 -75.848884582520 -170.842254638672 2.203799724579
-37.171688079834 -68.047546386719 -173.889419555664 1.574872255325
18.488277435303 -74.527183532715 -172.863723754883 2.425345659256
-44.219993591309 -75.938957214355 -174.805603027344 3.408383369446
-154.977478027344 -75.874404907227 -176.582199096680 5.474096298218
110.670135498047 -70.215400695801 -176.216308593750 1.520589590073
-153.875167846680 -72.203964233398 -183.703048706055 1.813476920128
-149.904693603516 -76.851242065430 -183.265731811523 3.198669433594
11.035451889038 -71.265037536621 -184.825637817383 2.891854286194
20.297920227051 -72.431701660156 -183.208343505859 2.865781545639
-44.271850585938 -71.325325012207 -187.870513916016 5.040794372559
-155.851577758789 -70.712661743164 -186.534408569336 4.277418613434
-34.578628540039 -72.911430358887 -187.231536865234 2.209507226944
-149.662780761719 -70.485839843750 -189.719772338867 1.651720762253
-24.813142776489 -72.988265991211 -196.576019287109 1.773598313332
9.410523414612 -76.987335205078 -192.926055908203 3.002671957016
93.764755249023 -72.434448242188 -203.495468139648 1.900531291962
1.404113054276 -81.354911804199 -197.000579833984 9.564737319946
-132.174926757813 -76.741088867188 -189.729125976563 6.153090476990
-137.164794921875 -73.918029785156 -195.097152709961 2.610234022141
-145.956085205078 -75.691116333008 -200.051651000977 1.485150814056
92.232528686523 -68.578857421875 -200.976150512695 3.502980470657
-137.387100219727 -77.871955871582 -202.499374389648 2.428245067596
2.728415966034 -73.302947998047 -204.183914184570 3.041013479233
-29.770112991333 -70.613983154297 -206.152999877930 4.456727027893
-142.611740112305 -76.824325561523 -201.962799072266 2.385143518448
-150.525772094727 -73.983154296875 -204.634460449219 2.180204629898
93.377540588379 -75.706443786621 -211.385421752930 1.531401276588
-15.659729957581 -74.090827941895 -204.024627685547 2.693547725677
95.346588134766 -73.204475402832 -201.459243774414 1.667010545731
-11.640903472900 -71.953475952148 -209.775604248047 3.008259773254
90.638290405273 -73.697975158691 -213.902862548828 1.820657610893
-150.222503662109 -74.185714721680 -205.476959228516 1.421075105667
-17.529975891113 -77.581733703613 -212.722290039063 1.214668631554
-159.863449096680 -76.185813903809 -214.553405761719 4.386690139771
-155.223602294922 -73.231887817383 -206.912628173828 2.466732263565
-20.605121612549 -72.305442810059 -216.113998413086 1.737754583359
-92.706886291504 -70.892288208008 -213.700225830078 1.998778581619
-162.753967285156 -73.759307861328 -216.419418334961 1.747837543488
-165.685516357422 -73.995674133301 -207.392486572266 3.404642105103
-157.509292602539 -75.697319030762 -205.798217773438 5.304802894592
-36.380447387695 -74.577171325684 -215.851776123047 4.213884830475
-33.974327087402 -74.200714111328 -217.923690795898 3.521194934845
-19.354650497437 -68.779441833496 -214.260696411133 3.755702257156
-22.275638580322 -80.085479736328 -216.368316650391 1.022754549980
-153.087951660156 -74.074348449707 -220.663467407227 1.396123766899
11.308046340942 -78.946464538574 -223.982406616211 2.957664251328
-156.115631103516 -72.619850158691 -224.056991577148 2.663222551346
-96.515411376953 -72.300994873047 -215.833572387695 1.495732545853
-169.338897705078 -77.281349182129 -225.616271972656 5.499008655548
-30.342134475708 -66.305870056152 -217.431976318359 7.197100162506
-22.731809616089 -75.837265014648 -219.608535766602 1.277679085732
-166.028808593750 -74.112419128418 -213.189285278320 2.842766046524
9.105919837952 -71.605712890625 -222.060028076172 1.377050161362
-162.368103027344 -76.655624389648 -215.937347412109 2.968786478043
0.249395996332 -69.004592895508 -226.725692749023 1.318449020386
-168.763107299805 -72.322242736816 -221.977737426758 3.286788702011
-154.434799194336 -69.128959655762 -224.278030395508 1.427495837212
-110.285942077637 -75.229751586914 -225.183975219727 2.207640409470
2.084745883942 -74.390174865723 -218.070495605469 4.452984809875
-163.134414672852 -74.156593322754 -223.193572998047 2.009258031845
-165.294265747070 -72.292823791504 -221.871597290039 2.425367355347
0.486068010330 -71.509277343750 -224.310501098633 0.970612943172
-117.583877563477 -73.389549255371 -228.868087768555 2.717592239380
-161.014205932617 -75.292861938477 -226.755706787109 2.334624290466
11.087664604187 -74.407592773438 -227.281036376953 2.635307312012
-117.595466613770 -74.323707580566 -228.408554077148 2.565724134445
-119.692520141602 -72.634628295898 -227.657455444336 2.395627498627
-126.075798034668 -74.578323364258 -225.767135620117 1.509918212891
75.844436645508 -72.038368225098 -231.070312500000 1.411302566528
-167.061340332031 -77.710380554199 -225.127151489258 5.294018268585
-163.799362182617 -79.454048156738 -226.624114990234 6.342027664185
-6.839490890503 -74.203102111816 -228.223861694336 1.967136383057
-167.324630737305 -72.055137634277 -230.473510742188 1.702012181282
0.824073016644 -70.251518249512 -229.789978027344 2.671081781387
-170.406295776367 -75.402587890625 -231.864685058594 5.577556133270
-168.498168945313 -74.549926757813 -227.490112304688 3.736102342606
69.391876220703 -71.228874206543 -233.369262695313 1.273127913475
-169.480667114258 -75.266609191895 -233.456054687500 4.328067779541
-172.659118652344 -77.456871032715 -237.288833618164 7.760070800781
1.308863997459 -75.325553894043 -232.892425537109 2.633202552795
-160.664443969727 -72.389350891113 -235.851348876953 0.965844154358
65.466125488281 -72.071487426758 -238.693115234375 0.686372935772
68.357826232910 -71.366905212402 -236.030853271484 1.733870625496
-152.127990722656 -77.661216735840 -238.880722045898 3.391783237457
2.954600095749 -69.582115173340 -240.834320068359 1.455033779144
-17.834491729736 -76.127273559570 -240.568649291992 0.882032454014
59.063716888428 -76.540077209473 -243.364135742188 2.766761779785
-171.673034667969 -75.804260253906 -241.621414184570 5.605422973633
1.272686958313 -77.315879821777 -246.637329101563 1.771371960640
12.811760902405 -76.067298889160 -245.778244018555 1.150074243546
62.868164062500 -73.949920654297 -245.275787353516 3.093673944473
15.523924827576 -79.067260742188 -248.523834228516 2.446065187454
4.293724060059 -76.207366943359 -244.647842407227 1.487615942955
-80.470893859863 -72.594299316406 -246.522247314453 1.662460684776
14.327949523926 -77.382598876953 -244.028488159180 3.251916646957
-19.659564971924 -69.320312500000 -251.136459350586 3.731445550919
-152.288635253906 -78.040390014648 -246.443206787109 1.143476963043
-69.978294372559 -76.944168090820 -255.405822753906 3.827237844467
-147.867721557617 -75.881217956543 -254.075302124023 3.310593128204
-133.002243041992 -74.904304504395 -252.456680297852 3.034763336182
-103.693824768066 -77.988525390625 -254.870742797852 4.377545833588
-139.020233154297 -75.870910644531 -254.564498901367 2.464999437332
-115.492271423340 -75.242019653320 -257.781341552734 1.619532346725
-117.991355895996 -72.747985839844 -258.544219970703 1.175181984901
-100.716133117676 -79.748825073242 -257.541992187500 5.785863399506
-109.042457580566 -72.870285034180 -257.775482177734 0.328271478415
-121.221191406250 -75.745750427246 -264.641510009766 3.102158784866
17.995952606201 -71.279991149902 -267.702606201172 5.594714164734
-19.914054870605 -76.329376220703 -270.453399658203 5.961031436920
-176.594909667969 -76.895957946777 -271.752471923828 9.842617034912
-150.641082763672 -81.072280883789 -272.343505859375 1.575774550438
4.978580951691 -69.109298706055 -288.062286376953 2.520788669586
-136.038619995117 -77.555122375488 -280.240173339844 6.785614967346
-132.778961181641 -69.055824279785 -285.059509277344 1.071752071381
-85.767395019531 -75.624336242676 -285.954498291016 1.733332633972
-58.827075958252 -75.852447509766 -285.851074218750 1.979918122292
-114.905982971191 -73.260116577148 -289.080444335938 1.053323984146
-45.151966094971 -75.915473937988 -286.981628417969 2.794755935669
-35.097442626953 -75.905235290527 -285.148803710938 2.097171068192
-15.750223159790 -78.354003906250 -288.455749511719 3.007185220718
-41.879531860352 -71.294403076172 -292.068939208984 2.177419424057
-64.827331542969 -76.124076843262 -291.740112304688 1.943968772888
-36.694644927979 -81.302032470703 -290.583770751953 3.793210744858
-25.726087570190 -73.924606323242 -290.192749023438 1.771184444427
8.862328529358 -75.153076171875 -293.665283203125 2.348310232162
-119.117599487305 -78.873237609863 -288.433074951172 1.643594503403
-126.750465393066 -75.161071777344 -294.416900634766 1.606710553169
4.673601150513 -75.946510314941 -292.498931884766 2.020273208618
-145.072219848633 -80.109344482422 -292.155670166016 1.834206342697
-153.922378540039 -77.809272766113 -299.550964355469 1.551209330559
-149.997787475586 -78.495498657227 -300.691406250000 0.609955489635
-159.837402343750 -78.258239746094 -311.930603027344 6.373771667480
23.177738189697 -70.867820739746 -16.825046539307 2.075616598129
44.004623413086 -65.199577331543 -19.098249435425 2.466457605362
42.567783355713 -67.871353149414 -22.394882202148 2.414897918701
43.074504852295 -70.100326538086 -26.472896575928 0.616173028946
40.922855377197 -66.662658691406 -30.343149185181 2.468281030655
44.758220672607 -69.964347839355 -22.615638732910 1.314185261726
22.124639511108 -70.878471374512 -25.781841278076 2.273488283157
20.355176925659 -68.114997863770 -30.291358947754 3.063010931015
44.662487030029 -74.745307922363 -30.437849044800 2.730009078979
40.205638885498 -71.039657592773 -35.005294799805 0.652476727962
33.455062866211 -71.272766113281 -40.225276947021 1.260902762413
34.162448883057 -68.098617553711 -41.808471679688 1.220100283623
-62.236675262451 -69.153648376465 -51.059448242188 2.903935194016
-53.448123931885 -71.261779785156 -49.814495086670 2.623708963394
-81.333229064941 -72.343780517578 -49.250022888184 3.580598592758
-75.062370300293 -70.783874511719 -50.848499298096 1.114576339722
-74.619781494141 -71.111145019531 -57.911121368408 5.083826065063
-26.258234024048 -71.615798950195 -60.132961273193 2.746108531952
-26.916564941406 -75.012649536133 -60.908313751221 1.630200147629
-18.636779785156 -68.227409362793 -64.646347045898 3.683280706406
75.127235412598 -69.996017456055 -70.559196472168 2.559960603714
75.044197082520 -69.583869934082 -69.608558654785 2.738662719727
73.276054382324 -68.917854309082 -73.102195739746 3.098637104034
69.795242309570 -70.969757080078 -70.967887878418 2.347451210022
-36.479465484619 -67.335922241211 -74.055809020996 3.516501426697
-51.631214141846 -72.628730773926 -86.901885986328 1.208418965340
94.955818176270 -72.470581054688 -90.984619140625 2.173655986786
45.706920623779 -66.364936828613 -90.787498474121 3.741126775742
-70.201477050781 -65.514221191406 -90.374977111816 4.874150276184
50.352500915527 -69.279624938965 -91.886436462402 2.425622224808
-64.891441345215 -70.571350097656 -95.385833740234 2.067619085312
56.720966339111 -68.503387451172 -100.774314880371 1.674915790558
102.247901916504 -68.796714782715 -101.748008728027 1.604998469353
63.619380950928 -74.328475952148 -96.485359191895 4.421734333038
92.318267822266 -69.719306945801 -103.680427551270 1.038582324982
102.566108703613 -71.401878356934 -107.092933654785 1.804953813553
-97.105072021484 -72.051063537598 -100.474250793457 4.843194961548
52.624046325684 -71.503952026367 -108.161125183105 1.285498499870
35.801929473877 -68.887199401855 -107.070724487305 3.846184730530
43.254905700684 -74.740768432617 -106.276390075684 2.945214271545
-98.715179443359 -69.688323974609 -106.261772155762 3.989197015762
-86.190017700195 -73.954940795898 -114.074317932129 2.411961078644
36.654098510742 -69.017951965332 -117.899963378906 1.756890773773
-101.915199279785 -72.886352539063 -113.039825439453 7.742363929749
40.840000152588 -67.036102294922 -121.782417297363 3.234110832214
104.796188354492 -71.626190185547 -119.070739746094 1.756059885025
111.113746643066 -72.997734069824 -123.187461853027 2.075327873230
102.117553710938 -67.688591003418 -126.089851379395 5.980573654175
109.939399719238 -70.766105651855 -128.404815673828 1.456180691719
38.275001525879 -77.536201477051 -125.232017517090 2.106509447098
32.200572967529 -66.884117126465 -127.499160766602 2.576834917068
40.005054473877 -73.298385620117 -132.803787231445 1.267721056938
33.740253448486 -74.055526733398 -128.153411865234 2.854914903641
-58.157058715820 -68.219055175781 -128.310913085938 0.955136239529
-54.035156250000 -74.171203613281 -131.805969238281 1.106441497803
-58.880054473877 -72.589065551758 -131.350952148438 1.505042552948
-54.963157653809 -69.271522521973 -138.840850830078 3.249612331390
