14.066975593567 -64.518882751465 -210.095016479492 1.646331191063
-161.239501953125 -63.854564666748 -210.723281860352 3.641006708145
9.256966590881 -70.839675903320 -215.915405273438 2.986603260040
-163.513763427734 -64.675033569336 -213.750701904297 1.782085537910
-7.644462108612 -67.852470397949 -211.395584106445 1.959591507912
10.642257690430 -65.344108581543 -221.994598388672 2.028532981873
6.667693138123 -69.868705749512 -221.073226928711 1.499890923500
-4.541461944580 -67.027908325195 -218.565887451172 2.491297245026
-146.433639526367 -69.198051452637 -222.005035400391 2.712971687317
-160.664169311523 -66.846572875977 -218.707458496094 2.135859727859
-165.195114135742 -60.709724426270 -220.599044799805 6.069494247437
83.666358947754 -71.567825317383 -219.413787841797 1.528409361839
-6.316347122192 -67.382881164551 -226.972610473633 2.606233358383
-152.991012573242 -68.300231933594 -226.346618652344 1.687388181686
-136.406433105469 -60.988128662109 -221.673110961914 6.545843601227
78.010093688965 -66.119636535645 -229.285369873047 3.372772455215
69.474189758301 -72.358100891113 -231.227539062500 0.771702528000
73.117691040039 -62.989761352539 -227.295898437500 6.181218624115
-18.109430313110 -70.040588378906 -227.460739135742 1.745817422867
-156.250061035156 -69.208320617676 -228.590957641602 2.137099266052
-18.190074920654 -65.498916625977 -226.940093994141 3.978279352188
81.147666931152 -64.655250549316 -226.960845947266 3.610328912735
-110.280242919922 -65.643096923828 -229.700363159180 2.008313417435
-2.511158943176 -72.042129516602 -234.339416503906 1.354178786278
-169.905624389648 -68.098381042480 -225.959945678711 4.131615161896
-15.038625717163 -68.167945861816 -239.407165527344 2.247187852859
-5.334630012512 -70.092536926270 -234.902175903320 0.820882558823
-162.728363037109 -61.489845275879 -237.237182617188 5.367825031281
58.885742187500 -64.811233520508 -239.863616943359 3.477600097656
8.770383834839 -70.130302429199 -241.296798706055 0.949112057686
1.206204056740 -69.310211181641 -242.596588134766 0.905169904232
-161.431137084961 -73.294120788574 -235.902496337891 1.004767775536
-13.523007392883 -68.658607482910 -242.484802246094 2.120798349380
-164.529556274414 -64.348640441895 -245.326248168945 3.712885856628
-163.476776123047 -63.217891693115 -241.474868774414 4.702908039093
-163.971099853516 -72.402458190918 -243.746109008789 3.269619226456
47.703319549561 -66.747779846191 -248.298751831055 0.683179140091
51.183502197266 -71.375579833984 -248.979965209961 1.346132636070
-162.106628417969 -69.179435729980 -246.106445312500 1.125800848007
-164.948043823242 -63.028007507324 -249.994338989258 5.202633380890
-166.983322143555 -63.213150024414 -248.133544921875 5.517709732056
42.653598785400 -69.248435974121 -250.892181396484 1.928111672401
39.370651245117 -65.070106506348 -254.082748413086 1.316615343094
-163.088577270508 -65.383514404297 -252.731597900391 4.377583026886
32.499523162842 -69.204612731934 -257.249481201172 1.709875464439
-101.824600219727 -62.886756896973 -253.997009277344 5.152040958405
-83.414710998535 -69.051033020020 -255.217971801758 1.910333395004
-164.960906982422 -66.010398864746 -254.153350830078 4.066628932953
-141.543655395508 -63.771003723145 -257.191101074219 2.086719036102
-110.459777832031 -64.446388244629 -255.681152343750 3.704880237579
33.213470458984 -66.888595581055 -255.204772949219 0.701384246349
-144.053146362305 -65.343368530273 -252.437362670898 2.414903879166
21.528457641602 -69.858940124512 -259.997436523438 3.321763515472
44.264659881592 -70.965644836426 -257.938903808594 3.709816694260
-101.120574951172 -64.454055786133 -257.514404296875 1.571985840797
-101.703582763672 -66.840209960938 -258.970581054688 1.094352245331
-164.952438354492 -69.612045288086 -264.009948730469 1.805305838585
-115.297363281250 -64.286239624023 -262.979888916016 2.314476966858
-145.490844726563 -68.557006835938 -260.841278076172 2.802909135818
-168.249633789063 -62.588417053223 -261.396301269531 6.223181724548
27.947137832642 -66.958419799805 -264.251586914063 1.368540167809
-131.924713134766 -69.835968017578 -261.440063476563 3.212933540344
-13.546210289001 -65.119842529297 -265.021759033203 3.295905828476
-152.302444458008 -67.958557128906 -277.728698730469 3.113256454468
-14.901557922363 -70.430320739746 -267.794952392578 2.019483327866
-10.573910713196 -72.604179382324 -273.756683349609 2.999605655670
-20.471904754639 -63.937137603760 -276.206146240234 8.456215858459
-13.190305709839 -66.054290771484 -277.389739990234 4.383670330048
-157.571075439453 -69.923500061035 -281.460754394531 1.988910794258
-129.517059326172 -68.547111511230 -285.305877685547 2.948263168335
-11.510112762451 -66.144165039063 -289.017395019531 5.480809211731
-11.795952796936 -72.747337341309 -288.991943359375 2.215006589890
-117.798393249512 -63.033504486084 -289.352020263672 3.353628873825
-103.777542114258 -58.500408172607 -289.092834472656 9.377052307129
-114.502204895020 -64.797874450684 -286.528198242188 4.415307998657
-160.748992919922 -63.358112335205 -289.803680419922 5.313748359680
-100.097221374512 -69.404434204102 -291.535949707031 0.393006533384
-141.984710693359 -63.371135711670 -292.310241699219 2.157563447952
-122.714675903320 -61.962699890137 -292.807678222656 5.015836238861
-0.481056988239 -67.166419982910 -291.054107666016 2.289718151093
-156.925613403320 -64.770668029785 -296.310089111328 3.415249586105
-157.806320190430 -61.500793457031 -307.891723632813 7.511607646942
-155.079895019531 -69.029212951660 -311.362213134766 1.951014757156
32.870208740234 -61.733581542969 -11.931299209595 2.434089183807
32.528293609619 -64.152633666992 -17.688978195190 3.067395925522
40.574432373047 -61.899013519287 -25.973779678345 2.140588760376
20.244424819946 -65.375190734863 -31.769050598145 5.027966499329
19.877168655396 -64.347900390625 -32.893260955811 4.287075519562
41.353305816650 -69.000343322754 -35.714031219482 2.451171636581
-56.366256713867 -68.045753479004 -43.549404144287 2.899517536163
-42.258369445801 -67.171913146973 -49.107063293457 1.602274894714
-36.393325805664 -68.288154602051 -53.896244049072 3.306810379028
-83.117935180664 -66.602104187012 -55.554634094238 2.812598466873
-17.847669601440 -67.121681213379 -58.172962188721 0.962198615074
-22.068599700928 -60.633842468262 -62.087306976318 3.339283466339
84.167984008789 -62.870594024658 -62.015346527100 1.358309030533
-16.116050720215 -73.007751464844 -72.067794799805 2.526850700378
-98.298858642578 -66.249153137207 -74.976402282715 2.106147527695
98.101814270020 -68.908813476563 -72.887809753418 1.673938155174
-27.965250015259 -67.427627563477 -77.048065185547 2.194437265396
-48.218151092529 -66.249816894531 -84.370941162109 1.497793316841
105.595603942871 -64.911003112793 -82.497817993164 1.812079429626
101.484596252441 -66.789108276367 -88.514068603516 2.892338514328
65.013755798340 -68.454963684082 -88.687843322754 1.620029091835
101.399887084961 -64.335189819336 -96.595199584961 1.088133215904
60.339080810547 -61.359764099121 -99.591636657715 3.473292589188
-68.869201660156 -70.652839660645 -96.285156250000 3.177104473114
105.686256408691 -65.305473327637 -100.948516845703 1.847808122635
46.914585113525 -65.218574523926 -104.675971984863 1.766826510429
69.134689331055 -61.886379241943 -102.005821228027 1.406104207039
-79.390411376953 -63.627876281738 -104.625000000000 0.772842943668
73.099792480469 -67.049026489258 -108.902740478516 2.753436088562
81.355216979980 -60.766029357910 -107.972549438477 2.470818281174
37.800544738770 -64.165206909180 -105.797119140625 4.910506725311
-75.826705932617 -65.123825073242 -107.069458007813 2.512253046036
103.693534851074 -62.136478424072 -110.847656250000 5.378714561462
110.544967651367 -63.471717834473 -116.925125122070 4.828240394592
42.853424072266 -67.121818542480 -112.230972290039 0.403470188379
-94.548370361328 -68.536033630371 -114.536361694336 3.702502250671
106.364387512207 -65.079162597656 -126.616813659668 3.402998209000
-82.488891601563 -66.360054016113 -113.718124389648 0.954081416130
-92.685966491699 -68.153373718262 -117.313735961914 3.074210166931
-80.623748779297 -70.798255920410 -125.139495849609 1.800854802132
-66.689704895020 -63.415958404541 -121.866477966309 2.581584215164
-55.817649841309 -64.276695251465 -129.266998291016 1.549798727036
-76.558547973633 -67.401985168457 -133.525558471680 0.034421969205
-83.211013793945 -69.761901855469 -132.792160034180 2.841207504272
-63.973644256592 -65.834899902344 -129.466781616211 1.226574659348
-80.323760986328 -64.298591613770 -131.766983032227 2.969803333282
-78.900306701660 -59.938732147217 -137.273162841797 5.661102771759
-50.469306945801 -68.217300415039 -135.605880737305 1.064052343369
-53.178806304932 -63.209136962891 -139.201034545898 1.472643971443
21.804557800293 -64.605491638184 -143.844558715820 2.536178588867
-95.982482910156 -62.543678283691 -143.112487792969 2.070595979691
16.484985351563 -66.108215332031 -143.754425048828 1.208396315575
-70.237480163574 -70.041969299316 -146.641052246094 1.309078693390
24.679569244385 -67.408966064453 -147.612472534180 2.038055658340
-103.470260620117 -62.177410125732 -148.159027099609 4.816195487976
12.252850532532 -60.665168762207 -144.870254516602 5.284345626831
-97.859138488770 -69.382560729980 -150.880126953125 1.199950218201
-45.559398651123 -65.846839904785 -149.542160034180 3.344647169113
8.078850746155 -66.978431701660 -155.937240600586 2.135023593903
4.294885158539 -60.701732635498 -150.901855468750 9.300073623657
8.280855178833 -64.836860656738 -157.641815185547 3.827196121216
29.176294326782 -69.151649475098 -155.859573364258 2.284911155701
25.155164718628 -64.722229003906 -163.271713256836 2.611308574677
19.794544219971 -64.779350280762 -161.967391967773 4.759681224823
17.208726882935 -66.050727844238 -163.933761596680 5.593564510345
18.682527542114 -61.846511840820 -170.043991088867 5.011580467224
-105.996551513672 -70.154716491699 -165.306045532227 2.053402662277
30.091865539551 -66.329124450684 -175.133392333984 3.214879751205
-107.946113586426 -69.980339050293 -175.692565917969 2.503942012787
-111.137641906738 -66.404731750488 -176.996719360352 1.007720351219
-111.607482910156 -65.962867736816 -180.546279907227 2.251469850540
15.875293731689 -64.585105895996 -184.332168579102 3.393892526627
18.052520751953 -65.932380676270 -186.157913208008 3.204425811768
-31.185873031616 -65.949546813965 -187.145584106445 4.577788829803
15.568321228027 -64.221939086914 -190.515762329102 2.520564317703
-26.883398056030 -70.222129821777 -191.619262695313 1.772093653679
-115.428169250488 -62.251209259033 -192.585494995117 2.675077915192
-27.066074371338 -69.511375427246 -201.952926635742 2.711723089218
-166.731536865234 -62.530788421631 -195.685379028320 6.913625240326
-118.130226135254 -62.748863220215 -197.431259155273 3.459661245346
-24.454917907715 -66.144927978516 -200.029312133789 2.691878557205
7.502033233643 -64.008934020996 -201.373397827148 5.407234668732
17.375654220581 -68.889846801758 -202.595642089844 1.733054041862
-161.407623291016 -67.097831726074 -202.978332519531 1.788184404373
-12.123606681824 -63.322059631348 -204.157577514648 3.972878456116
-158.300872802734 -66.513877868652 -202.228515625000 3.036988258362
-161.983016967773 -64.076461791992 -204.362609863281 2.864020586014
5.527718067169 -62.103626251221 -208.877014160156 8.200641632080
17.012533187866 -62.452278137207 -213.829925537109 6.392157077789
-157.870758056641 -65.405372619629 -205.380889892578 3.782282590866
-149.630844116211 -61.253261566162 -205.767257690430 0.998901546001
9.758875846863 -65.832893371582 -210.148376464844 3.139967203140
-16.104389190674 -64.318122863770 -214.789886474609 3.424798250198
-10.598983764648 -65.962493896484 -219.456039428711 3.216101169586
-169.934387207031 -64.208557128906 -213.619354248047 6.232666492462
-12.509711265564 -63.305393218994 -217.367797851563 4.532856941223
-159.366455078125 -64.712615966797 -214.331405639648 2.929079771042
-154.149444580078 -63.949184417725 -209.266159057617 2.984505414963
-7.228647232056 -69.726394653320 -214.878250122070 0.882018387318
-148.974044799805 -69.285171508789 -224.172286987305 2.426367521286
-19.891120910645 -69.064453125000 -221.202896118164 3.330988168716
-164.578018188477 -63.725929260254 -220.336349487305 3.156929969788
-170.072662353516 -66.615486145020 -225.537887573242 4.462528228760
-3.691313028336 -67.411987304688 -230.058151245117 1.124773859978
-162.882720947266 -66.910865783691 -224.396148681641 1.905863761902
-117.726776123047 -67.470062255859 -223.941986083984 2.142153263092
-137.666503906250 -67.686470031738 -224.443939208984 2.711029291153
-147.264389038086 -63.674655914307 -226.972778320313 1.838956594467
-120.321174621582 -62.381404876709 -229.701263427734 2.509066820145
-156.451004028320 -69.588737487793 -231.786224365234 1.587805867195
-151.412109375000 -56.321514129639 -230.288894653320 5.128613948822
-162.340667724609 -67.430816650391 -228.587738037109 3.415289640427
-117.774490356445 -61.688194274902 -234.371673583984 3.255825996399
-160.073104858398 -71.107460021973 -232.257827758789 2.985602378845
-147.282562255859 -61.843852996826 -235.753509521484 1.495906233788
-167.599380493164 -69.474678039551 -234.972610473633 1.351224064827
-120.398872375488 -64.704299926758 -232.691070556641 1.687548518181
-169.736190795898 -62.392951965332 -234.474411010742 7.449998378754
74.764953613281 -68.402893066406 -235.032974243164 1.506401062012
-3.743807077408 -62.955791473389 -239.976211547852 1.641443729401
-147.756042480469 -61.880889892578 -233.166641235352 1.111912131310
-0.516822993755 -64.878540039063 -235.247772216797 1.994985222816
-2.715048074722 -65.435157775879 -236.305740356445 1.146255731583
-12.586487770081 -66.293312072754 -237.667831420898 1.924886822701
-3.865883111954 -62.918514251709 -244.116409301758 1.903720140457
-172.157104492188 -63.345943450928 -243.139099121094 7.377836227417
59.487812042236 -60.594074249268 -236.290481567383 7.333973884583
-155.318847656250 -64.855567932129 -242.579986572266 4.117428302765
49.127307891846 -63.910633087158 -242.667724609375 4.333430290222
45.526996612549 -64.209800720215 -245.185409545898 3.946687459946
42.643402099609 -67.003875732422 -248.659362792969 1.637208223343
-145.658828735352 -69.194839477539 -249.724273681641 2.645328283310
42.348670959473 -64.233009338379 -248.162033081055 2.064656257629
42.665641784668 -66.050621032715 -254.108856201172 1.621474504471
-158.597671508789 -64.578636169434 -251.656021118164 4.499324798584
44.538200378418 -70.112098693848 -252.463973999023 1.469486832619
-129.821243286133 -62.895248413086 -250.359268188477 6.227621078491
40.292606353760 -72.015525817871 -257.637969970703 2.036760330200
28.498813629150 -62.866405487061 -258.257751464844 2.110734462738
-141.326232910156 -69.740158081055 -254.796340942383 1.666253805161
-123.642181396484 -68.299613952637 -257.818481445313 1.150817275047
42.946086883545 -68.509101867676 -259.261352539063 2.206097602844
30.650939941406 -63.025966644287 -258.450866699219 0.662772476673
-8.950436592102 -72.370971679688 -261.778625488281 4.565046787262
29.882135391235 -69.781250000000 -259.475189208984 2.256502866745
-118.521133422852 -62.231338500977 -264.360992431641 3.792633056641
25.162160873413 -67.442832946777 -260.865447998047 1.276319384575
-117.708854675293 -66.522033691406 -263.080200195313 0.767893910408
-151.282150268555 -65.611358642578 -263.393554687500 2.086811542511
23.576822280884 -63.658733367920 -267.323638916016 1.517895579338
-8.578712463379 -68.792427062988 -265.244506835938 3.328555345535
-15.255882263184 -66.921623229980 -274.833435058594 3.729783535004
-148.305725097656 -63.611385345459 -276.657226562500 2.656985759735
17.521339416504 -64.683540344238 -276.520477294922 3.833894729614
-135.030670166016 -64.057907104492 -287.897674560547 1.902809858322
-157.172210693359 -63.840133666992 -290.739837646484 2.388662815094
-126.317314147949 -65.375640869141 -283.891937255859 2.860630512238
-115.017807006836 -68.531173706055 -283.623260498047 3.917493104935
-145.601318359375 -62.884666442871 -290.829711914063 1.324867844582
-135.927459716797 -64.822357177734 -289.717468261719 1.951787829399
-137.464523315430 -61.290420532227 -293.136993408203 6.448069572449
-154.641311645508 -65.240692138672 -297.538696289063 4.069616794586
-152.012100219727 -63.293598175049 -308.498321533203 3.501959562302
-147.642150878906 -61.821643829346 -307.499938964844 5.927013874054
27.188156127930 -64.557952880859 -16.515239715576 1.411927700043
24.548730850220 -62.333305358887 -16.415460586548 2.356334924698
39.170341491699 -66.356849670410 -23.919462203979 3.826866626740
52.334362030029 -59.148208618164 -27.832698822021 2.900070428848
16.504697799683 -67.583587646484 -32.458999633789 4.920343399048
-65.164718627930 -65.212585449219 -42.583118438721 1.646967411041
-59.801677703857 -64.945014953613 -49.354522705078 4.974029541016
-70.963134765625 -66.223579406738 -45.919517517090 1.281425237656
-83.173355102539 -63.866531372070 -43.779354095459 3.615948677063
-21.695615768433 -64.623626708984 -52.744003295898 4.136646270752
-89.781494140625 -66.584449768066 -54.068164825439 2.303158998489
-97.380599975586 -57.487400054932 -59.745578765869 2.233453035355
79.473297119141 -70.145835876465 -63.778285980225 2.894636392593
-15.761055946350 -63.604156494141 -65.134910583496 2.549662590027
-97.780952453613 -61.583824157715 -71.844055175781 1.090470552444
101.749671936035 -70.774963378906 -80.963615417480 0.438503682613
102.618812561035 -62.857383728027 -83.172462463379 1.935743808746
-98.769187927246 -68.610130310059 -82.861358642578 3.856190443039
-49.047721862793 -65.189666748047 -83.487495422363 1.302428841591
-57.798809051514 -63.950916290283 -88.119094848633 2.577627658844
-99.935287475586 -62.163635253906 -88.131584167480 2.153962373734
-99.071357727051 -66.858360290527 -99.635276794434 2.546491622925
60.879886627197 -66.622856140137 -93.787628173828 2.401549339294
49.034919738770 -58.982589721680 -96.107887268066 4.149511337280
-70.770103454590 -61.588172912598 -102.357696533203 1.137036442757
56.074298858643 -71.248008728027 -99.911941528320 1.667584419250
51.166664123535 -64.738243103027 -100.650772094727 1.720474481583
97.108146667480 -65.486396789551 -100.289360046387 2.882719278336
-70.517082214355 -67.617088317871 -100.213066101074 1.628574967384
62.707096099854 -64.288551330566 -104.626632690430 6.024540901184
-81.170959472656 -65.427932739258 -103.414306640625 1.150818228722
109.579467773438 -61.352188110352 -107.503479003906 5.903797149658
-76.332962036133 -62.828678131104 -107.313491821289 1.674532413483
82.199127197266 -63.055824279785 -108.565711975098 2.194627523422
101.502059936523 -65.361488342285 -106.398094177246 3.046179056168
-83.596366882324 -65.517875671387 -109.412239074707 2.731037616730
-90.812110900879 -63.266120910645 -117.111335754395 2.007814884186
-84.122817993164 -69.574562072754 -121.327949523926 2.589951515198
-84.109504699707 -65.916595458984 -116.675628662109 0.978402376175
-77.210685729980 -61.318874359131 -124.412963867188 1.239850640297
-100.375251770020 -66.322090148926 -118.751937866211 2.593142509460
-62.763107299805 -59.845951080322 -121.281875610352 2.986106395721
-85.215957641602 -62.716106414795 -128.552474975586 2.116579294205
-78.847007751465 -64.720260620117 -127.000549316406 1.321963667870
-93.602638244629 -63.717239379883 -130.617858886719 3.302126407623
-55.595031738281 -62.631332397461 -131.952606201172 2.075558423996
-56.464138031006 -61.761287689209 -131.592132568359 2.439767599106
-79.455131530762 -66.800926208496 -134.520767211914 1.443665385246
-61.830963134766 -63.700809478760 -134.743789672852 1.028477907181
-74.550720214844 -64.294548034668 -134.150924682617 1.836158633232
-59.523391723633 -66.454360961914 -140.213226318359 2.332922935486
-46.367935180664 -63.243091583252 -143.560470581055 4.072759151459
-76.909072875977 -63.942470550537 -140.481658935547 3.024826049805
23.429733276367 -59.408374786377 -146.708053588867 4.510601043701
-51.204208374023 -64.554687500000 -149.365509033203 3.845407485962
-98.999588012695 -64.889137268066 -151.309005737305 1.810093879700
-99.666313171387 -63.181659698486 -149.754684448242 1.798391819000
-113.426849365234 -62.371288299561 -169.614959716797 5.271275043488
-107.491065979004 -60.168304443359 -174.260299682617 3.527678251266
-147.942199707031 -66.495483398438 -174.720504760742 1.198968648911
15.696493148804 -62.695716857910 -180.974212646484 5.422868728638
-114.819595336914 -64.770782470703 -184.502914428711 3.513188123703
-144.292694091797 -66.803283691406 -185.005844116211 2.663650989532
12.389099121094 -62.089607238770 -192.498504638672 5.277940750122
-154.744094848633 -62.007194519043 -191.815734863281 3.522952318192
13.589708328247 -59.703613281250 -192.975784301758 7.048980712891
11.954710960388 -62.084381103516 -185.959503173828 6.954555034637
-154.746276855469 -65.470054626465 -194.240921020508 2.053021669388
-126.450592041016 -63.657215118408 -192.098403930664 4.300689697266
-136.820388793945 -63.823394775391 -197.800949096680 3.926297426224
-160.028030395508 -66.060493469238 -198.285690307617 1.358891367912
-24.375316619873 -62.607551574707 -198.952194213867 5.551321983337
-157.983169555664 -64.030616760254 -198.785064697266 2.506196975708
11.069237709045 -60.795944213867 -197.706878662109 7.246526241302
10.626684188843 -67.957679748535 -202.565719604492 2.689081192017
-168.603347778320 -66.211601257324 -202.841934204102 2.537111043930
-120.771881103516 -65.632575988770 -204.290985107422 0.712573587894
-137.969085693359 -65.418533325195 -201.758697509766 2.328424930573
-123.882972717285 -66.283294677734 -202.431854248047 1.974655032158
-162.046737670898 -60.664188385010 -207.313186645508 5.547015666962
-15.849763870239 -64.512329101563 -212.485275268555 2.656010389328
-162.612701416016 -63.469459533691 -210.225219726563 3.331696748734
-16.574436187744 -68.645416259766 -207.932327270508 0.977362930775
-10.140524864197 -66.289939880371 -209.130767822266 2.683556556702
-170.914810180664 -63.872871398926 -212.065155029297 7.140187740326
-4.060638904572 -59.114383697510 -225.075836181641 7.321086883545
-110.969726562500 -68.248771667480 -222.543060302734 2.663900136948
-111.372825622559 -66.502220153809 -225.140823364258 1.856835842133
-106.942405700684 -64.998619079590 -223.542144775391 1.456699132919
-128.305130004883 -63.872516632080 -228.267684936523 2.093960523605
-148.359695434570 -63.960117340088 -222.196609497070 1.927752971649
-1.013960957527 -69.354423522949 -231.380798339844 1.462176799774
-7.744779109955 -59.743568420410 -224.551345825195 7.620888233185
5.865273952484 -67.525032043457 -228.610992431641 1.537484884262
2.002269983292 -60.597640991211 -231.865829467773 4.956960201263
-8.407772064209 -66.881286621094 -230.180297851563 1.625706672668
-10.126069068909 -60.028656005859 -239.152328491211 4.894521713257
-9.190844535828 -69.228424072266 -233.964950561523 2.051614522934
55.648403167725 -67.998245239258 -241.699645996094 1.710541129112
-9.151746749878 -66.036582946777 -243.390441894531 1.019628167152
1.683405041695 -65.970024108887 -239.582199096680 0.454956263304
10.428589820862 -66.795379638672 -249.068893432617 4.691720485687
49.161186218262 -61.214500427246 -243.083480834961 5.226783275604
55.597789764404 -65.136634826660 -245.388153076172 1.961802005768
37.244922637939 -65.490112304688 -260.600372314453 1.002418398857
43.453090667725 -65.866073608398 -257.937744140625 1.672997593880
-13.054233551025 -69.166015625000 -250.581436157227 2.083840847015
-137.489364624023 -64.764823913574 -256.564849853516 3.468455791473
29.031461715698 -61.630672454834 -253.969070434570 2.664309024811
-107.304878234863 -63.970039367676 -257.149414062500 2.128747463226
-140.809967041016 -56.534133911133 -261.231842041016 6.535913944244
-116.388694763184 -63.196857452393 -259.688720703125 2.720648288727
-114.738784790039 -66.979316711426 -259.158538818359 0.718510270119
-117.722839355469 -67.184501647949 -259.631042480469 1.219978213310
-122.131294250488 -58.865009307861 -261.194915771484 6.167340755463
-121.302947998047 -61.165493011475 -262.897430419922 5.112194061279
-143.648147583008 -68.846122741699 -263.217773437500 1.905093669891
-122.253509521484 -71.368423461914 -263.639251708984 0.897875189781
-134.052017211914 -66.938636779785 -261.930358886719 2.070186614990
24.325452804565 -62.137554168701 -267.510284423828 1.720058083534
-145.548187255859 -64.579460144043 -264.176147460938 1.042177915573
-10.681698799133 -66.668365478516 -267.946441650391 1.919579625130
-155.831390380859 -63.173374176025 -265.900115966797 2.788538217545
-8.004392623901 -68.634483337402 -282.782714843750 1.827234625816
20.564647674561 -59.854755401611 -284.509277343750 3.377880811691
-9.183423042297 -65.655487060547 -285.648956298828 3.645288705826
-139.807479858398 -63.698940277100 -285.238311767578 3.088374853134
-150.144927978516 -65.446792602539 -294.096313476563 2.012193679810
-137.036239624023 -64.824714660645 -294.105285644531 4.349156379700
-153.612716674805 -60.477783203125 -292.193756103516 3.306365251541
-149.289993286133 -64.771606445313 -304.940368652344 3.125366687775
-157.416580200195 -68.633735656738 -309.656341552734 1.874853134155
31.968030929565 -63.110065460205 -15.264114379883 1.470862388611
17.243852615356 -56.337863922119 -17.589324951172 4.058793067932
41.293056488037 -62.755485534668 -19.173376083374 0.536067128181
42.344745635986 -53.952865600586 -31.907831192017 2.245298147202
38.232677459717 -66.534828186035 -34.925529479980 0.548671483994
34.245780944824 -62.154983520508 -40.422935485840 1.205890297890
30.081752777100 -60.572917938232 -39.237941741943 2.162884712219
37.053436279297 -58.054164886475 -46.222419738770 5.518531322479
-48.826896667480 -68.350151062012 -49.410026550293 2.841034173965
-81.726325988770 -64.840011596680 -50.448974609375 2.980407714844
78.823310852051 -61.181892395020 -59.918380737305 2.900006532669
75.605026245117 -67.018234252930 -67.382133483887 2.264467716217
98.127731323242 -60.929504394531 -69.663879394531 3.379802942276
-93.784713745117 -62.166542053223 -62.835906982422 1.755704760551
94.395057678223 -62.671775817871 -73.867385864258 6.594826698303
-21.865751266479 -58.243240356445 -70.690353393555 5.817113876343
-98.474090576172 -63.298351287842 -68.861633300781 2.734920024872
-29.786920547485 -65.187820434570 -75.094337463379 2.556692838669
-40.688056945801 -62.766647338867 -81.813140869141 3.314759254456
-41.659652709961 -60.463668823242 -81.980400085449 2.200230836868
-100.130714416504 -61.842472076416 -75.643081665039 1.810974597931
-98.213706970215 -66.441101074219 -85.083023071289 2.304121971130
60.946105957031 -62.139347076416 -86.550231933594 2.335791826248
49.521633148193 -66.107421875000 -92.275733947754 1.330506801605
-67.214225769043 -63.302619934082 -90.537849426270 2.653546333313
47.921897888184 -68.302589416504 -95.702209472656 1.360408306122
48.611782073975 -67.005027770996 -95.586776733398 1.808292746544
63.934272766113 -57.008632659912 -100.902351379395 1.125160694122
47.146953582764 -60.425090789795 -102.298355102539 4.751984596252
39.891063690186 -58.755321502686 -102.126052856445 9.696089744568
-81.662490844727 -64.780548095703 -110.107551574707 1.353381276131
-90.184112548828 -62.807357788086 -106.145759582520 6.150610446930
-88.023818969727 -58.092849731445 -110.819412231445 4.998657703400
-63.908172607422 -63.238761901855 -115.663627624512 1.912739157677
-91.909263610840 -68.153488159180 -121.257858276367 1.921791553497
-58.948673248291 -68.011520385742 -125.420341491699 0.974857032299
-81.512664794922 -62.077697753906 -123.855377197266 0.892940819263
-58.028564453125 -61.740894317627 -128.017349243164 3.079083681107
-85.886222839355 -64.264167785645 -128.095321655273 1.312294840813
-81.563476562500 -64.403602600098 -135.563293457031 2.755747556686
-51.230743408203 -62.960163116455 -134.824981689453 1.427798748016
-78.595138549805 -67.962097167969 -132.088485717773 1.776605129242
-75.956954956055 -60.407989501953 -137.462112426758 5.665017127991
-59.905788421631 -60.508464813232 -137.073608398438 1.474031448364
19.226743698120 -63.403854370117 -148.562667846680 1.453136205673
-50.043987274170 -64.801193237305 -143.102157592773 1.882940053940
-101.094116210938 -56.317569732666 -148.247238159180 7.865239143372
-91.426589965820 -58.935592651367 -146.229034423828 3.907323837280
11.983890533447 -62.051559448242 -153.524581909180 5.004011631012
-105.900253295898 -63.229866027832 -170.139236450195 0.930459320545
-112.255844116211 -63.364425659180 -171.984130859375 2.683791875839
-145.014846801758 -66.787712097168 -172.971496582031 2.462137460709
-154.169113159180 -63.066673278809 -177.253097534180 2.222655773163
-116.364845275879 -67.353065490723 -190.910873413086 2.835892438889
-159.863952636719 -65.402168273926 -188.421813964844 6.701949119568
-145.237213134766 -67.585556030273 -191.506301879883 2.446064472198
-157.494445800781 -63.853073120117 -200.575286865234 3.039094924927
-139.582077026367 -62.853374481201 -195.491455078125 2.609022378922
-150.010864257813 -57.133052825928 -197.010177612305 3.964402437210
-143.953628540039 -64.327651977539 -200.762207031250 2.235493421555
-129.647659301758 -68.830375671387 -207.086273193359 3.748400688171
-147.032913208008 -61.945617675781 -212.330627441406 1.595385432243
-148.833206176758 -60.838329315186 -224.491638183594 1.101649999619
-110.081649780273 -62.064125061035 -226.243423461914 3.862075090408
-108.839233398438 -68.681091308594 -230.820083618164 2.397090911865
-145.822769165039 -66.827804565430 -227.536529541016 1.469813585281
-140.264236450195 -61.036914825439 -231.560699462891 2.574288368225
-3.538254022598 -62.683547973633 -229.627243041992 4.441937923431
-0.990979015827 -59.642574310303 -242.752914428711 0.794121742249
-125.507644653320 -68.343452453613 -237.886047363281 3.873542308807
-153.744415283203 -61.305625915527 -238.402343750000 3.726615190506
0.766798019409 -68.555046081543 -233.247680664063 0.975816965103
-9.644783973694 -64.191848754883 -241.275558471680 2.813533782959
13.613908767700 -63.449684143066 -244.776535034180 1.904263734818
56.305015563965 -65.968269348145 -240.826965332031 2.422482252121
57.716442108154 -60.233440399170 -246.852996826172 5.931498050690
44.965770721436 -62.878978729248 -248.210296630859 2.203672409058
-154.490951538086 -60.731372833252 -252.616485595703 1.906050324440
34.320014953613 -63.593490600586 -259.468475341797 2.802475452423
-124.736640930176 -65.742187500000 -259.641326904297 1.139287352562
28.076070785522 -70.921607971191 -259.926239013672 2.169746160507
-153.546478271484 -65.564933776855 -257.368682861328 1.367235302925
-148.892776489258 -65.978446960449 -258.738952636719 1.867270827293
-127.149368286133 -60.971466064453 -262.584899902344 4.137046813965
-3.624073982239 -65.527832031250 -264.582061767578 1.473596453667
-3.278273105621 -68.045707702637 -279.684753417969 1.653891682625
-151.645553588867 -67.259429931641 -276.747802734375 2.348447084427
-8.572254180908 -63.636486053467 -281.107116699219 3.409850120544
-156.573486328125 -64.475975036621 -282.027832031250 3.386796474457
-133.231079101563 -63.044651031494 -286.012207031250 3.137315034866
-129.606704711914 -66.274566650391 -291.455322265625 1.876298785210
6.697926044464 -60.187194824219 -290.321014404297 1.786503553391
-125.112777709961 -61.276950836182 -294.417236328125 5.937675476074
-135.402389526367 -64.978950500488 -293.541625976563 4.091019153595
-136.588943481445 -58.959571838379 -284.102355957031 6.985984802246
4.957973957062 -71.965652465820 -289.900115966797 1.922204375267
-2.112303018570 -61.051631927490 -287.043518066406 3.820844411850
-151.767654418945 -61.682266235352 -291.049407958984 0.921584546566
34.003631591797 -64.346443176270 -20.309179306030 1.953237056732
49.250961303711 -61.356521606445 -19.953767776489 1.728163957596
40.254528045654 -58.418556213379 -32.998477935791 2.822660923004
-52.284004211426 -66.536567687988 -42.880439758301 4.372033596039
-48.370845794678 -57.609893798828 -45.541366577148 3.138750076294
-52.303382873535 -65.359458923340 -44.948776245117 2.904146909714
-37.695262908936 -64.082527160645 -47.615543365479 1.862558126450
-90.000984191895 -61.652122497559 -53.658691406250 0.940847337246
-19.306528091431 -61.524330139160 -53.142604827881 2.801864624023
-17.889722824097 -60.340354919434 -55.986282348633 4.202724456787
-91.294044494629 -57.191940307617 -63.329460144043 5.035336494446
-96.128189086914 -59.066112518311 -67.871131896973 2.744107961655
87.266487121582 -64.005775451660 -67.764144897461 3.917940139771
-13.397074699402 -64.664749145508 -67.355209350586 0.845085442066
66.705680847168 -61.834693908691 -62.326976776123 2.787661552429
-31.122776031494 -61.760536193848 -70.550804138184 1.144688606262
-96.202857971191 -62.202743530273 -74.511390686035 3.310075283051
-43.271682739258 -57.324665069580 -79.946189880371 0.866033375263
-102.246147155762 -61.770542144775 -76.269462585449 3.365828037262
-61.228061676025 -63.177604675293 -84.588623046875 1.474062561989
104.858665466309 -61.571865081787 -94.923736572266 1.918925285339
56.766456604004 -57.030971527100 -87.763404846191 2.271058559418
-101.262001037598 -61.953693389893 -99.358100891113 2.704101085663
-67.378959655762 -55.317070007324 -100.837532043457 4.414575099945
46.498825073242 -66.626007080078 -102.138549804688 0.608093798161
43.046546936035 -60.866409301758 -96.798927307129 5.825105190277
97.204238891602 -69.761230468750 -101.319190979004 1.048309683800
95.571128845215 -58.586612701416 -104.587890625000 3.430320978165
-86.919624328613 -58.843711853027 -106.137878417969 6.186107635498
90.654823303223 -59.138656616211 -111.303215026855 3.379102706909
84.736610412598 -63.946460723877 -106.416503906250 1.510535717010
-93.055679321289 -59.105621337891 -117.315956115723 4.270444393158
-62.623130798340 -61.206104278564 -120.558731079102 1.770213007927
-66.833801269531 -63.545669555664 -115.393013000488 1.475899577141
-88.572471618652 -59.930629730225 -123.542686462402 2.341584682465
-65.424301147461 -63.276062011719 -121.834785461426 2.277783870697
-89.179458618164 -63.859111785889 -126.942131042480 2.386753559113
-69.705299377441 -63.956352233887 -127.983779907227 4.830734252930
-92.066886901855 -61.270664215088 -126.560272216797 3.347032785416
-90.252082824707 -64.894401550293 -130.857833862305 2.158500432968
-51.497322082520 -65.783416748047 -132.022735595703 1.850657582283
-76.679588317871 -59.785152435303 -131.754669189453 3.870990753174
-59.112846374512 -64.038597106934 -133.800765991211 1.449723124504
23.644903182983 -63.915348052979 -140.640243530273 1.708564162254
-98.236343383789 -64.061767578125 -144.953369140625 3.244812488556
9.930788040161 -59.956508636475 -142.557342529297 6.860985755920
16.947443008423 -61.014530181885 -154.341278076172 2.572413206100
-101.615554809570 -63.607097625732 -158.809753417969 1.857400655746
-113.304130554199 -64.166732788086 -180.092193603516 3.508860588074
-156.129180908203 -64.897361755371 -185.360717773438 4.144599437714
-118.227157592773 -62.806858062744 -188.308181762695 6.329746723175
-156.760803222656 -61.964962005615 -189.144424438477 5.741096496582
-158.643936157227 -58.943531036377 -195.715988159180 5.886360168457
-144.514892578125 -62.817771911621 -200.281875610352 1.367576003075
-146.989944458008 -64.577491760254 -197.188369750977 2.550984859467
-123.860458374023 -65.035072326660 -200.605667114258 1.342025518417
-117.198562622070 -68.669700622559 -199.057647705078 3.669406175613
-139.629562377930 -61.074249267578 -202.077789306641 2.161975145340
-122.541213989258 -58.426517486572 -202.289031982422 4.558613777161
-124.524688720703 -63.957202911377 -198.579544067383 1.994719505310
-156.244430541992 -67.174766540527 -208.447616577148 3.387392997742
-151.696533203125 -60.782341003418 -215.805938720703 4.242934226990
-133.293975830078 -59.912345886230 -227.152954101563 4.278160095215
-130.626937866211 -65.090187072754 -229.658309936523 1.030027508736
-125.000656127930 -63.587589263916 -228.739471435547 0.617495357990
-118.952201843262 -66.334342956543 -229.530212402344 2.229632377625
-130.761352539063 -64.634483337402 -234.821640014648 3.057047843933
-155.243408203125 -62.150424957275 -234.020431518555 1.953794598579
-2.875977993011 -62.632110595703 -239.870727539063 1.726474285126
14.693334579468 -63.452190399170 -243.750045776367 1.684196114540
-9.480380058289 -62.373825073242 -244.829437255859 2.839264154434
-9.051919937134 -63.611911773682 -249.287170410156 3.114593982697
-15.856882095337 -62.708213806152 -248.079299926758 5.384459972382
49.077198028564 -65.512054443359 -249.373962402344 1.792424321175
45.838409423828 -62.603103637695 -254.611328125000 1.629618406296
17.993450164795 -70.211196899414 -252.864440917969 3.306888103485
-8.784652709961 -57.827922821045 -253.743301391602 6.060327529907
36.677661895752 -66.530349731445 -254.612503051758 1.499544978142
-10.766196250916 -59.464225769043 -254.180725097656 5.371639251709
29.458780288696 -65.488349914551 -256.129913330078 2.689774513245
41.682907104492 -68.675941467285 -256.371215820313 1.902739882469
-2.159244060516 -66.004463195801 -259.505371093750 1.730256915092
-133.870651245117 -63.777523040771 -258.174438476563 1.047806382179
-128.813674926758 -62.682422637939 -255.779083251953 3.323564052582
-124.927536010742 -64.891731262207 -261.483337402344 0.608399987221
29.497531890869 -67.799201965332 -261.813659667969 0.420465737581
-5.164031982422 -58.103645324707 -264.586883544922 7.028549671173
26.602212905884 -62.180351257324 -265.995483398438 1.150557041168
1.895185947418 -60.675331115723 -268.153625488281 2.278192281723
-3.716965913773 -67.343536376953 -266.145568847656 1.527479410172
-145.045745849609 -66.623252868652 -270.479370117188 4.367130756378
-3.751252889633 -65.311203002930 -284.501464843750 1.459171533585
-3.126678943634 -60.134082794189 -289.860595703125 4.242929458618
-154.040786743164 -64.595321655273 -285.115570068359 0.724933803082
-149.976791381836 -57.641563415527 -295.020874023438 4.650518894196
-149.753738403320 -64.946617126465 -288.933166503906 1.805917978287
-153.114166259766 -61.329162597656 -293.114898681641 3.199406862259
24.803859710693 -55.863414764404 -11.718048095703 3.121886253357
38.405529022217 -60.019248962402 -16.480249404907 3.668232917786
42.837539672852 -64.236091613770 -21.364624023438 0.377712160349
47.158397674561 -59.868919372559 -23.150714874268 2.368281364441
20.419128417969 -66.193695068359 -24.563909530640 2.863635540009
20.136667251587 -57.845462799072 -34.651630401611 1.604374527931
20.817588806152 -66.708732604980 -34.982822418213 2.881323337555
35.306354522705 -64.336723327637 -39.385951995850 1.651316642761
-47.982223510742 -61.164333343506 -43.669612884521 0.990953087807
-82.556945800781 -62.770210266113 -51.115058898926 1.498096704483
-88.940040588379 -58.945999145508 -55.416748046875 4.242324829102
-94.761566162109 -58.250934600830 -50.926731109619 4.173885822296
68.228172302246 -67.355293273926 -66.412193298340 2.507421970367
71.671028137207 -60.606395721436 -67.146003723145 4.181814193726
-27.515764236450 -61.762638092041 -67.137214660645 2.825205326080
-31.318321228027 -67.475761413574 -72.648826599121 2.608608007431
101.455329895020 -60.479450225830 -86.398200988770 4.146315097809
-42.153842926025 -59.399597167969 -77.819877624512 2.155145883560
-60.170825958252 -57.366352081299 -85.510269165039 1.832527637482
104.572463989258 -61.249217987061 -85.075424194336 1.571311354637
-102.350822448730 -63.502944946289 -87.847427368164 3.668296575546
-66.157646179199 -62.279472351074 -87.960266113281 3.667519330978
-64.017311096191 -60.268558502197 -87.729530334473 1.347835898399
51.322078704834 -64.039459228516 -86.559074401855 3.698213815689
57.299915313721 -59.057842254639 -94.109306335449 1.879997849464
55.044258117676 -61.094161987305 -97.779396057129 2.086844205856
-69.621154785156 -61.160297393799 -99.386344909668 1.844057559967
-70.653564453125 -61.034137725830 -99.660461425781 2.384457588196
-71.433753967285 -58.418197631836 -104.067680358887 2.193504810333
95.128410339355 -65.935508728027 -107.698402404785 1.586878061295
91.437171936035 -63.174804687500 -114.505966186523 6.004994392395
-80.764358520508 -61.806381225586 -114.881210327148 0.544616401196
-82.959541320801 -63.728473663330 -110.425453186035 0.592626154423
-86.110458374023 -64.458854675293 -116.924285888672 2.144622564316
-81.302841186523 -57.023841857910 -117.160942077637 0.381913065910
-62.202812194824 -56.870735168457 -122.495452880859 1.628525018692
-80.100944519043 -59.318687438965 -122.885284423828 0.927098929882
-85.555610656738 -64.798095703125 -124.551292419434 1.312642335892
-79.868652343750 -65.571090698242 -128.408126831055 1.834975004196
-56.791751861572 -60.510696411133 -135.950286865234 1.405669331551
-80.763961791992 -57.805320739746 -130.330581665039 3.928924560547
-97.462165832520 -60.144260406494 -135.356063842773 6.218710422516
-51.738971710205 -56.062179565430 -139.837249755859 7.186422824860
27.016752243042 -59.378650665283 -141.868362426758 4.102931976318
-91.228408813477 -57.647445678711 -143.243515014648 6.009268283844
-98.107795715332 -60.647876739502 -142.088088989258 4.774518966675
-100.100639343262 -64.948295593262 -140.831039428711 4.066108703613
9.125499725342 -65.525436401367 -147.701599121094 4.476710796356
-97.496734619141 -62.214992523193 -154.721237182617 2.309121131897
-93.930618286133 -61.761844635010 -152.177459716797 2.227122783661
-106.936119079590 -65.345275878906 -160.430572509766 3.194953918457
-105.974548339844 -61.364700317383 -166.818191528320 1.568483591080
-110.282173156738 -65.000122070313 -168.992706298828 3.181478023529
-111.965972900391 -62.450164794922 -176.206497192383 2.880996465683
-152.129974365234 -63.148349761963 -176.892089843750 1.341591000557
-107.044609069824 -60.901863098145 -181.201461791992 1.741588711739
-114.217796325684 -65.907951354980 -176.941238403320 3.847083091736
-150.452987670898 -66.001136779785 -180.555084228516 1.178443908691
-110.064270019531 -62.748134613037 -186.106613159180 1.565368652344
-154.285919189453 -61.097759246826 -189.834365844727 5.028058528900
-116.909347534180 -70.159782409668 -194.545181274414 0.790274441242
-146.523773193359 -64.075088500977 -193.050582885742 1.168553233147
-147.247497558594 -62.374767303467 -199.506271362305 1.864995002747
-117.607490539551 -59.836795806885 -199.697845458984 3.566997289658
-120.558486938477 -62.506164550781 -202.449371337891 2.603457689285
-126.942405700684 -58.164501190186 -201.500961303711 4.514491081238
-128.616256713867 -62.809459686279 -209.364990234375 4.995006084442
-152.176528930664 -62.098724365234 -208.416458129883 2.570208787918
-156.644638061523 -61.284347534180 -224.005752563477 3.578894615173
-129.191970825195 -60.104362487793 -228.539718627930 4.822606086731
-160.727203369141 -63.477725982666 -228.580917358398 4.067627429962
-135.910675048828 -59.724624633789 -231.319503784180 4.437338352203
-161.729644775391 -58.443653106689 -236.331649780273 7.777353763580
-2.662327051163 -60.475574493408 -236.327545166016 2.456289291382
15.026971817017 -64.543136596680 -245.585388183594 2.855015277863
-154.746734619141 -65.518486022949 -249.368759155273 4.481501102448
-9.783981323242 -66.774246215820 -248.964721679688 1.255336284637
16.823707580566 -61.183250427246 -255.220092773438 5.962797164917
-8.894865036011 -62.365219116211 -259.089263916016 4.608060359955
-157.367980957031 -58.898647308350 -257.928527832031 5.357229709625
-161.619522094727 -61.323131561279 -255.966873168945 6.768079757690
-157.941329956055 -62.139888763428 -254.371887207031 3.484153509140
-150.461578369141 -64.460655212402 -260.664855957031 1.137866735458
-6.007637023926 -60.814304351807 -271.957214355469 5.924633026123
-150.044708251953 -56.694396972656 -272.352233886719 8.674339294434
-159.120193481445 -57.489902496338 -280.675720214844 8.850596427917
-1.395576953888 -63.905250549316 -275.381561279297 3.775999069214
-149.030563354492 -62.707695007324 -287.396636962891 2.620763063431
-149.822479248047 -64.662643432617 -288.388854980469 1.996171236038
-5.035734176636 -63.914833068848 -286.740081787109 2.859310150146
-151.275436401367 -65.576408386230 -287.906951904297 2.011694192886
-156.412338256836 -65.368637084961 -296.901428222656 3.815197944641
-149.935363769531 -60.567775726318 -291.091094970703 2.465611457825
30.221879959106 -61.308010101318 -14.941258430481 3.014212369919
43.714157104492 -60.094718933105 -15.956461906433 3.323790311813
38.807376861572 -58.936626434326 -19.499570846558 3.475038051605
15.901001930237 -59.561798095703 -27.826852798462 4.600095748901
46.306686401367 -57.389095306396 -26.691905975342 3.234308958054
17.429164886475 -66.207153320313 -28.646059036255 3.787143945694
45.370079040527 -59.110828399658 -26.395467758179 2.901004791260
47.548236846924 -56.395740509033 -34.857868194580 3.256929397583
23.215539932251 -65.989463806152 -30.239450454712 3.782972335815
20.230428695679 -64.705093383789 -36.484252929688 1.783828973770
-56.714023590088 -58.583866119385 -43.778171539307 2.061113834381
-70.703796386719 -64.697113037109 -43.355518341064 2.388737916946
-40.535854339600 -58.446094512939 -49.809764862061 3.774823904037
-21.340541839600 -56.669914245605 -48.309272766113 1.733043789864
72.256256103516 -59.016014099121 -65.404251098633 4.556325435638
-99.810455322266 -56.816425323486 -63.949790954590 2.853078603745
-18.548189163208 -61.683071136475 -65.153572082520 1.982285499573
65.755073547363 -59.710662841797 -68.089477539063 0.915481567383
99.421585083008 -60.107471466064 -76.059059143066 4.971115589142
-58.758003234863 -63.061328887939 -82.503356933594 1.117661476135
58.111667633057 -65.206169128418 -89.231147766113 3.124650716782
49.654098510742 -59.756431579590 -91.443893432617 3.863174915314
53.133377075195 -59.617824554443 -95.359687805176 3.165841579437
-66.813926696777 -58.553699493408 -95.912506103516 2.575442314148
57.527271270752 -61.314460754395 -95.701087951660 2.092076778412
50.208065032959 -63.950820922852 -93.193984985352 1.848174691200
-98.770088195801 -65.125236511230 -96.386924743652 1.572004079819
55.270786285400 -63.649677276611 -94.100059509277 0.959384620190
-76.101440429688 -67.037422180176 -107.762565612793 2.356554746628
68.630378723145 -59.897117614746 -111.060249328613 5.834993362427
90.314048767090 -64.819259643555 -109.360275268555 0.701357066631
-90.429031372070 -59.411491394043 -111.895904541016 5.168583393097
-76.687232971191 -63.716571807861 -112.123619079590 1.727523565292
-91.047966003418 -60.373382568359 -115.975730895996 3.690304279327
-77.686508178711 -61.724525451660 -113.413414001465 1.905740141869
-65.536140441895 -59.315849304199 -120.616539001465 1.572476029396
-65.664146423340 -59.283634185791 -120.763824462891 1.403139233589
-86.452407836914 -61.378799438477 -122.754875183105 2.682926654816
-66.937240600586 -60.670429229736 -122.761581420898 0.975522220135
-68.458106994629 -57.262763977051 -125.923950195313 3.115776777267
-53.957523345947 -60.632205963135 -132.123748779297 0.568888902664
-81.796432495117 -57.701030731201 -128.068344116211 4.134513378143
-63.758712768555 -57.578277587891 -130.462585449219 1.908074855804
20.143783569336 -66.813354492188 -141.649047851563 1.428867936134
-57.633869171143 -61.739765167236 -135.813720703125 1.095834136009
-51.207614898682 -64.734344482422 -149.567672729492 3.629231452942
-97.373649597168 -57.918231964111 -138.875000000000 6.159731388092
19.648605346680 -61.361732482910 -143.201187133789 2.583904504776
20.667255401611 -57.779773712158 -149.062515258789 5.743445873260
-99.359405517578 -61.760120391846 -152.898651123047 3.222635746002
-100.390213012695 -59.669830322266 -158.644256591797 3.209950685501
-108.304641723633 -60.374736785889 -167.465499877930 3.470693826675
