-111.075691223145 -69.173561096191 -187.656143188477 1.601791262627
105.620491027832 -71.273780822754 -195.571807861328 2.806402444839
15.964992523193 -71.914581298828 -189.488052368164 2.262084722519
-28.976327896118 -67.588043212891 -192.327453613281 2.304604291916
12.959565162659 -68.482513427734 -188.091445922852 3.804447650909
-21.802370071411 -71.788772583008 -196.676406860352 2.053004980087
-27.001308441162 -69.281692504883 -192.926025390625 2.099976778030
13.448598861694 -71.585937500000 -195.145645141602 0.786360979080
19.273881912231 -75.261482238770 -195.536300659180 2.151550769806
-24.540723800659 -73.234420776367 -199.085372924805 1.870986700058
-110.446487426758 -72.666267395020 -195.722702026367 3.825433731079
-162.867660522461 -68.672370910645 -199.303710937500 1.133348822594
-14.286599159241 -72.835258483887 -198.342819213867 0.658357977867
-16.198308944702 -77.913139343262 -200.253372192383 1.737172603607
19.177003860474 -70.980537414551 -203.674789428711 1.160566806793
-15.538660049438 -70.361900329590 -203.392150878906 1.732827544212
13.342719078064 -71.217536926270 -204.212310791016 3.038707256317
-116.828125000000 -71.777786254883 -199.404373168945 3.451042652130
-121.569305419922 -66.106468200684 -202.354537963867 1.787976145744
-26.823923110962 -73.104339599609 -208.398178100586 3.303962945938
16.496665954590 -73.805015563965 -208.592391967773 1.889213085175
-130.648101806641 -71.485710144043 -202.975097656250 1.366100311279
-146.206588745117 -69.226234436035 -202.138046264648 2.909101247787
10.527742385864 -72.921188354492 -212.677139282227 2.349536657333
13.859380722046 -67.781906127930 -213.490844726563 1.363434672356
-20.315744400024 -68.303451538086 -209.309478759766 1.168945789337
-12.445283889771 -72.876449584961 -215.719177246094 2.675708532333
4.079554080963 -67.314460754395 -213.719055175781 3.882385015488
90.717926025391 -69.675537109375 -212.345306396484 0.145341545343
-15.700285911560 -70.708053588867 -216.029174804688 1.046073079109
9.639068603516 -69.799247741699 -214.463745117188 2.215995788574
13.591725349426 -66.872207641602 -213.625885009766 2.071879625320
-16.741456985474 -64.238571166992 -218.653686523438 6.215477943420
-103.941963195801 -68.870491027832 -218.826858520508 1.564345359802
-5.984447956085 -73.905494689941 -222.267272949219 3.289415597916
-106.099807739258 -74.373191833496 -223.637252807617 3.288873195648
11.448615074158 -72.078544616699 -225.630538940430 2.264493942261
-3.528405904770 -72.280914306641 -225.599227905273 2.576967239380
80.786659240723 -70.658767700195 -228.644256591797 2.324963569641
-111.560577392578 -71.709877014160 -224.014678955078 2.036700725555
-135.357650756836 -72.617088317871 -223.199661254883 2.506070137024
-19.094604492188 -71.125953674316 -227.588378906250 2.485395431519
2.771337032318 -73.854042053223 -233.098129272461 2.449214935303
4.311907768250 -75.488212585449 -235.577636718750 1.776728868484
5.844958782196 -68.927230834961 -233.810440063477 1.103810429573
-4.190515041351 -70.888130187988 -237.088378906250 0.820816874504
-129.070999145508 -69.398468017578 -232.079788208008 3.479921340942
-142.550277709961 -70.820396423340 -225.623870849609 0.533879637718
15.655577659607 -72.741333007813 -240.987167358398 1.894732475281
-15.277635574341 -71.167922973633 -232.410415649414 1.911628007889
-159.461532592773 -69.817543029785 -232.368576049805 3.384942293167
-153.488250732422 -71.478393554688 -245.542587280273 2.680539608002
-151.693420410156 -67.807563781738 -246.279708862305 1.817404031754
-1.750216007233 -73.300186157227 -235.131423950195 0.975870013237
-154.963058471680 -71.125968933105 -240.521255493164 2.275467872620
54.842578887939 -70.764663696289 -241.476196289063 1.496682882309
3.219564914703 -72.501533508301 -243.547714233398 2.035334587097
61.135429382324 -67.349327087402 -247.419387817383 0.829019606113
50.137950897217 -72.435630798340 -247.795059204102 0.984347343445
52.554363250732 -71.437362670898 -248.720840454102 0.787585377693
53.773735046387 -72.100013732910 -251.745849609375 2.122513055801
-14.727031707764 -67.743873596191 -246.431961059570 1.601672649384
-156.939010620117 -70.043815612793 -246.434555053711 2.004785537720
-158.264831542969 -67.117134094238 -247.336303710938 2.017790794373
-80.416564941406 -68.093833923340 -250.766128540039 2.767413139343
-91.913734436035 -76.900627136230 -253.992736816406 1.833571076393
-91.102943420410 -71.781646728516 -252.203430175781 1.620093226433
-89.909423828125 -67.318725585938 -254.466049194336 1.673817157745
-166.408111572266 -63.167217254639 -253.507965087891 5.591879367828
-128.439575195313 -71.410003662109 -255.665252685547 3.108473062515
42.819953918457 -69.860603332520 -258.325683593750 2.212782144547
-109.006340026855 -66.253890991211 -255.394409179688 2.464321613312
-128.986755371094 -67.947296142578 -253.319763183594 1.779046893120
-157.519638061523 -69.802406311035 -255.821655273438 1.791979670525
-174.372024536133 -68.267578125000 -258.192718505859 7.299540042877
33.944862365723 -71.629219055176 -261.536285400391 3.027162313461
30.121627807617 -75.041397094727 -262.922058105469 4.995001316071
-165.672622680664 -72.554260253906 -261.561035156250 1.003761768341
-139.566940307617 -70.608039855957 -258.627685546875 3.048444032669
-161.222808837891 -63.614719390869 -264.771759033203 4.800731658936
-171.163757324219 -69.722061157227 -274.908538818359 3.522463083267
17.812900543213 -67.834709167480 -271.572631835938 5.686928749084
-166.358535766602 -67.496345520020 -271.293365478516 3.902575016022
-163.560424804688 -69.363441467285 -268.087829589844 1.767668008804
-168.156738281250 -69.445770263672 -275.074951171875 1.350284576416
-12.570764541626 -69.291992187500 -277.609802246094 1.598536729813
-149.081680297852 -68.752281188965 -277.413970947266 3.486068248749
-164.389465332031 -70.168388366699 -282.348327636719 2.664532184601
-136.402725219727 -71.999397277832 -281.676422119141 3.060917377472
-139.080245971680 -69.303382873535 -282.036804199219 3.345322608948
-167.006240844727 -66.061706542969 -280.464324951172 5.560182571411
-98.491371154785 -68.841758728027 -280.869110107422 6.664555549622
-76.072227478027 -69.906463623047 -290.670196533203 0.639214754105
-86.885665893555 -65.247993469238 -290.371368408203 2.652061700821
-74.860450744629 -72.919097900391 -292.007324218750 3.486084222794
-153.563980102539 -67.579910278320 -291.001953125000 3.062394618988
-79.474929809570 -68.867614746094 -288.349517822266 1.321937561035
-132.525878906250 -71.975738525391 -293.765502929688 1.329790592194
-143.295471191406 -67.824401855469 -288.401428222656 1.428755998611
-149.359619140625 -66.311523437500 -295.000030517578 1.784110426903
-149.215286254883 -71.732170104980 -304.031341552734 4.717153072357
38.301429748535 -71.169929504395 -16.420618057251 2.077330589294
27.673925399780 -74.896362304688 -18.504596710205 2.739670276642
52.058689117432 -72.953361511230 -32.893085479736 3.461791276932
47.117610931396 -71.007713317871 -36.031967163086 1.548443794250
37.025363922119 -68.404319763184 -37.481792449951 2.430028915405
34.150527954102 -71.666122436523 -45.713146209717 3.745987415314
-57.297756195068 -64.626296997070 -49.120887756348 4.522821903229
-33.711048126221 -70.772689819336 -51.148803710938 2.198648214340
-79.012519836426 -67.370056152344 -55.738296508789 5.320820808411
-89.028152465820 -76.954833984375 -65.206527709961 5.349452495575
82.846855163574 -68.449081420898 -67.541641235352 3.574319362640
-11.811507225037 -70.492385864258 -69.698348999023 3.658543586731
-23.161697387695 -70.778259277344 -74.467315673828 0.919743061066
-23.352743148804 -68.804878234863 -75.991386413574 2.335424900055
-33.960857391357 -69.984474182129 -74.563316345215 2.346796274185
72.209701538086 -72.346939086914 -82.722984313965 2.289317607880
102.634819030762 -70.871345520020 -90.080543518066 2.229350090027
68.140785217285 -71.944114685059 -87.859489440918 2.208950519562
62.239051818848 -72.600456237793 -92.585700988770 0.919577538967
63.052524566650 -72.173545837402 -91.611099243164 1.993138074875
57.612567901611 -72.205787658691 -89.381965637207 1.750413537025
101.105247497559 -69.231643676758 -101.225463867188 0.810833752155
51.936782836914 -72.144294738770 -97.070137023926 2.808027029037
63.967899322510 -75.820281982422 -93.603050231934 4.023828983307
-96.873794555664 -69.180503845215 -92.160308837891 2.115479469299
44.616714477539 -72.586166381836 -102.086967468262 1.524751424789
100.109771728516 -66.227577209473 -104.537017822266 2.399423837662
-74.757545471191 -70.080375671387 -97.644332885742 1.552454590797
44.383823394775 -68.350700378418 -101.493041992188 2.075661182404
76.398536682129 -67.908843994141 -109.667182922363 3.496089220047
-76.701278686523 -76.274513244629 -102.956130981445 2.820396900177
41.741752624512 -74.023475646973 -108.517257690430 0.599288523197
53.961624145508 -70.234497070313 -109.384010314941 2.885772466660
-81.937843322754 -67.859397888184 -111.302299499512 2.385470151901
107.995735168457 -71.054023742676 -121.958618164063 2.067977905273
34.023387908936 -75.137092590332 -119.902183532715 1.090445637703
39.928943634033 -69.761016845703 -118.551101684570 1.332484722137
-92.836914062500 -68.535522460938 -123.302299499512 2.198814868927
37.146816253662 -75.308212280273 -123.904899597168 2.019718170166
35.807178497314 -76.064651489258 -121.241264343262 1.962489843369
109.511901855469 -72.525772094727 -124.955818176270 1.224868178368
-79.339302062988 -66.069015502930 -129.672729492188 1.383699178696
-57.875541687012 -68.780021667480 -128.068405151367 0.413959413767
-58.024387359619 -66.040145874023 -126.279983520508 1.078605771065
111.585960388184 -70.479873657227 -129.818679809570 0.887946069241
-76.532043457031 -68.742240905762 -128.803604125977 1.175159454346
108.620941162109 -72.162673950195 -141.672424316406 1.436217308044
-72.658889770508 -71.464530944824 -132.666427612305 1.417013883591
115.430572509766 -72.653297424316 -135.837539672852 2.236709833145
27.771705627441 -77.705627441406 -126.607147216797 2.200991868973
112.188339233398 -76.123825073242 -139.382583618164 1.179967164993
-78.655235290527 -67.048812866211 -132.525314331055 1.841932058334
-53.669475555420 -67.530555725098 -135.981689453125 2.116545677185
32.361022949219 -72.789443969727 -137.322204589844 1.577387690544
-61.160629272461 -71.692665100098 -136.793045043945 2.530678272247
-57.966926574707 -72.483390808105 -141.888366699219 0.842729508877
26.427579879761 -69.849960327148 -146.649826049805 2.225415468216
27.150970458984 -73.275794982910 -142.009674072266 0.899202525616
111.922225952148 -76.089767456055 -145.191543579102 2.262815237045
30.218063354492 -71.492843627930 -145.450881958008 2.207577943802
-79.612625122070 -71.524566650391 -138.003601074219 2.624671697617
-91.187980651855 -68.808601379395 -139.422592163086 1.187453508377
-59.478630065918 -69.996978759766 -142.552200317383 0.451076388359
-60.783622741699 -65.359001159668 -145.720886230469 3.259670495987
20.499395370483 -71.135780334473 -147.628723144531 2.498030900955
31.174625396729 -67.643333435059 -150.343338012695 2.017639398575
-43.255771636963 -70.797203063965 -147.889251708984 1.539419174194
-73.066619873047 -71.435432434082 -145.435729980469 1.593759179115
18.584440231323 -74.668846130371 -152.099456787109 3.296798706055
27.621709823608 -69.075843811035 -160.814971923828 1.891793847084
-46.250740051270 -70.656036376953 -155.227508544922 2.527464866638
27.432325363159 -70.354164123535 -154.989761352539 1.654854774475
-41.581233978271 -68.594108581543 -153.825698852539 2.237996101379
-97.862297058105 -66.298065185547 -153.436187744141 2.770072698593
-102.030380249023 -69.779792785645 -159.626113891602 2.188098669052
17.883510589600 -76.087844848633 -164.683288574219 2.467741966248
-47.197490692139 -73.446548461914 -162.194732666016 0.899883151054
-102.968460083008 -70.797370910645 -161.148651123047 2.221952915192
-100.448402404785 -69.570877075195 -165.383331298828 1.648317217827
-99.872428894043 -69.831428527832 -166.355041503906 2.080667734146
-33.912818908691 -68.497665405273 -163.688949584961 2.460276603699
-105.768501281738 -66.658439636230 -162.858840942383 0.611627936363
-35.006267547607 -69.152336120605 -171.009124755859 3.471537113190
-106.621109008789 -70.330345153809 -171.539093017578 1.466020345688
-31.713848114014 -72.895576477051 -174.417709350586 2.844293594360
-31.324329376221 -69.275711059570 -170.909790039063 1.855914235115
-108.361274719238 -72.782516479492 -177.133316040039 3.246185541153
18.094312667847 -69.320053100586 -174.677368164063 1.232398509979
-38.849666595459 -68.897789001465 -177.602767944336 3.428246736526
20.460021972656 -71.014427185059 -180.318298339844 2.200138092041
-36.570293426514 -69.619552612305 -175.255020141602 1.136045217514
-30.358186721802 -70.819007873535 -175.604064941406 1.607487320900
-34.429157257080 -71.000595092773 -177.179046630859 1.159852504730
-107.333702087402 -68.988334655762 -177.415740966797 1.149396061897
-28.032260894775 -67.866493225098 -183.147705078125 1.047703742981
-31.845983505249 -70.226997375488 -181.312866210938 1.342014431953
-140.933929443359 -68.525848388672 -174.605865478516 1.714188814163
-114.618225097656 -69.397178649902 -188.634979248047 1.902005076408
-107.068534851074 -69.951354980469 -183.906188964844 2.282170772552
-113.745513916016 -68.244415283203 -188.438751220703 1.554218411446
13.461168289185 -68.644844055176 -191.279159545898 2.878488779068
-24.826272964478 -67.347496032715 -188.249084472656 1.114892959595
12.760770797729 -72.956520080566 -194.404617309570 1.191370964050
-154.849121093750 -65.679336547852 -191.555603027344 2.628340721130
19.662574768066 -71.874725341797 -196.486114501953 1.454065084457
13.197950363159 -67.280029296875 -196.932800292969 2.262619018555
-121.119400024414 -66.221794128418 -190.848358154297 5.170957565308
-112.922645568848 -74.174461364746 -197.332046508789 2.955249309540
-21.564113616943 -71.480262756348 -198.316390991211 1.826173305511
-173.465377807617 -66.870544433594 -195.523880004883 9.206917762756
-166.537521362305 -69.043556213379 -202.957656860352 0.412199854851
-112.249908447266 -68.013397216797 -203.323791503906 1.563888311386
-15.921749114990 -74.378738403320 -208.634384155273 2.966580390930
-136.191146850586 -69.114311218262 -201.025512695313 3.097791910172
-11.110874176025 -67.783119201660 -212.307144165039 2.148951530457
15.072608947754 -68.074371337891 -211.435440063477 2.418876647949
-160.211761474609 -66.680747985840 -208.864028930664 0.893701970577
10.130435943604 -74.313789367676 -217.232864379883 2.831499338150
-162.544174194336 -67.459976196289 -211.857925415039 1.763302922249
-6.673038959503 -71.304580688477 -212.375091552734 1.935215353966
11.428745269775 -68.760414123535 -223.278625488281 1.552470803261
7.452098846436 -73.278015136719 -222.332275390625 1.333709955215
-3.697290897369 -70.417533874512 -219.591720581055 1.013846516609
-145.636505126953 -71.966407775879 -220.468658447266 1.521137595177
-159.794494628906 -69.591056823730 -216.888137817383 2.645713090897
-164.332550048828 -63.416046142578 -218.632781982422 4.290504932404
84.460121154785 -75.311912536621 -222.093185424805 1.489281177521
-5.626125812531 -70.676841735840 -227.967971801758 0.996388971806
-152.267730712891 -70.996002197266 -224.680496215820 1.797140359879
-135.569595336914 -63.801837921143 -220.233795166016 6.240383625031
78.649002075195 -69.737045288086 -231.802764892578 1.863423109055
70.052398681641 -75.919517517090 -233.654113769531 1.397116899490
73.807098388672 -66.608093261719 -229.692001342773 3.651887655258
-17.437479019165 -73.280624389648 -228.268936157227 0.703600525856
-155.570892333984 -71.867012023926 -226.874481201172 1.771567106247
-17.489059448242 -68.744384765625 -227.699569702148 1.324867963791
81.834571838379 -68.310104370117 -229.520629882813 3.343672275543
-109.613899230957 -68.479888916016 -228.783630371094 2.483808279037
-1.975535988808 -75.274078369141 -235.451049804688 2.383333444595
-169.171493530273 -70.728492736816 -223.983779907227 2.921976089478
-14.576169967651 -71.295257568359 -240.249130249023 2.236542940140
-4.800326824188 -73.307067871094 -235.941925048828 2.145756959915
-162.171859741211 -64.031486511230 -235.320312500000 2.975908041000
59.341457366943 -68.238739013672 -242.016754150391 0.845298290253
9.185882568359 -73.335800170898 -242.592407226563 0.444206386805
1.602949976921 -72.470916748047 -243.745605468750 1.966472983360
-160.901535034180 -75.854377746582 -234.132644653320 2.238136529922
-13.118845939636 -71.759803771973 -243.358810424805 1.605803370476
-164.132019042969 -66.797691345215 -243.404617309570 2.703057765961
-163.004577636719 -65.711822509766 -239.561447143555 1.982209086418
-163.579696655273 -74.869895935059 -241.918975830078 2.731029510498
47.999393463135 -70.040443420410 -250.266586303711 2.219206571579
51.446632385254 -74.675140380859 -251.059295654297 3.657593250275
-161.744522094727 -71.629974365234 -244.279144287109 2.691394567490
-164.629547119141 -65.426376342773 -248.050277709961 3.816972970963
-166.631469726563 -65.622665405273 -246.154754638672 2.383693933487
42.892654418945 -72.492874145508 -252.793548583984 2.071884155273
39.570335388184 -68.267761230469 -255.880050659180 2.383203029633
-162.830307006836 -67.760643005371 -250.845352172852 1.377681374550
32.625045776367 -72.340400695801 -258.964080810547 2.163955211639
-101.589248657227 -65.503326416016 -253.200164794922 3.783551454544
-83.231353759766 -71.730278015137 -254.820434570313 0.982697665691
-164.730834960938 -68.364830017090 -252.239242553711 1.969539165497
-141.363204956055 -66.190208435059 -255.679443359375 1.975208044052
-110.260238647461 -67.009567260742 -254.742950439453 2.370216369629
33.386005401611 -70.048957824707 -256.908660888672 1.909673690796
-143.792678833008 -67.802062988281 -250.897430419922 1.618183135986
21.603155136108 -72.920585632324 -261.518432617188 2.331082105637
44.368007659912 -74.142585754395 -259.885986328125 5.915917873383
-100.956008911133 -67.036476135254 -256.745971679688 0.862460672855
-101.575660705566 -69.404777526855 -258.216064453125 2.285236120224
-164.916961669922 -71.862724304199 -262.131378173828 2.142153501511
-115.228889465332 -66.752799987793 -261.950317382813 0.600751578808
-145.396652221680 -70.921279907227 -259.306854248047 2.538980245590
-168.135803222656 -64.853416442871 -259.385040283203 4.811445713043
27.955934524536 -70.002021789551 -265.858306884766 2.803265333176
-131.849288940430 -72.249801635742 -260.165893554688 3.144039154053
-13.536219596863 -67.984405517578 -265.853485107422 2.441359281540
-152.511291503906 -70.117370605469 -276.060241699219 2.845992326736
-14.964617729187 -73.259819030762 -268.656768798828 1.940698623657
-10.755412101746 -75.388748168945 -274.718658447266 2.020807266235
-20.658792495728 -66.655715942383 -276.896911621094 8.252812385559
-13.409100532532 -68.790321350098 -278.234954833984 2.628273963928
-157.855270385742 -72.021255493164 -279.716003417969 3.274780511856
-129.870071411133 -70.720222473145 -284.056854248047 3.685633182526
-11.940834999084 -68.764961242676 -289.891571044922 2.693228006363
-12.254644393921 -75.366790771484 -289.929809570313 1.217196941376
-118.203193664551 -65.212776184082 -288.258026123047 1.440886974335
-104.160530090332 -60.740493774414 -288.206939697266 7.026994705200
-114.863891601563 -67.020286560059 -285.513244628906 3.515335321426
-161.155883789063 -65.355537414551 -287.930755615234 3.426252603531
-100.572273254395 -71.633323669434 -290.830291748047 1.732084751129
-142.440475463867 -65.419586181641 -290.778656005859 1.942700147629
-123.176780700684 -64.085464477539 -291.612213134766 2.758465051651
-0.955119013786 -69.811218261719 -292.139373779297 1.551972508430
-157.457473754883 -66.715408325195 -294.520111083984 3.277686834335
-158.534332275391 -63.320438385010 -306.049041748047 7.075391292572
-155.903915405273 -70.823158264160 -309.646942138672 1.870656847954
37.484695434570 -67.448669433594 -13.628764152527 3.815368652344
37.027805328369 -69.805664062500 -19.404176712036 1.910387277603
44.931743621826 -67.498321533203 -27.810184478760 2.670160055161
24.485012054443 -70.829574584961 -33.270191192627 2.789367675781
24.101825714111 -69.789024353027 -34.376747131348 1.594128131866
45.502895355225 -74.500076293945 -37.636531829834 3.238858699799
-52.337810516357 -73.060356140137 -43.680595397949 5.433477401733
-38.329589843750 -72.186347961426 -49.484844207764 0.953904807568
-32.557395935059 -73.276374816895 -54.391426086426 0.889467239380
-79.296691894531 -71.380378723145 -55.180938720703 2.694532155991
-14.087647438049 -72.141510009766 -58.992782592773 4.033292293549
-18.350969314575 -65.595558166504 -62.761730194092 4.497598648071
87.858703613281 -68.270912170410 -64.647850036621 0.617281794548
-12.634152412415 -77.888359069824 -72.977478027344 6.613036155701
-94.826278686523 -70.760818481445 -74.318275451660 3.375749826431
101.566528320313 -74.251976013184 -75.834655761719 3.321397304535
-24.547691345215 -72.207420349121 -77.682655334473 1.328800082207
-44.925010681152 -70.869255065918 -84.622802734375 2.363312959671
108.901657104492 -70.184349060059 -85.537315368652 6.104602813721
104.673965454102 -71.982177734375 -91.496963500977 4.220978260040
68.199157714844 -73.495742797852 -91.023880004883 3.392170906067
104.453048706055 -69.443168640137 -99.549186706543 1.415122032166
63.357814788818 -66.267173767090 -101.766143798828 4.160605430603
-65.807891845703 -75.061691284180 -96.204223632813 1.912349224091
108.655395507813 -70.385330200195 -103.989723205566 1.847967028618
49.826648712158 -70.016967773438 -106.645126342773 1.558670163155
72.105758666992 -66.804649353027 -104.345474243164 1.464891076088
-76.448471069336 -67.906181335449 -104.277359008789 0.630451619625
75.922592163086 -71.910858154297 -111.366928100586 7.258928775787
84.220573425293 -65.672065734863 -110.521751403809 4.363734722137
40.698383331299 -68.914321899414 -107.589057922363 1.926089882851
-72.936248779297 -69.391044616699 -106.801780700684 1.983071208000
106.496841430664 -67.104324340820 -113.817337036133 0.250341355801
113.230903625488 -68.403869628906 -120.032173156738 1.470588207245
45.620738983154 -71.823974609375 -114.144348144531 2.062404155731
-91.805015563965 -72.647399902344 -113.961677551270 2.382269382477
108.868049621582 -69.892158508301 -129.662353515625 2.093385457993
-79.723396301270 -70.529876708984 -113.340545654297 1.530987381935
-89.991744995117 -72.243270874023 -116.768363952637 0.874313473701
-78.085220336914 -74.855491638184 -124.839653015137 5.100431919098
-64.062309265137 -67.565498352051 -121.744125366211 3.147189378738
-53.330314636230 -68.393257141113 -129.349990844727 0.680733263493
-74.158432006836 -71.388099670410 -133.262481689453 2.190898656845
-80.806587219238 -73.728134155273 -132.432708740234 3.059130668640
-61.495231628418 -69.915634155273 -129.417449951172 1.063506364822
-77.877655029297 -68.287857055664 -131.403366088867 1.393556118011
-76.535675048828 -63.876293182373 -136.888778686523 2.674298763275
-48.115066528320 -72.289062500000 -135.825988769531 0.751044213772
-50.867801666260 -67.232276916504 -139.318756103516 1.960238337517
24.012067794800 -68.888900756836 -145.341384887695 3.322111845016
-93.732185363770 -66.349296569824 -142.442886352539 1.947498679161
18.688579559326 -70.370544433594 -145.170074462891 1.884751915932
-68.088127136230 -73.916183471680 -146.517730712891 1.253262758255
26.806030273438 -71.664466857910 -149.190078735352 1.031784176826
-101.308761596680 -65.899162292480 -147.348129272461 3.213633298874
14.460391044617 -64.898674011230 -146.151824951172 1.379808545113
-95.779129028320 -73.098403930664 -150.245971679688 4.206136226654
-43.448978424072 -69.792587280273 -149.823883056641 1.949063420296
10.058831214905 -71.078056335449 -157.206192016602 2.282775640488
6.394080162048 -64.839057922363 -152.037536621094 4.759156227112
10.239068984985 -68.919548034668 -158.891738891602 1.546865701675
31.144622802734 -73.338928222656 -157.535415649414 1.596499443054
27.008642196655 -68.815345764160 -164.826507568359 1.332350373268
21.672407150269 -68.864067077637 -163.425445556641 2.387303590775
19.045835494995 -70.104042053223 -165.357543945313 2.035112857819
20.426504135132 -65.841979980469 -171.449417114258 2.374545097351
-104.180526733398 -73.685401916504 -164.528579711914 4.797809123993
31.722053527832 -70.317871093750 -176.792236328125 4.893442153931
-106.317703247070 -73.393875122070 -174.875473022461 4.628590106964
-109.516937255859 -69.791641235352 -176.083923339844 2.826824188232
-110.049278259277 -69.310569763184 -179.619537353516 1.149390339851
17.348371505737 -68.418708801270 -185.711883544922 1.176642656326
19.486236572266 -69.755691528320 -187.590942382813 3.094156980515
-29.761566162109 -69.559486389160 -187.681854248047 2.455031156540
16.930677413940 -67.989341735840 -191.884750366211 1.600337624550
-25.559547424316 -73.802536010742 -192.277465820313 1.735545277596
-114.072006225586 -65.456916809082 -191.547821044922 1.476995468140
-25.926860809326 -72.982505798340 -202.598114013672 1.999172091484
-165.423934936523 -65.492401123047 -193.715621948242 5.805861473083
-116.863769531250 -65.892494201660 -196.348495483398 2.126506090164
-23.266695022583 -69.647247314453 -200.687362670898 2.462087869644
8.669463157654 -67.629020690918 -202.590866088867 2.928527832031
18.498100280762 -72.537490844727 -204.043563842773 1.342063784599
-160.253143310547 -70.004486083984 -201.151550292969 2.445867776871
-11.000363349915 -66.832031250000 -205.009857177734 2.381558895111
-157.130798339844 -69.441253662109 -200.452392578125 1.671835660934
-160.840560913086 -66.966392517090 -202.493530273438 2.316089630127
6.567389011383 -65.636863708496 -210.037002563477 4.499521255493
17.958711624146 -65.980812072754 -215.201614379883 4.148754119873
-156.753234863281 -68.301467895508 -203.600341796875 2.453121662140
-148.503875732422 -64.179534912109 -204.093383789063 2.235798835754
10.758625030518 -69.369987487793 -211.424026489258 1.477843284607
-15.177907943726 -67.699920654297 -215.577713012695 2.651619195938
-9.765329360962 -69.317855834961 -220.360244750977 1.766005158424
-168.959274291992 -66.968444824219 -211.604812622070 3.691446065903
-11.626324653625 -66.674987792969 -218.209960937500 2.061095952988
-158.408294677734 -67.508560180664 -212.514419555664 1.248819947243
-153.096893310547 -66.819900512695 -207.537338256836 1.197196125984
-6.328649997711 -73.143501281738 -215.884094238281 1.938535928726
-148.216201782227 -72.020278930664 -222.590087890625 1.971354365349
-19.100959777832 -72.362953186035 -221.969848632813 1.700005292892
-163.723785400391 -66.437362670898 -218.412841796875 2.929521322250
-169.324432373047 -69.249435424805 -223.543289184570 3.090495824814
-3.057732105255 -70.684356689453 -231.100952148438 0.915758669376
-162.116271972656 -69.586433410645 -222.535842895508 2.743696689606
-116.962387084961 -70.336532592773 -222.909957885742 2.214118242264
-136.908691406250 -70.465446472168 -223.050933837891 3.222128152847
-146.533538818359 -66.387748718262 -225.362579345703 2.355494976044
-119.639015197754 -65.177001953125 -228.567657470703 1.627817392349
-155.831497192383 -72.213012695313 -230.069335937500 1.704730153084
-150.709045410156 -58.983142852783 -228.525741577148 3.390584230423
-161.652725219727 -70.064544677734 -226.741790771484 3.064913511276
-117.174636840820 -64.445266723633 -233.276184082031 1.620738506317
-159.468078613281 -73.711746215820 -230.490722656250 2.402749776840
-146.703338623047 -64.464736938477 -234.121948242188 2.282258987427
-167.035324096680 -72.019515991211 -233.050796508789 2.385457515717
-119.781044006348 -67.468017578125 -231.579620361328 3.232148885727
-169.132171630859 -64.934669494629 -232.439956665039 5.523575782776
75.290161132813 -71.946388244629 -237.513809204102 1.866491198540
-3.271183013916 -66.124031066895 -240.969390869141 2.212946891785
-147.129882812500 -64.527000427246 -231.527404785156 2.079068183899
0.032848000526 -68.109634399414 -236.320816040039 1.821665644646
-2.186614990234 -68.646034240723 -237.344314575195 1.447026968002
-12.084774971008 -69.449127197266 -238.535293579102 1.099600195885
-3.468292951584 -66.042755126953 -245.106063842773 1.474996805191
-171.714172363281 -65.786590576172 -241.068588256836 5.910047531128
60.026527404785 -64.061874389648 -238.411376953125 4.335227966309
-154.875213623047 -67.371414184570 -240.831970214844 2.461129665375
49.537673950195 -67.268508911133 -244.633132934570 2.451418876648
45.890960693359 -67.526367187500 -247.087814331055 1.763744950294
42.932708740234 -70.271873474121 -250.537628173828 1.481992125511
-145.365386962891 -71.675170898438 -248.195861816406 2.165371179581
42.659011840820 -67.505187988281 -250.006134033203 1.422996282578
42.860050201416 -69.261520385742 -255.976379394531 2.012297630310
-158.317153930664 -66.985626220703 -249.843414306641 1.960197806358
44.744647979736 -73.347732543945 -254.408325195313 2.283015489578
-129.514953613281 -65.434608459473 -249.053466796875 6.094570159912
40.397583007813 -75.179183959961 -259.523712158203 5.450362205505
28.634057998657 -65.975509643555 -259.833160400391 1.813359379768
-141.128051757813 -72.185035705566 -253.351425170898 2.855240583420
-123.495788574219 -70.785743713379 -256.679931640625 1.062572002411
43.036235809326 -71.666870117188 -261.158477783203 4.431658267975
30.781612396240 -66.141906738281 -260.067077636719 0.180029153824
-8.913605690002 -75.288085937500 -262.770355224609 4.060755729675
29.965194702148 -72.882827758789 -261.147613525391 3.329478025436
-118.468330383301 -64.670234680176 -263.250946044922 1.230909466743
25.230873107910 -70.510498046875 -262.427246093750 1.066507458687
-117.651420593262 -68.977455139160 -262.029998779297 1.273009181023
-151.220611572266 -67.925132751465 -261.722381591797 0.690659523010
23.544805526733 -66.652252197266 -268.815673828125 3.328972101212
-8.589477539063 -71.674888610840 -266.204956054688 4.973943233490
-15.431617736816 -69.675941467285 -275.650665283203 2.801518678665
-148.477050781250 -65.798210144043 -275.016479492188 1.885542750359
17.318878173828 -67.555404663086 -277.910888671875 2.540091753006
-135.410461425781 -66.181343078613 -286.500854492188 2.149477481842
-157.598831176758 -65.842437744141 -288.936889648438 2.883717298508
-126.631530761719 -67.576995849609 -282.668426513672 3.273350000381
-115.342727661133 -70.781738281250 -282.638519287109 3.710934162140
-146.027465820313 -64.933792114258 -289.227508544922 1.937448501587
-136.343444824219 -66.922935485840 -288.311889648438 1.728516101837
-137.927124023438 -63.348957061768 -291.665832519531 3.997054815292
-155.197921752930 -67.181915283203 -295.794952392578 2.470062971115
-152.759872436523 -65.130645751953 -306.779754638672 1.318976879120
-148.366210937500 -63.687290191650 -305.845794677734 3.733455419540
31.708175659180 -70.201271057129 -18.137670516968 0.814088582993
29.080621719360 -67.966934204102 -17.966646194458 2.421332597733
43.545993804932 -71.971664428711 -25.777238845825 1.907916903496
56.667709350586 -64.776649475098 -29.854171752930 7.682091236115
20.723878860474 -73.015159606934 -33.914909362793 0.995076060295
-61.104957580566 -70.201248168945 -42.524742126465 4.405484676361
-55.864723205566 -69.884658813477 -49.389533996582 0.725863754749
-66.967338562012 -71.153213500977 -45.765354156494 0.500324666500
-79.126380920410 -68.768463134766 -43.378711700439 6.431617736816
-17.825515747070 -69.684791564941 -53.468887329102 3.983180522919
-85.931999206543 -71.350868225098 -53.573253631592 3.564840078354
-93.593688964844 -62.163425445557 -59.016155242920 2.300611734390
83.101425170898 -75.507820129395 -66.400779724121 4.667112827301
-12.112707138062 -68.559669494629 -65.954513549805 1.666553497314
-94.231437683105 -66.130836486816 -71.147399902344 2.485251188278
105.058975219727 -76.048202514648 -83.994567871094 6.259128093719
105.921989440918 -68.111503601074 -86.136192321777 2.600641489029
-95.449966430664 -73.036865234375 -82.217559814453 1.878705739975
-45.733814239502 -69.815032958984 -83.713386535645 1.352781057358
-54.562171936035 -68.491622924805 -88.171676635742 3.236090898514
-96.683792114258 -66.530609130859 -87.398147583008 3.066959619522
-96.049263000488 -71.107734680176 -98.964004516602 3.284010410309
63.981266021729 -71.593132019043 -96.028152465820 3.134053230286
52.129173278809 -63.880142211914 -98.052505493164 1.249517202377
-67.779685974121 -65.925964355469 -102.146278381348 2.192024707794
59.045307159424 -76.133834838867 -102.111831665039 4.077213287354
54.153182983398 -69.596488952637 -102.693237304688 1.703964352608
100.089981079102 -70.537803649902 -103.176376342773 1.899062871933
-67.513748168945 -71.978065490723 -100.069602966309 2.501787900925
65.621307373047 -69.152633666992 -106.873695373535 6.671321392059
-78.214477539063 -69.711502075195 -103.053276062012 2.424580812454
112.445884704590 -66.379478454590 -110.572906494141 2.094160556793
-73.436958312988 -67.091392517090 -107.012603759766 2.160134553909
85.043685913086 -67.958961486816 -111.154037475586 4.889324188232
104.372680664063 -70.366836547852 -109.362480163574 2.590759515762
-80.748817443848 -69.728424072266 -109.006652832031 2.176648378372
-88.093460083008 -67.366180419922 -116.549163818359 1.125139832497
-81.509155273438 -73.657493591309 -120.952461242676 3.168448448181
-81.395545959473 -70.048690795898 -116.263259887695 2.008969306946
-74.618667602539 -65.398422241211 -124.076576232910 2.460905790329
-97.697921752930 -70.365287780762 -118.047119140625 2.034172534943
-60.110374450684 -64.018051147461 -121.193931579590 2.330916404724
-82.703773498535 -66.719070434570 -128.083953857422 1.162483334541
-76.316383361816 -68.765655517578 -126.669273376465 1.877573370934
-91.130828857422 -67.663864135742 -130.006607055664 0.777188956738
-53.149429321289 -66.720703125000 -132.021911621094 1.287591814995
-54.008079528809 -65.850914001465 -131.636611938477 1.072036862373
-77.069999694824 -70.764671325684 -134.198455810547 1.373115181923
-59.439590454102 -67.735076904297 -134.710067749023 1.619119405746
-72.148918151855 -68.282562255859 -133.891876220703 1.376721501350
-57.243667602539 -70.440505981445 -140.249038696289 1.391010522842
-44.137470245361 -67.248512268066 -143.801620483398 1.328987121582
-74.620346069336 -67.854278564453 -140.174591064453 1.372132539749
25.607351303101 -63.668735504150 -148.179656982422 4.880132675171
-49.084018707275 -68.479095458984 -149.531005859375 0.985969781876
-96.907791137695 -68.596061706543 -150.607116699219 1.200268745422
-97.538795471191 -66.902267456055 -149.023193359375 1.934739470482
-111.654243469238 -65.826568603516 -168.620040893555 3.840833425522
-105.794387817383 -63.599395751953 -173.349472045898 1.527959108353
-146.274093627930 -69.754554748535 -173.138885498047 2.702883481979
17.238756179810 -66.563987731934 -182.331710815430 3.043209314346
-113.327568054199 -68.063758850098 -183.504379272461 2.053595304489
-142.813415527344 -69.969337463379 -183.491638183594 2.649319648743
13.725187301636 -65.823211669922 -193.786911010742 1.245527744293
-153.366027832031 -65.058914184570 -190.059677124023 2.702239036560
14.927207946777 -63.437301635742 -194.261062622070 3.163518428802
13.409695625305 -65.884887695313 -187.241378784180 3.699784517288
-153.427200317383 -68.496063232422 -192.520401000977 1.403684496880
-125.089721679688 -66.822509765625 -190.874771118164 4.308117866516
-135.562011718750 -66.886016845703 -196.388931274414 1.794376611710
-158.784057617188 -69.022201538086 -196.474243164063 1.822994470596
-23.152280807495 -66.121742248535 -199.575042724609 3.194328546524
-156.739883422852 -66.995635986328 -196.989593505859 2.218477487564
12.316514015198 -64.469467163086 -198.956619262695 4.064648151398
11.754875183105 -71.577873229980 -203.881027221680 2.492444515228
-167.441299438477 -69.090072631836 -200.874893188477 2.191630840302
-119.642028808594 -68.693061828613 -203.188674926758 3.367595434189
-136.789306640625 -68.434738159180 -200.341522216797 3.857043027878
-122.721603393555 -69.350448608398 -201.280075073242 1.848724722862
-160.943145751953 -63.523075103760 -205.406707763672 4.300185680389
-14.882296562195 -67.919364929199 -213.280273437500 1.028372526169
-161.574005126953 -66.295234680176 -208.337051391602 2.089447975159
-15.541954040527 -72.097038269043 -208.758239746094 3.201735973358
-9.120779991150 -69.755653381348 -210.049011230469 2.243199825287
-169.909835815430 -66.645065307617 -210.029602050781 4.184258937836
-3.300688028336 -62.438102722168 -226.026458740234 4.493591785431
-110.184463500977 -71.157752990723 -221.642532348633 2.168934345245
-110.627159118652 -69.382354736328 -224.214157104492 1.377245545387
-106.161987304688 -67.913909912109 -222.680831909180 1.311088442802
-127.601966857910 -66.650161743164 -227.004547119141 1.830217123032
-147.543106079102 -66.718856811523 -220.570495605469 1.479235053062
-0.413255989552 -72.623802185059 -232.492309570313 1.830851674080
-6.977368831635 -63.057563781738 -225.441558837891 4.484558105469
6.522987842560 -70.851997375488 -229.829315185547 2.598303556442
2.631406068802 -63.874923706055 -232.940841674805 2.290745496750
-7.773295879364 -70.132957458496 -231.131622314453 1.824393868446
-9.624735832214 -63.179420471191 -239.998931884766 3.656977176666
-8.635114669800 -72.436950683594 -234.925674438477 1.141955256462
56.057582855225 -71.392913818359 -243.826660156250 1.584205508232
-8.753492355347 -69.146453857422 -244.316513061523 2.460470914841
2.149236917496 -69.164581298828 -240.705734252930 1.501955866814
10.716984748840 -69.926269531250 -250.358215332031 5.618988513947
49.575618743896 -64.568321228027 -245.021301269531 3.111568450928
55.952308654785 -68.492530822754 -247.483581542969 2.323272466660
37.324760437012 -68.610496520996 -262.361907958984 3.257174730301
43.578594207764 -69.040008544922 -259.816833496094 3.178140640259
-12.799436569214 -72.184051513672 -251.467498779297 1.414605736732
-137.302536010742 -67.207260131836 -255.137527465820 2.593234777451
29.249856948853 -64.787109375000 -255.542236328125 2.095347881317
-107.130508422852 -66.530830383301 -256.263397216797 0.622018039227
-140.671844482422 -58.914375305176 -259.657165527344 3.897762298584
-116.255538940430 -65.693565368652 -258.628631591797 1.523501157761
-114.612594604492 -69.488159179688 -258.168060302734 1.260436892509
-117.605606079102 -69.676063537598 -258.588256835938 2.338053941727
-122.005813598633 -61.322498321533 -259.984741210938 4.464577198029
-121.218467712402 -63.608360290527 -261.725952148438 3.593352556229
-143.598709106445 -71.193008422852 -261.719360351563 1.920151233673
-122.226348876953 -73.798927307129 -262.556701660156 1.246756434441
-133.972640991211 -69.338737487793 -260.587127685547 2.670430898666
24.296474456787 -65.132293701172 -269.000061035156 2.948330402374
-145.497421264648 -66.908721923828 -262.598449707031 1.646993637085
-10.732021331787 -69.513908386230 -268.845825195313 1.855999708176
-155.804092407227 -65.442214965820 -264.120086669922 2.514639854431
-8.333201408386 -71.335067749023 -283.748077392578 1.270645737648
20.237346649170 -62.655548095703 -285.902984619141 1.944522619247
-9.551248550415 -68.321289062500 -286.561157226563 2.522941350937
-140.136566162109 -65.830642700195 -283.751312255859 3.772629499435
-150.640670776367 -67.442703247070 -292.437347412109 1.741209149361
-137.531753540039 -66.874618530273 -292.678558349609 2.190144300461
-154.051849365234 -62.479705810547 -290.420227050781 1.905162572861
-149.979980468750 -66.657157897949 -303.287536621094 1.965702772141
-158.207489013672 -70.435997009277 -307.894775390625 2.074546098709
36.516189575195 -68.786331176758 -16.958770751953 2.353474617004
21.781553268433 -61.929428100586 -18.944690704346 0.822718203068
45.770092010498 -68.429145812988 -21.033296585083 3.171160697937
46.628215789795 -59.497638702393 -33.692295074463 1.175171732903
42.407772064209 -72.030143737793 -36.765663146973 2.532039165497
38.340591430664 -67.576385498047 -42.143569946289 3.559491872787
34.205642700195 -65.989700317383 -40.866504669189 2.349783658981
41.060081481934 -63.426471710205 -47.950138092041 7.316574096680
-44.907554626465 -73.334243774414 -49.680404663086 1.998979806900
-77.804962158203 -69.677780151367 -50.083370208740 1.535718798637
82.560340881348 -66.582321166992 -62.436401367188 1.149706602097
79.181846618652 -72.326606750488 -69.900772094727 1.686610460281
101.685424804688 -66.307151794434 -72.528678894043 2.308522224426
-90.074752807617 -66.824623107910 -62.220085144043 2.256482124329
97.869522094727 -67.989761352539 -76.681457519531 3.770644426346
-18.294139862061 -63.115562438965 -71.341644287109 4.850946903229
-94.877670288086 -67.873725891113 -68.170890808105 3.231551408768
-26.323886871338 -69.980773925781 -75.672828674316 2.306852817535
-37.334739685059 -67.444229125977 -82.166374206543 4.669570446014
-38.299270629883 -65.135627746582 -82.291885375977 3.767872810364
-96.650917053223 -66.339859008789 -74.905494689941 1.939718484879
-94.925590515137 -70.846923828125 -84.426223754883 1.797446012497
64.198303222656 -67.186218261719 -88.746795654297 1.947104454041
52.654689788818 -71.046791076660 -94.304367065430 1.639028787613
-64.017089843750 -67.779144287109 -90.411666870117 1.761299610138
50.983516693115 -73.199218750000 -97.723846435547 1.516850709915
51.680973052979 -71.905799865723 -97.607467651367 2.915852546692
66.947334289551 -61.917369842529 -103.096664428711 1.959324836731
50.122848510742 -65.249732971191 -104.222274780273 2.036780834198
42.878562927246 -63.551963806152 -103.900444030762 4.683187961578
-78.824729919434 -68.991813659668 -109.729347229004 0.978677392006
-87.264373779297 -67.025238037109 -105.592658996582 1.343022823334
-85.169036865234 -62.270835876465 -110.255447387695 2.750344038010
-61.167808532715 -67.464950561523 -115.591453552246 2.818170785904
-89.286834716797 -72.205146789551 -120.725761413574 3.318504571915
-56.407016754150 -72.155342102051 -125.486114501953 2.109942197800
-78.913032531738 -66.145317077637 -123.448684692383 1.015982031822
-55.507202148438 -65.861633300781 -128.033905029297 0.573498070240
-83.372291564941 -68.269065856934 -127.630851745605 1.273860216141
-79.186569213867 -68.347862243652 -135.177352905273 2.073394060135
-48.839504241943 -67.037330627441 -134.976547241211 1.397660851479
-76.170974731445 -71.954872131348 -131.794479370117 1.717851161957
-73.598289489746 -64.355667114258 -137.136184692383 1.811806321144
-57.543312072754 -64.526397705078 -137.041137695313 0.177383154631
21.354169845581 -67.627143859863 -149.998977661133 2.659566879272
-47.811275482178 -68.796173095703 -143.292724609375 1.414794325829
-98.909355163574 -60.048572540283 -147.418487548828 3.753844499588
-89.218147277832 -62.727485656738 -145.604095458984 2.782658576965
14.028270721436 -66.192947387695 -154.813796997070 2.262766838074
-104.142189025879 -66.710609436035 -169.290222167969 1.924612522125
-110.530761718750 -66.799575805664 -171.020370483398 3.288727521896
-143.316741943359 -70.077217102051 -171.446624755859 3.672658920288
-152.531143188477 -66.273689270020 -175.521759033203 2.391469240189
-115.000106811523 -70.572181701660 -189.909698486328 2.545931339264
-158.437973022461 -68.468215942383 -186.608673095703 5.538179874420
-143.879241943359 -70.679367065430 -189.981613159180 2.146798372269
-156.283004760742 -66.801315307617 -198.786468505859 2.877277374268
-138.277084350586 -65.928932189941 -194.019531250000 4.364672183990
-148.706954956055 -60.150028228760 -195.288345336914 0.962208569050
-142.749984741211 -67.329719543457 -199.224884033203 2.465169668198
-128.580825805664 -71.824699401855 -205.855056762695 3.135929822922
-146.028640747070 -64.813606262207 -210.709838867188 1.353002548218
-148.044769287109 -63.571205139160 -222.823822021484 1.426776528358
-109.337097167969 -64.938285827637 -225.293746948242 1.147025585175
-108.206588745117 -71.511863708496 -229.961029052734 2.136985778809
-145.116012573242 -69.540718078613 -225.985351562500 2.344826698303
-139.606567382813 -63.730838775635 -230.049468994141 2.046693563461
-2.876477003098 -65.961372375488 -230.623596191406 1.332598924637
-0.554989993572 -62.793201446533 -243.761062622070 1.949405312538
-124.998992919922 -71.031295776367 -236.718353271484 2.068879842758
-153.209854125977 -63.872077941895 -236.646896362305 2.213562488556
1.336722970009 -71.812210083008 -234.382888793945 1.481801390648
-9.200064659119 -67.322021484375 -242.173873901367 1.210429549217
13.994158744812 -66.639015197754 -246.089904785156 3.108416557312
56.738693237305 -69.374946594238 -242.944946289063 1.213899493217
58.065128326416 -63.582988739014 -248.935546875000 4.225791454315
45.280616760254 -66.161537170410 -250.087936401367 1.815255403519
-154.212005615234 -63.145454406738 -250.838333129883 2.786391496658
34.429111480713 -66.713829040527 -261.157226562500 1.050562024117
-124.612144470215 -68.204811096191 -258.455780029297 0.944144308567
28.146333694458 -74.010932922363 -261.577575683594 3.742594957352
-153.374893188477 -67.932670593262 -255.657089233398 2.598013877869
-148.748687744141 -68.350952148438 -257.116119384766 1.174401044846
-127.057350158691 -63.393524169922 -261.304992675781 2.222901105881
-3.609589099884 -68.437889099121 -265.598815917969 2.406318664551
-3.549087047577 -70.798362731934 -280.730743408203 4.351157188416
-151.833679199219 -69.431304931641 -275.084259033203 3.194394111633
-8.848964691162 -66.352653503418 -282.010375976563 1.609036564827
-156.844665527344 -66.572242736816 -280.244323730469 4.733100891113
-133.572555541992 -65.195381164551 -284.638000488281 2.835796117783
-130.061645507813 -68.382850646973 -290.179595947266 2.260609626770
6.266029834747 -62.869739532471 -291.464385986328 2.920766353607
-125.600746154785 -63.372962951660 -293.170562744141 3.618507862091
-135.888626098633 -67.041496276855 -292.146392822266 2.265083312988
-136.877502441406 -61.116783142090 -282.624816894531 6.695515155792
4.483225822449 -74.644691467285 -291.134735107422 2.556323766708
-2.486843109131 -63.732231140137 -288.036193847656 2.250647783279
-152.191528320313 -63.703739166260 -289.322326660156 1.637973904610
38.454444885254 -69.978019714355 -22.052690505981 3.122298240662
53.718463897705 -67.054878234863 -21.943853378296 4.571003913879
44.499286651611 -63.942966461182 -34.791210174561 2.673747301102
-48.237609863281 -71.575119018555 -43.070384979248 5.044136047363
-44.334976196289 -62.637195587158 -45.708892822266 1.328181505203
-48.289485931396 -70.376274108887 -45.125637054443 3.020513296127
-33.726863861084 -69.131637573242 -48.044536590576 3.532403230667
-86.122741699219 -66.422256469727 -53.108436584473 1.523737907410
-15.430719375610 -66.591354370117 -53.878589630127 3.033255577087
-14.060717582703 -65.383415222168 -56.735095977783 1.692842125893
-87.572029113770 -61.855426788330 -62.707008361816 6.185120105743
-92.495925903320 -63.661834716797 -67.179191589355 3.599512338638
90.847320556641 -69.358406066895 -70.463645935059 2.542053461075
-9.794051170349 -69.606613159180 -68.228439331055 4.125034809113
70.398262023926 -67.159820556641 -64.630592346191 1.994004487991
-27.562183380127 -66.595939636230 -71.070228576660 3.606945753098
-92.704742431641 -66.728195190430 -73.849342346191 4.172536373138
-39.860523223877 -62.011558532715 -80.196029663086 1.793612241745
-98.777053833008 -66.252639770508 -75.492462158203 2.076378822327
-57.923347473145 -67.741317749023 -84.571464538574 4.373840808868
107.953506469727 -66.711845397949 -97.912254333496 2.901102781296
60.019374847412 -62.048191070557 -89.830307006836 2.420123577118
-98.213333129883 -66.197265625000 -98.595848083496 2.807587385178
-64.334472656250 -59.685218811035 -100.622795104980 3.943712949753
49.450992584229 -71.449256896973 -104.115364074707 1.258336305618
