-58.459144592285 -85.288040161133 -82.673095703125 2.620998144150
-65.337837219238 -82.943069458008 -87.102233886719 3.466467142105
-70.529563903809 -86.687355041504 -92.749725341797 1.896655201912
-73.569015502930 -90.678535461426 -85.922752380371 6.173145771027
-65.952270507813 -83.484428405762 -92.921180725098 3.391221284866
-80.505424499512 -91.067504882813 -102.269088745117 5.260232448578
-83.675476074219 -89.149658203125 -98.627479553223 4.134800434113
-37.952388763428 -85.978126525879 -190.135818481445 1.803481936455
-42.678623199463 -81.891975402832 -192.919860839844 0.415509253740
-43.453063964844 -87.342933654785 -198.543640136719 1.569542765617
-48.657318115234 -84.559806823730 -196.395919799805 1.166225790977
0.300072997808 -79.794609069824 -259.693054199219 4.755970954895
-1.210227012634 -85.398864746094 -270.925170898438 1.097281455994
1.529734015465 -85.677032470703 -268.444824218750 2.319583177567
-154.099044799805 -84.360778808594 -276.367431640625 2.750895977020
-152.807250976563 -86.717224121094 -278.196624755859 3.220948696136
-159.854293823242 -88.090431213379 -283.545867919922 7.976407527924
-150.332412719727 -84.708847045898 -286.395965576172 0.694761872292
-153.596145629883 -84.749374389648 -289.056518554688 1.707740664482
-156.559875488281 -83.615142822266 -291.691589355469 2.653810501099
-60.018985748291 -82.598953247070 -78.967079162598 2.676025152206
-49.714721679688 -87.301071166992 -79.322486877441 3.148973703384
-67.852355957031 -84.391403198242 -81.859024047852 1.844010829926
-51.483711242676 -90.462707519531 -87.626670837402 4.532686710358
-72.471603393555 -89.422210693359 -86.822929382324 4.455592632294
-55.818645477295 -91.065490722656 -91.000495910645 5.614255428314
-83.466293334961 -88.066452026367 -95.802543640137 3.656592607498
-76.626998901367 -85.164581298828 -100.310874938965 1.121128439903
-82.813903808594 -84.322540283203 -102.362327575684 2.311980247498
-30.400472640991 -82.153556823730 -192.409133911133 2.054073810577
-38.559677124023 -78.964317321777 -196.587203979492 1.931634664536
-50.703079223633 -85.540397644043 -206.333023071289 2.378178119659
-60.816127777100 -86.936309814453 -205.118148803711 3.142162799835
-153.510314941406 -91.434127807617 -240.322433471680 7.135573387146
0.689508974552 -82.401657104492 -256.636199951172 1.789018392563
5.119965076447 -81.257919311523 -260.563598632813 4.107765674591
-145.172470092773 -84.474388122559 -255.016876220703 1.754983663559
-154.220428466797 -86.188812255859 -257.777191162109 2.636920928955
-150.259140014648 -80.682312011719 -256.235717773438 1.587431073189
-6.535923004150 -86.050277709961 -262.275329589844 1.709937095642
-9.527434349060 -76.545829772949 -265.951385498047 2.339555501938
-9.849984169006 -83.012939453125 -267.462127685547 3.007846117020
-154.428466796875 -85.719886779785 -263.934692382813 3.412848949432
-0.732034981251 -80.697143554688 -269.328643798828 3.996152400970
-7.359306812286 -83.320213317871 -270.510803222656 3.089812278748
-5.983232021332 -79.956283569336 -270.510711669922 2.353903770447
-153.518463134766 -80.116554260254 -279.060577392578 2.615040302277
-155.768295288086 -88.719039916992 -283.370819091797 5.833136081696
-143.552108764648 -83.088745117188 -285.819946289063 1.441297411919
-151.424041748047 -84.546028137207 -285.212615966797 1.582184910774
-155.805068969727 -83.015617370605 -289.422515869141 2.534255266190
-153.916275024414 -86.830802917480 -301.953063964844 3.581395149231
-48.273979187012 -82.584350585938 -79.222282409668 2.233930587769
-62.376716613770 -84.955467224121 -80.402687072754 2.074972629547
-46.753265380859 -81.270133972168 -82.447425842285 1.808233737946
-67.543182373047 -91.336944580078 -84.444923400879 6.511857986450
-75.954833984375 -85.957969665527 -92.334548950195 1.693277478218
-81.991226196289 -86.340919494629 -91.444892883301 4.019228935242
-89.801239013672 -83.917114257813 -93.196495056152 4.680111408234
-84.171638488770 -78.591697692871 -104.664733886719 3.414978027344
-22.058723449707 -82.394813537598 -183.083572387695 1.875954747200
-29.796356201172 -78.798355102539 -184.384201049805 1.705999851227
-22.296272277832 -84.898712158203 -186.240798950195 2.680831670761
-38.326854705811 -87.585128784180 -190.657348632813 2.401411771774
-41.448287963867 -85.466659545898 -191.204360961914 1.881535649300
-37.234428405762 -86.382064819336 -201.036285400391 4.941895961761
-49.644138336182 -85.260086059570 -203.951507568359 2.374758958817
-71.379577636719 -82.630561828613 -207.984863281250 1.699374794960
-68.983512878418 -83.663764953613 -205.137145996094 3.612478733063
-148.625320434570 -87.127670288086 -224.699661254883 3.266847610474
-141.947662353516 -80.592346191406 -227.570922851563 1.378391504288
-153.038970947266 -86.665512084961 -230.319519042969 3.693205833435
-154.866653442383 -80.674407958984 -231.171325683594 2.420852661133
-157.167419433594 -82.915863037109 -236.620681762695 6.779159069061
-152.622528076172 -88.471168518066 -247.217666625977 4.998439788818
-4.511238098145 -80.476684570313 -259.479339599609 2.810502290726
-14.500088691711 -79.320014953613 -259.773376464844 1.854860186577
-15.336474418640 -79.650054931641 -257.924621582031 2.149734735489
-158.080932617188 -84.787727355957 -253.972091674805 3.706271648407
-11.081335067749 -80.732505798340 -261.590911865234 2.945255994797
-150.457260131836 -80.115661621094 -255.480819702148 1.569121241570
-149.647796630859 -78.421669006348 -261.784484863281 1.930919647217
-159.384185791016 -83.162635803223 -260.139404296875 5.361549854279
9.739549636841 -82.092582702637 -270.975006103516 2.970227241516
-149.849868774414 -86.157501220703 -261.951141357422 0.801121175289
0.173086002469 -83.165786743164 -274.494232177734 1.528762221336
-151.575668334961 -81.370422363281 -277.926910400391 1.944449901581
-158.303527832031 -83.816352844238 -285.833587646484 4.292050361633
-146.266433715820 -83.037696838379 -288.511230468750 2.518983840942
-156.871673583984 -82.427719116211 -296.189666748047 4.207098484039
-47.661048889160 -83.697669982910 -73.117774963379 2.031440019608
-51.290321350098 -81.581680297852 -74.277824401855 1.073643326759
-64.893844604492 -83.963745117188 -75.169364929199 2.363438844681
-67.509033203125 -90.513710021973 -79.683944702148 6.498895645142
-40.255992889404 -89.044334411621 -80.354171752930 6.223899841309
-79.638526916504 -83.066375732422 -84.174102783203 2.475185871124
-81.239952087402 -81.390510559082 -91.857337951660 1.783642649651
-81.691116333008 -85.960700988770 -93.428779602051 3.545899629593
-77.595474243164 -81.935134887695 -97.866401672363 3.853308677673
-75.664566040039 -88.522964477539 -100.597145080566 1.811251044273
-82.269691467285 -87.227119445801 -107.413970947266 3.492767333984
-11.946114540100 -82.130027770996 -176.560501098633 1.242209076881
-25.211616516113 -83.917633056641 -181.268051147461 3.152130126953
-150.287033081055 -84.845138549805 -186.251510620117 3.300069808960
-154.302108764648 -86.058013916016 -192.469497680664 5.893696308136
-59.852943420410 -80.638191223145 -201.076904296875 2.199220180511
-147.221069335938 -84.206413269043 -194.136306762695 1.245396256447
-54.090740203857 -87.269981384277 -207.026718139648 3.639655351639
-56.291355133057 -81.385185241699 -205.551498413086 0.997669458389
-150.185028076172 -81.841400146484 -204.698684692383 2.488084316254
-153.053283691406 -79.191207885742 -202.353591918945 1.678855776787
-153.187286376953 -83.472549438477 -213.614578247070 4.618365287781
-161.852157592773 -85.126159667969 -222.549530029297 10.308380126953
-134.866973876953 -80.314407348633 -224.701171875000 2.830841779709
-147.044464111328 -85.905647277832 -231.309722900391 1.845087528229
-151.042007446289 -84.905342102051 -223.364471435547 3.057500123978
5.422089099884 -81.983909606934 -241.114242553711 3.945808172226
14.649095535278 -83.282768249512 -245.552780151367 1.866453409195
10.170056343079 -80.520576477051 -250.022659301758 1.785500764847
13.842493057251 -80.553459167480 -251.560211181641 1.630118846893
-151.386230468750 -87.070281982422 -244.284423828125 4.053388118744
-3.400213003159 -80.025131225586 -252.266021728516 1.427067995071
-6.930716991425 -81.528213500977 -253.604476928711 1.759337425232
-149.028411865234 -84.552551269531 -255.953536987305 0.514672279358
-153.422042846680 -83.316322326660 -252.970352172852 2.301368236542
-148.523971557617 -83.493385314941 -260.458404541016 1.177112936974
7.013329982758 -80.189407348633 -261.066131591797 5.365824222565
12.762110710144 -81.344375610352 -266.605407714844 2.819066524506
-7.259873867035 -79.947441101074 -266.659820556641 2.020317554474
4.885912895203 -81.114540100098 -272.452148437500 3.214777946472
-7.319182872772 -83.045944213867 -272.783447265625 3.031431674957
-6.511333942413 -81.322624206543 -273.692535400391 2.303423881531
-153.967056274414 -80.460456848145 -272.629455566406 1.607698321342
-139.805953979492 -80.310356140137 -284.895721435547 2.400430202484
-154.720275878906 -81.132339477539 -288.234313964844 2.213595151901
-62.046913146973 -85.078323364258 -68.940948486328 4.423068046570
-58.847965240479 -81.974372863770 -74.059455871582 0.483652621508
-47.324867248535 -84.459030151367 -75.297332763672 1.343782424927
-43.384292602539 -80.780815124512 -73.423927307129 1.114941954613
-68.241195678711 -87.732124328613 -73.650634765625 5.205980777740
-36.448719024658 -81.391860961914 -77.928039550781 1.205849170685
-41.918365478516 -81.060325622559 -85.066665649414 1.749300122261
-79.209754943848 -81.891120910645 -83.493110656738 1.466465950012
-50.323120117188 -83.038528442383 -89.836883544922 2.858346223831
-79.970710754395 -81.756584167480 -86.238349914551 3.021221399307
-88.235290527344 -85.438819885254 -96.023452758789 5.293597698212
-74.382034301758 -80.244918823242 -100.223876953125 1.783487915993
-17.589235305786 -81.122596740723 -174.227340698242 1.681437611580
-23.620763778687 -79.446868896484 -179.585250854492 2.119413852692
-53.480133056641 -83.424659729004 -185.968978881836 2.768386125565
-150.398178100586 -80.440330505371 -189.228485107422 1.000218868256
-49.588874816895 -81.096900939941 -189.507873535156 3.778832912445
-148.848648071289 -87.654609680176 -189.890380859375 5.469684600830
-38.321048736572 -82.600494384766 -195.058685302734 1.720279693604
-148.349975585938 -86.383361816406 -194.195709228516 2.923291683197
-144.087127685547 -88.093193054199 -196.670440673828 4.933635234833
-48.181789398193 -81.640045166016 -203.408843994141 1.661703228951
-145.004776000977 -81.425598144531 -203.283691406250 2.375391244888
-53.844215393066 -85.816452026367 -203.041183471680 1.540828943253
-55.352470397949 -77.360504150391 -199.658538818359 3.539265632629
-68.745170593262 -79.917083740234 -207.085769653320 2.168756961823
-78.729873657227 -80.505599975586 -212.451217651367 1.272696375847
-150.962066650391 -82.912696838379 -218.130325317383 1.299551010132
-157.340362548828 -74.979644775391 -223.269378662109 4.254109382629
-158.120925903320 -83.918823242188 -224.479919433594 6.532536029816
-149.365982055664 -83.110237121582 -229.218719482422 1.039782047272
5.873326778412 -80.312141418457 -237.155746459961 2.341740131378
5.530435085297 -80.315933227539 -236.654891967773 2.221476793289
-151.571304321289 -83.203536987305 -231.435775756836 1.702246308327
15.716016769409 -79.811561584473 -243.824356079102 3.761443376541
1.813639998436 -83.328262329102 -243.564788818359 5.473914146423
5.955355167389 -81.154907226563 -248.656173706055 1.789736628532
-0.618465006351 -79.541458129883 -248.246841430664 2.378081083298
-13.396263122559 -84.025390625000 -257.682891845703 4.546609878540
-159.793212890625 -80.021621704102 -253.711227416992 5.617778778076
-15.822173118591 -81.411323547363 -262.233093261719 4.985377311707
9.798350334167 -77.844856262207 -270.541503906250 4.625566005707
6.865758895874 -83.767326354980 -273.727020263672 0.739223062992
7.789453983307 -77.108444213867 -276.875488281250 3.802121162415
-2.620342969894 -81.514442443848 -281.469818115234 2.781903028488
-155.080490112305 -83.309715270996 -279.166961669922 4.927619457245
-143.325561523438 -82.242568969727 -290.117279052734 1.500309109688
-160.185821533203 -80.334419250488 -293.722991943359 5.285564422607
-49.273880004883 -83.218124389648 -68.216079711914 3.828445196152
-40.315132141113 -86.699653625488 -74.661819458008 4.354414463043
-65.219673156738 -81.250045776367 -68.244613647461 2.904430866241
-43.351219177246 -87.338523864746 -70.489151000977 5.961526393890
-65.618438720703 -84.050346374512 -65.888626098633 4.339072704315
-82.200622558594 -83.403633117676 -76.668487548828 5.060802936554
-79.843154907227 -82.743377685547 -77.508377075195 2.688787221909
-82.916038513184 -83.904289245605 -87.664596557617 1.232553243637
-48.354286193848 -82.965789794922 -86.690292358398 2.294839382172
-73.787841796875 -84.465408325195 -103.459625244141 2.759964942932
-78.702857971191 -82.332122802734 -110.386650085449 5.174976348877
41.362804412842 -84.191192626953 -126.814506530762 4.556280612946
32.627658843994 -80.455772399902 -130.238128662109 1.360692381859
30.077077865601 -79.500549316406 -141.396850585938 0.588128805161
35.034690856934 -82.521980285645 -137.389099121094 1.936642050743
27.205223083496 -76.432533264160 -152.381423950195 2.390949726105
24.144792556763 -80.921142578125 -147.552795410156 3.684874057770
-8.676656723022 -75.826080322266 -167.390045166016 2.358376264572
-61.829624176025 -83.600372314453 -175.867477416992 4.318884372711
-28.134656906128 -86.839653015137 -184.448699951172 2.800338983536
-52.879695892334 -84.151687622070 -175.628036499023 2.787814617157
-66.184356689453 -84.985954284668 -182.145416259766 10.204576492310
-56.161743164063 -80.848350524902 -183.626815795898 2.901746034622
-23.412717819214 -77.951980590820 -183.646957397461 1.353653073311
-56.614749908447 -81.898948669434 -183.157775878906 3.863600730896
-150.858718872070 -80.916015625000 -188.306610107422 0.772632777691
-148.768737792969 -83.883140563965 -183.763412475586 2.812701702118
-34.949142456055 -78.851394653320 -190.091964721680 2.205211639404
-157.006317138672 -76.003944396973 -192.772796630859 5.100673198700
-42.022911071777 -83.200843811035 -197.542861938477 2.093755483627
-55.119667053223 -77.775665283203 -196.514984130859 5.868508815765
-63.601772308350 -81.111984252930 -201.467224121094 3.522306919098
-46.789855957031 -80.504295349121 -207.785934448242 5.380690574646
-39.453292846680 -75.408821105957 -207.395858764648 1.667941689491
-71.944725036621 -83.893539428711 -202.835220336914 6.530098438263
-152.475524902344 -81.108856201172 -205.599792480469 3.653219938278
-61.858970642090 -82.711853027344 -208.692184448242 1.400101780891
-69.512886047363 -83.383796691895 -210.572219848633 0.793138206005
-81.872665405273 -82.374366760254 -214.975769042969 3.186228513718
11.896292686462 -77.799491882324 -218.982040405273 1.252461433411
8.225769042969 -76.756103515625 -222.107147216797 1.307672739029
7.379430770874 -76.918113708496 -225.395309448242 1.369779706001
2.810067892075 -82.599540710449 -225.567993164063 3.893702745438
11.629114151001 -80.346534729004 -232.041366577148 1.224771022797
-150.572296142578 -77.425971984863 -224.986663818359 1.382205486298
-154.596588134766 -81.615005493164 -237.973007202148 4.957824230194
10.204969406128 -81.523963928223 -242.320877075195 1.334857225418
14.552347183228 -81.624465942383 -244.775604248047 1.891042828560
6.903565883636 -78.676750183105 -250.070083618164 3.189907312393
1.205636024475 -76.251625061035 -246.709701538086 1.867228627205
-159.277374267578 -84.324157714844 -247.601226806641 8.531301498413
-155.129776000977 -80.940818786621 -251.134597778320 2.619538307190
-159.388366699219 -83.456893920898 -257.623870849609 5.219018459320
-150.894424438477 -76.116470336914 -254.771697998047 3.177023649216
14.605069160461 -75.545570373535 -269.499664306641 5.621744155884
-156.306152343750 -80.738571166992 -264.655334472656 3.806509733200
-9.622571945190 -80.014678955078 -268.386169433594 1.699614524841
1.937329053879 -77.145401000977 -278.888366699219 2.895745754242
-160.729064941406 -86.066169738770 -281.256988525391 8.742280960083
-148.073013305664 -79.104232788086 -279.270385742188 1.994986772537
-161.895202636719 -84.997673034668 -281.797546386719 9.360879898071
-156.439788818359 -86.141868591309 -289.249481201172 2.831062316895
-161.161300659180 -78.698272705078 -288.698547363281 3.558094263077
-155.537689208984 -80.167327880859 -292.719909667969 1.191924571991
-48.384006500244 -84.208099365234 -68.607322692871 4.365040302277
-49.395954132080 -82.685829162598 -70.205703735352 2.451188325882
-33.377288818359 -78.877441406250 -72.355827331543 3.341117620468
-48.145896911621 -83.384712219238 -68.978721618652 3.495154142380
-74.859367370605 -83.385520935059 -67.695640563965 3.805284500122
-78.294082641602 -86.326713562012 -68.923118591309 6.819785594940
-45.444034576416 -83.523689270020 -70.279045104980 2.533828258514
-30.004968643188 -80.355430603027 -78.003021240234 0.465213209391
-57.009140014648 -82.577575683594 -91.149520874023 2.039125204086
-86.122505187988 -84.215644836426 -95.016487121582 3.547557115555
-84.397361755371 -84.853797912598 -99.101020812988 2.300253629684
-91.716842651367 -77.807273864746 -101.623306274414 3.962105512619
39.039455413818 -79.434051513672 -111.990859985352 2.172219276428
36.277565002441 -78.037277221680 -116.383110046387 1.021338701248
40.272819519043 -81.415184020996 -127.373565673828 2.739803075790
35.350811004639 -75.550544738770 -125.933616638184 1.822886228561
33.837970733643 -75.295166015625 -128.432708740234 2.171141624451
29.704868316650 -80.492172241211 -126.579490661621 3.634500980377
31.132043838501 -75.785064697266 -139.599472045898 2.400496482849
31.523149490356 -77.869110107422 -146.583297729492 1.031938672066
32.879772186279 -81.873397827148 -154.604888916016 3.937918663025
32.597866058350 -85.326179504395 -148.571060180664 5.368880748749
-47.519821166992 -82.511528015137 -159.304641723633 4.730236530304
-47.057823181152 -81.782035827637 -153.297744750977 2.424639701843
-46.892471313477 -79.554527282715 -162.734588623047 2.549487352371
19.905538558960 -83.025512695313 -157.023193359375 5.836972236633
22.059276580811 -77.353195190430 -158.470916748047 0.827724993229
-46.465225219727 -82.188568115234 -158.083908081055 3.882461786270
-44.519630432129 -80.100723266602 -162.561203002930 2.411013364792
-41.204204559326 -77.932914733887 -161.012023925781 1.837221980095
29.266794204712 -76.252899169922 -161.895980834961 2.124293565750
25.717746734619 -77.355155944824 -173.774520874023 1.743309020996
-63.586078643799 -82.696708679199 -169.125213623047 3.040583372116
22.905361175537 -76.171112060547 -170.121444702148 1.122428417206
13.907200813293 -79.437904357910 -171.395950317383 4.371005058289
-64.267608642578 -81.924308776855 -168.780700683594 2.991852521896
-39.522415161133 -79.135650634766 -172.600875854492 2.223006486893
-31.976282119751 -80.126731872559 -172.936553955078 2.371859550476
-28.060321807861 -82.631668090820 -171.481109619141 4.774377822876
-13.579369544983 -75.639320373535 -177.618606567383 1.949743509293
-34.773899078369 -80.071990966797 -181.583084106445 2.261979818344
-28.874900817871 -79.370765686035 -180.741256713867 2.033945560455
-50.389068603516 -85.146987915039 -182.012954711914 4.655008316040
-27.241855621338 -81.269119262695 -186.290664672852 2.449673175812
-57.446380615234 -81.532325744629 -189.297988891602 4.187584400177
-39.805019378662 -81.018730163574 -191.190032958984 2.076711654663
-54.791927337646 -71.728057861328 -191.103164672852 4.781620502472
-37.918277740479 -80.992614746094 -194.724655151367 1.773509263992
-28.348733901978 -75.549720764160 -198.808288574219 2.857558965683
-144.352874755859 -73.368789672852 -195.328842163086 2.001853704453
-17.404481887817 -78.401512145996 -197.855834960938 0.415969967842
-54.866344451904 -82.245826721191 -200.669555664063 1.648046970367
-57.488357543945 -83.770690917969 -202.666397094727 0.712657213211
-145.888687133789 -79.970970153809 -198.301757812500 0.712363898754
-62.565380096436 -83.228569030762 -198.939453125000 4.008231639862
-17.130630493164 -75.597793579102 -203.646087646484 2.012709856033
-16.664552688599 -81.028709411621 -207.582885742188 3.980686426163
-11.764681816101 -79.603912353516 -205.414932250977 2.554745912552
-60.254371643066 -80.429939270020 -203.239089965820 1.883570909500
12.199207305908 -79.329315185547 -206.489898681641 2.117299318314
-15.936361312866 -76.920700073242 -216.166732788086 3.208758354187
10.785582542419 -76.562080383301 -210.813018798828 2.061297178268
-31.760437011719 -80.408874511719 -206.272949218750 2.252066850662
-37.817138671875 -83.948310852051 -208.396682739258 5.489439487457
-18.361976623535 -79.812690734863 -217.165451049805 2.676886558533
-31.902400970459 -75.562355041504 -219.115295410156 3.367949247360
2.003573894501 -79.645385742188 -221.787261962891 3.378092527390
-15.198514938354 -82.399894714355 -223.286117553711 5.275697231293
6.014620780945 -78.200019836426 -222.592254638672 1.727890849113
-6.764373779297 -78.040832519531 -226.460494995117 2.093843936920
-153.459350585938 -83.149070739746 -227.062271118164 1.837371349335
-157.742630004883 -76.257682800293 -223.307998657227 4.661860466003
13.331654548645 -77.414810180664 -237.114959716797 3.250624656677
-142.057434082031 -80.239776611328 -230.495620727539 1.185212135315
11.046858787537 -78.822486877441 -239.087310791016 2.679579257965
7.177568912506 -82.504486083984 -238.420410156250 3.123782396317
-153.109573364258 -79.091445922852 -237.102096557617 3.175571203232
-151.157882690430 -79.507392883301 -238.906417846680 2.982032299042
-40.928627014160 -80.606872558594 -248.621871948242 3.660131216049
-41.056846618652 -76.332649230957 -242.266128540039 2.650888442993
-44.373260498047 -75.530250549316 -241.770217895508 2.092778205872
1.721784949303 -80.546195983887 -244.781616210938 3.046347141266
-43.728248596191 -77.913398742676 -242.541748046875 1.433338403702
0.030153999105 -80.649848937988 -244.904129028320 3.357816696167
3.430707931519 -77.944641113281 -253.985031127930 4.313200473785
-13.336833000183 -77.128555297852 -254.108871459961 1.065978765488
-15.510242462158 -75.017219543457 -261.563232421875 1.958204746246
-163.833358764648 -77.478141784668 -259.683380126953 3.619312524796
-154.828094482422 -81.545555114746 -258.751220703125 1.560430049896
-10.746772766113 -75.642417907715 -261.073883056641 2.398160696030
-12.443572998047 -78.823471069336 -273.452697753906 2.329191446304
12.313225746155 -80.357292175293 -275.515228271484 1.695914626122
3.588490009308 -78.155960083008 -280.183197021484 1.953519701958
1.916139960289 -80.076301574707 -286.131500244141 3.700616836548
-157.975723266602 -77.865478515625 -285.490264892578 3.537925958633
-164.594726562500 -80.239311218262 -285.557952880859 4.753961563110
-150.463012695313 -82.919448852539 -285.032745361328 1.484358787537
-67.266906738281 -78.633171081543 -61.305374145508 1.101979494095
-63.891326904297 -79.739646911621 -62.454776763916 3.537885904312
-51.977069854736 -81.417396545410 -61.373908996582 2.393320322037
-50.558620452881 -78.423110961914 -67.384910583496 2.145847082138
-44.191417694092 -82.468437194824 -69.516502380371 1.412187337875
-39.027946472168 -82.686729431152 -71.034461975098 2.496965646744
-44.077110290527 -80.094299316406 -59.399211883545 2.268069982529
-33.376522064209 -80.149063110352 -74.949684143066 2.106613397598
-29.016685485840 -79.510162353516 -70.760971069336 1.865945458412
-27.574287414551 -79.368972778320 -80.003448486328 3.024930477142
-32.524456024170 -78.288711547852 -79.626037597656 2.197854042053
-85.428726196289 -76.794723510742 -85.182556152344 1.649379849434
-45.409820556641 -79.126045227051 -87.434539794922 1.849484205246
-90.710571289063 -81.678413391113 -101.985305786133 3.864526987076
-74.351814270020 -79.456192016602 -99.168121337891 2.765758275986
47.924613952637 -80.507881164551 -107.975852966309 3.098130941391
38.017425537109 -74.777099609375 -112.797462463379 1.768583178520
-84.104423522949 -77.467033386230 -111.764907836914 1.519935369492
39.737285614014 -72.470237731934 -119.212310791016 1.868070721626
37.881855010986 -81.449943542480 -119.149246215820 1.144948244095
38.664806365967 -78.179153442383 -131.009140014648 1.611091613770
31.739511489868 -76.194320678711 -131.707290649414 2.524390935898
36.758541107178 -73.520805358887 -133.753921508789 2.722650766373
35.546627044678 -83.405517578125 -142.031600952148 3.977993488312
23.624738693237 -78.176788330078 -141.734802246094 2.357490539551
31.914133071899 -75.166992187500 -142.446945190430 2.872417926788
29.029405593872 -75.337554931641 -151.213302612305 2.339427471161
-48.977741241455 -81.866241455078 -152.410034179688 3.634117603302
-42.653388977051 -80.930297851563 -156.104583740234 2.984292745590
-47.143482208252 -85.517341613770 -154.643966674805 5.529415130615
-67.660400390625 -85.173782348633 -160.406173706055 6.143360137939
-67.011184692383 -80.986289978027 -166.889099121094 3.331912994385
-70.733314514160 -77.724258422852 -165.696472167969 4.462242603302
-46.548038482666 -79.853889465332 -165.993270874023 2.096395969391
25.272665023804 -72.732475280762 -173.930023193359 2.143207311630
13.874464035034 -77.433082580566 -179.782272338867 3.030067920685
-55.854221343994 -77.594139099121 -176.539718627930 1.201765656471
-32.678554534912 -79.429626464844 -178.786346435547 1.263364315033
-39.803604125977 -81.810409545898 -179.224349975586 5.315377235413
21.621915817261 -79.483848571777 -177.036712646484 1.864972114563
-55.584552764893 -80.106773376465 -180.823257446289 2.322171211243
-62.116741180420 -84.227302551270 -180.897949218750 7.136068344116
-26.456926345825 -79.170059204102 -183.843887329102 1.087757349014
15.346326828003 -78.457092285156 -186.822570800781 1.688889741898
-54.019428253174 -77.624145507813 -183.647659301758 1.536385536194
-49.832340240479 -84.101135253906 -186.124206542969 3.037118911743
17.948371887207 -81.610923767090 -186.319244384766 3.824271440506
-54.271236419678 -74.648010253906 -189.136154174805 2.067822217941
-24.596927642822 -79.835090637207 -188.075180053711 2.180955410004
-30.820775985718 -81.220596313477 -190.672119140625 1.482855916023
12.765946388245 -79.343826293945 -194.511749267578 2.248596668243
-30.046834945679 -73.922706604004 -194.430068969727 2.659787178040
-25.545806884766 -76.805213928223 -193.182067871094 2.241153717041
-17.002044677734 -80.765380859375 -196.862960815430 1.568826198578
18.851470947266 -76.983612060547 -196.914855957031 1.072158098221
-143.955368041992 -80.744911193848 -192.388641357422 2.155034542084
12.246156692505 -76.359329223633 -205.096450805664 2.615774154663
-154.122863769531 -80.694564819336 -195.600173950195 2.821032285690
16.413322448730 -79.030143737793 -201.212463378906 2.321414232254
-48.238410949707 -78.965522766113 -205.522323608398 3.016752719879
-138.461898803711 -79.225334167480 -197.906158447266 3.264560937881
8.881774902344 -78.362960815430 -205.456497192383 2.203608036041
13.714938163757 -79.091110229492 -206.897262573242 2.173740863800
-62.358627319336 -78.129562377930 -207.027465820313 0.778388440609
18.124877929688 -75.630241394043 -207.756912231445 1.066291451454
-61.856323242188 -78.539764404297 -207.235076904297 0.585435509682
-70.531257629395 -77.034294128418 -213.886779785156 1.456915974617
-20.260818481445 -79.905952453613 -204.142242431641 1.949256658554
-20.826688766479 -79.087821960449 -209.869049072266 4.203733444214
-35.734035491943 -84.553016662598 -209.760406494141 5.754404067993
16.836942672729 -75.369407653809 -211.469116210938 1.777113556862
-84.503250122070 -75.980354309082 -208.257247924805 3.295448541641
-151.592041015625 -76.881576538086 -213.994201660156 3.267157554626
3.670341014862 -78.578987121582 -207.409835815430 3.940454721451
-89.294517517090 -76.959556579590 -215.221466064453 1.721188187599
-79.992881774902 -80.228363037109 -211.719818115234 0.647619724274
-13.916780471802 -75.485404968262 -221.673004150391 2.165342092514
-11.269905090332 -78.894233703613 -220.921783447266 2.636497259140
-32.117530822754 -76.229866027832 -219.987838745117 4.051019191742
-150.957397460938 -78.760345458984 -216.876937866211 1.200999975204
-27.245357513428 -83.535461425781 -218.987091064453 4.678072929382
-155.856521606445 -78.600959777832 -215.418411254883 6.044797897339
-12.935716629028 -80.015014648438 -225.040405273438 2.990363836288
8.938452720642 -77.439971923828 -226.883010864258 1.584747433662
14.502905845642 -80.125389099121 -227.033157348633 1.552140474319
13.221554756165 -73.364356994629 -233.467483520508 2.310161113739
2.952336072922 -76.082748413086 -228.469802856445 2.085012197495
-0.118188999593 -80.209671020508 -228.824356079102 2.341495275497
-153.988616943359 -73.626571655273 -228.907882690430 2.696404933929
-4.330801010132 -76.870445251465 -232.975616455078 1.012586951256
12.797551155090 -74.484130859375 -237.193969726563 2.461804628372
-149.805343627930 -82.427177429199 -232.496627807617 1.011387228966
-153.924026489258 -83.759162902832 -229.252349853516 1.497455477715
-5.632265090942 -79.634414672852 -239.384490966797 5.026244163513
-25.946821212769 -78.587867736816 -244.175216674805 0.626213490963
-154.102798461914 -78.368728637695 -233.979675292969 2.283861637115
20.694572448730 -72.321891784668 -248.037597656250 1.798994302750
-57.154525756836 -75.126335144043 -242.470413208008 2.910885572433
3.669667005539 -80.440322875977 -249.165969848633 1.115782141685
-157.747543334961 -81.310066223145 -243.455642700195 7.584531784058
-12.964037895203 -78.014617919922 -255.503112792969 1.504902958870
-142.656173706055 -81.594467163086 -255.529327392578 1.793721675873
-159.148086547852 -73.092124938965 -255.772247314453 2.682399988174
-152.672256469727 -82.843681335449 -258.043273925781 1.352809429169
-146.285324096680 -78.890083312988 -260.450317382813 2.254900455475
-13.663851737976 -78.118927001953 -274.488342285156 3.148511886597
7.690741062164 -74.468772888184 -279.543975830078 4.537381649017
4.320270061493 -77.416786193848 -287.162292480469 2.333508968353
-150.797973632813 -77.853622436523 -285.729492187500 2.162806987762
-148.242980957031 -81.264503479004 -286.221923828125 1.787989020348
-161.538360595703 -80.842720031738 -300.313385009766 8.306472778320
-68.034530639648 -81.585197448730 -64.373733520508 2.733494520187
-67.074783325195 -80.489295959473 -62.585990905762 2.725471735001
-70.513923645020 -77.684867858887 -63.379173278809 3.056170940399
-33.392047882080 -79.344352722168 -68.974632263184 0.955329716206
-77.718208312988 -80.448471069336 -62.993434906006 3.957914113998
-24.873474121094 -78.692451477051 -75.287162780762 1.521507024765
-45.757949829102 -81.993690490723 -87.535446166992 3.366480112076
-85.878517150879 -81.434822082520 -88.590576171875 1.505812048912
-88.983543395996 -79.234008789063 -92.581634521484 0.915120124817
-72.264755249023 -82.603309631348 -97.865257263184 2.757128477097
-77.353652954102 -79.826362609863 -97.623222351074 3.054561376572
-79.457618713379 -78.202812194824 -101.514648437500 1.638239383698
-88.960121154785 -83.155586242676 -104.995223999023 1.767879724503
45.579105377197 -77.434745788574 -111.452209472656 1.515517234802
48.149188995361 -79.394859313965 -122.649597167969 4.700960636139
34.201663970947 -74.898963928223 -124.378517150879 1.782857537270
39.656158447266 -75.551155090332 -122.811538696289 1.578575730324
35.123550415039 -78.194511413574 -126.406547546387 2.149808883667
31.028030395508 -81.066429138184 -129.410308837891 2.131549596786
40.313751220703 -77.156784057617 -128.900939941406 2.507857322693
30.835163116455 -78.515609741211 -133.692245483398 1.374339103699
40.282691955566 -73.063591003418 -138.235778808594 1.751436710358
24.550910949707 -76.153793334961 -141.381896972656 2.532508134842
35.016052246094 -79.505058288574 -138.599990844727 1.280535936356
29.960786819458 -79.537269592285 -146.073013305664 1.819576621056
25.146099090576 -80.008209228516 -150.225708007813 0.788450956345
26.909357070923 -75.759292602539 -148.950988769531 2.546369552612
20.835210800171 -80.883705139160 -154.963012695313 4.316156387329
-50.225711822510 -76.509223937988 -146.649765014648 0.812490046024
29.003282546997 -81.473983764648 -155.180343627930 1.709473729134
-46.467376708984 -80.574806213379 -150.399017333984 2.621937751770
-44.998146057129 -77.595497131348 -156.351455688477 1.618474006653
27.588922500610 -81.310264587402 -162.690582275391 2.608165979385
-42.925163269043 -75.772727966309 -160.705032348633 2.473713159561
-71.770271301270 -76.656692504883 -158.518951416016 2.218658924103
16.636962890625 -79.027832031250 -165.878677368164 4.895275115967
-66.883598327637 -79.770355224609 -163.775970458984 2.909551858902
-42.226657867432 -77.507003784180 -166.647796630859 3.210214614868
-5.806811809540 -77.588134765625 -170.640472412109 2.132252693176
-33.640396118164 -81.689476013184 -164.685562133789 2.057703018188
-38.780971527100 -82.599082946777 -166.814270019531 3.470645666122
20.683183670044 -76.993263244629 -172.815109252930 1.417634010315
-4.854996204376 -77.117980957031 -167.935928344727 2.415446996689
-45.966411590576 -83.988960266113 -168.287460327148 6.613139629364
-41.465705871582 -79.437835693359 -171.125411987305 0.924773037434
19.830026626587 -77.147766113281 -180.953125000000 1.929914593697
-36.529785156250 -79.758720397949 -172.531478881836 2.281304359436
-32.174407958984 -77.576240539551 -171.450851440430 2.965053796768
-39.364158630371 -76.212394714355 -174.170989990234 0.947171568871
-43.512573242188 -74.851997375488 -181.058151245117 5.099866867065
27.957014083862 -77.160148620605 -174.237213134766 1.068702816963
-38.835010528564 -76.924354553223 -170.317703247070 0.852960467339
23.682922363281 -77.402717590332 -180.055465698242 2.087129592896
-32.541099548340 -82.197807312012 -184.959625244141 2.333442449570
-19.120878219604 -76.097488403320 -179.049575805664 1.202368855476
-22.360441207886 -81.173507690430 -181.935684204102 1.471552729607
-26.765638351440 -77.502738952637 -182.781173706055 1.813074707985
-24.119613647461 -72.069061279297 -181.085891723633 1.881810188293
-25.836830139160 -73.488128662109 -180.811111450195 1.158378243446
-26.874975204468 -74.647064208984 -187.384384155273 3.034429073334
-34.309543609619 -80.141418457031 -186.569198608398 2.211061477661
-22.689098358154 -75.841567993164 -186.652053833008 1.457392692566
-35.065826416016 -76.421424865723 -186.794387817383 3.307067632675
20.522933959961 -75.166870117188 -188.044143676758 1.611412167549
-42.891464233398 -76.395347595215 -195.501281738281 1.991381764412
-145.159851074219 -83.283988952637 -186.547760009766 2.195671558380
-150.276443481445 -79.306869506836 -185.437973022461 3.175368547440
-56.741756439209 -78.785491943359 -199.235855102539 3.159605264664
-152.212539672852 -74.730888366699 -193.845321655273 2.397850751877
-24.631393432617 -80.059371948242 -198.941268920898 3.184953689575
-154.279144287109 -81.392807006836 -199.679611206055 2.525268077850
8.459852218628 -78.350440979004 -206.712265014648 1.894751071930
-27.387361526489 -75.624313354492 -203.632995605469 3.873337745667
-21.107076644897 -76.442306518555 -201.241500854492 2.259922504425
-28.160623550415 -76.470588684082 -212.008026123047 1.240425705910
-40.330772399902 -76.056396484375 -204.087615966797 1.958703517914
3.975402116776 -77.612739562988 -207.993347167969 3.321173906326
-66.493820190430 -76.444236755371 -212.507720947266 3.398338079453
-69.398849487305 -79.993957519531 -214.089782714844 1.506649374962
-22.225130081177 -75.296356201172 -216.745086669922 1.269515395164
-31.192399978638 -77.281425476074 -217.181564331055 0.946143925190
-83.991477966309 -78.399177551270 -212.735916137695 2.530201673508
-85.364196777344 -76.621833801270 -217.440948486328 1.694386363029
5.021844863892 -78.169364929199 -213.040985107422 3.306683540344
-34.305103302002 -84.914978027344 -213.487823486328 4.850115299225
-16.541343688965 -77.915649414063 -222.175125122070 1.890023231506
-28.421586990356 -79.494766235352 -213.215240478516 2.252484560013
6.174757957458 -76.846084594727 -221.520446777344 1.661345958710
-24.399335861206 -79.390129089355 -224.389663696289 4.464639663696
-28.343837738037 -78.004432678223 -222.126129150391 1.509254813194
-16.513811111450 -78.946640014648 -224.783004760742 3.080316066742
13.547524452209 -76.397682189941 -222.839904785156 2.810845375061
-2.913532018661 -74.596733093262 -225.263580322266 2.366549968719
-3.059083938599 -78.034881591797 -227.506607055664 1.222887635231
9.515574455261 -74.707618713379 -232.323562622070 0.830918133259
-137.895126342773 -76.956932067871 -224.062728881836 2.594164609909
-155.529312133789 -79.036056518555 -225.030639648438 1.285592675209
5.090734004974 -71.941635131836 -231.045730590820 1.618121504784
8.643852233887 -76.470108032227 -232.152954101563 1.417613148689
1.187973022461 -76.057182312012 -239.847671508789 2.100357770920
-8.754549026489 -76.433509826660 -238.439086914063 3.929935932159
-4.893239974976 -78.903816223145 -237.005249023438 3.818287611008
-29.476251602173 -76.415779113770 -245.261428833008 3.046137094498
5.906060218811 -74.576271057129 -248.542510986328 4.468089580536
-40.085212707520 -80.156135559082 -242.785125732422 0.712008774281
-55.566570281982 -76.448310852051 -241.596664428711 2.005548954010
-31.883190155029 -76.729896545410 -245.542984008789 2.461228609085
-63.317596435547 -75.805656433105 -247.448532104492 1.549348592758
-61.076286315918 -76.135917663574 -249.852371215820 1.122141122818
-56.519924163818 -77.150886535645 -246.117019653320 1.588432192802
-54.844032287598 -71.783454895020 -247.479751586914 1.187655806541
-15.284193992615 -74.088035583496 -256.756622314453 2.336436510086
-155.183013916016 -84.859992980957 -245.600341796875 5.394541740417
-144.026870727539 -77.885345458984 -249.667922973633 1.611683487892
9.383822441101 -76.383537292480 -259.804992675781 7.974519252777
-164.414321899414 -78.959854125977 -258.033569335938 5.627295970917
-151.196594238281 -83.591934204102 -258.663940429688 0.982340216637
-159.420639038086 -73.776359558105 -259.628234863281 2.858017921448
-156.869873046875 -80.771514892578 -265.168731689453 4.466852188110
-11.475948333740 -75.052459716797 -274.034729003906 2.246395826340
-157.641204833984 -76.979881286621 -275.757049560547 2.733134508133
-7.512239933014 -75.656242370605 -283.712249755859 3.939885854721
4.303239822388 -74.081504821777 -284.872894287109 1.997321486473
-5.373888969421 -72.736976623535 -288.029357910156 1.628536701202
-147.472961425781 -80.775367736816 -285.532775878906 2.260677814484
-34.574546813965 -74.170593261719 -295.714965820313 3.757496595383
-32.622676849365 -73.326866149902 -291.982269287109 0.853244721889
5.048791885376 -78.643486022949 -294.064361572266 2.955018997192
-158.520904541016 -77.440589904785 -302.231201171875 4.165701866150
-152.526931762695 -80.124954223633 -303.271209716797 3.144159793854
-156.589508056641 -80.132492065430 -308.166473388672 4.356069087982
-52.490970611572 -78.122940063477 -59.245582580566 0.915380179882
-45.393547058105 -77.336128234863 -57.289630889893 2.016365528107
-57.807964324951 -79.618751525879 -60.281635284424 2.396491289139
-47.066905975342 -80.637161254883 -56.900592803955 4.352150917053
-77.083412170410 -80.818717956543 -59.708629608154 5.423995971680
-38.532699584961 -77.966156005859 -60.339878082275 1.663999438286
-30.808341979980 -78.042175292969 -66.149467468262 0.865827739239
-32.837211608887 -77.974723815918 -66.977241516113 0.308274954557
-79.686058044434 -82.144187927246 -72.967529296875 1.783623695374
-82.466712951660 -78.155265808105 -68.179588317871 2.635624170303
-25.009384155273 -73.100990295410 -65.977668762207 3.533621549606
-25.306882858276 -75.485855102539 -81.965507507324 4.231302738190
74.104698181152 -76.901580810547 -89.079589843750 2.103824615479
-39.451190948486 -83.540298461914 -87.821792602539 4.840068340302
89.480392456055 -78.425834655762 -91.508132934570 2.737985372543
87.789352416992 -76.401046752930 -93.305633544922 0.642528533936
77.647720336914 -73.450401306152 -89.631683349609 3.170178651810
73.235748291016 -77.537933349609 -90.961967468262 2.648668527603
76.850082397461 -76.228202819824 -92.184669494629 2.232905864716
87.567245483398 -76.346748352051 -94.702438354492 1.448780298233
-92.208435058594 -79.639572143555 -90.234977722168 2.634890079498
-61.107795715332 -77.804420471191 -97.511260986328 2.670671939850
-61.545318603516 -80.867683410645 -97.027740478516 0.756916046143
-69.081771850586 -79.736320495605 -101.640426635742 3.440538644791
-75.265533447266 -77.233215332031 -99.605125427246 1.434319734573
-79.924194335938 -81.265159606934 -98.900192260742 4.088675022125
40.077526092529 -74.715141296387 -108.423858642578 1.396896839142
43.181858062744 -75.294647216797 -109.079818725586 1.292201042175
34.803558349609 -76.938369750977 -109.228179931641 3.313740015030
-87.530769348145 -75.341850280762 -108.027809143066 3.609905242920
-93.251556396484 -73.173271179199 -113.100212097168 1.236968040466
-89.224388122559 -74.963546752930 -108.955337524414 3.034548044205
36.294612884521 -74.728096008301 -122.322212219238 2.945274353027
32.459831237793 -75.022094726563 -124.004959106445 1.583274602890
31.079536437988 -81.029235839844 -129.227996826172 2.324018478394
37.586845397949 -76.837425231934 -131.888061523438 1.047830224037
23.528684616089 -79.871833801270 -137.097732543945 3.059892416000
-49.318393707275 -76.756370544434 -132.413970947266 3.623128414154
-46.124465942383 -76.345245361328 -142.598556518555 1.920128226280
-42.996738433838 -71.695327758789 -147.657943725586 1.818279743195
-47.588573455811 -85.783599853516 -153.237365722656 6.081757545471
-54.829753875732 -80.336044311523 -148.433364868164 2.787791252136
-50.045337677002 -77.180572509766 -152.468734741211 0.930320560932
-59.803638458252 -71.541976928711 -144.050842285156 2.571579456329
-74.955139160156 -82.844100952148 -149.552078247070 7.155952930450
17.703477859497 -76.013580322266 -160.700866699219 3.051130771637
-68.353286743164 -78.599555969238 -159.250106811523 2.240230560303
-70.980438232422 -73.683677673340 -150.654464721680 2.069291591644
31.283685684204 -76.498031616211 -158.862487792969 2.324766874313
24.353351593018 -78.373657226563 -158.888275146484 2.282219886780
-72.378944396973 -82.432640075684 -157.864517211914 5.963857650757
-43.279365539551 -78.653167724609 -159.770416259766 2.295865774155
25.126760482788 -73.499008178711 -164.315155029297 2.731271505356
-45.652366638184 -76.418052673340 -156.399444580078 1.417064905167
109.490097045898 -76.046592712402 -160.427215576172 1.854497194290
27.642801284790 -80.799064636230 -167.210357666016 1.773314237595
-45.426353454590 -74.464927673340 -171.570526123047 3.233906984329
109.361358642578 -76.477073669434 -172.459259033203 2.117684364319
-60.057086944580 -76.605873107910 -166.325439453125 1.165163755417
25.624198913574 -75.406044006348 -161.255569458008 2.770850896835
-44.367561340332 -74.589485168457 -165.265518188477 1.251070737839
30.533702850342 -76.825508117676 -168.536010742188 3.299245119095
107.705459594727 -69.831184387207 -171.458648681641 0.839515328407
18.723646163940 -76.783630371094 -177.177078247070 1.364398956299
-60.638484954834 -75.616500854492 -172.330871582031 1.679431557655
27.138183593750 -76.274467468262 -175.063522338867 1.543379783630
17.326084136963 -80.650184631348 -173.039764404297 3.626421689987
-10.975348472595 -79.428680419922 -176.650726318359 1.949957132339
-17.134485244751 -77.906547546387 -179.082794189453 2.538297414780
-64.112693786621 -76.542823791504 -181.057067871094 5.200673580170
108.819946289063 -77.554138183594 -184.016174316406 2.859745264053
-33.109558105469 -77.293357849121 -182.551193237305 1.631600141525
104.739898681641 -72.028381347656 -186.503738403320 2.038571357727
16.930932998657 -77.371185302734 -181.392349243164 2.272327423096
-27.769462585449 -77.630538940430 -184.997482299805 1.997033119202
12.686324119568 -77.235694885254 -186.267318725586 2.287405252457
-32.163055419922 -73.729736328125 -185.114608764648 0.806157588959
99.855384826660 -71.419532775879 -191.639480590820 1.682673811913
-58.397872924805 -77.174423217773 -185.783905029297 3.334659814835
100.933013916016 -78.700111389160 -193.159576416016 2.258030414581
-51.153663635254 -75.697196960449 -192.117065429688 1.331089138985
21.073150634766 -72.706268310547 -190.991348266602 2.098924875259
16.453651428223 -78.599792480469 -193.020401000977 2.892092943192
-28.356172561646 -81.079147338867 -193.288299560547 3.596235752106
101.668869018555 -74.943565368652 -194.895492553711 1.028119564056
-48.903697967529 -77.507987976074 -186.653579711914 0.326803207397
94.740127563477 -74.338981628418 -204.103866577148 2.720185041428
-20.017335891724 -79.277420043945 -197.904846191406 1.461201429367
-26.685941696167 -75.894790649414 -197.534286499023 1.998277544975
-20.902120590210 -75.614631652832 -194.182479858398 2.905720233917
-31.211662292480 -77.891906738281 -200.819992065430 3.283959150314
-28.915502548218 -72.681266784668 -199.026245117188 2.524321079254
95.929992675781 -67.569984436035 -199.503021240234 3.519201040268
-135.528488159180 -76.247497558594 -196.586761474609 0.728711664677
-45.075695037842 -75.443038940430 -204.362243652344 4.066340446472
-45.142337799072 -77.677131652832 -201.952407836914 2.506490945816
-152.519836425781 -81.664497375488 -201.236358642578 0.960601806641
-44.951652526855 -81.899154663086 -196.255554199219 1.540540337563
12.394796371460 -76.763053894043 -200.628921508789 2.489482402802
89.793159484863 -73.855995178223 -209.625289916992 0.965921700001
96.420845031738 -76.102676391602 -209.234237670898 1.059768080711
9.076600074768 -76.493644714355 -200.671157836914 1.222895979881
-41.874015808105 -77.392913818359 -208.201950073242 2.682878494263
9.869867324829 -77.544708251953 -206.833374023438 0.707067966461
14.283562660217 -74.103919982910 -209.147644042969 3.695164918900
94.889358520508 -81.944816589355 -208.439193725586 5.426600456238
11.302725791931 -73.183677673340 -212.079879760742 2.523436784744
-37.431987762451 -72.840805053711 -209.822250366211 3.017227411270
7.351748943329 -77.552238464355 -209.166809082031 0.912041366100
92.760284423828 -72.125869750977 -213.714553833008 1.677209019661
-148.202102661133 -79.038169860840 -208.093856811523 2.791209936142
-21.863210678101 -77.526100158691 -208.938919067383 3.307725191116
1.842862963676 -79.029510498047 -213.757934570313 5.806218624115
-7.518154144287 -77.525970458984 -215.815658569336 2.208682060242
-11.834690093994 -80.994132995605 -219.167312622070 2.360150575638
12.261543273926 -75.430656433105 -212.936386108398 3.292615652084
-27.928497314453 -70.768280029297 -213.839843750000 1.720690608025
-95.839385986328 -77.929405212402 -211.311569213867 3.784099102020
-156.429031372070 -78.721534729004 -214.452743530273 6.895496845245
4.627226829529 -72.437339782715 -217.659606933594 3.023688793182
-32.434917449951 -73.682579040527 -221.972854614258 5.490581035614
-17.230093002319 -76.907287597656 -222.009658813477 2.410284042358
-147.341217041016 -80.293487548828 -224.283706665039 2.309051513672
-13.739393234253 -72.538017272949 -225.177261352539 1.688643693924
7.295913219452 -75.135177612305 -217.777404785156 2.146833419800
0.758467972279 -77.287376403809 -233.178054809570 2.913695335388
-6.733203887939 -72.203392028809 -223.856719970703 2.242343664169
-10.691410064697 -74.398620605469 -230.547760009766 1.561736941338
-4.576759815216 -74.083122253418 -235.982208251953 2.354478120804
14.679027557373 -74.226776123047 -237.418045043945 1.849988818169
-156.402709960938 -79.579566955566 -231.487258911133 2.665078639984
-1.305660009384 -75.541931152344 -235.339797973633 2.318457603455
-32.722999572754 -75.243247985840 -237.983871459961 0.379586935043
6.313671112061 -75.273178100586 -238.697402954102 1.022832512856
