-31.743705749512 -78.883026123047 -244.953323364258 2.662261247635
-63.132961273193 -77.194084167480 -247.067428588867 1.930914163589
-60.888641357422 -77.647018432617 -249.448364257813 1.546900033951
-56.379730224609 -78.679138183594 -245.660507202148 1.423648834229
-54.557151794434 -73.395668029785 -247.156539916992 1.575053334236
-15.023589134216 -76.975944519043 -256.136016845703 2.039925575256
-155.211898803711 -83.805824279785 -245.516906738281 5.120138645172
-143.856460571289 -77.235321044922 -249.704132080078 1.862689614296
9.591464996338 -79.992706298828 -258.976989746094 4.902295112610
-164.221496582031 -78.004524230957 -258.157562255859 4.705563545227
-151.126205444336 -82.993705749512 -258.586120605469 1.298843622208
-159.085906982422 -72.997291564941 -259.861022949219 2.764733552933
-156.690155029297 -80.202896118164 -265.197265625000 4.629385471344
-11.152546882629 -78.503517150879 -273.359466552734 1.388854026794
-157.307388305664 -76.678771972656 -275.887603759766 2.877259492874
-7.155976772308 -79.470230102539 -282.993927001953 4.535792827606
4.702455997467 -78.234771728516 -284.126922607422 1.060853123665
-4.919789791107 -76.724716186523 -287.375000000000 1.321841359138
-147.191375732422 -80.998779296875 -285.498413085938 1.964819431305
-34.107803344727 -77.605529785156 -295.190765380859 3.898595094681
-32.153884887695 -76.712669372559 -291.470581054688 2.734485626221
5.376082897186 -83.060234069824 -293.188446044922 5.880446434021
-158.061920166016 -77.828620910645 -302.344665527344 3.991256713867
-152.134826660156 -80.694801330566 -303.277221679688 2.914302825928
-156.170852661133 -80.728507995605 -308.194305419922 4.458107471466
-53.343921661377 -74.727188110352 -58.809612274170 2.070098638535
-46.238574981689 -74.072677612305 -56.833786010742 2.486037254333
-58.692752838135 -76.111701965332 -59.836456298828 0.928129732609
-47.999595642090 -77.317459106445 -56.366374969482 2.201024532318
-77.995674133301 -76.794662475586 -59.344703674316 3.277085542679
-39.380847930908 -74.962570190430 -59.825748443604 0.625269234180
-31.631174087524 -75.395523071289 -65.585777282715 3.038271665573
-33.653278350830 -75.297683715820 -66.426956176758 2.971720218658
-80.563468933105 -78.408340454102 -72.578430175781 1.576597809792
-83.263679504395 -74.221145629883 -67.915359497070 2.664729833603
-25.706064224243 -70.603820800781 -65.512237548828 5.277234554291
-25.983093261719 -73.409461975098 -81.431991577148 2.902823209763
73.393020629883 -77.598175048828 -87.921928405762 2.523457527161
-40.302536010742 -81.248382568359 -87.153556823730 2.947650432587
88.735992431641 -79.586143493652 -90.218505859375 2.374632835388
87.107749938965 -77.567207336426 -92.079452514648 1.732983708382
77.027809143066 -74.256309509277 -88.545379638672 2.635815620422
72.517486572266 -78.262161254883 -89.791671752930 3.104075431824
76.171081542969 -77.080131530762 -91.027748107910 3.120855808258
86.894363403320 -77.544754028320 -93.478477478027 1.206316947937
-92.926673889160 -76.044761657715 -89.979934692383 2.090301275253
-61.751495361328 -75.214622497559 -97.120018005371 2.688255786896
-62.271396636963 -78.251365661621 -96.557273864746 1.295392513275
-69.751762390137 -77.049118041992 -101.242744445801 2.291445016861
-75.878463745117 -74.332351684570 -99.311500549316 1.432093024254
-80.644454956055 -78.221488952637 -98.526275634766 3.801048517227
39.535072326660 -75.049766540527 -107.517204284668 1.821184396744
42.626556396484 -75.727165222168 -108.139183044434 1.566087722778
34.209049224854 -77.156074523926 -108.292678833008 4.141024112701
-88.046379089355 -72.350303649902 -107.853637695313 3.736900806427
-93.682243347168 -70.171104431152 -113.015754699707 3.318772792816
-89.724716186523 -71.953224182129 -108.800888061523 4.329591274261
35.825031280518 -75.338394165039 -121.432189941406 2.060384035110
31.992630004883 -75.577835083008 -123.128952026367 2.226804018021
30.482887268066 -81.685455322266 -128.197357177734 3.168398618698
37.111164093018 -77.737197875977 -130.930419921875 1.287230134010
23.005647659302 -80.544441223145 -136.139450073242 4.326805591583
-49.758411407471 -75.412673950195 -131.968460083008 2.671098709106
-46.502208709717 -75.358833312988 -142.141479492188 1.764374375343
-43.227943420410 -70.929557800293 -147.305038452148 1.325044274330
-48.157375335693 -85.038795471191 -152.532287597656 5.716878890991
-55.278503417969 -79.277687072754 -147.918395996094 2.240127086639
-50.392475128174 -76.357292175293 -152.008605957031 0.748671174049
-60.043525695801 -70.242637634277 -143.802047729492 1.725586414337
-75.456497192383 -81.291259765625 -149.087692260742 6.296069145203
17.405364990234 -77.172630310059 -159.871154785156 3.790020704269
-68.695938110352 -77.482131958008 -158.856933593750 1.509713530540
-71.238166809082 -72.270164489746 -150.411499023438 1.226485967636
30.958591461182 -77.960067749023 -157.940795898438 2.223258733749
23.981843948364 -79.655036926270 -157.957046508789 2.713707923889
-72.827476501465 -81.170661926270 -157.392913818359 4.974314212799
-43.629619598389 -78.201087951660 -159.228408813477 2.322966098785
24.910400390625 -74.949913024902 -163.507812500000 2.129094600677
-45.960811614990 -75.815185546875 -155.932464599609 2.137264490128
109.157142639160 -79.582740783691 -159.057907104492 2.806288719177
27.249794006348 -82.388122558594 -166.191787719727 3.415026426315
-45.605403900146 -74.277496337891 -171.148773193359 3.539004325867
109.079421997070 -80.333312988281 -171.074676513672 3.100987672806
-60.314002990723 -75.895729064941 -165.934249877930 1.003972530365
25.342016220093 -76.786209106445 -160.395416259766 2.289866209030
-44.582843780518 -74.259826660156 -164.836593627930 1.209599733353
30.250339508057 -78.528114318848 -167.606323242188 3.545405149460
107.592567443848 -73.622131347656 -170.262023925781 1.689070224762
18.490251541138 -78.411956787109 -176.314590454102 1.674431443214
-60.838291168213 -75.053535461426 -171.967315673828 1.382570743561
26.904176712036 -78.064872741699 -174.166061401367 1.520060181618
16.970769882202 -82.128173828125 -172.083541870117 4.698042392731
-11.270035743713 -80.269447326660 -175.891998291016 1.780968070030
-17.374643325806 -78.653816223145 -178.400039672852 2.400609254837
-64.290344238281 -76.123741149902 -180.685836791992 5.311684608459
108.569816589355 -81.706504821777 -182.601608276367 5.290071487427
-33.310092926025 -77.719367980957 -181.977325439453 1.387673139572
104.648452758789 -76.145553588867 -185.260055541992 2.533699750900
16.704618453979 -79.065940856934 -180.523071289063 2.589337110519
-27.968051910400 -78.260856628418 -184.382324218750 1.566200017929
12.490265846252 -78.951446533203 -185.424758911133 3.352510213852
-32.257564544678 -74.251800537109 -184.629592895508 0.564489901066
99.808135986328 -75.548416137695 -190.438842773438 1.198275923729
-58.569610595703 -77.030548095703 -185.360443115234 2.937474012375
100.703025817871 -82.892799377441 -191.757186889648 6.239479064941
-51.256629943848 -75.912940979004 -191.688247680664 0.887380540371
21.016883850098 -74.770164489746 -190.218994140625 1.665547013283
16.255537033081 -80.594154357910 -192.116668701172 3.352315187454
-28.601781845093 -81.914886474609 -192.581176757813 2.527253866196
101.545745849609 -79.204704284668 -193.588668823242 2.660140037537
-49.083026885986 -77.633918762207 -186.165145874023 0.559078812599
94.682876586914 -78.668304443359 -202.850433349609 2.020332574844
-20.194957733154 -80.455268859863 -197.195251464844 1.989200234413
-26.774738311768 -76.891792297363 -196.954513549805 1.883360266685
-21.002979278564 -76.671897888184 -193.577499389648 2.717571020126
-31.334041595459 -78.858345031738 -200.212097167969 3.726868391037
-28.911834716797 -73.662734985352 -198.544982910156 2.474985599518
96.025382995605 -71.811164855957 -198.425491333008 2.319753408432
-135.592788696289 -74.391189575195 -196.636856079102 1.459266424179
-45.110855102539 -76.146331787109 -203.899932861328 3.741316556931
-45.248306274414 -78.312286376953 -201.431610107422 2.204034090042
-152.695587158203 -79.488090515137 -201.239471435547 0.973474264145
-45.197456359863 -82.383026123047 -195.622787475586 0.756950497627
12.285453796387 -78.857978820801 -199.795318603516 1.834428429604
89.778831481934 -78.205703735352 -208.411758422852 3.865170001984
96.343444824219 -80.612472534180 -207.921813964844 3.874548673630
8.975691795349 -78.503692626953 -199.864227294922 2.101303339005
-41.941398620605 -78.281326293945 -207.667221069336 2.800172090530
9.773081779480 -79.740425109863 -205.991348266602 1.433746337891
14.287075042725 -76.478981018066 -208.370925903320 2.092293977737
94.655754089355 -86.389343261719 -206.979705810547 9.810704231262
11.346501350403 -75.560836791992 -211.344177246094 2.608782052994
-37.373641967773 -73.891395568848 -209.382659912109 2.578256845474
7.267726898193 -79.745315551758 -208.338485717773 2.518634080887
92.811256408691 -76.663902282715 -212.528366088867 1.187810659409
-148.275314331055 -77.160278320313 -208.139328002930 2.467772245407
-21.937362670898 -78.954101562500 -208.282897949219 3.783332586288
1.745939016342 -81.201972961426 -212.920684814453 6.591321468353
-7.561832904816 -79.511665344238 -215.072830200195 1.937032699585
-11.950118064880 -82.955436706543 -218.355758666992 3.424079179764
12.250700950623 -77.854194641113 -212.134597778320 1.022897362709
-27.798595428467 -72.175315856934 -213.398422241211 1.195521593094
-95.885566711426 -77.499168395996 -211.078125000000 3.751272439957
-156.458160400391 -76.801231384277 -214.552597045898 5.157324314117
4.721724033356 -74.791725158691 -216.980972290039 1.680011510849
-32.337501525879 -75.189331054688 -221.476852416992 5.208374023438
-17.222133636475 -78.807769775391 -221.338088989258 3.148596763611
-147.363815307617 -78.872688293457 -224.284454345703 2.438174247742
-13.602137565613 -74.617469787598 -224.600936889648 1.576774716377
7.319584846497 -77.560180664063 -217.010864257813 1.879682183266
0.807866990566 -79.955406188965 -232.386505126953 2.275401353836
-6.596519947052 -74.429557800293 -223.248703002930 2.401836156845
-10.576075553894 -76.700454711914 -229.901733398438 1.409684300423
-4.427250862122 -76.690246582031 -235.306671142578 2.730248451233
14.825377464294 -77.372673034668 -236.625106811523 2.708302736282
-156.366180419922 -78.117675781250 -231.557601928711 1.674904584885
-1.198747992516 -78.215721130371 -234.606277465820 3.163613796234
-32.583461761475 -77.172210693359 -237.441772460938 1.587027430534
6.442265033722 -78.235443115234 -237.925064086914 1.591097474098
2.838469028473 -79.478988647461 -240.537353515625 1.999540925026
-57.122016906738 -77.062957763672 -241.860473632813 2.878542423248
-27.991788864136 -77.209121704102 -237.445266723633 2.305938482285
-156.403762817383 -76.634834289551 -243.189666748047 4.608211040497
19.038642883301 -75.783599853516 -244.771118164063 1.532150506973
-50.149204254150 -80.655799865723 -246.449996948242 1.904568791389
-58.154819488525 -79.508872985840 -244.186798095703 2.190065383911
-63.231109619141 -78.862884521484 -247.518508911133 2.374564886093
-152.798889160156 -76.334465026855 -249.256347656250 3.341500997543
-15.418204307556 -78.034156799316 -254.000839233398 2.725669384003
-158.451095581055 -76.379737854004 -248.082809448242 2.936144590378
-159.485382080078 -74.113265991211 -249.799194335938 1.671633481979
-137.175674438477 -78.241416931152 -256.956054687500 1.888409376144
-159.910812377930 -80.080429077148 -260.037628173828 5.308652400970
-18.785232543945 -75.460380554199 -267.067962646484 5.236112594604
12.735887527466 -79.649093627930 -278.497283935547 2.394103527069
13.536831855774 -79.605400085449 -272.716827392578 2.184068918228
4.797577857971 -79.313735961914 -283.544036865234 0.971930742264
2.896321058273 -74.975326538086 -287.614654541016 1.547099351883
-38.666290283203 -78.742492675781 -283.390930175781 4.672941684723
-44.627704620361 -79.139999389648 -284.188140869141 3.156231164932
-46.514469146729 -80.275489807129 -288.196258544922 4.391436100006
-21.750835418701 -76.502243041992 -292.302764892578 2.043732166290
-45.288269042969 -81.981437683105 -284.176055908203 5.455221176147
-60.285121917725 -76.983428955078 -287.649810791016 2.667930603027
-7.887307167053 -83.680526733398 -292.432739257813 6.576588153839
-140.188507080078 -76.706970214844 -291.247863769531 1.895569562912
-3.809144020081 -81.100997924805 -288.857757568359 3.357789754868
0.930078029633 -74.666488647461 -290.024322509766 2.538592576981
-51.390407562256 -79.149391174316 -293.450958251953 4.918589591980
11.424629211426 -79.072410583496 -290.748962402344 2.104676723480
-28.271755218506 -79.594703674316 -292.114227294922 3.750503540039
-132.708175659180 -78.451675415039 -288.113861083984 1.844549417496
-37.006439208984 -81.087409973145 -290.364868164063 3.651876926422
-27.092138290405 -79.566810607910 -291.785919189453 3.063980340958
0.279394000769 -76.143028259277 -293.748748779297 3.300504922867
-153.065429687500 -78.251304626465 -289.689056396484 3.156153678894
-165.352035522461 -76.477539062500 -303.058868408203 9.962345123291
-151.626144409180 -76.417137145996 -307.608398437500 2.102275609970
-58.105033874512 -73.293106079102 -54.794944763184 2.423074483871
-68.418067932129 -75.357528686523 -54.967399597168 2.332528114319
-74.500221252441 -74.576995849609 -61.573333740234 1.874106407166
-34.311069488525 -74.530525207520 -58.132629394531 1.846941828728
-32.980190277100 -74.934745788574 -62.995620727539 3.297973871231
-89.877693176270 -73.156074523926 -72.455917358398 0.895190417767
-90.902954101563 -77.128402709961 -76.319931030273 3.959549665451
81.226188659668 -74.066856384277 -76.941680908203 1.712684631348
84.235839843750 -75.214591979980 -81.578269958496 2.338027238846
-35.986656188965 -80.186561584473 -77.028701782227 1.007208943367
76.785797119141 -73.972686767578 -87.889617919922 2.481970071793
86.644454956055 -76.001754760742 -88.153953552246 2.779280900955
-87.964103698730 -75.779792785645 -82.903282165527 1.956556916237
-87.050239562988 -80.519721984863 -84.468475341797 2.821054458618
91.895172119141 -77.177673339844 -90.539039611816 0.735104560852
-55.266510009766 -73.091735839844 -91.793624877930 2.958680391312
86.034507751465 -81.563064575195 -96.080619812012 4.274021148682
86.210540771484 -80.362091064453 -101.680931091309 6.623390674591
88.496955871582 -75.459991455078 -97.912406921387 0.666138768196
55.317916870117 -78.433593750000 -105.740615844727 3.462810993195
-79.631072998047 -71.402168273926 -104.763023376465 3.847654581070
49.603511810303 -77.832511901855 -111.437255859375 0.729869961739
47.558841705322 -73.903930664063 -116.694824218750 2.372280836105
48.537109375000 -80.326393127441 -120.234199523926 3.642095088959
39.998596191406 -78.186012268066 -121.655494689941 2.541288137436
25.167270660400 -75.394271850586 -122.104118347168 4.811011314392
29.951354980469 -74.992042541504 -130.482574462891 1.077807068825
27.975826263428 -74.976226806641 -134.243621826172 1.638732552528
24.726043701172 -76.060890197754 -143.918487548828 1.589408874512
32.901447296143 -76.951812744141 -144.070007324219 1.831050515175
114.764038085938 -69.889465332031 -144.801773071289 1.620458602905
22.831867218018 -78.703834533691 -142.439849853516 3.356696367264
114.194953918457 -78.804946899414 -146.236419677734 2.678457975388
-53.968654632568 -73.642303466797 -134.990859985352 1.530025959015
-55.574337005615 -75.833465576172 -140.035339355469 1.502356410027
114.045494079590 -77.188293457031 -151.721084594727 1.296828150749
110.442375183105 -74.405860900879 -155.228332519531 2.215116977692
23.651584625244 -73.628547668457 -153.794830322266 0.540051460266
-55.396179199219 -76.869445800781 -150.654373168945 2.704902887344
-50.549041748047 -76.334045410156 -147.701309204102 1.498720526695
32.946025848389 -76.087089538574 -153.188827514648 1.173598051071
29.940509796143 -73.322616577148 -157.362213134766 2.741766929626
26.977830886841 -74.791076660156 -159.520217895508 1.497722864151
24.105146408081 -74.824577331543 -155.173934936523 1.665404677391
-47.366542816162 -70.464118957520 -158.145492553711 1.517645478249
20.609172821045 -79.204643249512 -154.328826904297 3.543319702148
-3.675353050232 -73.677246093750 -153.397460937500 9.145074844360
-6.947230815887 -76.875175476074 -163.866622924805 2.588515520096
5.464148044586 -73.959251403809 -161.536285400391 2.208637237549
20.777002334595 -76.266128540039 -169.968246459961 1.692431688309
-34.247619628906 -75.735214233398 -166.805755615234 1.370105504990
24.950508117676 -78.151069641113 -170.573059082031 1.195679903030
108.422821044922 -75.403305053711 -168.648712158203 1.727535843849
18.091972351074 -76.791267395020 -174.883270263672 1.646137952805
-10.974942207336 -76.860641479492 -171.146240234375 2.504927635193
-32.769199371338 -75.793540954590 -172.142669677734 3.516907930374
-12.443454742432 -72.345886230469 -177.417449951172 3.259814023972
17.379024505615 -79.581199645996 -175.639404296875 2.709820508957
-61.787052154541 -72.787109375000 -174.403396606445 2.438130378723
-60.442199707031 -78.917816162109 -175.467041015625 1.681527018547
16.230501174927 -78.707954406738 -180.142440795898 3.174659490585
108.515724182129 -80.151626586914 -186.246978759766 4.839704036713
10.325509071350 -77.317436218262 -180.689056396484 5.155318737030
15.362096786499 -78.000556945801 -181.968521118164 3.348803043365
104.756011962891 -74.334289550781 -184.275268554688 1.600293993950
-59.943866729736 -78.120971679688 -181.910003662109 2.052080154419
30.023651123047 -77.495346069336 -191.364730834961 5.425175189972
-22.118602752686 -77.586990356445 -180.028762817383 2.098072767258
-49.042175292969 -75.866996765137 -189.034164428711 1.679341554642
-146.842056274414 -82.773521423340 -183.379776000977 2.259363651276
100.524993896484 -76.947509765625 -189.039291381836 2.220385313034
-153.040954589844 -78.566940307617 -192.056838989258 3.405660629272
20.185134887695 -80.372871398926 -198.631744384766 3.430849790573
-37.665115356445 -76.326652526855 -189.920242309570 4.833878517151
-52.734313964844 -76.510665893555 -193.886749267578 3.263278007507
-27.575992584229 -78.127662658691 -195.992706298828 2.615662574768
92.551635742188 -76.452529907227 -199.746353149414 3.591300964355
-41.318908691406 -74.874000549316 -200.130950927734 1.952905535698
2.265930891037 -77.608070373535 -205.754013061523 4.868479728699
93.725379943848 -76.580215454102 -202.955978393555 1.672031402588
7.149880886078 -78.329902648926 -206.973953247070 1.743681669235
18.833047866821 -77.420684814453 -204.916763305664 1.743911862373
-14.825453758240 -77.731498718262 -207.471282958984 1.595196962357
13.574688911438 -80.571128845215 -201.365890502930 2.135054588318
-44.020408630371 -75.819305419922 -211.277908325195 6.380219459534
-14.402331352234 -79.954971313477 -203.037582397461 1.795313119888
-23.438377380371 -75.838424682617 -207.243927001953 3.922361850739
-80.302650451660 -75.962944030762 -207.154235839844 3.787962675095
-36.867469787598 -74.402770996094 -210.403305053711 3.068439960480
6.032836914063 -80.884735107422 -207.363754272461 3.974395036697
-15.508143424988 -78.196266174316 -208.315856933594 2.070458650589
90.628547668457 -75.890846252441 -224.631332397461 3.167693853378
-14.435372352600 -74.013786315918 -217.106704711914 1.922563314438
-23.160610198975 -79.748062133789 -215.889419555664 1.527037620544
-84.773544311523 -74.833244323730 -217.991806030273 0.810618758202
-153.268951416016 -73.317665100098 -214.596481323242 2.718585729599
13.702852249146 -74.653450012207 -217.142028808594 2.146495342255
-8.554197311401 -74.395637512207 -215.944885253906 3.082448005676
-24.034421920776 -78.017349243164 -217.172378540039 1.249894738197
-16.721105575562 -78.663734436035 -216.800521850586 3.536062717438
-24.029033660889 -77.694396972656 -222.963394165039 2.779663562775
-2.712924957275 -75.262809753418 -219.348754882813 1.472392916679
-152.457229614258 -79.099586486816 -214.410079956055 3.815488100052
-22.818859100342 -77.795928955078 -226.631164550781 2.463748693466
77.568786621094 -79.095687866211 -227.941314697266 2.872667312622
-17.363306045532 -74.615341186523 -224.937271118164 1.510115385056
-8.868870735168 -80.577674865723 -228.662216186523 2.735342502594
-30.697502136230 -78.707328796387 -230.190795898438 8.313618659973
-160.888305664063 -77.728942871094 -225.768661499023 4.911911964417
74.625183105469 -79.817405700684 -235.999557495117 6.612206935883
-15.294436454773 -81.282501220703 -226.803070068359 4.675119400024
-142.342117309570 -70.862815856934 -227.632934570313 2.158019542694
-150.781997680664 -76.184883117676 -230.497207641602 1.735700368881
-142.531646728516 -81.127899169922 -226.228836059570 0.723653972149
-4.281496047974 -77.133499145508 -232.571472167969 1.052520155907
-151.221618652344 -76.119895935059 -228.943969726563 2.074499130249
0.999620020390 -73.672241210938 -234.173080444336 1.536582350731
16.327543258667 -77.119537353516 -243.893630981445 4.045906543732
-8.736840248108 -73.613540649414 -244.266540527344 2.345894336700
-52.803638458252 -69.164329528809 -241.136001586914 5.649720668793
-52.999736785889 -77.111000061035 -238.499832153320 4.436855316162
-31.180381774902 -78.572937011719 -242.402008056641 1.404586195946
-148.571212768555 -71.673522949219 -237.218414306641 3.463958978653
-42.937797546387 -76.852653503418 -241.426361083984 0.603185951710
-73.748107910156 -80.502929687500 -248.926300048828 4.668398380280
-57.825881958008 -72.162887573242 -246.669418334961 1.168053150177
-64.937683105469 -74.327178955078 -249.991027832031 1.930381059647
-77.927940368652 -77.600074768066 -247.760253906250 4.005225658417
-146.514968872070 -71.733947753906 -253.713623046875 1.941345214844
13.295425415039 -80.025260925293 -262.157196044922 3.104928016663
-134.765014648438 -75.738571166992 -258.081024169922 0.860848665237
-14.550909996033 -83.918518066406 -269.237609863281 6.500102043152
-20.328346252441 -73.494529724121 -270.422210693359 6.309622287750
13.271815299988 -77.137435913086 -277.067413330078 2.219126939774
-154.567794799805 -73.278038024902 -275.617126464844 2.233233690262
-7.606031894684 -75.907135009766 -283.416015625000 4.203362941742
-161.428237915039 -76.545631408691 -276.987518310547 2.736922740936
-139.502868652344 -78.774429321289 -287.868225097656 1.029306411743
-33.809852600098 -75.131484985352 -286.148925781250 0.354503482580
-142.757522583008 -79.294387817383 -286.502807617188 1.816390872002
-71.503761291504 -79.145393371582 -285.192077636719 3.848786830902
-143.814773559570 -75.103080749512 -282.307861328125 2.262911319733
2.992490053177 -76.623863220215 -291.714477539063 1.761130928993
-127.298812866211 -78.468338012695 -290.769744873047 1.306205272675
-70.048667907715 -78.706047058105 -286.294158935547 2.307160615921
-148.083709716797 -76.969993591309 -287.698822021484 2.021736383438
-63.657310485840 -76.430130004883 -287.886413574219 2.413302659988
-39.493293762207 -76.200233459473 -285.127624511719 2.435185909271
-10.871487617493 -77.591857910156 -290.743682861328 1.117646336555
-149.253479003906 -74.356437683105 -296.436096191406 2.031627655029
-165.716110229492 -73.238250732422 -290.443695068359 1.257316231728
-158.490859985352 -76.307418823242 -290.181640625000 2.747581243515
-151.044174194336 -78.289314270020 -296.844757080078 1.387960553169
-148.523147583008 -73.912528991699 -299.561859130859 1.959465265274
-42.179275512695 -71.209083557129 -56.676799774170 3.288102865219
-60.068958282471 -69.998229980469 -55.460365295410 6.197999000549
-60.559783935547 -75.018028259277 -56.691246032715 1.987235426903
-42.449420928955 -76.441894531250 -60.430583953857 1.201187014580
-33.516445159912 -75.412963867188 -61.630382537842 2.107988357544
-32.448009490967 -71.919288635254 -57.637256622314 1.720112562180
-27.008832931519 -73.605979919434 -63.674873352051 2.045014858246
-29.453567504883 -72.197181701660 -64.845214843750 4.552006244659
-23.833959579468 -76.177970886230 -74.782638549805 1.016491532326
92.717704772949 -74.213943481445 -80.488281250000 1.744562268257
73.202003479004 -75.756767272949 -79.997589111328 2.218515872955
70.890319824219 -72.233901977539 -74.930786132813 1.800119876862
-37.938274383545 -77.371574401855 -80.385932922363 2.284221649170
-43.882698059082 -68.702789306641 -83.450263977051 3.301386833191
-48.886245727539 -71.450462341309 -87.295478820801 2.285822153091
-49.969116210938 -75.652809143066 -86.309631347656 1.764825105667
-90.049964904785 -80.755455017090 -94.233291625977 1.850284218788
69.362899780273 -74.977340698242 -102.694534301758 5.933260440826
96.138130187988 -75.020576477051 -101.206382751465 2.708349466324
77.163398742676 -76.869766235352 -99.385948181152 2.021965265274
-91.624458312988 -74.219223022461 -100.029228210449 3.720414161682
79.032096862793 -73.598381042480 -97.762512207031 1.659025073051
50.228561401367 -76.080039978027 -99.567642211914 1.332141280174
54.100677490234 -74.949592590332 -102.968803405762 1.515723109245
42.761734008789 -73.234764099121 -106.637718200684 2.282977342606
43.699432373047 -71.158790588379 -100.191284179688 0.531521141529
45.064105987549 -73.224929809570 -105.655120849609 3.283661842346
-90.029190063477 -73.005645751953 -102.472099304199 4.044465065002
44.087047576904 -79.434165954590 -115.901000976563 0.876706421375
33.411682128906 -79.812385559082 -117.683395385742 1.850534439087
29.480205535889 -73.432914733887 -129.537658691406 1.580563187599
107.485733032227 -74.040710449219 -128.115051269531 3.339022874832
108.182151794434 -75.152191162109 -129.447143554688 2.529884338379
106.482009887695 -74.985977172852 -129.608505249023 3.890252113342
110.428405761719 -77.550491333008 -133.661697387695 2.637997388840
38.145038604736 -75.969718933105 -136.121459960938 1.982656717300
41.371341705322 -73.061592102051 -142.731689453125 3.788127183914
28.501558303833 -73.907417297363 -135.122268676758 2.509037733078
21.140821456909 -74.609748840332 -143.358261108398 2.681680202484
107.580421447754 -76.864151000977 -147.407318115234 3.595384836197
109.977523803711 -77.001068115234 -153.795288085938 2.113216161728
-51.223747253418 -69.312332153320 -149.594238281250 1.912395119667
19.554025650024 -73.225914001465 -145.866180419922 3.617516279221
-70.413513183594 -75.788490295410 -153.044525146484 1.928432583809
-74.017356872559 -70.082366943359 -149.838851928711 0.805259585381
106.866638183594 -79.799583435059 -159.831695556641 4.696587085724
112.715980529785 -77.029663085938 -160.411026000977 2.093507766724
28.660358428955 -75.413803100586 -157.317413330078 2.454776287079
-73.431495666504 -74.428298950195 -153.827148437500 2.064427375793
-0.223268002272 -72.215660095215 -161.175506591797 2.412317276001
-0.414452999830 -72.053848266602 -158.953002929688 3.999001741409
-66.713928222656 -70.408012390137 -162.351943969727 3.149105310440
-45.531715393066 -75.730529785156 -164.684967041016 0.685935795307
20.696739196777 -78.404464721680 -169.580383300781 1.815944433212
104.468322753906 -82.760032653809 -163.699630737305 8.120017051697
29.428104400635 -73.620269775391 -164.570465087891 1.847085118294
-2.854336023331 -73.845489501953 -167.188919067383 1.793227910995
15.520618438721 -80.084159851074 -167.703308105469 4.831120491028
-66.578613281250 -75.728736877441 -165.376098632813 2.242592334747
-64.640106201172 -74.547233581543 -167.211563110352 1.521376848221
-47.359416961670 -74.333190917969 -169.824829101563 4.146224498749
23.283000946045 -75.408584594727 -173.641433715820 2.895847320557
16.712327957153 -78.111534118652 -171.603134155273 1.347229480743
24.166471481323 -77.010200500488 -169.849212646484 1.137100815773
20.039302825928 -70.979278564453 -174.781143188477 1.010221123695
-32.958568572998 -71.187034606934 -174.127410888672 1.205613970757
11.602742195129 -75.722305297852 -178.498931884766 4.175366401672
15.676680564880 -73.903350830078 -180.508773803711 1.343635559082
-61.727180480957 -76.227073669434 -174.699539184570 0.918647527695
103.180252075195 -76.554534912109 -186.316375732422 2.323798179626
11.383728027344 -75.370155334473 -180.406204223633 3.536245822906
24.875705718994 -73.338424682617 -179.507873535156 2.390314579010
-33.589534759521 -74.373596191406 -187.695159912109 2.654269933701
-49.843852996826 -73.106887817383 -188.749114990234 1.894242286682
11.593406677246 -79.839202880859 -189.105804443359 3.840386390686
-55.609115600586 -76.007446289063 -187.079101562500 3.487935066223
98.506858825684 -77.613365173340 -191.357192993164 3.751039505005
-54.411174774170 -70.250465393066 -191.454711914063 6.008546829224
-150.413452148438 -73.113105773926 -187.191314697266 1.128569126129
11.442358016968 -73.942062377930 -194.818313598633 1.408541321754
-45.079086303711 -75.692329406738 -201.365859985352 2.349714994431
14.271693229675 -75.538505554199 -196.303070068359 2.032142639160
-18.632757186890 -73.147186279297 -196.912902832031 2.617941379547
12.642499923706 -72.906768798828 -198.210723876953 0.977507174015
-138.910827636719 -71.722419738770 -190.833740234375 4.805136203766
12.509839057922 -77.936294555664 -197.531234741211 1.000994563103
-138.072967529297 -71.984977722168 -198.058288574219 3.167114019394
-145.419723510742 -76.208610534668 -199.517150878906 1.963630676270
-38.556205749512 -78.570549011230 -204.428924560547 1.086121916771
94.248931884766 -76.965621948242 -207.619003295898 2.036691665649
-160.824981689453 -73.150985717773 -197.984115600586 3.187356710434
-18.236114501953 -79.226898193359 -205.996887207031 2.611075639725
-36.049873352051 -78.966705322266 -202.798690795898 1.216760993004
-42.234985351563 -81.843658447266 -205.062149047852 4.561377525330
5.548489093781 -77.350006103516 -209.964492797852 2.375175952911
90.706161499023 -75.111534118652 -210.655288696289 1.742095828056
-77.218139648438 -76.650489807129 -208.324462890625 1.268258571625
-37.991832733154 -76.299392700195 -207.912521362305 1.711418867111
-13.155654907227 -74.025054931641 -216.916854858398 1.550502657890
-72.698677062988 -77.415992736816 -211.740936279297 2.269650936127
-40.377677917480 -76.428703308105 -213.382446289063 5.614158630371
-24.191921234131 -81.161132812500 -215.345214843750 1.331850290298
-32.299972534180 -73.647781372070 -213.217834472656 0.979298233986
91.218261718750 -80.056144714355 -220.106338500977 3.902528524399
-78.271980285645 -75.162117004395 -209.850433349609 1.806125283241
13.402490615845 -78.241249084473 -224.176086425781 1.273383855820
1.493437051773 -76.748664855957 -215.227096557617 4.247623920441
-10.166057586670 -73.356986999512 -221.173828125000 1.687457323074
-97.376579284668 -78.602096557617 -217.128005981445 4.250096797943
0.768090009689 -73.839591979980 -226.897369384766 1.006259202957
-20.507738113403 -77.026504516602 -221.146331787109 1.838450908661
15.636769294739 -75.996734619141 -221.766250610352 1.230695962906
77.349502563477 -79.758712768555 -225.429794311523 3.694066762924
-157.673171997070 -79.486595153809 -220.235610961914 6.325511455536
-18.198640823364 -77.867790222168 -222.597671508789 1.722795844078
78.439117431641 -76.551544189453 -228.951202392578 1.689523696899
-146.736938476563 -74.857772827148 -225.484481811523 2.921856164932
12.764343261719 -69.478202819824 -228.467041015625 1.861964464188
-9.026155471802 -76.877655029297 -223.426025390625 1.210350871086
2.934690952301 -78.819778442383 -224.017181396484 2.845655918121
18.320911407471 -77.462837219238 -230.417404174805 1.752323031425
64.014480590820 -75.671295166016 -238.799468994141 2.109721183777
73.840232849121 -77.321830749512 -240.285537719727 5.836959838867
4.201399803162 -79.520385742188 -238.197296142578 2.036978483200
-1.863088965416 -72.763435363770 -237.918991088867 2.028773069382
-4.163863182068 -75.671752929688 -239.286254882813 2.481123924255
-2.019646883011 -78.215904235840 -238.812606811523 1.714441299438
-51.002258300781 -80.843551635742 -234.693832397461 8.684520721436
0.480621010065 -76.678398132324 -239.648239135742 2.241978168488
-42.368331909180 -71.767707824707 -247.354949951172 3.364800930023
3.143601894379 -72.411888122559 -246.819458007813 3.036202669144
4.551683902740 -78.028549194336 -250.215805053711 3.621212005615
12.381329536438 -76.747985839844 -253.703994750977 4.888194561005
14.486515045166 -71.499099731445 -252.108505249023 5.079650878906
-84.050254821777 -79.204025268555 -246.830841064453 5.965225219727
13.197993278503 -78.619857788086 -249.906585693359 1.951990365982
-78.931976318359 -75.896903991699 -255.211776733398 2.017374277115
-149.359603881836 -72.004318237305 -255.600860595703 1.833004474640
-136.220092773438 -73.146995544434 -258.405517578125 1.774126887321
-142.488967895508 -73.818412780762 -260.544738769531 1.594632625580
-138.469696044922 -76.426460266113 -258.674530029297 0.809889733791
-158.134628295898 -79.678848266602 -264.474304199219 5.649545669556
-152.693786621094 -79.680152893066 -272.137298583984 1.500584602356
-152.833099365234 -77.874137878418 -263.333679199219 3.137820005417
-157.773406982422 -74.765815734863 -276.214630126953 2.319946050644
-170.009994506836 -70.342407226563 -281.146453857422 4.536865711212
-136.503524780273 -74.598457336426 -281.579132080078 4.845947742462
-56.489959716797 -78.634658813477 -284.623840332031 2.743444442749
-67.937011718750 -75.651344299316 -279.043426513672 7.221033096313
-78.621589660645 -73.694755554199 -286.225677490234 2.853795289993
-6.599545001984 -79.693840026855 -284.804534912109 4.255847454071
-132.482803344727 -74.240699768066 -282.647888183594 2.324503421783
-4.199407100677 -78.704154968262 -289.239013671875 1.867545962334
-140.927734375000 -76.836204528809 -284.277770996094 3.107479095459
-99.579597473145 -78.843032836914 -285.584838867188 3.980097532272
-86.923316955566 -74.419403076172 -289.712554931641 2.990106105804
-165.719375610352 -76.311065673828 -286.425384521484 2.627468585968
-146.313323974609 -77.087150573730 -289.608215332031 3.271585226059
-122.317024230957 -76.610939025879 -287.855834960938 2.298349142075
-74.379371643066 -79.285629272461 -285.177398681641 4.603844642639
9.879608154297 -75.384536743164 -293.403900146484 3.234882354736
-39.902732849121 -80.731407165527 -291.898406982422 4.333117961884
-24.405359268188 -76.895347595215 -292.951568603516 1.827279448509
-139.497482299805 -74.818611145020 -289.727600097656 2.707139253616
-138.911865234375 -74.508796691895 -292.940521240234 2.586520433426
-149.373916625977 -72.973526000977 -292.691284179688 3.268152475357
-154.979141235352 -74.972602844238 -298.318511962891 3.178842782974
-154.803375244141 -72.809394836426 -305.230743408203 1.425990939140
-56.501674652100 -73.249107360840 -55.196437835693 1.655707955360
-75.989295959473 -69.438041687012 -53.923233032227 4.066167831421
-77.912178039551 -71.348838806152 -53.878036499023 3.356047153473
-25.811250686646 -73.708114624023 -59.608119964600 1.746824860573
-19.615421295166 -71.734107971191 -59.498863220215 3.260966300964
-79.484939575195 -71.661834716797 -66.684669494629 4.899827003479
-87.408264160156 -73.615806579590 -68.311698913574 3.624491691589
85.939002990723 -73.344276428223 -77.606376647949 1.808333158493
91.250305175781 -78.295310974121 -78.377189636230 2.805210113525
-94.538726806641 -70.558280944824 -75.210517883301 3.534517049789
-29.958126068115 -76.711921691895 -73.627708435059 2.631623029709
93.435325622559 -73.895858764648 -82.857337951660 2.817135334015
91.325950622559 -72.111450195313 -90.521499633789 4.470345020294
-93.115798950195 -66.349700927734 -72.547538757324 3.379546403885
-49.486846923828 -71.150184631348 -83.639205932617 1.860713481903
99.442352294922 -72.540100097656 -92.532112121582 2.544724941254
-57.514709472656 -75.477577209473 -86.798538208008 4.903474807739
54.112823486328 -78.181518554688 -97.373916625977 2.582831382751
-60.867446899414 -73.164840698242 -88.191421508789 4.272603988647
50.182746887207 -72.301673889160 -94.445999145508 2.166254997253
44.737529754639 -77.674667358398 -100.093841552734 2.098275899887
52.210781097412 -74.926338195801 -96.047416687012 1.722927808762
51.147884368896 -75.063713073730 -99.819366455078 2.408010244370
43.318820953369 -73.547019958496 -109.553039550781 2.250337362289
108.628601074219 -77.147628784180 -108.757904052734 3.746089696884
-81.140983581543 -70.172088623047 -109.475349426270 2.420028686523
-86.213081359863 -70.510070800781 -106.383323669434 2.343585968018
108.622184753418 -74.721725463867 -117.428314208984 2.250098943710
44.495052337646 -75.612075805664 -117.759613037109 1.058213829994
46.194019317627 -73.055130004883 -124.126327514648 2.738623142242
-89.023406982422 -75.175674438477 -113.143013000488 2.581762075424
111.028152465820 -77.347534179688 -118.482391357422 1.751123905182
111.378303527832 -69.785057067871 -122.118896484375 1.382108688354
41.392242431641 -76.682746887207 -124.589202880859 1.203115463257
108.256805419922 -77.477867126465 -131.030548095703 3.269883394241
105.928726196289 -74.993576049805 -135.336990356445 4.471745491028
26.670465469360 -71.714942932129 -136.347167968750 0.557179510593
111.793853759766 -76.052543640137 -142.965896606445 1.388512611389
107.560073852539 -77.182853698730 -134.805511474609 3.828108072281
-65.433219909668 -71.775939941406 -134.869720458984 3.546597957611
-59.494102478027 -74.683929443359 -137.608581542969 2.577839374542
25.026475906372 -71.926216125488 -143.815582275391 1.393803834915
-54.121589660645 -67.179420471191 -132.353897094727 1.526666402817
-77.274276733398 -69.781745910645 -139.043243408203 1.856082081795
-73.520591735840 -71.537834167480 -143.865280151367 1.171713471413
100.964416503906 -79.109680175781 -144.592575073242 9.810079574585
-59.251026153564 -73.755538940430 -145.410766601563 2.889777183533
-74.908233642578 -71.834915161133 -144.721160888672 1.561254858971
-44.022129058838 -73.259063720703 -144.570663452148 1.181653857231
111.969673156738 -72.025970458984 -158.441085815430 1.275372266769
23.726999282837 -73.533264160156 -157.192794799805 3.003207206726
-78.767654418945 -75.230911254883 -156.739089965820 7.045840263367
-55.136470794678 -75.352302551270 -156.143264770508 3.618082523346
-38.071224212646 -78.326187133789 -153.245101928711 1.122951984406
-41.721187591553 -79.813674926758 -152.853057861328 1.048913598061
-73.228713989258 -77.104705810547 -157.684661865234 3.543733358383
8.184787750244 -74.944099426270 -162.219863891602 2.290726661682
-52.628940582275 -73.355667114258 -158.592147827148 2.563399314880
-48.433609008789 -73.932510375977 -156.967803955078 1.919997453690
27.852092742920 -74.814430236816 -162.825500488281 1.058704733849
-36.163303375244 -75.647651672363 -167.438217163086 2.707758903503
-73.364776611328 -76.837081909180 -163.964233398438 5.538609027863
104.320503234863 -75.593467712402 -165.355087280273 3.808998823166
106.985771179199 -71.080467224121 -171.203277587891 1.253024935722
28.047000885010 -74.224227905273 -168.100677490234 1.388851642609
110.183006286621 -72.035675048828 -169.864044189453 1.692208051682
103.481323242188 -77.765296936035 -170.488708496094 3.990657091141
15.616879463196 -78.525100708008 -178.164779663086 3.036538362503
-30.932151794434 -70.436241149902 -173.122177124023 0.948664724827
-56.027423858643 -76.303375244141 -176.787780761719 1.030086636543
107.637519836426 -76.721138000488 -182.618652343750 1.529553651810
-39.750381469727 -75.891136169434 -180.011871337891 2.418501615524
10.529028892517 -74.750724792480 -179.002822875977 4.738259792328
-36.173160552979 -71.060012817383 -174.496643066406 1.653917431831
-59.305343627930 -72.887359619141 -182.360977172852 1.947146654129
-152.336639404297 -72.002746582031 -180.079254150391 1.932639122009
-152.741882324219 -70.053115844727 -179.258071899414 1.077909946442
104.239997863770 -78.324211120605 -182.853515625000 1.573100566864
15.241803169250 -72.180099487305 -184.370330810547 1.613006353378
-61.679542541504 -72.427856445313 -182.569931030273 3.961365461349
-51.622558593750 -77.235969543457 -194.330978393555 3.029058218002
-51.521766662598 -71.628517150879 -190.054092407227 4.008014678955
-52.985328674316 -77.631958007813 -193.160537719727 3.036051034927
13.572437286377 -74.711334228516 -189.659011840820 2.530652046204
13.653072357178 -75.964134216309 -188.554565429688 1.853492379189
102.830627441406 -74.810447692871 -199.141265869141 1.267777085304
-27.086174011230 -73.418563842773 -196.566024780273 2.488205909729
-47.794628143311 -75.611190795898 -197.026107788086 2.026378870010
19.359411239624 -73.389137268066 -197.791076660156 1.406652331352
-46.772644042969 -72.681045532227 -196.537765502930 3.785857677460
94.669929504395 -78.228385925293 -203.363693237305 1.473294138908
-41.084247589111 -71.417655944824 -202.250915527344 3.054630756378
90.529449462891 -80.600830078125 -204.305175781250 4.557799816132
15.923789978027 -72.856307983398 -205.380981445313 3.056988477707
-42.286621093750 -72.267112731934 -206.477569580078 3.445905923843
12.626228332520 -71.280563354492 -201.059234619141 1.316748142242
-26.200695037842 -76.306579589844 -209.223510742188 2.523774862289
-44.085357666016 -74.934608459473 -204.018463134766 3.369116544724
88.176162719727 -77.915695190430 -210.836883544922 2.684489727020
4.912226200104 -74.667144775391 -207.726135253906 1.633585214615
85.025001525879 -71.143241882324 -221.596725463867 1.215616822243
-12.653283119202 -78.132438659668 -213.023376464844 0.657934248447
-27.142654418945 -74.932220458984 -208.984497070313 2.423060417175
-83.703681945801 -74.695716857910 -210.923889160156 1.849856138229
78.695030212402 -76.806838989258 -222.469558715820 1.684968590736
-23.570358276367 -75.469360351563 -218.287322998047 0.937497794628
13.857959747314 -72.994728088379 -220.044769287109 2.601162910461
-30.003377914429 -78.362113952637 -219.695541381836 2.141656637192
-33.435146331787 -74.416770935059 -216.349075317383 2.892670631409
-104.512184143066 -75.515930175781 -217.759613037109 4.019223690033
-12.074286460876 -74.043136596680 -221.537994384766 2.084998846054
-25.115100860596 -74.715446472168 -221.968276977539 1.487077474594
-5.078474044800 -75.357376098633 -225.833648681641 2.529633998871
9.413484573364 -79.348564147949 -224.633132934570 2.582346439362
-19.068515777588 -74.003540039063 -223.485504150391 1.226704001427
-17.287109375000 -82.618659973145 -225.071426391602 4.834084033966
14.615690231323 -77.483261108398 -225.147018432617 1.937909603119
4.083735942841 -76.162849426270 -220.220138549805 3.026446580887
2.737560987473 -78.422744750977 -219.076873779297 4.660231590271
-134.694961547852 -75.583564758301 -227.642837524414 0.969946205616
-16.906005859375 -74.330955505371 -227.793304443359 1.821597695351
71.286552429199 -76.734405517578 -232.322784423828 3.195687532425
-20.632476806641 -77.059883117676 -227.272735595703 2.218633651733
-155.429031372070 -76.651588439941 -226.050506591797 2.245340347290
-134.999237060547 -75.335960388184 -231.782028198242 0.927368581295
-15.591723442078 -73.477455139160 -237.552352905273 0.944814801216
71.460044860840 -78.560661315918 -229.800079345703 4.633728981018
-11.817169189453 -76.421974182129 -229.772430419922 1.444191455841
-7.365938186646 -76.149238586426 -236.994552612305 2.883525609970
61.239734649658 -78.098098754883 -241.669113159180 3.236838579178
-1.482810020447 -76.302246093750 -244.684967041016 1.816814303398
62.000091552734 -82.216117858887 -241.079940795898 6.806554794312
-160.893203735352 -72.528617858887 -242.951095581055 3.122986078262
57.942581176758 -72.553535461426 -241.553894042969 2.115005970001
-41.544486999512 -73.865013122559 -240.981933593750 1.964783072472
-43.659923553467 -72.464019775391 -242.511856079102 1.262459635735
9.871571540833 -76.645660400391 -239.249832153320 1.914766907692
-52.307815551758 -79.374359130859 -244.974548339844 0.609393358231
-31.153038024902 -76.061454772949 -243.194305419922 1.948672890663
0.947804987431 -72.810760498047 -244.427200317383 1.136515498161
-53.857475280762 -76.861579895020 -245.431884765625 1.129890441895
-148.690124511719 -68.660087585449 -244.304214477539 3.248136997223
13.054016113281 -74.894569396973 -239.464233398438 1.503256917000
-154.798904418945 -78.541084289551 -238.050613403320 4.912513256073
-77.091705322266 -76.699592590332 -246.681274414063 3.376159429550
-9.227529525757 -79.435050964355 -249.432754516602 2.782982349396
-13.629861831665 -73.498558044434 -250.495742797852 2.229065656662
-87.072509765625 -75.548004150391 -245.967834472656 4.812835693359
-155.216476440430 -72.738098144531 -250.983795166016 2.280302524567
-155.027633666992 -80.850296020508 -248.741363525391 4.048896312714
-92.041229248047 -75.890655517578 -258.372497558594 3.260296106339
-166.409606933594 -75.012992858887 -257.142395019531 2.744934320450
-130.225463867188 -78.710746765137 -253.540359497070 5.605266571045
21.114353179932 -74.533973693848 -261.190582275391 2.484635114670
-160.386947631836 -71.809066772461 -254.602661132813 2.869886636734
-149.502502441406 -69.742309570313 -255.631607055664 2.768970966339
-169.692565917969 -73.085617065430 -256.119049072266 3.712934017181
-141.294464111328 -69.051628112793 -257.504516601563 2.580257892609
-126.999565124512 -76.303207397461 -260.191864013672 1.250623106956
-166.469177246094 -78.550880432129 -263.929473876953 3.527312517166
-149.852355957031 -74.739532470703 -256.654357910156 1.754148721695
-171.579483032227 -74.128005981445 -262.837036132813 5.312647342682
-159.510131835938 -72.662345886230 -256.706695556641 2.329966068268
-165.764373779297 -71.142204284668 -264.059661865234 1.558372616768
-174.819732666016 -72.718803405762 -258.976104736328 7.526429653168
11.341702461243 -84.625091552734 -275.431671142578 2.933705091476
5.171240806580 -77.348739624023 -274.773406982422 4.601361751556
-163.903259277344 -72.701515197754 -274.583404541016 1.891940116882
-163.800643920898 -74.060386657715 -270.324188232422 2.632007598877
-172.940856933594 -68.836090087891 -276.904327392578 5.525945663452
-162.238311767578 -73.763107299805 -269.173065185547 3.789016962051
-158.190383911133 -69.518516540527 -270.145385742188 2.591855287552
-155.504043579102 -72.533164978027 -270.015869140625 2.910745382309
-143.507965087891 -72.902297973633 -277.788726806641 1.666533350945
-167.624038696289 -74.180259704590 -275.174530029297 2.042876005173
-159.483688354492 -71.100296020508 -282.764587402344 1.337214946747
12.998832702637 -75.940841674805 -284.326751708984 2.373359441757
-159.603576660156 -77.520851135254 -278.894439697266 4.308512687683
-165.876296997070 -76.873489379883 -281.152038574219 4.093908309937
-168.619033813477 -73.202758789063 -276.959686279297 1.310138344765
-133.471862792969 -73.821632385254 -285.839385986328 0.620282649994
-37.628238677979 -77.740432739258 -285.838836669922 1.876247406006
-50.791213989258 -74.145797729492 -283.006408691406 3.061605453491
-74.437408447266 -72.220130920410 -289.990020751953 2.683020114899
-18.722942352295 -72.345130920410 -287.696838378906 3.295153856277
7.099188804626 -77.923492431641 -286.220703125000 0.374060153961
-8.186255455017 -79.028022766113 -291.288238525391 3.653428792953
-118.387176513672 -77.385536193848 -288.887756347656 0.714159488678
-103.937278747559 -73.322555541992 -284.972778320313 1.861442089081
-120.133468627930 -75.257652282715 -290.745208740234 1.636912465096
-109.268791198730 -75.526000976563 -286.643493652344 3.047749757767
-99.290634155273 -78.001358032227 -289.468475341797 3.764798879623
-53.676998138428 -74.921218872070 -286.263793945313 1.524111986160
-123.170913696289 -75.576965332031 -287.096649169922 1.518899321556
-92.165275573730 -73.957305908203 -290.862152099609 0.357065558434
-121.482505798340 -74.777755737305 -292.165557861328 1.556777954102
-140.958969116211 -75.965515136719 -288.639099121094 1.692161679268
-18.753875732422 -73.479881286621 -294.849487304688 4.133549690247
5.659172058105 -77.208847045898 -294.980834960938 2.377076625824
-159.004974365234 -74.583786010742 -291.610931396484 2.198640108109
