50.363639831543 -66.599517822266 -29.869007110596 3.041335582733
-47.962001800537 -62.972946166992 -48.078670501709 3.345250606537
-71.045135498047 -65.709808349609 -41.838642120361 3.777514219284
-30.872436523438 -70.220230102539 -45.639881134033 4.229008674622
-84.193008422852 -67.760757446289 -59.550403594971 4.222397327423
83.948379516602 -64.759902954102 -59.966224670410 2.804880857468
89.329627990723 -71.431587219238 -65.169219970703 3.249873638153
-10.611527442932 -64.391403198242 -67.458473205566 2.314897060394
96.987701416016 -65.320220947266 -73.375701904297 4.267875194550
68.410461425781 -72.201118469238 -68.859848022461 4.283721923828
-36.887905120850 -61.243362426758 -76.105430603027 2.194849014282
-42.426551818848 -67.863197326660 -76.111137390137 2.301420927048
62.027221679688 -67.637489318848 -82.849578857422 1.533669829369
64.985710144043 -69.966239929199 -89.952629089355 1.260441660881
105.161064147949 -71.377128601074 -88.351516723633 3.567476034164
-57.478218078613 -65.842956542969 -82.097251892090 2.766854047775
-93.951141357422 -65.687385559082 -87.385963439941 3.618805170059
49.137847900391 -73.257926940918 -95.532920837402 1.962808251381
106.269912719727 -69.758377075195 -93.021347045898 3.236121177673
109.318908691406 -70.124496459961 -98.171463012695 2.196481943130
75.890541076660 -66.269416809082 -98.800643920898 5.269728660583
52.656398773193 -61.096694946289 -100.929046630859 2.300707578659
-94.738739013672 -64.794067382813 -101.413398742676 3.289818525314
51.035499572754 -65.136688232422 -100.778923034668 1.535954117775
55.042148590088 -66.529014587402 -101.664146423340 2.249608993530
83.079559326172 -65.897247314453 -101.042274475098 3.396504878998
87.007308959961 -68.317604064941 -106.094894409180 1.498642325401
-95.520805358887 -66.504425048828 -99.441284179688 3.324699401855
39.502128601074 -74.698066711426 -105.451049804688 1.591971278191
50.176780700684 -67.055770874023 -109.488975524902 1.262481451035
105.928459167480 -69.364334106445 -104.312911987305 0.811109364033
39.904510498047 -71.600517272949 -109.662841796875 1.029312849045
39.783466339111 -70.428283691406 -105.409652709961 1.665325284004
114.921920776367 -69.954612731934 -108.791275024414 1.925945520401
35.377326965332 -74.532997131348 -112.208930969238 2.301723957062
110.717506408691 -73.893386840820 -115.550262451172 2.890223264694
-74.602195739746 -62.896636962891 -108.571136474609 1.159538507462
-83.478836059570 -67.567695617676 -117.456390380859 1.504449248314
110.974037170410 -70.837409973145 -124.517562866211 1.161506056786
36.385894775391 -72.614173889160 -129.182495117188 2.157832145691
-60.972198486328 -65.766105651855 -124.214012145996 2.037594318390
-86.799430847168 -60.900508880615 -122.360794067383 3.374816179276
-56.104515075684 -72.156471252441 -128.346740722656 1.750824928284
-86.579978942871 -64.058319091797 -123.028350830078 1.441879749298
-69.865737915039 -65.248886108398 -127.559127807617 4.230067729950
-48.130706787109 -70.397003173828 -137.062850952148 1.572844862938
-85.736846923828 -65.985923767090 -130.423019409180 1.185508489609
-74.128204345703 -65.143898010254 -131.823303222656 2.120125532150
-75.596054077148 -60.365459442139 -130.296859741211 3.254391193390
-43.455646514893 -70.267028808594 -128.396057128906 6.326105117798
-76.983543395996 -67.565437316895 -134.911041259766 0.466744273901
-75.175712585449 -62.927124023438 -132.604904174805 2.070047140121
111.040199279785 -71.671577453613 -142.718704223633 1.776675224304
29.345827102661 -71.456565856934 -141.445037841797 1.651320457458
-41.643218994141 -65.138092041016 -145.068786621094 4.255657672882
115.890686035156 -68.784431457520 -142.753967285156 2.157398939133
-53.941448211670 -66.972648620605 -142.632141113281 0.972631990910
-52.871837615967 -60.275421142578 -138.707763671875 3.177069425583
33.035377502441 -69.821952819824 -148.382415771484 1.724072694778
26.995615005493 -67.468330383301 -148.062469482422 1.694337487221
118.179992675781 -75.476150512695 -151.334197998047 2.776778221130
-44.294876098633 -64.466690063477 -145.913528442383 4.050047397614
11.624540328979 -62.542839050293 -151.939529418945 3.627477645874
-47.493545532227 -66.252143859863 -155.149688720703 3.721057415009
30.208810806274 -69.103134155273 -150.753402709961 1.580837607384
109.948608398438 -66.924255371094 -151.355865478516 4.643310546875
115.691825866699 -69.686073303223 -158.840454101563 2.373008489609
34.662616729736 -65.121566772461 -154.241088867188 6.021349906921
113.166847229004 -71.976615905762 -154.773361206055 1.144986629486
25.271923065186 -71.330062866211 -163.106460571289 3.044616222382
113.073715209961 -73.823631286621 -158.792510986328 1.456535220146
26.770948410034 -68.033462524414 -159.599777221680 2.195418119431
26.971633911133 -67.929237365723 -162.648452758789 1.467636585236
111.737785339355 -68.691078186035 -165.436691284180 0.779466211796
-27.559324264526 -66.434585571289 -164.676452636719 6.113411426544
-39.762073516846 -64.833099365234 -167.342514038086 4.528665065765
27.006290435791 -69.856758117676 -173.090484619141 1.898586273193
-138.311035156250 -64.024703979492 -170.558654785156 6.290552139282
-35.901016235352 -66.426422119141 -174.042846679688 2.589054107666
-108.190910339355 -66.565773010254 -177.833206176758 1.591858148575
27.459821701050 -65.700111389160 -176.585220336914 4.213007926941
-151.793350219727 -64.849922180176 -175.656509399414 1.164296150208
-23.709383010864 -66.861846923828 -173.857192993164 4.044858455658
-33.353816986084 -76.596679687500 -180.904144287109 2.915175437927
-147.097396850586 -68.431495666504 -179.500030517578 2.219742774963
-111.939620971680 -66.185974121094 -181.687347412109 1.055446863174
-32.660255432129 -65.501480102539 -184.963607788086 4.704185485840
-108.859909057617 -64.756385803223 -183.886947631836 2.163160562515
107.884353637695 -67.983421325684 -189.873855590820 1.991613268852
18.176668167114 -68.139305114746 -184.578308105469 2.242953300476
-26.715667724609 -63.608970642090 -187.843124389648 4.295622825623
15.176316261292 -64.683181762695 -183.230972290039 3.761382341385
-19.524868011475 -67.874008178711 -192.100708007813 1.158953666687
-24.743974685669 -65.316329956055 -188.413040161133 2.332225084305
15.711846351624 -67.835777282715 -190.259963989258 0.720652580261
21.521833419800 -71.542671203613 -190.574859619141 1.503843784332
-22.249130249023 -69.322036743164 -194.524185180664 1.735514163971
-108.177261352539 -68.305671691895 -191.924407958984 1.403828620911
-160.544204711914 -64.075813293457 -195.994674682617 3.395493507385
-12.000062942505 -68.968788146973 -193.693710327148 3.845085859299
-13.920331001282 -74.049713134766 -195.587539672852 1.757946133614
21.518064498901 -67.315452575684 -198.741973876953 1.405332207680
-13.195211410522 -66.522850036621 -198.770126342773 2.291473150253
15.687621116638 -67.527084350586 -199.329421997070 1.921758651733
-114.521713256836 -67.410041809082 -195.668106079102 1.008353471756
-119.208236694336 -61.735008239746 -198.697402954102 3.616711616516
-24.449594497681 -69.242500305176 -203.857452392578 1.245522379875
18.866979598999 -70.159210205078 -203.664306640625 1.467290639877
-128.308090209961 -67.073181152344 -199.362625122070 2.961594820023
-143.861816406250 -64.731086730957 -198.677993774414 1.519557833672
12.938746452332 -69.272949218750 -207.807388305664 2.129524230957
16.303155899048 -64.155769348145 -208.625503540039 2.197292804718
-17.909643173218 -64.480094909668 -204.742889404297 2.363786935806
-10.006107330322 -69.134529113770 -211.052474975586 2.440404891968
6.528182029724 -63.641372680664 -208.943191528320 6.495068073273
93.138198852539 -66.422760009766 -206.788528442383 3.746077775955
-13.247339248657 -66.952125549316 -211.405517578125 1.449855804443
12.081502914429 -66.158576965332 -209.622314453125 2.145696640015
16.041265487671 -63.245674133301 -208.768920898438 2.634868383408
-14.232906341553 -60.495136260986 -214.081771850586 6.578410148621
-101.450675964355 -64.695739746094 -214.994750976563 6.324745178223
-3.493129968643 -70.239059448242 -217.536315917969 1.889390826225
-103.593673706055 -70.219505310059 -219.787597656250 0.892081618309
13.977809906006 -68.520942687988 -220.757415771484 1.592049241066
-0.999737977982 -68.648841857910 -220.857086181641 2.270368099213
83.345962524414 -67.464988708496 -223.167739868164 2.811947822571
-109.037483215332 -67.531715393066 -220.230819702148 3.254469633102
-132.845062255859 -68.315505981445 -219.620101928711 4.397227764130
-16.541841506958 -67.429962158203 -222.991256713867 2.701264381409
5.357794761658 -70.302963256836 -228.289505004883 1.925826787949
6.911913871765 -71.961181640625 -230.744461059570 1.752585053444
8.462243080139 -65.396293640137 -229.007125854492 3.347599267960
-1.553704023361 -67.329147338867 -232.360580444336 1.382846713066
-126.464424133301 -65.187149047852 -228.465393066406 1.767620682716
-140.006973266602 -66.499320983887 -222.119567871094 3.525359630585
18.316396713257 -69.306564331055 -236.071563720703 2.664867401123
-12.682834625244 -67.522888183594 -227.779006958008 1.282582879066
-156.852966308594 -65.457458496094 -229.019897460938 2.700222730637
-150.772369384766 -67.235374450684 -242.129364013672 2.805114507675
-148.952743530273 -63.578460693359 -242.874801635742 2.645225763321
0.857147991657 -69.740211486816 -230.366271972656 2.604408502579
-152.289535522461 -66.842292785645 -237.123687744141 2.380922555923
57.515617370605 -67.527488708496 -236.227416992188 4.393172264099
5.904757976532 -69.022132873535 -238.743408203125 2.525304079056
63.877590179443 -64.182945251465 -242.137191772461 2.390323162079
52.858463287354 -69.217048645020 -242.576431274414 2.060627698898
55.287910461426 -68.236946105957 -243.487380981445 2.044159412384
56.530521392822 -68.925704956055 -246.497070312500 1.291939258575
-11.991673469543 -64.194816589355 -241.817428588867 3.235744953156
-154.207901000977 -65.789657592773 -243.061233520508 3.051767110825
-155.511047363281 -62.862495422363 -243.993957519531 4.818122863770
-77.641464233398 -64.247886657715 -246.729370117188 7.088340282440
-89.153823852539 -73.018814086914 -249.999237060547 3.072479248047
-88.333137512207 -67.892143249512 -248.236648559570 5.399566173553
-87.097381591797 -63.450321197510 -250.518051147461 6.144423961639
-163.579772949219 -58.913337707520 -250.263244628906 9.477498054504
-125.635536193848 -67.358413696289 -252.030563354492 2.412839889526
45.646442413330 -66.675773620605 -253.188034057617 0.995214283466
-106.179809570313 -62.297016143799 -251.622070312500 6.544991970062
-126.185966491699 -63.877521514893 -249.712905883789 5.225265026093
-154.704681396484 -65.607734680176 -252.454483032227 2.181978464127
-171.527618408203 -64.005165100098 -254.984420776367 7.307554244995
36.791191101074 -68.421661376953 -256.465209960938 1.266078233719
32.963233947754 -71.823974609375 -257.862152099609 2.420926809311
-162.820526123047 -68.357200622559 -258.247375488281 2.177578210831
-136.732238769531 -66.520980834961 -255.096420288086 2.407051324844
-158.297836303711 -59.461349487305 -261.477569580078 5.133928298950
-168.179687500000 -65.586532592773 -271.661285400391 5.165089607239
20.767421722412 -64.613967895508 -266.668487548828 4.298410415649
-163.395385742188 -63.360702514648 -268.018554687500 4.750817298889
-160.634994506836 -65.220314025879 -264.776184082031 3.155205488205
-165.169982910156 -65.326263427734 -271.802917480469 4.823154449463
-9.568865776062 -65.960670471191 -272.964111328125 4.292099952698
-146.071838378906 -64.742897033691 -273.977874755859 1.620013356209
-161.342514038086 -66.115844726563 -279.037811279297 3.736252784729
-133.372299194336 -68.081077575684 -278.106628417969 6.137800693512
-136.032974243164 -65.374275207520 -278.508422851563 7.174309253693
-163.955139160156 -61.983818054199 -277.204162597656 8.220641136169
-95.454139709473 -65.106132507324 -276.985260009766 12.224475860596
-72.955215454102 -66.347045898438 -286.580657958984 3.120910882950
-83.747367858887 -61.633144378662 -286.408111572266 7.325348854065
-71.746849060059 -69.374473571777 -287.887145996094 2.980335950851
-150.428421020508 -63.638607025146 -287.612365722656 2.325400114059
-76.372962951660 -65.275955200195 -284.297027587891 4.747099876404
-129.389114379883 -68.156944274902 -290.160888671875 1.619788646698
-140.184555053711 -63.916725158691 -284.919677734375 3.048138380051
-146.182739257813 -62.417663574219 -291.581420898438 1.039881348610
-145.986099243164 -67.898826599121 -300.575164794922 2.078292131424
38.992427825928 -66.355842590332 -11.328962326050 3.285723209381
28.365116119385 -70.043304443359 -13.482115745544 1.957527399063
52.885025024414 -68.316841125488 -27.667121887207 2.531888246536
47.981582641602 -66.367607116699 -30.862304687500 1.978735923767
37.915672302246 -63.723896026611 -32.418380737305 3.294572830200
35.097072601318 -67.026008605957 -40.653110504150 1.809614896774
-56.281242370605 -59.555694580078 -44.915004730225 2.457979202271
-32.708717346191 -65.832275390625 -46.693859100342 2.753283977509
-77.950416564941 -62.235656738281 -51.705745697021 4.813953876495
-87.930282592773 -71.833343505859 -61.198646545410 3.271383047104
83.999176025391 -64.195495605469 -62.071292877197 1.652198553085
-10.645624160767 -65.783767700195 -65.050651550293 1.524223089218
-21.954692840576 -66.045036315918 -69.917724609375 3.428017139435
-22.122415542603 -64.080902099609 -71.456413269043 3.375642061234
-32.748477935791 -65.198379516602 -70.114364624023 4.401240825653
73.476631164551 -68.141319274902 -77.319969177246 5.190136909485
103.972358703613 -66.865486145020 -84.418022155762 2.069673538208
69.455154418945 -67.752456665039 -82.494766235352 2.842308282852
63.592025756836 -68.410903930664 -87.268501281738 2.241491317749
64.399024963379 -67.981575012207 -86.289588928223 2.505797386169
58.939559936523 -67.972038269043 -84.108436584473 2.233753204346
102.549186706543 -65.292289733887 -95.586601257324 0.984538614750
53.332042694092 -67.933479309082 -91.846687316895 1.932694911957
65.313591003418 -71.645950317383 -88.249275207520 2.123598337173
-95.499290466309 -64.199424743652 -88.271400451660 4.246038913727
46.054290771484 -68.372367858887 -96.924964904785 1.015493750572
101.597969055176 -62.305381774902 -98.926567077637 2.132946014404
-73.340415954590 -65.245338439941 -93.553764343262 5.951317310333
45.837429046631 -64.131942749023 -96.361083984375 2.910038471222
77.924667358398 -63.903118133545 -104.254806518555 3.741599321365
-75.268363952637 -71.464904785156 -98.841545104980 0.720850467682
43.228858947754 -69.838081359863 -103.370780944824 1.487410426140
55.474742889404 -66.115577697754 -104.154533386230 4.249179840088
-80.388992309570 -63.079551696777 -107.288986206055 1.689995169640
109.612663269043 -67.286483764648 -116.245590209961 1.903951525688
35.605510711670 -70.989021301270 -114.815864562988 1.199532985687
41.525836944580 -65.633438110352 -113.448158264160 2.427731513977
-91.185279846191 -63.781330108643 -119.380088806152 1.307324051857
38.763149261475 -71.202209472656 -118.789604187012 1.562218546867
37.396343231201 -71.934288024902 -116.132980346680 0.961888551712
111.147750854492 -68.785598754883 -119.219512939453 2.213040590286
-77.619911193848 -61.424140930176 -125.647163391113 1.635136723518
-56.184970855713 -64.230804443359 -123.835426330566 2.116359233856
-56.335803985596 -61.478404998779 -122.066505432129 0.991212427616
113.274765014648 -66.782356262207 -124.077247619629 2.607175111771
-74.833854675293 -64.105415344238 -124.735641479492 1.792497873306
110.405792236328 -68.529144287109 -135.945358276367 2.382137775421
-70.940559387207 -66.872474670410 -128.546051025391 3.627693891525
117.161262512207 -69.014747619629 -130.047439575195 2.897834539413
29.400278091431 -73.571014404297 -121.558692932129 3.488906145096
113.932983398438 -72.492630004883 -133.598022460938 1.905715942383
-76.915695190430 -62.426242828369 -128.487075805664 1.940594196320
-51.903198242188 -63.054801940918 -131.719299316406 2.129047632217
34.108329772949 -68.748924255371 -132.264999389648 1.134174346924
-59.407707214355 -67.185012817383 -132.569335937500 1.608591079712
-56.173286437988 -68.025390625000 -137.630905151367 2.234564542770
28.272031784058 -65.842079162598 -141.663879394531 2.857223987579
28.937360763550 -69.240554809570 -136.995010375977 2.535829067230
113.718185424805 -72.495841979980 -139.409194946289 1.209194660187
32.043529510498 -67.495735168457 -140.420669555664 1.440978050232
-77.847259521484 -66.933486938477 -133.943954467773 1.406535267830
-89.395912170410 -64.169654846191 -135.483032226563 2.112482309341
-57.666599273682 -65.535980224609 -138.324462890625 1.001116394997
-58.920368194580 -60.912742614746 -141.535095214844 3.716620206833
22.346315383911 -67.104965209961 -142.686584472656 0.931479215622
33.062412261963 -63.683593750000 -145.329772949219 5.132133483887
-41.401607513428 -66.452056884766 -143.512588500977 3.437787771225
-71.235733032227 -66.926177978516 -141.318374633789 2.267885446548
20.453084945679 -70.658111572266 -147.150665283203 2.191746234894
29.594659805298 -65.167991638184 -155.822723388672 3.912924051285
-44.331123352051 -66.344787597656 -150.877792358398 3.014145612717
29.347600936890 -66.406639099121 -149.991088867188 2.544721364975
-39.663852691650 -64.296768188477 -149.448425292969 6.074745178223
-95.933959960938 -61.719196319580 -149.571304321289 1.204632401466
-100.064811706543 -65.221260070801 -155.774719238281 1.620943188667
19.855833053589 -72.157173156738 -159.730560302734 1.044153451920
-45.230503082275 -69.176788330078 -157.834548950195 2.505484104156
-100.994544982910 -66.244262695313 -157.298721313477 1.541712284088
-98.431190490723 -65.058433532715 -161.518981933594 0.936660885811
-97.847999572754 -65.328285217285 -162.483810424805 1.746069192886
-31.908531188965 -64.303855895996 -159.243972778320 7.830751419067
-103.758628845215 -62.102951049805 -159.060852050781 2.681730747223
-32.940780639648 -65.001708984375 -166.569046020508 6.313383102417
-104.553215026855 -65.828163146973 -167.723876953125 2.356123685837
-29.637306213379 -68.783790588379 -169.923614501953 1.635964632034
-29.260522842407 -65.142677307129 -166.436370849609 5.682175636292
-106.256347656250 -68.308776855469 -173.316955566406 2.290839672089
20.188535690308 -65.457038879395 -169.766830444336 2.906382799149
-36.724674224854 -64.771919250488 -173.197906494141 4.446205139160
22.595273971558 -67.200561523438 -175.375335693359 1.471864223480
-34.469699859619 -65.489364624023 -170.825408935547 3.626832246780
-28.260854721069 -66.721893310547 -171.111648559570 4.085872650146
-32.318668365479 -66.893753051758 -172.721298217773 0.860485553741
-105.207313537598 -64.521697998047 -173.615325927734 2.013435840607
-25.853839874268 -63.831115722656 -178.653747558594 6.357951641083
-29.695358276367 -66.160446166992 -176.837127685547 2.865275382996
-138.828231811523 -63.873981475830 -171.105514526367 5.607527256012
-112.394767761230 -64.968933105469 -184.895553588867 2.654414653778
-104.889862060547 -65.529113769531 -180.096679687500 1.670748114586
-111.518051147461 -63.819232940674 -184.699218750000 3.506553888321
15.705136299133 -64.869163513184 -186.413009643555 3.264572858810
-22.600513458252 -63.361915588379 -183.729919433594 6.550613880157
15.010656356812 -69.197982788086 -189.516006469727 2.392015695572
-152.579254150391 -61.071170806885 -188.195938110352 3.704044580460
21.935853958130 -68.164268493652 -191.543533325195 2.748246669769
15.498538970947 -63.540645599365 -192.077621459961 3.760115861893
-118.860206604004 -61.776130676270 -187.187179565430 7.735847473145
-110.646690368652 -69.812232971191 -193.545578002930 1.837687969208
-19.270641326904 -67.577583312988 -193.740524291992 1.863165259361
-171.165603637695 -62.196399688721 -192.320587158203 11.079022407532
-164.183578491211 -64.453063964844 -199.678359985352 2.819564104080
-109.890350341797 -63.694511413574 -199.571670532227 1.734874844551
-13.552289009094 -70.572471618652 -203.988922119141 1.378295898438
-133.856109619141 -64.661422729492 -197.477783203125 0.972674012184
-8.676250457764 -64.025321960449 -207.662475585938 5.609412670135
17.496763229370 -64.440589904785 -206.557586669922 3.842861175537
-157.794296264648 -62.160926818848 -205.544082641602 4.581780910492
12.574572563171 -70.693794250488 -212.357147216797 0.472903907299
-160.104156494141 -62.948455810547 -208.553268432617 4.137833118439
-4.255705833435 -67.569114685059 -207.667968750000 5.226724624634
13.953885078430 -65.187202453613 -218.427719116211 3.927378892899
9.946451187134 -69.678649902344 -217.486740112305 2.095215797424
-1.212142944336 -66.744789123535 -214.863723754883 3.389171600342
-143.144165039063 -67.595748901367 -216.984375000000 1.560711145401
-157.321029663086 -65.126502990723 -213.544815063477 1.830182075500
-161.812515258789 -58.940795898438 -215.370193481445 7.442370891571
86.938232421875 -72.092666625977 -216.553909301758 0.610974371433
-3.068454980850 -67.050163269043 -223.254806518555 1.259814023972
-149.733123779297 -66.620475769043 -221.260940551758 1.288672208786
-133.038894653320 -59.479804992676 -216.714462280273 11.237484931946
81.240844726563 -66.553672790527 -226.351028442383 2.396370410919
72.629959106445 -72.705612182617 -228.237426757813 1.570600032806
76.396301269531 -63.386810302734 -224.303802490234 5.326512336731
-14.889616966248 -69.597305297852 -223.642913818359 1.914026379585
-153.021163940430 -67.489654541016 -223.478225708008 1.315106987953
-14.923453330994 -65.057182312012 -223.103973388672 5.121916770935
84.413322448730 -65.127426147461 -224.050292968750 4.483423709869
-107.032722473145 -64.343162536621 -225.003601074219 2.204817295074
0.624751985073 -71.715049743652 -230.674835205078 2.863923788071
-166.640808105469 -66.264541625977 -220.715377807617 2.094723463058
-11.913050651550 -67.705757141113 -235.610198974609 2.402647733688
-2.185708045959 -69.737358093262 -231.203628540039 0.708766222000
-159.508148193359 -59.677772521973 -232.033569335938 4.383144855499
62.031696319580 -65.027549743652 -236.744857788086 2.382688283920
11.858179092407 -69.879600524902 -237.729949951172 2.123926877975
4.290120124817 -68.984817504883 -238.955764770508 1.597884654999
-158.307647705078 -71.498664855957 -230.756729125977 3.169385910034
-10.430761337280 -68.198173522949 -238.703750610352 2.479623079300
-161.410934448242 -62.487865447998 -240.116439819336 4.336058616638
-160.311935424805 -61.382087707520 -236.270721435547 5.427587032318
-160.912216186523 -70.552665710449 -238.572753906250 3.001247406006
50.753784179688 -66.827758789063 -245.082504272461 2.140531539917
54.184574127197 -71.484649658203 -245.814117431641 1.544651985168
-159.040100097656 -67.337623596191 -240.937942504883 0.760094940662
-161.860671997070 -61.144985198975 -244.775268554688 6.915569782257
-163.880157470703 -61.318752288818 -242.896255493164 6.627922058105
45.657241821289 -69.271575927734 -247.638244628906 1.926479935646
42.383457183838 -65.050636291504 -250.781784057617 1.191617727280
-160.048629760742 -63.506656646729 -247.538879394531 4.395290851593
35.445236206055 -69.109184265137 -253.900100708008 1.354951024055
-98.778648376465 -61.568672180176 -249.367401123047 5.009713649750
-80.438659667969 -67.897186279297 -250.784286499023 2.942679405212
-161.939819335938 -64.110656738281 -248.945480346680 4.295406818390
-138.532196044922 -62.074810028076 -252.193374633789 4.971504211426
-107.443168640137 -63.042121887207 -250.976760864258 6.603187561035
36.199558258057 -66.807937622070 -251.853225708008 1.414492249489
-141.011718750000 -63.642807006836 -247.422485351563 6.072110176086
24.443479537964 -69.651672363281 -256.547882080078 2.088758230209
47.186672210693 -70.975646972656 -254.706329345703 2.311204433441
-98.121917724609 -63.128459930420 -252.897262573242 3.101135015488
-98.740486145020 -65.503372192383 -254.357131958008 2.892691612244
-162.056427001953 -67.673217773438 -258.815582275391 1.340591311455
-112.346847534180 -62.808605194092 -258.229248046875 3.738480806351
-142.557250976563 -66.809822082520 -255.824966430664 1.253093838692
-165.264114379883 -60.629951477051 -256.144073486328 9.173449516296
30.848772048950 -66.793533325195 -260.850585937500 0.978158473969
-129.009674072266 -68.211166381836 -256.555541992188 2.558405637741
-10.631185531616 -64.570251464844 -261.225646972656 3.209528446198
-149.520019531250 -66.081947326660 -272.645538330078 2.397863626480
-12.061300277710 -69.857017517090 -264.006591796875 2.546603202820
-7.809634208679 -72.047012329102 -270.016876220703 5.330407142639
-17.649532318115 -63.279647827148 -272.340118408203 5.034614086151
-10.399141311646 -65.459014892578 -273.599945068359 4.774178504944
-154.841110229492 -67.983558654785 -276.335723876953 4.259761333466
-126.812614440918 -66.850143432617 -280.437622070313 5.440216064453
-8.828225135803 -65.518356323242 -285.243041992188 3.691543340683
-9.174797058105 -72.118667602539 -285.240478515625 2.597934007645
-115.081718444824 -61.428627014160 -284.571807861328 7.572871685028
-101.017791748047 -57.025783538818 -284.426177978516 11.772947311401
-111.775810241699 -63.234405517578 -281.785766601563 8.730681419373
-158.035812377930 -61.356269836426 -284.623107910156 3.321456193924
-97.461265563965 -67.953460693359 -286.945800781250 2.301604509354
-139.296615600586 -61.532020568848 -287.305053710938 3.233416795731
-120.019874572754 -60.298980712891 -287.977203369141 6.040051937103
2.171467065811 -66.633979797363 -287.386749267578 4.249813556671
-154.286422729492 -62.778202056885 -291.170410156250 1.273694157600
-155.244720458984 -59.454586029053 -302.730560302734 8.108230590820
-152.620391845703 -66.993988037109 -306.255462646484 0.952913522720
38.169826507568 -62.612113952637 -8.569048881531 3.941117048264
37.751972198486 -65.005126953125 -14.332595825195 2.944247245789
45.741065979004 -62.792884826660 -22.683488845825 2.657211065292
25.326725006104 -66.058921813965 -28.301818847656 3.440184116364
24.958518981934 -65.023857116699 -29.418561935425 2.605645895004
46.363555908203 -69.862503051758 -32.457992553711 2.207478761673
-51.411739349365 -67.977912902832 -39.375572204590 7.411066055298
-37.348762512207 -67.211936950684 -45.061481475830 2.280225038528
-31.539144515991 -68.363136291504 -49.909572601318 1.759963512421
-78.259590148926 -66.240730285645 -51.124473571777 3.549400806427
-13.024146080017 -67.350440979004 -54.354965209961 3.372749567032
-17.221242904663 -60.808616638184 -58.204544067383 5.474348068237
88.986190795898 -64.022956848145 -59.134574890137 2.678920269012
-11.476464271545 -73.197196960449 -68.288047790527 4.681468963623
-93.616844177246 -65.671318054199 -70.401931762695 3.145655870438
102.761772155762 -70.146072387695 -70.160133361816 3.655987977982
-23.319484710693 -67.488639831543 -73.135681152344 1.781912446022
-43.627967834473 -66.095596313477 -80.264266967773 2.457393169403
110.202339172363 -66.179405212402 -79.824241638184 6.049503803253
106.018295288086 -67.995796203613 -85.809013366699 2.643476486206
69.533592224121 -69.325340270996 -85.648216247559 3.531232595444
105.880996704102 -65.509269714355 -93.879447937012 1.516284942627
64.823303222656 -62.144367218018 -96.480293273926 3.108234167099
-64.428878784180 -70.261283874512 -92.001808166504 1.676830649376
110.117485046387 -66.501724243164 -98.276374816895 2.693980455399
51.316963195801 -65.859359741211 -101.453773498535 1.697528839111
73.590805053711 -62.742332458496 -98.978630065918 4.675871849060
-74.961967468262 -63.106887817383 -100.215675354004 2.249573469162
77.443634033203 -67.913925170898 -105.932243347168 2.393618583679
85.765052795410 -61.710872650146 -105.054985046387 2.476444244385
42.202999114990 -64.717765808105 -102.485572814941 4.123773574829
-71.435157775879 -64.625877380371 -102.699119567871 2.449029207230
108.062004089355 -63.275405883789 -108.144111633301 3.604311466217
114.843902587891 -64.649574279785 -114.290504455566 5.294397830963
47.168209075928 -67.695266723633 -108.977775573730 2.041514873505
-90.256271362305 -67.836143493652 -110.003784179688 3.455556869507
110.558563232422 -66.180152893066 -123.948822021484 2.945219516754
-78.170112609863 -65.774467468262 -109.289932250977 2.295330762863
-88.416358947754 -67.459655761719 -112.796951293945 1.047427654266
-76.452507019043 -70.184425354004 -120.745323181152 2.600421667099
-62.420986175537 -62.943649291992 -117.574195861816 1.381429910660
-51.626750946045 -63.875102996826 -125.079338073730 3.208384752274
-72.434394836426 -66.792572021484 -129.155838012695 2.563316822052
-79.101249694824 -69.094055175781 -128.369400024414 1.219534158707
-59.798294067383 -65.357398986816 -125.208869934082 2.622402906418
-76.154235839844 -63.661643981934 -127.350135803223 2.419487953186
-74.741920471191 -59.293323516846 -132.852478027344 5.584043025970
-46.374313354492 -67.839645385742 -131.483139038086 3.038460254669
-49.070800781250 -62.792587280273 -135.033401489258 1.879231333733
25.849946975708 -64.860389709473 -140.383193969727 0.923994839191
-91.901069641113 -61.717880249023 -138.541854858398 0.730690836906
20.517789840698 -66.314445495605 -140.249145507813 0.297309935093
-66.260414123535 -69.438705444336 -142.339965820313 1.777041673660
28.663719177246 -67.675270080566 -144.188644409180 1.353971600533
-99.431831359863 -61.262783050537 -143.516708374023 5.438438415527
16.325906753540 -60.828323364258 -141.304290771484 2.309988260269
-93.913085937500 -68.508438110352 -146.318008422852 0.287369906902
-41.572734832764 -65.459365844727 -145.455444335938 4.421954631805
11.990870475769 -67.059104919434 -152.356109619141 0.693096220493
8.312108993530 -60.767818450928 -147.261306762695 6.551059722900
12.196762084961 -64.912757873535 -154.054199218750 3.067343235016
33.067142486572 -69.426620483398 -152.484115600586 2.977648735046
29.018238067627 -64.931114196777 -159.841140747070 3.765304803848
23.669700622559 -64.944076538086 -158.486984252930 2.686880826950
21.054046630859 -66.183815002441 -160.433990478516 3.191099643707
22.509643554688 -61.969207763672 -166.541427612305 5.546580791473
-102.191291809082 -69.148635864258 -160.670089721680 2.049544095993
33.829189300537 -66.536437988281 -171.754577636719 5.875400066376
-104.235816955566 -68.915252685547 -171.037170410156 0.951809883118
-107.406188964844 -65.305305480957 -172.297576904297 2.218359947205
-107.904968261719 -64.845100402832 -175.840866088867 2.471795797348
19.544273376465 -64.625328063965 -180.813217163086 1.990866661072
21.691862106323 -65.985351562500 -182.664443969727 3.035501480103
-27.551641464233 -65.545600891113 -183.191726684570 2.705547571182
19.183088302612 -64.234909057617 -186.992218017578 3.092357158661
-23.330671310425 -69.839859008789 -187.721954345703 1.073781132698
-111.803176879883 -61.050865173340 -187.829376220703 3.495309352875
-23.603015899658 -69.086585998535 -198.050613403320 1.486270308495
-163.133575439453 -60.846160888672 -190.450485229492 9.243078231812
-114.554733276367 -61.504470825195 -192.651565551758 2.720999240875
-20.943073272705 -65.751945495605 -196.138488769531 1.769855856895
11.018331527710 -63.904758453369 -197.773056030273 4.927283287048
20.834632873535 -68.871437072754 -199.106430053711 1.780929207802
-157.920242309570 -65.433113098145 -197.810516357422 1.704479336739
-8.625201225281 -63.026344299316 -200.370925903320 6.628895759583
-154.801376342773 -64.880737304688 -197.087524414063 2.227495193481
-158.480575561523 -62.401130676270 -199.177658081055 3.563236474991
8.991896629333 -61.951705932617 -205.250457763672 7.234223842621
20.426368713379 -62.386421203613 -210.311843872070 6.529128074646
-154.390411376953 -63.763778686523 -200.239471435547 2.946688652039
-146.116455078125 -59.686161041260 -200.686798095703 1.493500828743
13.176401138306 -65.714691162109 -206.575744628906 2.542975902557
-12.713871955872 -63.943687438965 -210.969329833984 3.481873035431
-7.267590999603 -65.620170593262 -215.693069458008 2.056979417801
-166.518676757813 -62.423454284668 -208.360092163086 4.012147426605
-9.134160995483 -62.953884124756 -213.576797485352 4.243729591370
-155.962951660156 -63.021896362305 -209.172851562500 4.825330734253
-150.692169189453 -62.326538085938 -204.153701782227 1.894054293633
-3.889674901962 -69.432991027832 -211.161590576172 4.266771316528
-145.705337524414 -67.650917053223 -219.128112792969 1.914622783661
-16.603851318359 -68.629570007324 -217.364959716797 2.166118621826
-161.220886230469 -61.963565826416 -215.124954223633 4.963078022003
-166.790191650391 -64.781852722168 -220.286026000977 3.041114807129
-0.472654998302 -67.091217041016 -226.364852905273 1.437931776047
-159.592956542969 -65.147888183594 -219.212722778320 2.458105325699
-114.441848754883 -66.124305725098 -219.182952880859 6.356136798859
-134.386535644531 -66.155258178711 -219.499282836914 5.026352405548
-143.970092773438 -62.045341491699 -221.922729492188 2.089197397232
-117.042663574219 -60.989253997803 -224.897994995117 5.995560169220
-153.255371093750 -67.855575561523 -226.672912597656 1.773293852806
-148.080413818359 -54.641296386719 -225.171447753906 5.949821949005
-159.094802856445 -65.656219482422 -223.411178588867 1.897093772888
-114.533302307129 -60.301036834717 -229.589294433594 4.280424118042
-156.895584106445 -69.339019775391 -227.116500854492 2.552735328674
-144.053146362305 -60.179737091064 -230.695755004883 1.886204004288
-164.431411743164 -67.626342773438 -229.754455566406 2.658127784729
-117.169662475586 -63.299495697021 -227.895919799805 2.684967279434
-166.497985839844 -60.527282714844 -229.208908081055 4.988390922546
77.921356201172 -68.784225463867 -232.076828002930 2.746470689774
-0.576362013817 -62.595539093018 -236.264663696289 1.607285380363
-144.502822875977 -60.222648620605 -228.104736328125 1.958756566048
2.676625013351 -64.566581726074 -231.574081420898 1.529919624329
0.463593989611 -65.098754882813 -232.613586425781 1.600268006325
-9.427607536316 -65.860656738281 -233.886642456055 1.933330774307
-0.736644983292 -62.540767669678 -240.403366088867 2.900681018829
-169.008193969727 -61.423690795898 -237.854202270508 7.529921531677
62.705947875977 -60.830272674561 -233.161209106445 7.385703086853
-152.180130004883 -63.090366363525 -237.458389282227 2.050247669220
52.256305694580 -64.026123046875 -239.454086303711 5.165232181549
48.630088806152 -64.282196044922 -241.939132690430 5.086972236633
45.688579559326 -67.035865783691 -245.396759033203 1.760333895683
-142.627563476563 -67.490043640137 -244.709426879883 1.899679780006
45.424098968506 -64.264389038086 -244.885971069336 4.176483631134
45.668865203857 -66.061309814453 -250.842498779297 1.544382572174
-155.540649414063 -62.747390747070 -246.502243041992 6.374267101288
47.519065856934 -70.146308898926 -249.230911254883 1.265942692757
-126.739082336426 -61.333969116211 -245.468109130859 10.166263580322
43.208065032959 -71.990119934082 -254.372329711914 2.165611982346
31.494028091431 -62.730503082275 -254.846420288086 1.033875465393
-138.347625732422 -68.055137634277 -249.823867797852 6.184767723083
-120.679939270020 -66.765419006348 -253.005615234375 4.719364166260
45.878585815430 -68.501869201660 -256.006835937500 2.406903266907
33.642696380615 -62.909095764160 -255.060241699219 1.537417769432
-6.072579860687 -71.876113891602 -258.053710937500 5.101663589478
32.802017211914 -69.652915954590 -256.103454589844 1.322813272476
-115.564224243164 -60.718688964844 -259.572204589844 5.043687820435
28.091100692749 -67.265693664551 -257.440490722656 1.633311986923
-114.779708862305 -65.021697998047 -258.315673828125 1.242239236832
-148.344619750977 -63.800945281982 -258.311584472656 1.673330307007
26.480701446533 -63.441654205322 -263.868865966797 0.993066906929
-5.700115203857 -68.287467956543 -261.509033203125 2.086714267731
-12.448741912842 -66.317405700684 -271.027832031250 3.339950323105
-145.473510742188 -61.776004791260 -271.594665527344 4.304624080658
20.330612182617 -64.374320983887 -273.012573242188 3.824250936508
-132.308441162109 -62.300186157227 -282.960388183594 5.684797763824
-154.472518920898 -61.867473602295 -285.594512939453 1.342765092850
-123.570686340332 -63.713859558105 -279.041442871094 8.403317451477
-112.298797607422 -66.974258422852 -278.890625000000 8.862825393677
-142.894638061523 -61.018154144287 -285.788879394531 1.508706212044
-133.229156494141 -63.049152374268 -284.774658203125 4.165133476257
-134.765304565430 -59.489727020264 -288.165954589844 5.688296318054
-152.018096923828 -63.264358520508 -292.422119140625 1.817065834999
-149.473205566406 -61.298210144043 -303.398254394531 4.289089679718
-145.080734252930 -59.870483398438 -302.435058593750 7.151810169220
32.419483184814 -65.365936279297 -13.110552787781 0.741159141064
29.801763534546 -63.117511749268 -12.977493286133 3.159213304520
44.315055847168 -67.245697021484 -20.633392333984 3.585772752762
57.508075714111 -60.143066406250 -24.641628265381 8.124955177307
21.560495376587 -68.230072021484 -28.965307235718 3.550458431244
-60.174270629883 -65.067764282227 -38.316108703613 5.986512184143
-54.872295379639 -64.822769165039 -45.136276245117 2.249863862991
-66.012603759766 -66.012161254883 -41.602031707764 3.022323846817
-78.180068969727 -63.551357269287 -39.338691711426 6.221131324768
-16.798120498657 -64.838584899902 -48.880641937256 3.392134428024
-84.908569335938 -66.167655944824 -49.575702667236 3.371017217636
-92.475868225098 -56.978691101074 -55.146579742432 1.415032625198
84.208282470703 -71.247673034668 -60.881675720215 3.917553186417
-10.970066070557 -63.824760437012 -61.322460174561 2.051911115646
-93.026718139648 -61.023380279541 -67.256546020508 3.090722560883
106.316856384277 -72.013755798340 -78.276847839355 5.718397140503
107.238487243652 -64.095832824707 -80.463081359863 3.916317224503
-94.182388305664 -67.996673583984 -78.291229248047 2.751900911331
-44.439445495605 -65.031356811523 -79.369003295898 3.156965255737
-53.221473693848 -63.693840026855 -83.913749694824 1.758629322052
-95.337921142578 -61.518928527832 -83.525329589844 3.893959760666
-94.624580383301 -66.175865173340 -95.054679870605 2.485950469971
65.369506835938 -67.435127258301 -90.702003479004 1.425030469894
53.574523925781 -59.677085876465 -92.881828308105 1.498269677162
-66.302444458008 -61.155567169189 -98.021202087402 2.191417217255
60.464569091797 -71.991607666016 -96.798957824707 1.819989085197
55.610603332520 -65.434097290039 -97.466682434082 1.956148624420
101.544586181641 -66.606323242188 -97.537742614746 0.582714378834
-66.085159301758 -67.194984436035 -95.902366638184 2.318874359131
67.117164611816 -65.074882507324 -101.548500061035 1.443586826324
-76.747711181641 -64.895263671875 -98.995353698730 2.735234975815
113.985816955566 -62.558532714844 -104.852111816406 7.510560035706
-71.922447204590 -62.325225830078 -102.929527282715 1.755853295326
86.582206726074 -64.005973815918 -105.664863586426 2.535816192627
105.882369995117 -66.497688293457 -103.686759948730 1.569136381149
-79.229606628418 -64.939163208008 -104.970649719238 2.091409206390
-86.495643615723 -62.590686798096 -112.593170166016 0.818519592285
-79.904472351074 -68.943679809570 -116.896522521973 2.740884065628
-79.814033508301 -65.304420471191 -112.230415344238 0.645887553692
-72.945411682129 -60.739803314209 -120.014068603516 3.385703802109
-96.101470947266 -65.552032470703 -114.156097412109 2.266116142273
-58.456306457520 -59.412258148193 -117.012527465820 0.993376791477
-81.001457214355 -62.046939849854 -124.083915710449 0.978220164776
-74.637107849121 -64.115722656250 -122.599388122559 1.519674181938
-89.415901184082 -62.962696075439 -126.074661254883 2.985518932343
-51.413970947266 -62.221248626709 -127.760520935059 1.956232190132
-52.271606445313 -61.344676971436 -127.388565063477 2.074634790421
-75.334449768066 -66.160949707031 -130.121582031250 1.581471562386
-57.685237884521 -63.222263336182 -130.497390747070 2.354446411133
-70.403861999512 -63.701282501221 -129.787918090820 4.387508869171
-55.454242706299 -65.975273132324 -135.998779296875 2.662640333176
-42.301437377930 -62.871963500977 -139.456420898438 5.655126094818
-72.817718505859 -63.302494049072 -136.094909667969 2.485058546066
27.496315002441 -59.667160034180 -143.241638183594 4.435254096985
-47.203479766846 -64.116043090820 -145.221023559570 2.852199554443
-95.015922546387 -64.003051757813 -146.718811035156 1.757318735123
-95.652343750000 -62.295669555664 -145.151733398438 2.111082077026
-109.589187622070 -61.280197143555 -164.879196166992 4.117418289185
-103.676834106445 -59.113563537598 -169.571273803711 3.952888250351
-144.187210083008 -65.066436767578 -169.677703857422 4.763646125793
19.414216995239 -62.747673034668 -177.446456909180 4.583311080933
-111.142646789551 -63.607879638672 -179.762649536133 1.699322104454
-140.636657714844 -65.367126464844 -179.997848510742 3.808468580246
16.005367279053 -62.065589904785 -188.936874389648 3.595508098602
-151.106292724609 -60.448184967041 -186.691101074219 2.701895236969
17.223466873169 -59.688877105713 -189.416137695313 5.548748016357
15.631971359253 -62.082225799561 -182.394134521484 6.249200344086
-151.163040161133 -63.901260375977 -189.129531860352 2.651428699493
-122.833106994629 -62.357318878174 -187.244689941406 8.316658973694
-133.256652832031 -62.405529022217 -192.850631713867 4.409322261810
-156.487472534180 -64.427078247070 -193.126998901367 3.130427598953
-20.820772171021 -62.219738006592 -195.048492431641 4.127803802490
-154.428695678711 -62.414142608643 -193.637619018555 2.265549898148
14.649058341980 -60.739250183105 -194.127655029297 5.808773040771
14.095134735107 -67.877334594727 -199.009811401367 0.494948416948
-165.105880737305 -64.481262207031 -197.603408813477 4.319304943085
-117.286689758301 -64.336601257324 -199.497375488281 1.677984833717
-134.456848144531 -63.974365234375 -196.803604125977 1.551779270172
-120.386207580566 -64.966026306152 -197.611770629883 3.270664691925
-158.540237426758 -58.976772308350 -202.114273071289 4.238173007965
-12.439597129822 -64.149337768555 -208.667968750000 3.698873758316
-159.159194946289 -61.765178680420 -205.031723022461 5.336496353149
-13.159977912903 -68.293556213379 -204.124465942383 1.207777619362
-6.716025829315 -65.992652893066 -205.373886108398 5.798390865326
-167.481445312500 -62.084911346436 -206.795501708984 4.715657234192
-0.718899011612 -58.810337066650 -221.347229003906 7.535578727722
-107.679550170898 -66.970672607422 -217.850296020508 4.912338733673
-108.090675354004 -65.210227966309 -220.437408447266 2.184490442276
-103.631858825684 -63.753787994385 -218.874420166016 4.966139316559
-125.026359558105 -62.412502288818 -223.395614624023 4.357877731323
-145.023452758789 -62.339603424072 -217.137664794922 1.875282287598
2.174204111099 -69.052955627441 -227.719970703125 1.007019519806
-4.403647899628 -59.407665252686 -220.790756225586 7.113059520721
9.095541954041 -67.297904968262 -225.007553100586 2.334388494492
5.266541957855 -60.322448730469 -228.199310302734 6.002295970917
-5.184943199158 -66.516670227051 -226.440826416016 1.654317259789
-6.923361778259 -59.613086700439 -235.369827270508 4.909981250763
-6.024880886078 -68.841506958008 -230.227050781250 0.741243064404
58.748096466064 -68.177360534668 -238.562850952148 2.731771707535
-6.044093132019 -65.612915039063 -239.640075683594 1.997779846191
4.826209068298 -65.661109924316 -235.933074951172 0.926014423370
13.474656105042 -66.529365539551 -245.504241943359 2.519459724426
52.311210632324 -61.328796386719 -239.859710693359 5.675436496735
58.689563751221 -65.300842285156 -242.239624023438 1.205314874649
40.193325042725 -65.425277709961 -257.280822753906 2.106016874313
46.422283172607 -65.868873596191 -254.677825927734 1.565874814987
-10.042127609253 -68.677848815918 -246.806320190430 1.873026609421
-134.481613159180 -63.108360290527 -251.608901977539 4.651970386505
32.077987670898 -61.516693115234 -250.558135986328 4.999230861664
-104.297821044922 -62.589012145996 -252.472610473633 6.175804138184
-137.769363403320 -54.829078674316 -256.212768554688 9.081744194031
-113.397369384766 -61.722255706787 -254.923843383789 6.020948886871
-111.777595520020 -65.521797180176 -254.423736572266 3.940255165100
-114.767692565918 -65.697647094727 -254.869125366211 3.338167667389
-119.113487243652 -57.331832885742 -256.359527587891 9.573912620544
-118.322319030762 -59.633087158203 -258.078582763672 6.705466270447
-140.739517211914 -67.106483459473 -258.219665527344 2.788196325302
-119.373947143555 -69.823829650879 -258.850952148438 3.356247425079
-131.114608764648 -65.292472839355 -257.014709472656 2.602615594864
27.241577148438 -61.926700592041 -264.056640625000 1.875650763512
-142.608901977539 -62.818759918213 -259.143737792969 0.802424132824
-7.808465957642 -66.133476257324 -264.182952880859 2.301831722260
-152.894302368164 -61.311321258545 -260.766021728516 2.403748273849
-5.287738800049 -68.065460205078 -279.051116943359 2.139838933945
23.343852996826 -59.542186737061 -281.010742187500 2.721249580383
-6.465847969055 -65.064422607422 -281.894653320313 1.858044624329
-137.056747436523 -61.907806396484 -280.255096435547 8.068053245544
-147.491943359375 -63.525432586670 -289.022735595703 1.542329668999
-134.378723144531 -63.023956298828 -289.151885986328 2.307736396790
-150.895812988281 -58.532291412354 -287.068634033203 4.259459018707
-146.731857299805 -62.815258026123 -299.871643066406 4.365427970886
-154.937332153320 -66.583778381348 -304.526336669922 3.548804998398
37.223972320557 -63.967048645020 -11.898583412170 2.725451231003
22.541959762573 -57.050525665283 -14.059802055359 1.325710058212
46.515056610107 -63.682819366455 -15.893464088440 1.088153004646
47.529354095459 -54.839958190918 -28.603046417236 2.322868585587
43.273311614990 -67.371520996094 -31.630817413330 0.964119791985
39.276016235352 -62.933475494385 -37.073719024658 1.767913818359
35.137996673584 -61.317863464355 -35.843730926514 0.981257855892
42.067291259766 -58.835758209229 -42.883293151855 2.662088394165
-43.930427551270 -68.328483581543 -45.307567596436 2.016754150391
-76.804267883301 -64.511726379395 -46.025268554688 1.300311565399
83.677108764648 -62.293464660645 -56.981212615967 3.232360839844
80.335670471191 -68.070388793945 -64.437072753906 2.416665554047
102.891418457031 -62.180156707764 -66.905731201172 3.169594049454
-88.952301025391 -61.678459167480 -58.288471221924 4.371506690979
99.103820800781 -63.871376037598 -71.080863952637 1.403674602509
-17.076459884644 -58.385974884033 -66.799797058105 4.047532558441
-93.707855224609 -62.743236541748 -64.274421691895 2.237729310989
-25.102111816406 -65.239913940430 -71.156364440918 1.984683632851
-36.042526245117 -62.691997528076 -77.763519287109 2.863220691681
-36.994323730469 -60.379531860352 -77.912780761719 2.213456630707
-95.414047241211 -61.245372772217 -71.034400939941 2.255174398422
-93.627609252930 -65.824073791504 -80.509574890137 4.577606201172
65.544548034668 -62.981071472168 -83.448249816895 1.452244877815
54.031078338623 -66.821197509766 -89.081985473633 2.013041019440
-62.652622222900 -62.949386596680 -86.241836547852 1.592705726624
52.379287719727 -68.987983703613 -92.501823425293 1.582089543343
53.082172393799 -67.697288513184 -92.387825012207 1.769608497620
68.446166992188 -57.821346282959 -97.807723999023 1.292866230011
51.615737915039 -61.077663421631 -99.059906005859 2.086599826813
44.377502441406 -59.341899871826 -98.813308715820 5.645919799805
-77.295562744141 -64.216918945313 -105.681159973145 1.764744758606
-85.761322021484 -62.181091308594 -101.632255554199 5.738150119781
-83.601203918457 -57.468215942383 -106.307624816895 6.562217235565
-59.580287933350 -62.816581726074 -111.396995544434 2.726367712021
-87.676467895508 -67.451316833496 -116.748130798340 1.522988796234
-54.756175994873 -67.596138000488 -121.218040466309 2.455010414124
-77.248832702637 -61.461208343506 -119.419227600098 1.237142562866
