24.072834014893 -75.104194641113 -170.259780883789 2.370912313461
19.822843551636 -69.173095703125 -175.208435058594 1.519050240517
-33.159660339355 -70.459037780762 -174.542739868164 1.610942244530
11.484132766724 -74.097938537598 -178.910537719727 4.006326675415
15.519839286804 -72.202224731445 -180.926559448242 1.069128632545
-61.819648742676 -76.086013793945 -175.093948364258 1.024046540260
103.058334350586 -73.086433410645 -186.745147705078 1.811519742012
11.257691383362 -73.755912780762 -180.818786621094 3.730814456940
24.705591201782 -71.446998596191 -179.929290771484 1.247865200043
-33.727653503418 -73.697486877441 -188.100997924805 2.933212041855
-50.004566192627 -72.765403747559 -189.155151367188 2.382596731186
11.557065010071 -78.245193481445 -189.505340576172 2.993280410767
-55.709255218506 -75.777969360352 -187.475433349609 3.826804399490
98.406707763672 -74.255043029785 -191.781860351563 1.483107089996
-54.629573822021 -70.010589599609 -191.868103027344 6.433700084686
-150.552856445313 -74.816757202148 -187.575775146484 2.691961765289
11.284972190857 -72.369094848633 -195.235031127930 1.582003235817
-45.190048217773 -75.290107727051 -201.765304565430 2.226334810257
14.146025657654 -73.911872863770 -196.715713500977 1.704912900925
-18.800409317017 -72.193473815918 -197.325485229492 2.609456300735
12.463237762451 -71.319488525391 -198.630706787109 1.060893297195
-139.081542968750 -73.202590942383 -191.224716186523 4.934412956238
12.433218955994 -76.348655700684 -197.936492919922 1.640027880669
-138.239624023438 -73.469161987305 -198.448654174805 2.719610691071
-145.498992919922 -77.845893859863 -199.893585205078 1.655438303947
-38.610336303711 -78.043731689453 -204.821350097656 1.428081035614
94.133956909180 -73.741790771484 -208.044586181641 1.164879798889
-160.963119506836 -75.098411560059 -198.366180419922 3.800528287888
-18.281341552734 -78.290390014648 -206.391754150391 2.538597345352
-36.096199035645 -78.383949279785 -203.190505981445 0.880254268646
-42.221740722656 -81.392974853516 -205.444213867188 4.444446086884
5.459443092346 -75.940757751465 -210.369934082031 2.328403949738
90.553657531738 -71.969184875488 -211.085525512695 1.550426959991
-77.303962707520 -76.923446655273 -208.714202880859 1.191387653351
-38.092910766602 -75.771751403809 -208.311691284180 2.062500715256
-13.309651374817 -73.018058776855 -217.327972412109 1.446223497391
-72.770362854004 -77.606666564941 -212.129394531250 2.114081859589
-40.476474761963 -75.965667724609 -213.780700683594 6.108101367950
-24.197933197021 -80.372947692871 -215.733108520508 1.088923692703
-32.457103729248 -73.020217895508 -213.625961303711 1.736764073372
91.164970397949 -76.929969787598 -220.522186279297 1.646934747696
-78.388153076172 -75.461334228516 -210.244293212891 1.457180976868
13.327774047852 -76.713317871094 -224.580535888672 2.634939908981
1.392163991928 -75.437583923340 -215.633392333984 4.164005279541
-10.334952354431 -72.301658630371 -221.587509155273 0.627206623554
-97.419792175293 -79.311241149902 -217.507690429688 4.461530685425
0.605870008469 -72.578056335449 -227.311981201172 1.165366649628
-20.599685668945 -76.181091308594 -221.547088623047 1.476681828499
15.516215324402 -74.416694641113 -222.177749633789 2.018205642700
77.292213439941 -76.930824279785 -225.843521118164 2.199399948120
-157.686294555664 -81.433547973633 -220.599761962891 6.590781211853
-18.274147033691 -76.979377746582 -222.996459960938 1.467571020126
78.315681457520 -73.712440490723 -229.374526977539 1.603862285614
-146.847473144531 -76.598175048828 -225.864486694336 1.231703281403
12.510492324829 -67.977691650391 -228.896957397461 2.936913967133
-9.123877525330 -75.804939270020 -223.829650878906 1.607353687286
2.873969078064 -77.504600524902 -224.417709350586 1.927527546883
18.228340148926 -75.853088378906 -230.825164794922 0.215247750282
63.874584197998 -73.155181884766 -239.222229003906 1.045771598816
73.731704711914 -74.609451293945 -240.705581665039 4.337108135223
4.152499198914 -78.220733642578 -238.595993041992 1.456670284271
-2.048402070999 -71.588005065918 -238.336120605469 2.252489328384
-4.289632797241 -74.546592712402 -239.694396972656 1.767459392548
-2.093935966492 -77.045127868652 -239.213775634766 1.488680362701
-51.012161254883 -80.658470153809 -235.076843261719 8.336158752441
0.374345988035 -75.459426879883 -240.054428100586 2.610265731812
-42.566967010498 -71.445625305176 -247.766281127930 3.827836751938
2.948704004288 -71.160530090332 -247.238662719727 3.322420597076
4.470442771912 -76.757247924805 -250.618881225586 4.571252346039
12.271820068359 -75.327583312988 -254.112487792969 5.974073886871
14.269833564758 -70.032234191895 -252.532791137695 5.863817214966
-84.088577270508 -79.728355407715 -247.211502075195 5.932238578796
13.127052307129 -77.171302795410 -250.309783935547 3.414275646210
-79.040061950684 -76.342132568359 -255.603179931641 2.231026172638
-149.532424926758 -73.886894226074 -255.988525390625 1.848247289658
-136.372802734375 -74.769744873047 -258.792663574219 0.416390210390
-142.627014160156 -75.575042724609 -260.928558349609 0.790802001953
-138.555130004883 -78.095146179199 -259.051605224609 1.679692268372
-158.150588989258 -81.764602661133 -264.837646484375 5.049366950989
-152.712020874023 -81.677436828613 -272.501739501953 2.442543983459
-152.886749267578 -79.848884582520 -263.703430175781 2.167243480682
-157.891387939453 -76.879600524902 -276.592346191406 2.798312187195
-170.216354370117 -72.720947265625 -281.534454345703 3.831748962402
-136.630172729492 -76.294479370117 -281.961883544922 4.959860324860
-56.551467895508 -78.707977294922 -285.011932373047 2.843559026718
-68.056083679199 -75.942276000977 -279.437805175781 6.947792530060
-78.779418945313 -74.224868774414 -286.623443603516 2.242959976196
-6.649878978729 -78.750656127930 -285.200225830078 3.607669830322
-132.617736816406 -75.857971191406 -283.032531738281 2.403873920441
-4.271099090576 -77.725234985352 -289.638092041016 1.385874032974
-141.008270263672 -78.629814147949 -284.653015136719 2.645441532135
-99.628044128418 -79.797325134277 -285.963073730469 4.896437168121
-87.065193176270 -75.128768920898 -290.106414794922 3.329982995987
-165.805786132813 -78.616348266602 -286.796844482422 4.050202369690
-146.388442993164 -79.006065368652 -289.981536865234 1.924771428108
-122.406578063965 -78.035758972168 -288.235717773438 2.612977266312
-74.423973083496 -79.725036621094 -285.559753417969 4.491444110870
9.736682891846 -74.131561279297 -293.815673828125 3.594614267349
-39.926086425781 -80.487503051758 -292.283905029297 4.217339038849
-24.510286331177 -76.339492797852 -293.351593017578 2.472113609314
-139.620285034180 -76.599449157715 -290.109008789063 2.064700841904
-139.041595458984 -76.287155151367 -293.322967529297 3.450401067734
-149.532714843750 -74.964714050293 -293.075988769531 2.649983644485
-155.096908569336 -77.094070434570 -298.696136474609 2.233536720276
-154.966339111328 -74.947959899902 -305.614715576172 1.679650187492
-56.637424468994 -72.652526855469 -55.601139068604 2.340217113495
-76.198463439941 -69.235717773438 -54.334896087646 4.561725139618
-78.081993103027 -71.185157775879 -54.283706665039 3.738692998886
-25.944717407227 -72.498840332031 -60.018043518066 2.313648700714
-19.790393829346 -70.398658752441 -59.915885925293 3.391972780228
-79.650039672852 -71.567611694336 -67.089035034180 4.920281410217
-87.532135009766 -73.687416076660 -68.708656311035 3.304410934448
85.772071838379 -69.910171508789 -78.041259765625 4.378099441528
91.183059692383 -74.754158020020 -78.798736572266 2.199852466583
-94.724502563477 -70.796058654785 -75.614852905273 3.293437004089
-30.031679153442 -75.627548217773 -74.027908325195 3.318239927292
93.277267456055 -70.324218750000 -83.292190551758 5.847068786621
91.130775451660 -68.605598449707 -90.961090087891 7.474503517151
-93.387229919434 -66.551574707031 -72.964485168457 3.323777437210
-49.671241760254 -70.494293212891 -84.051437377930 2.061311244965
99.253913879395 -68.874626159668 -92.972183227539 1.859826564789
-57.609722137451 -74.993637084961 -87.196395874023 4.720451831818
54.048049926758 -75.452873229980 -97.787765502930 1.095397830009
-61.009117126465 -72.753791809082 -88.595306396484 3.736709833145
49.999404907227 -69.645805358887 -94.876190185547 2.807689428329
44.663955688477 -75.145164489746 -100.507141113281 1.250873088837
52.080261230469 -72.233268737793 -96.470367431641 2.936255931854
51.019805908203 -72.403312683105 -100.241676330566 3.598153829575
43.159950256348 -71.074981689453 -109.978065490723 1.062960743904
108.529647827148 -73.341430664063 -109.186408996582 1.720666050911
-81.342727661133 -70.237136840820 -109.883552551270 2.479295015335
-86.406402587891 -70.669380187988 -106.789466857910 2.260967731476
108.472442626953 -70.941543579102 -117.863883972168 2.355534315109
44.376754760742 -73.139640808105 -118.178825378418 0.814250946045
46.022270202637 -70.567237854004 -124.553352355957 3.155876159668
-89.122093200684 -75.411048889160 -113.534889221191 2.502680301666
110.931266784668 -73.520835876465 -118.910789489746 0.971913278103
111.126647949219 -65.963470458984 -122.569458007813 2.015775918961
41.295356750488 -74.293304443359 -125.004592895508 1.546766281128
108.161209106445 -73.744346618652 -131.457931518555 1.796774506569
105.782310485840 -71.320632934570 -135.771118164063 3.184927701950
26.473569869995 -69.660995483398 -136.773880004883 2.051045894623
111.666625976563 -72.282157897949 -143.398147583008 1.443145275116
107.458023071289 -73.474639892578 -135.233581542969 3.084480524063
-65.609474182129 -71.594818115234 -135.276519775391 3.573136806488
-59.612747192383 -74.389160156250 -138.008148193359 2.620037317276
24.833072662354 -69.927589416504 -144.241287231445 2.526457786560
-54.393489837646 -66.761367797852 -132.776550292969 1.237762808800
-77.489356994629 -69.854591369629 -139.453308105469 1.668915987015
-73.701408386230 -71.547904968262 -144.270996093750 1.315034985542
100.901496887207 -75.564117431641 -145.013580322266 9.171108245850
-59.389850616455 -73.478836059570 -145.813064575195 2.841810464859
-75.082839965820 -71.875717163086 -145.125717163086 1.795755505562
-44.174114227295 -72.669639587402 -144.977676391602 1.122336149216
111.757942199707 -68.298133850098 -158.885101318359 1.657066106796
23.564550399780 -71.599922180176 -157.613464355469 1.834378600121
-78.874099731445 -75.384811401367 -157.132843017578 7.100503921509
-55.245265960693 -75.022811889648 -156.541732788086 3.734206438065
-38.122516632080 -77.639778137207 -153.638549804688 0.680092751980
-41.741336822510 -79.200195312500 -153.241378784180 1.441992759705
-73.298271179199 -77.148094177246 -158.074111938477 3.554900884628
8.053549766541 -73.341926574707 -162.633087158203 0.948256492615
-52.779335021973 -72.982650756836 -158.996978759766 2.774299383163
-48.572864532471 -73.469123840332 -157.371856689453 1.532457470894
27.714025497437 -72.813224792480 -163.243316650391 0.726659297943
-36.271781921387 -74.964454650879 -167.839843750000 2.934267044067
-73.440727233887 -76.901672363281 -164.354431152344 5.860987186432
104.181999206543 -72.041000366211 -165.787002563477 3.485764741898
106.753829956055 -67.491744995117 -171.648925781250 2.749346733093
27.896045684814 -72.234611511230 -168.520233154297 1.391568660736
109.970077514648 -68.377670288086 -170.307586669922 1.791344523430
103.386474609375 -74.244499206543 -170.914077758789 2.470480918884
15.554611206055 -76.817352294922 -178.569061279297 2.956598758698
-31.148813247681 -69.664169311523 -173.540130615234 1.631922006607
-56.119850158691 -76.052246093750 -177.183197021484 1.462757110596
107.518638610840 -73.151344299316 -183.047912597656 0.857285737991
-39.855094909668 -75.317779541016 -180.411972045898 2.559277057648
10.390763282776 -73.149925231934 -179.417037963867 4.976962089539
-36.376232147217 -70.398635864258 -174.911636352539 1.524592995644
-59.467575073242 -72.720062255859 -182.765640258789 2.404501199722
-152.497177124023 -73.725028991699 -180.466567993164 2.160965204239
-152.941955566406 -71.781669616699 -179.651000976563 2.360473394394
104.154464721680 -74.824005126953 -183.277359008789 1.271630644798
15.049332618713 -70.499496459961 -184.793045043945 2.036790370941
-61.850673675537 -72.309654235840 -182.975433349609 4.328754425049
-51.699607849121 -76.946197509766 -194.724548339844 3.350645780563
-51.712463378906 -71.325363159180 -190.464096069336 4.442205905914
-53.053844451904 -77.366447448730 -193.552658081055 3.279360532761
13.431084632874 -73.079696655273 -190.073944091797 1.621219754219
13.537408828735 -74.327354431152 -188.965866088867 2.622850179672
102.671249389648 -71.387367248535 -199.575027465820 1.921916842461
-27.246480941772 -72.636062622070 -196.975997924805 2.260105609894
-47.906005859375 -75.251625061035 -197.425231933594 2.521777868271
19.188646316528 -71.663627624512 -198.211090087891 2.414599895477
-46.943881988525 -72.299842834473 -196.945678710938 4.360660076141
94.581260681152 -74.983253479004 -203.785690307617 2.121544361115
-41.283302307129 -70.937507629395 -202.663711547852 3.520551204681
90.489852905273 -77.442337036133 -204.719360351563 2.730987071991
15.741705894470 -71.223136901855 -205.801788330078 1.773210644722
-42.468765258789 -71.823654174805 -206.887603759766 3.914290189743
12.413384437561 -69.702293395996 -201.483963012695 1.916895866394
-26.304283142090 -75.542457580566 -209.625198364258 2.174512863159
-44.212379455566 -74.520050048828 -204.420333862305 3.647434473038
88.081314086914 -74.824851989746 -211.258377075195 1.274023771286
4.768979072571 -73.264877319336 -208.139282226563 2.606582641602
84.791107177734 -68.149536132813 -222.037292480469 0.947912752628
-12.723067283630 -77.102935791016 -213.422607421875 1.639956593513
-27.274023056030 -74.186889648438 -209.389999389648 2.257770061493
-83.828399658203 -75.108871459961 -211.317932128906 1.642532229424
78.577751159668 -73.943496704102 -222.892211914063 1.491454601288
-23.692962646484 -74.678329467773 -218.691970825195 0.704974949360
13.676856994629 -71.446540832520 -220.464675903320 1.759026050568
-30.065902709961 -77.705696105957 -220.090362548828 2.593307733536
-33.576850891113 -73.821342468262 -216.754699707031 2.863957643509
-104.616912841797 -76.373008728027 -218.146774291992 4.554917335510
-12.228854179382 -73.027610778809 -221.949279785156 1.400377631187
-25.253318786621 -73.966827392578 -222.374786376953 1.553289532661
-5.208377838135 -74.211563110352 -226.242568969727 3.005139112473
9.362095832825 -77.903030395508 -225.033493041992 2.310812234879
-19.222736358643 -73.136276245117 -223.895385742188 1.700111389160
-17.266357421875 -81.717903137207 -225.456497192383 3.952026844025
14.525121688843 -75.933601379395 -225.553939819336 3.067642211914
3.969212055206 -74.813713073730 -220.628692626953 2.198303699493
2.669553041458 -77.097221374512 -219.478530883789 4.235705375671
-134.793563842773 -77.084701538086 -228.023300170898 2.394476890564
-17.054672241211 -73.432151794434 -228.202667236328 0.930384874344
71.167816162109 -74.050895690918 -232.744018554688 1.990592002869
-20.724666595459 -76.234924316406 -227.673324584961 2.418842554092
-155.501296997070 -78.570411682129 -226.423400878906 1.319483518600
-135.103454589844 -76.855461120605 -232.163116455078 1.959654688835
-15.759569168091 -72.580604553223 -237.964462280273 1.167711019516
71.378883361816 -75.865852355957 -230.216018676758 1.922197461128
-11.924581527710 -75.424804687500 -230.176773071289 1.173175454140
-7.480954170227 -75.082542419434 -237.400619506836 2.618551969528
61.149436950684 -75.646415710449 -242.084167480469 2.179177284241
-1.597123026848 -75.138107299805 -245.091812133789 0.734485328197
61.993656158447 -79.746337890625 -241.483139038086 4.408390045166
-161.050979614258 -74.609138488770 -243.334793090820 2.646711587906
57.739978790283 -70.169883728027 -241.984451293945 0.952838182449
-41.699562072754 -73.507049560547 -241.387329101563 1.589101433754
-43.843349456787 -72.153945922852 -242.920898437500 1.752378344536
9.762736320496 -75.234138488770 -239.658126831055 2.095643520355
-52.348979949951 -79.246276855469 -245.361526489258 0.927178084850
-31.265851974487 -75.497711181641 -243.595504760742 2.048300027847
0.761864006519 -71.597068786621 -244.844772338867 0.954892337322
-53.949600219727 -76.766952514648 -245.825866699219 1.445805072784
-148.929489135742 -70.496673583984 -244.701843261719 3.312138557434
12.908795356750 -73.419181823730 -239.878341674805 1.034631133080
-154.834655761719 -80.481788635254 -238.418075561523 5.408825874329
-77.182495117188 -77.082191467285 -247.070755004883 3.792103528976
-9.277115821838 -78.441986083984 -249.828781127930 1.822924375534
-13.799689292908 -72.599586486816 -250.908172607422 1.321641445160
-87.184577941895 -76.132171630859 -246.358535766602 4.987787246704
-155.372406005859 -74.726379394531 -251.368072509766 3.056429624557
-155.017929077148 -82.826446533203 -249.101989746094 4.212217330933
-92.147201538086 -76.612312316895 -258.761077880859 4.039589405060
-166.517791748047 -77.246932983398 -257.517608642578 4.705606460571
-130.265274047852 -80.195899963379 -253.912536621094 5.753743648529
20.956741333008 -72.957954406738 -261.607391357422 2.895859718323
-160.561294555664 -73.913513183594 -254.988540649414 1.870152354240
-149.721405029297 -71.628372192383 -256.025848388672 1.546382188797
-169.839202880859 -75.383888244629 -256.499176025391 4.696122646332
-141.529449462891 -70.776023864746 -257.902526855469 2.589215517044
-127.090141296387 -77.742584228516 -260.571746826172 2.006404638290
-166.506301879883 -80.805145263672 -264.294311523438 5.801247119904
-149.969497680664 -76.634658813477 -257.033935546875 1.353069782257
-171.705520629883 -76.484169006348 -263.213714599609 5.502867221832
-159.667602539063 -74.754898071289 -257.090270996094 1.306300759315
-165.952651977539 -73.384056091309 -264.446319580078 1.833583712578
-174.973205566406 -75.130004882813 -259.356201171875 8.523948669434
11.389590263367 -83.287780761719 -275.816833496094 2.740220069885
5.072213172913 -76.136802673340 -275.178497314453 5.476665973663
-164.061782836914 -74.935897827148 -274.965850830078 2.642182588577
-163.930831909180 -76.279930114746 -270.702697753906 2.086528778076
-173.176635742188 -71.262275695801 -277.296112060547 5.544852733612
-162.374710083008 -75.947502136230 -269.552795410156 2.745866775513
-158.414276123047 -71.624153137207 -270.538391113281 2.476728200912
-155.667037963867 -74.583030700684 -270.400604248047 1.934611439705
-143.667144775391 -74.730339050293 -278.174926757813 3.142020225525
-167.751739501953 -76.491889953613 -275.551849365234 2.789332628250
-159.677032470703 -73.268882751465 -283.152618408203 3.395874738693
12.868001937866 -74.597618103027 -284.737609863281 1.339031338692
-159.665435791016 -79.679191589355 -279.263702392578 5.952865123749
-165.950393676758 -79.166419982910 -281.521850585938 5.564781665802
-168.766723632813 -75.540100097656 -277.339630126953 1.818366289139
-133.615646362305 -75.468490600586 -286.225036621094 0.325154095888
-37.712089538574 -77.433082580566 -286.233581542969 1.522856950760
-50.945148468018 -74.099197387695 -283.408843994141 2.940779209137
-74.626747131348 -72.676300048828 -290.392974853516 2.890495300293
-18.920978546143 -71.659057617188 -288.111419677734 3.152677536011
7.009702205658 -76.705627441406 -286.624481201172 1.610323429108
-8.250832557678 -78.136291503906 -291.685516357422 3.433290481567
-118.461921691895 -78.733123779297 -289.266204833984 1.108097314835
-104.097236633301 -74.365043640137 -285.366210937500 2.499646186829
-120.251510620117 -76.646713256836 -291.129486083984 2.161814451218
-109.382987976074 -76.681571960449 -287.029327392578 3.792443513870
-99.356895446777 -78.961303710938 -289.849212646484 4.230764865875
-53.815032958984 -74.942794799805 -286.663330078125 1.594200611115
-123.281250000000 -77.017189025879 -287.479370117188 1.304362177849
-92.315650939941 -74.776962280273 -291.256225585938 0.834569394588
-121.610260009766 -76.198570251465 -292.550964355469 2.918064117432
-141.057922363281 -77.772705078125 -289.016876220703 1.061807870865
-18.929883956909 -72.815116882324 -295.260681152344 4.463319301605
5.554062843323 -76.046119689941 -295.386383056641 2.435377597809
-159.128784179688 -76.767761230469 -291.988830566406 3.389173746109
-166.276229858398 -80.394271850586 -309.117706298828 12.378915786743
-66.062774658203 -68.138694763184 -55.441673278809 5.661363601685
-59.652919769287 -69.804092407227 -53.510345458984 4.892933368683
-57.278434753418 -75.666374206543 -59.074031829834 1.189721345901
-74.445274353027 -71.557434082031 -54.653198242188 3.738437652588
-42.459430694580 -76.442718505859 -59.178359985352 0.251815050840
-78.094665527344 -72.082122802734 -57.928424835205 1.494910836220
-80.335151672363 -72.228935241699 -62.950454711914 2.638844013214
-19.339708328247 -73.999984741211 -74.015693664551 2.754721641541
-18.554403305054 -74.901908874512 -73.953231811523 2.018623113632
74.020828247070 -71.632125854492 -79.083282470703 3.106090068817
-37.037647247314 -72.071754455566 -82.523895263672 4.295711517334
-38.608982086182 -73.819702148438 -75.571174621582 1.801370859146
66.800544738770 -66.901458740234 -84.920051574707 1.591792941093
97.893257141113 -74.288780212402 -90.845924377441 1.020698428154
-56.319801330566 -72.233749389648 -93.391418457031 3.656266450882
59.016910552979 -72.200553894043 -101.266029357910 2.943387985229
47.361652374268 -69.469345092773 -98.421318054199 1.247836112976
47.837730407715 -70.652870178223 -102.528488159180 2.546475648880
36.413257598877 -70.396888732910 -104.940017700195 3.671889066696
109.583244323730 -71.826332092285 -102.494346618652 0.997439622879
57.675342559814 -67.624702453613 -94.780303955078 0.609546720982
-98.716117858887 -74.325736999512 -101.477943420410 6.002472400665
-77.267616271973 -69.123352050781 -101.485931396484 2.566829204559
55.117115020752 -69.324928283691 -100.975242614746 1.224401593208
41.696666717529 -66.603118896484 -105.708618164063 1.408354282379
41.351112365723 -68.732376098633 -107.964920043945 2.148310184479
-95.490081787109 -71.446647644043 -113.292747497559 3.422759771347
34.932174682617 -69.532997131348 -110.986244201660 2.980281829834
51.000968933105 -69.263092041016 -115.667678833008 3.919205665588
41.498691558838 -70.890686035156 -119.278297424316 1.520121097565
44.918239593506 -69.450912475586 -125.785789489746 3.811286926270
112.562515258789 -69.727752685547 -133.289016723633 1.679126977921
-58.700202941895 -71.333290100098 -130.739074707031 1.115597724915
35.823398590088 -74.024566650391 -137.435958862305 0.725096046925
35.668354034424 -71.383438110352 -136.259857177734 0.570492148399
111.850540161133 -73.154953002930 -142.923339843750 1.675569057465
-75.779106140137 -70.487037658691 -131.103607177734 0.572034835815
-58.553714752197 -72.715248107910 -140.415100097656 1.893622517586
118.917564392090 -68.756500244141 -140.179748535156 5.138291835785
-74.795112609863 -71.935836791992 -139.044509887695 1.001548290253
-52.793762207031 -70.458541870117 -146.465988159180 2.473198175430
-64.616561889648 -68.702995300293 -145.045455932617 4.302185535431
104.544563293457 -70.528434753418 -143.014816284180 4.969280719757
18.517379760742 -77.032455444336 -152.564834594727 4.218654155731
27.368299484253 -70.610488891602 -147.883636474609 0.794635832310
-47.020175933838 -71.153915405273 -153.395812988281 2.458427429199
-66.821243286133 -71.917396545410 -153.261032104492 1.982338428497
22.671201705933 -76.859619140625 -152.273880004883 1.906869053841
-74.665275573730 -72.414962768555 -151.826217651367 2.897683143616
27.766025543213 -72.813819885254 -151.914474487305 2.858097314835
-38.723911285400 -73.060554504395 -157.289245605469 1.842922568321
21.911504745483 -71.797927856445 -155.763748168945 1.609255075455
6.713788032532 -73.739616394043 -157.009017944336 2.321702480316
-74.583343505859 -71.705238342285 -162.241226196289 5.095325946808
-52.239372253418 -77.307609558105 -158.180877685547 2.562696456909
-62.783927917480 -75.646896362305 -157.930923461914 2.474859237671
-53.422031402588 -74.514762878418 -157.886627197266 2.523029565811
2.533032894135 -72.231735229492 -161.319915771484 0.668672263622
-37.633102416992 -74.412666320801 -169.133834838867 2.583769798279
-43.221080780029 -75.278541564941 -166.194076538086 1.382692456245
17.625787734985 -71.671195983887 -168.419952392578 1.124362945557
-44.210514068604 -76.351287841797 -168.948471069336 2.968666315079
21.853744506836 -70.346611022949 -169.100280761719 1.861710786819
113.946899414063 -67.495651245117 -169.204696655273 2.949833631516
-35.885452270508 -73.964073181152 -172.961761474609 2.786251068115
24.679582595825 -75.839759826660 -174.992034912109 2.351294755936
-71.053367614746 -73.887695312500 -170.292739868164 5.991992950439
-62.544269561768 -71.181251525879 -170.731338500977 2.879750490189
-46.950031280518 -68.724418640137 -170.479431152344 6.176465988159
-65.428718566895 -75.113288879395 -175.790786743164 3.620245456696
104.965202331543 -72.628822326660 -177.938552856445 1.923828482628
-150.965377807617 -72.467422485352 -173.117965698242 2.995425939560
-146.087783813477 -75.377403259277 -173.786483764648 3.324344635010
-61.876377105713 -72.190589904785 -174.805709838867 3.066089630127
99.600227355957 -72.316558837891 -181.134826660156 4.786121845245
104.618316650391 -70.950164794922 -180.334228515625 1.121951699257
102.764160156250 -69.832015991211 -185.225875854492 0.378632426262
20.242612838745 -74.486709594727 -191.080230712891 2.137967348099
-39.360260009766 -74.100067138672 -179.788482666016 1.869010448456
-138.566329956055 -73.320075988770 -183.154373168945 4.127703189850
103.255325317383 -69.124366760254 -187.719223022461 1.193693280220
17.898218154907 -71.257537841797 -195.072235107422 1.962102055550
101.364135742188 -69.405448913574 -198.190093994141 2.531144380569
100.113792419434 -65.314781188965 -199.259338378906 5.476440429688
5.705687046051 -82.754158020020 -197.886093139648 7.266392230988
-136.856506347656 -74.616249084473 -195.672760009766 1.662151336670
-128.256637573242 -71.136123657227 -195.129608154297 1.943188905716
-146.946228027344 -78.899192810059 -199.540390014648 2.326643943787
-135.248428344727 -72.951492309570 -198.128753662109 0.512844562531
-125.173324584961 -75.086845397949 -199.743927001953 2.666983127594
-25.207262039185 -76.229728698730 -204.618850708008 3.254666566849
-30.138473510742 -75.038261413574 -203.775039672852 2.111284971237
-132.826309204102 -75.497001647949 -198.127746582031 1.822574973106
-144.182281494141 -76.053070068359 -198.765167236328 2.436759710312
-18.695690155029 -73.150665283203 -212.884933471680 1.590276956558
91.344650268555 -71.750259399414 -204.445297241211 3.264056444168
-24.847896575928 -76.168144226074 -202.999862670898 2.374261617661
83.574165344238 -67.118949890137 -213.483276367188 4.425679206848
13.225391387939 -72.341827392578 -209.451889038086 2.992417335510
-9.378872871399 -73.751487731934 -215.825271606445 3.724472522736
14.576094627380 -73.833145141602 -211.379226684570 3.042643070221
-36.803058624268 -70.388710021973 -207.811264038086 2.917693614960
-89.782455444336 -78.199195861816 -215.826278686523 1.710261821747
-98.991882324219 -77.223464965820 -215.866897583008 4.855481624603
-15.009705543518 -77.789306640625 -220.758163452148 1.984757542610
-99.697105407715 -73.419593811035 -215.663940429688 2.147721290588
-100.010406494141 -73.470764160156 -216.490829467773 2.147350072861
80.217330932617 -69.828636169434 -223.149490356445 3.231223821640
-27.907009124756 -76.196258544922 -224.704605102539 2.451280117035
-26.582357406616 -68.772308349609 -226.383453369141 4.977140903473
-28.686424255371 -72.473022460938 -220.449081420898 2.857318639755
-23.983356475830 -72.537857055664 -224.071060180664 1.500785589218
-23.157913208008 -72.846702575684 -221.661315917969 1.190237283707
8.373170852661 -74.764625549316 -223.095870971680 0.801271080971
-142.381866455078 -74.485229492188 -225.851394653320 2.233827352524
71.134193420410 -73.697517395020 -226.730895996094 3.248374700546
-8.165081977844 -76.026107788086 -230.408447265625 1.787097454071
6.214073181152 -77.389823913574 -236.327697753906 1.149813055992
74.743820190430 -71.813720703125 -233.745468139648 2.234186410904
-128.934127807617 -75.861511230469 -229.321701049805 1.834666132927
-163.943695068359 -74.916297912598 -233.354370117188 1.292958021164
-139.509765625000 -76.951423645020 -229.935028076172 1.576159954071
8.702552795410 -77.345893859863 -232.069015502930 1.566800951958
1.941951990128 -72.425857543945 -231.051361083984 1.591328024864
-127.675933837891 -77.934028625488 -231.134948730469 3.424787521362
-7.274157047272 -77.271026611328 -239.374176025391 3.982111454010
-153.160125732422 -73.196708679199 -233.943603515625 1.123028993607
-9.013650894165 -80.877441406250 -234.534057617188 5.628332614899
5.663684844971 -72.282218933105 -237.001495361328 2.484841585159
-7.871635913849 -73.496162414551 -236.586120605469 1.647173881531
-9.060942649841 -77.458198547363 -246.316131591797 4.165664196014
2.088223934174 -78.909660339355 -239.002731323242 0.998622000217
-167.321289062500 -79.388648986816 -239.764328002930 5.434703826904
-160.265808105469 -77.504737854004 -234.802871704102 3.860196590424
16.081565856934 -71.398376464844 -244.378952026367 2.207304954529
-8.488510131836 -77.186294555664 -239.381912231445 4.236648559570
60.346530914307 -74.297248840332 -245.609359741211 3.683079242706
57.716117858887 -70.795372009277 -242.421997070313 1.390400528908
-169.639831542969 -73.688247680664 -240.421707153320 3.156157016754
-165.367370605469 -71.893180847168 -244.182937622070 2.221725940704
-155.859405517578 -75.678237915039 -239.391799926758 2.468576192856
-61.534049987793 -72.940734863281 -241.051757812500 3.538049459457
-13.641724586487 -69.749839782715 -245.080108642578 0.941936850548
-59.683017730713 -76.797416687012 -242.346603393555 2.990753173828
-159.458343505859 -79.944229125977 -248.791458129883 4.990273475647
-62.195224761963 -71.326850891113 -245.018615722656 1.871472835541
10.864780426025 -68.239852905273 -248.807235717773 4.028490066528
-15.064843177795 -75.656356811523 -246.391189575195 4.602609634399
-13.785346031189 -72.365348815918 -255.028945922852 1.099750757217
-166.118896484375 -73.665374755859 -246.756225585938 2.155123472214
-169.007431030273 -75.234031677246 -246.830841064453 4.175879478455
-89.178108215332 -72.495208740234 -244.018432617188 6.628497123718
-169.327270507813 -76.777084350586 -248.838500976563 3.889533758163
-152.646621704102 -76.258003234863 -252.803817749023 2.444547891617
-78.343566894531 -72.848297119141 -253.157821655273 3.165477752686
-102.419860839844 -73.812812805176 -256.927154541016 2.024098634720
-91.638900756836 -75.829261779785 -250.351104736328 2.387626886368
-139.414031982422 -77.050224304199 -256.013610839844 2.111786127090
15.670063972473 -74.587242126465 -255.839477539063 4.557988166809
-103.303741455078 -70.573211669922 -256.619995117188 1.368942856789
-105.744979858398 -70.700073242188 -260.668395996094 1.418827652931
-107.239967346191 -68.925277709961 -258.825439453125 2.531714200974
-119.979019165039 -75.734954833984 -258.957244873047 3.462898015976
-114.984992980957 -76.612846374512 -260.704559326172 3.287839651108
-121.172065734863 -76.062088012695 -260.116485595703 3.972598791122
-150.961730957031 -77.953102111816 -263.799255371094 1.304484009743
-134.369857788086 -75.169532775879 -260.849090576172 1.131167173386
-158.296661376953 -71.943992614746 -260.166320800781 3.032099723816
-152.813522338867 -76.219116210938 -268.828155517578 2.772461891174
-171.612548828125 -76.326828002930 -272.348663330078 6.092989444733
-15.901123046875 -76.828468322754 -279.183929443359 4.964209556580
-134.277511596680 -78.408981323242 -282.138977050781 5.162736892700
-145.576080322266 -78.208312988281 -284.962036132813 1.833568572998
-49.302104949951 -73.481269836426 -289.491119384766 3.166350603104
-93.616180419922 -74.513412475586 -288.987121582031 1.092163920403
-33.895526885986 -77.201614379883 -291.092132568359 1.213905215263
-40.092639923096 -73.289924621582 -291.905426025391 1.809096693993
-125.655891418457 -79.508026123047 -282.654846191406 3.942734003067
-25.884004592896 -75.774642944336 -289.938201904297 1.427767634392
8.136225700378 -73.568115234375 -292.285308837891 2.091227531433
-59.878673553467 -74.114089965820 -285.316497802734 2.982248783112
-125.981697082520 -74.711761474609 -292.953979492188 1.265613198280
-83.588424682617 -71.459709167480 -289.225646972656 1.755112409592
-76.479637145996 -71.149978637695 -290.065734863281 0.952343761921
-35.712287902832 -75.927459716797 -290.453552246094 2.062655925751
-105.835678100586 -75.150665283203 -288.608245849609 2.680618047714
-119.252792358398 -75.535255432129 -290.053985595703 1.751192212105
-17.804439544678 -71.096160888672 -299.625488281250 7.588803291321
-168.873321533203 -72.255073547363 -289.067840576172 2.796503543854
-156.939086914063 -77.808921813965 -298.273803710938 3.772511720657
-158.976516723633 -76.493347167969 -312.089172363281 4.889883518219
32.362422943115 -71.414031982422 -19.015800476074 1.527371406555
26.703166961670 -72.713851928711 -19.522546768188 1.506148576736
28.599143981934 -67.584121704102 -23.469205856323 2.755981922150
22.965747833252 -66.265594482422 -28.959547042847 3.778169155121
25.062591552734 -71.116539001465 -36.350322723389 0.448285698891
33.012222290039 -66.206863403320 -41.606067657471 2.428592681885
20.738824844360 -72.744194030762 -44.813510894775 7.680572032928
-56.772342681885 -70.467849731445 -51.825138092041 2.047837495804
-31.738435745239 -63.532371520996 -52.641349792480 4.991552829742
83.947593688965 -65.093711853027 -73.268676757813 7.854175090790
-91.376853942871 -71.049957275391 -72.960266113281 1.822530508041
70.324310302734 -69.404670715332 -78.516174316406 2.258239984512
-38.538303375244 -75.698905944824 -81.614227294922 1.375552773476
-95.191146850586 -69.538139343262 -83.037849426270 2.172425985336
-50.991786956787 -75.127563476563 -81.010406494141 5.226442813873
101.678779602051 -71.076370239258 -92.732841491699 2.237476348877
-95.085517883301 -70.747718811035 -91.331748962402 1.138933062553
64.947273254395 -69.730995178223 -96.186515808105 3.270275354385
-99.357505798340 -67.898147583008 -89.861755371094 3.223416805267
55.702396392822 -75.779731750488 -97.574615478516 1.564657807350
104.252479553223 -65.981300354004 -98.470573425293 1.554383993149
-73.272308349609 -72.981201171875 -101.466148376465 0.405806183815
41.796455383301 -65.615707397461 -99.684906005859 2.987802982330
76.709175109863 -68.902000427246 -107.631744384766 3.301560640335
85.382476806641 -69.569572448730 -103.801712036133 1.740336775780
41.242370605469 -68.315689086914 -103.843299865723 1.690377712250
105.820236206055 -74.956771850586 -106.896926879883 1.585980057716
-96.492752075195 -73.117271423340 -112.269660949707 3.527669668198
107.074211120605 -66.772888183594 -108.574409484863 0.927659869194
104.996925354004 -69.150978088379 -114.244346618652 0.725772023201
32.758769989014 -70.974311828613 -120.259704589844 2.266740798950
44.760406494141 -71.654502868652 -115.006813049316 1.704541921616
43.054786682129 -75.151565551758 -123.289421081543 1.410960912704
33.825771331787 -71.320732116699 -122.529319763184 1.355746746063
41.332096099854 -71.518920898438 -120.931762695313 1.671720385551
45.264945983887 -68.124748229980 -124.898376464844 3.684422492981
105.354103088379 -71.335975646973 -128.168228149414 3.477418184280
111.955276489258 -68.632812500000 -129.020629882813 1.589396476746
29.878829956055 -74.204246520996 -134.538543701172 2.056865453720
27.862405776978 -72.879562377930 -137.723648071289 1.156493306160
-72.731781005859 -70.955749511719 -135.685958862305 2.107727527618
-55.051136016846 -71.857391357422 -126.166336059570 2.075549840927
109.856849670410 -72.062171936035 -142.785186767578 1.264628410339
27.055858612061 -70.388015747070 -135.457672119141 1.300117731094
36.098846435547 -65.812438964844 -138.951416015625 4.778787612915
-82.779937744141 -71.691825866699 -140.601776123047 4.868885517120
26.233339309692 -72.493347167969 -138.985961914063 1.446868658066
20.235889434814 -74.570327758789 -143.769927978516 3.467555761337
-48.841564178467 -71.287628173828 -145.074371337891 2.421223640442
-75.779701232910 -70.772369384766 -144.578231811523 1.615031719208
-56.738868713379 -72.254386901855 -146.596008300781 1.072093963623
28.763101577759 -69.272277832031 -150.016357421875 2.199843168259
-57.381149291992 -72.464454650879 -153.935455322266 4.563731193542
33.465072631836 -69.812705993652 -160.825988769531 2.977012634277
26.601520538330 -66.195037841797 -165.000183105469 2.426672458649
108.134162902832 -68.406211853027 -159.597000122070 4.155960083008
22.323680877686 -73.342666625977 -158.385086059570 2.153069972992
13.210280418396 -72.438270568848 -160.112060546875 1.629591226578
-42.951679229736 -79.174896240234 -153.711563110352 1.606992721558
-76.168083190918 -69.822875976563 -156.406372070313 4.513284683228
-49.534778594971 -70.175498962402 -159.729080200195 2.039524316788
106.091773986816 -67.897811889648 -162.460968017578 4.263791084290
33.117816925049 -71.982643127441 -163.828720092773 2.001880407333
109.566764831543 -72.571418762207 -168.884155273438 2.053941965103
-38.376136779785 -73.010253906250 -162.400970458984 1.796837091446
15.415912628174 -65.661163330078 -173.447967529297 3.737891197205
-3.472847938538 -70.583854675293 -166.174240112305 3.696819782257
-35.303249359131 -68.955947875977 -164.685134887695 2.139000654221
-64.015098571777 -69.261741638184 -166.870254516602 3.388693094254
-34.052368164063 -72.940742492676 -165.473846435547 0.385048925877
-62.509277343750 -74.777099609375 -171.163223266602 2.218674659729
-36.353065490723 -66.962562561035 -174.460815429688 2.034975290298
19.314456939697 -73.446174621582 -174.066879272461 2.045405864716
-43.411205291748 -74.850013732910 -175.334350585938 2.949822902679
-154.181365966797 -74.778572082520 -175.908935546875 4.328915119171
111.454627990723 -69.119400024414 -178.400802612305 1.386851191521
-153.156250000000 -71.077575683594 -183.025497436523 1.037706375122
-149.181442260742 -75.726654052734 -182.651260375977 2.453142404556
11.732430458069 -70.132713317871 -185.933120727539 2.963648080826
21.011846542358 -71.306251525879 -184.421417236328 1.894639968872
-43.604618072510 -70.180297851563 -188.378005981445 5.625703334808
-155.163177490234 -69.574127197266 -185.828811645508 3.584368705750
-33.905105590820 -71.769065856934 -187.851043701172 2.452337265015
-149.009307861328 -69.333580017090 -189.080139160156 1.904144763947
-24.241580963135 -71.805679321289 -197.301177978516 0.892587244511
10.019488334656 -75.820167541504 -194.039932250977 1.731387853622
94.254219055176 -71.221336364746 -205.504241943359 1.970462441444
1.969174981117 -80.170249938965 -198.046081542969 8.173046112061
-131.522842407227 -75.588615417480 -189.306091308594 6.805181026459
-136.570526123047 -72.742546081543 -194.607498168945 3.379068613052
-145.415130615234 -74.494392395020 -199.473892211914 0.453189641237
92.749565124512 -67.376617431641 -202.951904296875 4.307389736176
-136.873291015625 -76.664634704590 -202.023773193359 1.332257151604
3.215787887573 -72.087486267090 -205.208709716797 2.943449258804
-29.302061080933 -69.390312194824 -206.813537597656 5.211422920227
-142.091751098633 -75.619354248047 -201.426055908203 1.375356435776
-150.034194946289 -72.766792297363 -203.999465942383 1.929021000862
93.781295776367 -74.459411621094 -213.403503417969 1.445387840271
-15.169567108154 -72.876174926758 -204.853317260742 3.523611068726
95.858009338379 -72.000099182129 -203.488616943359 2.445798158646
-11.213287353516 -70.714103698730 -210.638336181641 2.734503269196
91.014976501465 -72.440162658691 -215.882431030273 2.255725860596
-149.740097045898 -72.965721130371 -204.846084594727 2.167683124542
-17.134202957153 -76.329689025879 -213.545104980469 1.692460536957
-159.479019165039 -74.926872253418 -213.825912475586 3.365055561066
-154.756439208984 -72.005775451660 -206.223297119141 2.016573190689
-20.245752334595 -71.038894653320 -216.880554199219 2.393143892288
-92.316978454590 -69.636611938477 -213.678634643555 2.427853107452
-162.389511108398 -72.492393493652 -215.650009155273 2.243482589722
-165.222961425781 -72.767562866211 -206.592910766602 3.428297996521
-157.029983520508 -74.475982666016 -205.094741821289 5.198781490326
-36.017383575439 -73.311836242676 -216.456954956055 4.601971626282
-33.633869171143 -72.926467895508 -218.553222656250 3.451423168182
-18.975107192993 -67.520881652832 -215.025802612305 4.229707241058
-21.919239044189 -78.817779541016 -217.150161743164 0.526356637478
-152.770126342773 -72.789131164551 -219.999984741211 2.190948724747
11.579887390137 -77.645835876465 -225.123199462891 2.350380659103
-155.834381103516 -71.320091247559 -223.354187011719 2.026688337326
-96.148475646973 -71.036163330078 -215.776565551758 1.702678799629
-169.073974609375 -75.974929809570 -224.789932250977 4.149663925171
-29.996244430542 -65.033775329590 -218.067016601563 8.349640846252
-22.410366058350 -74.555686950684 -220.366958618164 0.916733324528
-165.629135131836 -72.859397888184 -212.386077880859 1.778939008713
9.399040222168 -70.313423156738 -223.145507812500 0.883071303368
-161.998550415039 -75.390754699707 -215.184585571289 2.122170686722
0.492529988289 -67.692337036133 -227.703598022461 1.252669572830
-168.458541870117 -71.031501770020 -221.136581420898 3.167456626892
-154.155914306641 -67.828269958496 -223.578445434570 1.596576809883
-110.019752502441 -73.924812316895 -224.989517211914 0.874263167381
2.421457052231 -73.115051269531 -219.092041015625 3.252455949783
-162.843444824219 -72.860572814941 -222.421279907227 2.244478464127
-164.988754272461 -71.002517700195 -221.067947387695 1.692071080208
0.755289971828 -70.207382202148 -225.301895141602 1.491811990738
-117.357147216797 -72.068847656250 -228.586303710938 1.921700954437
-160.762054443359 -73.981513977051 -226.011047363281 1.736056923866
11.323913574219 -73.092834472656 -228.399703979492 1.498056530952
-117.363792419434 -73.004974365234 -228.130676269531 2.157091617584
-119.452499389648 -71.319152832031 -227.349624633789 2.265787839890
-125.814964294434 -73.270988464355 -225.398544311523 1.761747241020
76.035820007324 -70.706909179688 -232.881088256836 2.928450345993
-166.791259765625 -76.406044006348 -224.327392578125 3.987376213074
-163.545791625977 -78.143241882324 -225.867141723633 4.901208877563
-6.612397193909 -72.884414672852 -229.147094726563 1.233450293541
-167.112304687500 -70.727890014648 -229.646240234375 0.791204035282
1.033877968788 -68.926086425781 -230.779266357422 1.806644201279
-170.209014892578 -74.069351196289 -231.018264770508 5.185779094696
-168.253509521484 -73.235481262207 -226.661041259766 2.517634630203
69.558731079102 -69.887588500977 -235.106399536133 0.833305120468
-169.300689697266 -73.926528930664 -232.618988037109 4.401094913483
-172.520629882813 -76.100326538086 -236.426437377930 6.968018531799
1.484779000282 -73.986740112305 -233.908569335938 2.122559785843
-160.510879516602 -71.038948059082 -235.097396850586 1.664041280746
65.575416564941 -70.707351684570 -240.390914916992 1.938818097115
68.495857238770 -70.014190673828 -237.757186889648 1.482686161995
-152.007995605469 -76.297691345215 -238.241836547852 2.356078386307
3.044483900070 -68.209228515625 -241.843093872070 1.638852953911
-17.740747451782 -74.755599975586 -241.380020141602 0.901452004910
59.122539520264 -75.155876159668 -245.011367797852 2.981089353561
-171.581542968750 -74.429115295410 -240.762313842773 5.077402114868
1.299407005310 -75.917991638184 -247.660690307617 2.248098373413
12.847163200378 -74.673034667969 -246.921493530273 0.996421337128
62.906124114990 -72.557495117188 -246.953033447266 4.306729793549
15.529259681702 -77.661155700684 -249.709213256836 1.468113064766
4.341890811920 -74.818016052246 -245.699356079102 2.696012020111
-80.437873840332 -71.197502136230 -246.638488769531 1.816348910332
14.382193565369 -75.995834350586 -245.193954467773 2.431543588638
-19.680091857910 -67.903312683105 -251.898071289063 4.531383037567
-152.250701904297 -76.644371032715 -245.803695678711 0.772176802158
-70.042449951172 -75.509086608887 -255.653991699219 3.905113697052
-147.912750244141 -74.452400207520 -253.473953247070 2.438289165497
-133.030578613281 -73.482345581055 -252.012527465820 2.185981988907
-103.750205993652 -76.555969238281 -254.757644653320 3.655939102173
-139.071121215820 -74.439926147461 -254.059066772461 3.184919834137
-115.579421997070 -73.797065734863 -257.528228759766 1.021419644356
-118.086540222168 -71.299789428711 -258.253234863281 1.746374845505
-100.801750183105 -78.304756164551 -257.468566894531 4.392768383026
-109.129829406738 -71.425331115723 -257.582183837891 1.203076839447
-121.382446289063 -74.271354675293 -264.327972412109 2.743734836578
17.793378829956 -69.791542053223 -268.880065917969 5.770771503448
-20.144416809082 -74.829315185547 -271.241058349609 6.160962104797
-176.830062866211 -75.391372680664 -270.842620849609 9.230161666870
-150.884368896484 -79.564941406250 -271.733123779297 0.600078642368
4.555984973907 -67.533485412598 -289.087768554688 3.962023735046
-136.368301391602 -76.013786315918 -279.772583007813 6.812348365784
-133.160781860352 -67.493843078613 -284.590423583984 1.133613467216
-86.161987304688 -74.058135986328 -286.023620605469 1.484546780586
-59.222152709961 -74.286499023438 -286.213470458984 3.075458526611
-115.332656860352 -71.680702209473 -288.823089599609 1.521347403526
-45.560123443604 -74.344581604004 -287.492584228516 2.571617364883
-35.486316680908 -74.342147827148 -285.768920898438 2.074404239655
-16.176221847534 -76.776550292969 -289.296051025391 2.238794803619
-42.342891693115 -69.701675415039 -292.595184326172 3.461579322815
-65.285949707031 -74.532867431641 -292.038146972656 1.195142626762
-37.142604827881 -79.715553283691 -291.209381103516 3.105592250824
-26.170160293579 -72.339805603027 -290.905670166016 1.197496056557
8.378474235535 -73.553108215332 -294.758514404297 3.310773134232
-119.537216186523 -77.296577453613 -288.154174804688 1.897929668427
-127.234405517578 -73.558792114258 -294.038818359375 1.888344883919
4.202618122101 -74.351570129395 -293.550201416016 0.970757186413
-145.530731201172 -78.516853332520 -291.600219726563 2.610306978226
-154.460510253906 -76.185089111328 -298.889129638672 2.000509977341
-150.548538208008 -76.866386413574 -300.075012207031 1.621206760406
-160.509490966797 -76.580902099609 -311.205688476563 6.171499729156
25.696655273438 -70.457229614258 -18.073936462402 1.727041721344
46.497863769531 -64.779129028320 -20.548585891724 1.890968918800
45.025238037109 -67.436729431152 -23.840885162354 1.976539015770
45.487598419189 -69.648155212402 -27.933698654175 2.373160123825
43.294223785400 -66.193908691406 -31.765575408936 0.821375608444
47.213069915771 -69.528732299805 -24.094383239746 2.983340978622
24.546445846558 -70.429397583008 -27.018745422363 1.214372277260
22.728275299072 -67.646591186523 -31.496887207031 3.997072219849
47.032287597656 -74.276046752930 -31.935564041138 2.823863029480
42.526298522949 -70.550834655762 -36.438426971436 2.693085670471
35.719482421875 -70.761558532715 -41.585819244385 1.067574739456
36.409774780273 -67.580635070801 -43.162944793701 3.403153896332
-60.084014892578 -68.596557617188 -51.371982574463 3.643778324127
-51.282566070557 -70.709960937500 -50.231521606445 2.909487962723
-79.159927368164 -71.794563293457 -49.369205474854 1.657533645630
-72.906723022461 -70.227760314941 -51.028903961182 0.195063188672
-72.540794372559 -70.524681091309 -58.097255706787 6.091910839081
-24.206254959106 -71.019462585449 -60.845790863037 3.406941652298
-24.873092651367 -74.412948608398 -61.628547668457 0.781493008137
