-11.743466377258 -79.155494689941 -197.096115112305 3.875146150589
9.678634643555 -75.518646240234 -195.990905761719 1.236884474754
-138.248153686523 -86.092956542969 -174.350494384766 13.651610374451
-10.931458473206 -79.413490295410 -200.864593505859 3.626016616821
88.658561706543 -76.069076538086 -213.182250976563 1.176566720009
-5.501778125763 -75.886833190918 -199.953704833984 5.692170143127
2.846688032150 -81.650260925293 -204.274124145508 7.442773342133
-19.087961196899 -80.899833679199 -203.479324340820 2.449694871902
-147.913696289063 -85.783813476563 -184.764953613281 4.200447559357
84.907119750977 -77.396385192871 -220.816757202148 1.143927454948
-3.294910907745 -82.546752929688 -201.682189941406 10.147047042847
-130.066574096680 -78.174095153809 -189.025543212891 7.351794242859
-138.471359252930 -84.044616699219 -190.655471801758 6.718110561371
-129.558883666992 -88.337532043457 -187.069488525391 13.312168121338
6.797341823578 -78.227874755859 -208.842300415039 1.219458341599
-138.744049072266 -83.910003662109 -189.068786621094 6.077733993530
11.684217453003 -74.621467590332 -211.197677612305 3.153617620468
26.037937164307 -77.905014038086 -222.355957031250 7.584348678589
0.928529977798 -75.608245849609 -220.143142700195 2.641796827316
-42.718883514404 -73.059722900391 -212.404541015625 7.503095149994
-42.208118438721 -80.839790344238 -209.347274780273 5.134856700897
-20.888929367065 -81.499679565430 -215.552520751953 2.889770746231
-137.239440917969 -79.833465576172 -197.808303833008 2.793785810471
-32.547626495361 -80.279838562012 -213.376586914063 1.906572699547
-63.748863220215 -85.804328918457 -217.225112915039 7.309681415558
-48.141338348389 -76.608108520508 -217.183532714844 13.106165885925
-55.444438934326 -79.293937683105 -219.580627441406 11.273908615112
-67.927009582520 -83.038093566895 -215.759414672852 4.366525173187
-136.970428466797 -80.757781982422 -214.403381347656 7.335594177246
21.215991973877 -82.008720397949 -239.994079589844 2.364699125290
-125.563018798828 -84.453445434570 -219.824218750000 11.621853828430
-6.984639167786 -87.611808776855 -243.740737915039 9.237958908081
-13.400972366333 -77.557495117188 -244.828399658203 4.613587379456
19.434339523315 -79.998466491699 -254.941955566406 1.679755449295
-147.240859985352 -83.951560974121 -235.171463012695 1.508938312531
-2.041274070740 -80.122322082520 -259.002166748047 4.001729965210
-154.025833129883 -87.612144470215 -235.601547241211 5.151311397552
-133.311889648438 -89.438201904297 -248.704132080078 9.937589645386
-28.391038894653 -80.739227294922 -258.861755371094 13.842470169067
-136.368469238281 -90.030097961426 -246.962097167969 11.091054916382
-65.496513366699 -86.457244873047 -253.537734985352 8.640822410583
-137.188919067383 -85.655906677246 -242.903076171875 7.988785743713
7.625411033630 -80.822357177734 -268.370849609375 3.256521940231
-121.524620056152 -88.728523254395 -252.947692871094 12.895238876343
-64.193878173828 -86.014945983887 -254.815383911133 8.761463165283
-141.908233642578 -88.032135009766 -247.683593750000 6.459528923035
-58.140880584717 -83.537841796875 -257.221557617188 9.584429740906
-33.866752624512 -82.012542724609 -257.164093017578 13.567285537720
-5.982495784760 -82.382514953613 -265.825256347656 2.811595439911
-144.148742675781 -85.989723205566 -256.363891601563 2.505662441254
-159.906677246094 -85.299194335938 -248.657546997070 8.248075485229
-152.542572021484 -88.005012512207 -249.033432006836 4.808867931366
-145.761779785156 -90.019515991211 -256.364227294922 4.680269241333
-143.783706665039 -85.694786071777 -259.570220947266 1.726390480995
-12.207166671753 -63.856719970703 -30.397478103638 20.543178558350
-29.900863647461 -63.418991088867 -27.278495788574 19.943572998047
-30.254261016846 -68.519454956055 -28.181072235107 19.893463134766
-12.601749420166 -69.306175231934 -33.817119598389 18.891828536987
-3.917088985443 -67.930274963379 -36.048664093018 20.347742080688
-2.611933946609 -64.163635253906 -32.387874603271 21.929893493652
2.227526903152 -65.941665649414 -38.891765594482 19.344594955444
-0.400272995234 -64.719841003418 -39.857662200928 18.053792953491
4.320269107819 -69.004173278809 -50.130928039551 17.495351791382
119.311141967773 -61.901638031006 -68.768234252930 14.535784721375
100.071182250977 -64.328529357910 -66.044685363770 2.466343879700
98.134674072266 -60.629062652588 -60.946559906006 2.871404170990
-10.221919059753 -71.183479309082 -54.071563720703 6.997939109802
-16.913234710693 -62.996765136719 -56.913780212402 3.241331577301
-22.148721694946 -66.195770263672 -60.032569885254 4.188700675964
-22.894653320313 -70.379806518555 -58.712837219238 2.899563074112
-63.267959594727 -77.812866210938 -61.881530761719 3.094874620438
93.775314331055 -65.053527832031 -88.188163757324 8.328613281250
120.519500732422 -63.751911163330 -89.665740966797 15.350484848022
101.975997924805 -66.381446838379 -85.666023254395 1.502299666405
-65.801803588867 -71.706481933594 -67.804878234863 8.049677848816
103.832344055176 -62.936878204346 -84.433753967285 1.586929440498
75.174369812012 -66.870079040527 -82.913574218750 7.651658058167
78.592407226563 -65.758941650391 -86.776412963867 9.522027015686
66.849494934082 -64.795372009277 -89.256042480469 1.223413109779
68.364158630371 -62.305721282959 -83.071159362793 3.338424444199
69.240470886230 -64.620162963867 -88.535606384277 3.680311918259
-64.545425415039 -70.563629150391 -70.469581604004 9.814392089844
67.497070312500 -71.454612731934 -98.268951416016 2.656815290451
56.727069854736 -72.437164306641 -98.839103698730 1.956249833107
51.209465026855 -66.950698852539 -110.506683349609 1.704545259476
128.836578369141 -63.808753967285 -117.676933288574 15.498649597168
129.443557739258 -64.961982727051 -119.017280578613 15.572283744812
127.729507446289 -64.885513305664 -118.998443603516 13.958509445190
131.347167968750 -67.493461608887 -123.321662902832 15.873291969299
59.237590789795 -69.456695556641 -117.863998413086 11.611111640930
61.574714660645 -66.790115356445 -124.934257507324 16.804574966431
49.661930084229 -67.795097351074 -115.916191101074 3.921009302139
41.505119323730 -69.320968627930 -123.240356445313 0.732297480106
127.003738403320 -67.743400573730 -136.685653686523 10.366250991821
128.703155517578 -68.139343261719 -143.283096313477 12.129605293274
-31.288780212402 -67.801719665527 -121.717651367188 20.243291854858
39.586402893066 -68.161636352539 -125.627204895020 3.741830587387
-50.367588043213 -75.362319946289 -122.681167602539 8.489162445068
-53.903114318848 -69.654830932617 -119.402679443359 5.091124057770
125.113487243652 -71.427734375000 -148.782928466797 8.615625381470
130.711212158203 -68.424484252930 -150.149993896484 14.915528297424
47.510379791260 -70.582427978516 -137.882537841797 8.824922561646
-53.520179748535 -74.193328857422 -123.196388244629 6.065555572510
18.250513076782 -68.975082397461 -138.690704345703 3.986847162247
18.291357040405 -68.693267822266 -136.472351074219 5.180559635162
-47.982128143311 -70.365158081055 -132.611038208008 0.610572516918
-26.921712875366 -74.813354492188 -136.984863281250 18.027797698975
38.443000793457 -74.653083801270 -149.016082763672 2.742405653000
122.473251342773 -74.717842102051 -152.200744628906 6.076190948486
47.396667480469 -69.180274963379 -145.260467529297 10.122744560242
15.077648162842 -71.074180603027 -144.282363891602 3.827716350555
33.595474243164 -76.461952209473 -146.492904663086 1.610023260117
-47.890979766846 -75.840728759766 -135.346679687500 2.319724321365
-46.226749420166 -74.678352355957 -137.444747924805 1.282661080360
-29.363620758057 -73.805152893066 -141.957992553711 12.958759307861
40.414451599121 -71.780593872070 -153.490280151367 5.841570377350
34.254108428955 -74.665992736816 -150.599090576172 1.709412574768
41.784729003906 -73.115348815918 -149.739639282227 5.513489246368
36.836479187012 -67.582489013672 -154.496902465820 4.614351272583
-15.696946144104 -70.241752624512 -147.984512329102 20.001895904541
28.312389373779 -72.925140380859 -157.004837036133 3.345919609070
32.044013977051 -71.036926269531 -159.545440673828 2.067090272903
-44.051765441895 -76.652709960938 -145.109466552734 2.827259302139
118.430679321289 -69.907447814941 -174.832611083984 6.345144748688
27.870967864990 -72.695350646973 -158.892166137695 3.198332786560
41.254318237305 -69.983062744141 -159.597717285156 8.253517150879
-17.614727020264 -74.239212036133 -161.212463378906 10.764273643494
-33.932228088379 -73.801162719727 -160.530349731445 1.914300084114
27.379833221436 -77.648681640625 -167.313720703125 1.747584939003
-39.322143554688 -76.867218017578 -158.083190917969 2.133310079575
113.304641723633 -71.476470947266 -179.263580322266 2.256188631058
-38.909347534180 -71.324920654297 -162.861923217773 2.048283338547
-133.606918334961 -78.442016601563 -147.877914428711 29.824028015137
26.302038192749 -72.107864379883 -173.277755737305 1.868007421494
-30.422800064087 -76.890274047852 -173.442001342773 2.666716098785
29.035816192627 -73.653358459473 -174.979553222656 1.831456303596
-3.823348999023 -72.850318908691 -172.077316284180 2.617675781250
27.073402404785 -71.216651916504 -176.831817626953 2.691580772400
-122.653312683105 -76.726898193359 -152.836578369141 21.923578262329
27.281730651855 -76.198738098145 -175.877426147461 2.347407817841
-122.585243225098 -77.370109558105 -160.085494995117 19.387756347656
-129.811813354492 -82.012054443359 -160.499221801758 22.608634948730
-24.124050140381 -79.632324218750 -177.050506591797 2.825067520142
107.292655944824 -71.977684020996 -194.967102050781 1.613733530045
-145.102951049805 -79.597557067871 -157.437820434570 19.200935363770
-4.084778785706 -79.423393249512 -180.816024780273 6.716248512268
-21.439329147339 -79.814666748047 -175.688415527344 2.238773345947
-27.670719146729 -83.105987548828 -177.100021362305 3.118610143661
19.001237869263 -76.665290832520 -187.479400634766 0.791885018349
103.350273132324 -70.472091674805 -197.687149047852 1.944386601448
-63.027763366699 -79.761100769043 -176.748596191406 3.418074131012
-24.059259414673 -77.543907165527 -180.690063476563 0.891258060932
-0.492523998022 -74.633399963379 -192.489395141602 10.486032485962
-58.868099212646 -80.511077880859 -180.598083496094 2.631523370743
-27.009794235229 -78.103523254395 -185.848571777344 1.475215911865
-10.901177406311 -82.176483154297 -189.334320068359 8.794747352600
-19.120321273804 -74.941268920898 -186.723953247070 1.126282334328
103.103721618652 -75.929199218750 -206.862808227539 3.669759035110
-64.317222595215 -78.415290832520 -178.225234985352 4.244177818298
25.315996170044 -78.012672424316 -202.404449462891 4.665426731110
14.377105712891 -76.562652587891 -192.286346435547 1.611028313637
1.981783986092 -74.074653625488 -197.079742431641 7.499089241028
-83.884574890137 -83.167121887207 -183.156860351563 22.947189331055
12.246415138245 -74.375495910645 -203.942276000977 2.617541790009
-8.087470054626 -78.218200683594 -195.716827392578 6.725446224213
27.674423217773 -75.529129028320 -200.377883911133 6.853400707245
88.746391296387 -76.594276428223 -210.630401611328 2.178517818451
-144.032928466797 -87.063232421875 -179.535812377930 8.630887985229
-5.906645774841 -79.033157348633 -197.367858886719 7.812306880951
89.278884887695 -73.549987792969 -214.414871215820 0.967804729939
-133.986373901367 -82.239227294922 -186.197143554688 10.276621818542
23.755565643311 -69.554092407227 -207.055023193359 5.295815944672
3.057837963104 -77.663063049316 -199.255142211914 6.160194396973
14.971657752991 -79.072166442871 -201.060241699219 2.524924993515
29.485731124878 -77.368835449219 -209.183059692383 10.492427825928
73.851707458496 -73.923530578613 -222.642623901367 4.195259094238
83.534065246582 -75.194305419922 -225.115509033203 1.509441971779
14.740006446838 -80.537139892578 -215.236679077148 1.687477946281
8.390754699707 -74.067871093750 -214.647247314453 2.086029052734
6.113761901855 -77.155769348145 -215.596710205078 2.658535480499
8.428468704224 -79.564460754395 -215.229187011719 1.300998568535
-39.617324829102 -84.246360778809 -205.593536376953 4.638828754425
10.739130020142 -77.962448120117 -216.415756225586 0.997259259224
-32.890274047852 -75.527671813965 -219.591781616211 4.117557048798
12.384535789490 -74.000427246094 -224.052246093750 2.732888936996
13.714894294739 -79.732986450195 -227.282211303711 1.667490839958
21.044519424438 -78.291275024414 -231.676391601563 3.487807750702
23.027702331543 -72.865264892578 -230.602294921875 5.593136310577
-73.819915771484 -84.871086120605 -214.076263427734 3.493500232697
22.363372802734 -79.898368835449 -227.898941040039 3.459063529968
-69.816261291504 -81.820846557617 -223.133911132813 10.302217483521
-139.983291625977 -81.270965576172 -215.948028564453 5.027976036072
-127.180030822754 -81.956405639648 -220.122344970703 9.516653060913
-133.598220825195 -83.045074462891 -221.517761230469 5.776372432709
-129.268295288086 -85.348045349121 -219.967880249023 9.412267684937
-149.242828369141 -89.853065490723 -223.380828857422 6.060619831085
-144.666091918945 -90.045013427734 -231.586959838867 6.292218685150
-143.952590942383 -87.737884521484 -222.929458618164 4.366749286652
-150.408676147461 -85.620590209961 -235.331985473633 2.482030868530
-163.322418212891 -82.071754455566 -239.108825683594 7.876508712769
-129.878860473633 -84.766738891602 -243.013854980469 13.654278755188
-50.557159423828 -85.209411621094 -254.658691406250 9.735350608826
-61.479099273682 -82.447319030762 -248.013534545898 4.723726749420
-72.963386535645 -81.416526794434 -254.065109252930 4.907642841339
-0.990583002567 -83.931991577148 -260.291595458984 2.366258382797
-126.021217346191 -84.283302307129 -244.537475585938 13.435811042786
0.862351000309 -83.090568542480 -265.010009765625 1.415611028671
-134.442825317383 -87.363250732422 -245.085556030273 11.806298255920
-93.427749633789 -87.497779846191 -250.843048095703 12.906717300415
-81.541992187500 -82.732284545898 -256.570770263672 7.096551418304
-159.314315795898 -88.129524230957 -244.506988525391 10.403410911560
-140.349945068359 -88.176979064941 -249.767959594727 7.131845474243
-116.363731384277 -86.472549438477 -250.703811645508 13.163627624512
-68.342315673828 -86.731346130371 -253.198196411133 9.357672691345
14.215133666992 -79.361297607422 -270.873504638672 3.214598417282
-34.761611938477 -86.944580078125 -263.599700927734 20.517448425293
-19.693170547485 -82.452445983887 -266.558715820313 9.023963928223
-133.716613769531 -85.601509094238 -250.758804321289 6.560577392578
-133.497497558594 -85.452163696289 -254.028594970703 4.254342079163
-143.938583374023 -84.398254394531 -252.706909179688 2.833217382431
-150.002944946289 -86.982826232910 -257.567382812500 2.459296226501
-150.687286376953 -85.219985961914 -264.561187744141 1.558974742889
-26.158445358276 -66.477767944336 -27.238969802856 21.465660095215
-45.570396423340 -63.518882751465 -24.024372100830 19.738445281982
-47.373119354248 -65.512039184570 -23.666357040405 20.496616363525
3.859628915787 -65.750396728516 -34.982444763184 16.562343597412
9.917688369751 -63.484443664551 -35.662376403809 10.657994270325
-50.296447753906 -66.643905639648 -36.186511993408 9.444033622742
-58.233951568604 -69.059440612793 -36.823238372803 7.777078628540
112.845504760742 -61.185070037842 -65.205299377441 9.817062377930
118.298171997070 -65.917556762695 -66.295623779297 15.502905845642
-66.217727661133 -66.747314453125 -43.044086456299 1.747756481171
-1.606981039047 -69.757118225098 -48.280208587646 14.575787544250
119.751686096191 -61.688697814941 -71.215507507324 14.752009391785
116.737876892090 -60.454757690430 -78.683258056641 11.582311630249
-64.741760253906 -62.328578948975 -40.780311584473 3.915899276733
-22.367345809937 -65.711616516113 -56.353305816650 2.821583271027
124.601936340332 -60.617946624756 -81.552444458008 18.730512619019
-30.447633743286 -70.588081359863 -58.374046325684 3.972564220428
79.378211975098 -68.655395507813 -81.054405212402 7.605539798737
-34.048797607422 -68.520477294922 -59.508228302002 5.575509548187
75.479698181152 -62.806175231934 -78.024719238281 8.322802543640
69.751007080078 -68.748878479004 -82.745300292969 2.744825839996
77.459968566895 -65.421455383301 -79.699577331543 9.525007247925
76.006027221680 -65.828063964844 -83.318550109863 9.040639877319
67.105308532715 -65.250366210938 -92.194488525391 1.358019709587
132.219711303711 -65.725914001465 -98.427597045898 22.089714050293
-56.625663757324 -67.728256225586 -78.551216125488 6.010772228241
-61.310337066650 -68.123527526855 -74.904487609863 9.741403579712
131.151290893555 -63.812076568604 -107.160110473633 19.158069610596
67.499244689941 -67.732307434082 -100.360313415527 3.007297515869
68.364921569824 -65.473495483398 -107.001686096191 3.928369522095
-64.580398559570 -73.301780700684 -81.056846618652 10.488351821899
133.565750122070 -66.378860473633 -108.333412170410 20.807579040527
133.120635986328 -59.032928466797 -112.380249023438 22.500829696655
63.740520477295 -69.343521118164 -106.739418029785 8.148344039917
129.470642089844 -67.369842529297 -120.474311828613 14.655765533447
126.563995361328 -65.252708435059 -124.622360229492 12.412046432495
47.595878601074 -65.766143798828 -117.045349121094 5.288737297058
131.621734619141 -66.477432250977 -132.785736083984 15.119981765747
128.356948852539 -67.328247070313 -124.159515380859 13.045697212219
-43.679836273193 -70.068519592285 -105.404685974121 18.357215881348
-37.924152374268 -72.848815917969 -108.625396728516 22.811042785645
45.171066284180 -66.489028930664 -124.264923095703 4.367938041687
-32.423065185547 -64.806877136230 -104.399444580078 24.476676940918
-55.990379333496 -68.879348754883 -108.344429016113 9.440499305725
-52.689697265625 -70.734970092773 -113.452072143555 9.923602104187
120.857696533203 -70.129570007324 -133.042984008789 4.604684352875
-38.571945190430 -72.365997314453 -116.444747924805 18.522863388062
-54.143676757813 -71.146270751953 -114.132614135742 8.919163703918
-23.389032363892 -71.106445312500 -117.318893432617 29.185308456421
129.916824340820 -63.355155944824 -148.376449584961 15.978133201599
42.526302337646 -68.931709289551 -137.313262939453 5.834617137909
-59.088626861572 -75.414001464844 -125.454818725586 5.438808441162
-35.557666778564 -74.390014648438 -127.466682434082 14.414932250977
-18.145992279053 -76.384941101074 -126.317932128906 30.494340896606
-21.648441314697 -78.016929626465 -125.447296142578 27.979051589966
-53.592075347900 -77.077362060547 -126.906082153320 6.274596214294
26.630161285400 -71.361633300781 -140.511779785156 1.969621181488
-33.437816619873 -72.423774719238 -130.279403686523 14.661806106567
-29.067346572876 -72.707283020020 -129.100143432617 19.056760787964
46.083244323730 -70.343505859375 -143.291580200195 8.370311737061
-17.921777725220 -74.450874328613 -140.756362915039 22.466934204102
-54.417304992676 -77.182601928711 -133.137542724609 2.982365131378
121.768013000488 -67.674728393555 -154.205535888672 7.058606624603
123.545021057129 -63.389743804932 -160.542205810547 11.398708343506
45.677593231201 -70.053024291992 -148.579757690430 9.447257041931
126.914001464844 -64.114051818848 -159.515701293945 13.277375221252
120.497550964355 -70.178878784180 -159.093307495117 5.246555805206
32.482212066650 -75.512008666992 -156.968612670898 1.751339435577
-13.616808891296 -69.339317321777 -147.250228881836 20.399755477905
-38.613941192627 -76.582611083984 -147.807418823242 2.740861654282
123.262596130371 -69.648803710938 -171.646118164063 9.702102661133
-22.823467254639 -75.594497680664 -152.826507568359 11.506896018982
27.140640258789 -72.036087036133 -157.437637329102 2.495171308517
-18.934789657593 -70.287635803223 -148.002685546875 17.608221054077
-42.649349212646 -73.654769897461 -153.156967163086 2.804443836212
-134.809570312500 -77.010932922363 -140.665527343750 35.982116699219
-135.226943969727 -75.037986755371 -139.908630371094 36.393379211426
119.949417114258 -71.420700073242 -171.419448852539 6.517365932465
31.105171203613 -69.563827514648 -163.420867919922 1.261819720268
-45.053264617920 -73.320274353027 -153.126419067383 2.519908905029
-36.079814910889 -78.327331542969 -165.655960083008 2.091862916946
-35.816932678223 -72.481781005859 -161.718215942383 1.187590718269
-37.285732269287 -78.718070983887 -164.322921752930 1.515496373177
29.012903213501 -72.474418640137 -168.351867675781 2.043552398682
29.278320312500 -73.655593872070 -167.198532104492 2.684816837311
116.610527038574 -68.931594848633 -187.614501953125 8.128170013428
-12.163928031921 -73.497924804688 -170.785202026367 3.635834217072
-32.655879974365 -76.684204101563 -168.839279174805 1.685611605644
33.812534332275 -71.357627868652 -177.131622314453 6.593605041504
-31.744205474854 -73.685813903809 -168.622070312500 2.239632844925
108.235671997070 -72.969299316406 -190.723648071289 1.235790371895
-26.778938293457 -72.491424560547 -174.987091064453 2.218400001526
104.149665832520 -75.584472656250 -191.075653076172 1.227679133415
29.556474685669 -71.429748535156 -184.313186645508 2.487146377563
-28.382511138916 -73.641151428223 -179.004364013672 2.628805637360
26.664333343506 -69.761665344238 -179.742919921875 1.638473033905
-12.494080543518 -77.073402404785 -183.292938232422 3.726091623306
-29.761995315552 -76.242469787598 -176.224380493164 2.618875503540
100.967819213867 -73.397842407227 -197.440048217773 1.672917127609
18.468151092529 -73.889480590820 -185.329147338867 4.003095149994
96.321838378906 -67.419082641602 -208.128326416016 3.145712614059
0.643275976181 -78.478904724121 -188.463958740234 11.651813507080
-13.476433753967 -75.733238220215 -183.024215698242 3.345939397812
-69.849967956543 -78.267929077148 -178.715393066406 8.751555442810
90.244201660156 -73.415054321289 -207.996749877930 2.238617658615
-10.902831077576 -76.642814636230 -192.623245239258 4.412253856659
25.934474945068 -72.518859863281 -198.631301879883 3.633761644363
-17.287437438965 -79.911735534668 -193.157852172852 1.578021883965
-20.543539047241 -75.943801879883 -189.665725708008 1.070746302605
-91.200363159180 -80.461662292480 -183.158554077148 18.624450683594
0.084558002651 -74.869750976563 -197.194259643555 9.509474754333
-12.872641563416 -76.177970886230 -196.145721435547 2.758535385132
6.637149810791 -76.101776123047 -202.160842895508 2.499578475952
21.365381240845 -79.330932617188 -202.359115600586 2.475844144821
-7.070855140686 -75.272323608398 -198.356826782227 5.463887691498
-5.015880107880 -83.871948242188 -199.673004150391 10.441078186035
26.375690460205 -77.256355285645 -203.542037963867 5.847652912140
16.380132675171 -76.147567749023 -197.558822631836 2.227365493774
15.286670684814 -78.397796630859 -196.156250000000 0.889109075069
-122.225250244141 -82.522880554199 -189.630798339844 11.001500129700
-5.370304107666 -75.748092651367 -202.853775024414 5.185590267181
81.824798583984 -74.264762878418 -216.961593627930 2.356521606445
-8.868996620178 -78.614143371582 -201.781616210938 3.621694564819
-142.581390380859 -84.469383239746 -185.704391479492 4.016440868378
-122.986015319824 -82.531326293945 -193.718322753906 8.802675247192
-5.161299228668 -75.403594970703 -212.729629516602 2.092177629471
82.365501403809 -75.930831909180 -214.380661010742 2.209700107574
-0.420325994492 -77.709403991699 -205.269668579102 6.978592872620
3.206852912903 -77.648902893066 -212.943435668945 4.839570999146
70.916900634766 -76.641029357910 -225.056228637695 5.685597419739
8.227764129639 -77.972946166992 -221.217636108398 1.188954710960
71.953697204590 -80.677459716797 -224.338180541992 8.503665924072
-150.044067382813 -81.598999023438 -202.092041015625 1.436577558517
67.361763000488 -71.260215759277 -224.870300292969 5.804291248322
-31.275087356567 -77.209220886230 -213.246978759766 0.800709366798
-33.614261627197 -76.000656127930 -214.605712890625 1.996621966362
20.103353500366 -77.465354919434 -217.059127807617 2.719277620316
-42.098045349121 -83.441375732422 -215.730300903320 9.658526420593
-21.080335617065 -79.040100097656 -216.474380493164 1.059445619583
10.483283996582 -74.362030029297 -221.414443969727 2.527719497681
-43.819072723389 -81.035095214844 -216.145645141602 10.044513702393
-138.280120849609 -77.246734619141 -204.986709594727 3.874703407288
23.146797180176 -75.582130432129 -217.715759277344 5.542253971100
-143.147277832031 -87.022857666016 -197.584167480469 3.949872970581
-67.028457641602 -82.038009643555 -214.828414916992 3.120293855667
0.194195002317 -81.737365722656 -224.909194946289 1.929621815681
-4.605754852295 -76.086273193359 -225.791244506836 1.812771439552
-76.921432495117 -81.317054748535 -213.078887939453 1.498530149460
-145.261901855469 -82.008987426758 -210.680191040039 1.041072368622
-144.402587890625 -89.958961486816 -208.047454833984 6.839951038361
-83.171325683594 -82.614654541016 -224.823516845703 9.822461128235
-156.916351318359 -85.162094116211 -215.436401367188 7.954646110535
-120.409790039063 -86.939544677734 -215.662185668945 16.852462768555
28.791065216064 -76.109153747559 -240.187896728516 8.063266754150
-150.833847045898 -81.536262512207 -213.749877929688 3.934046745300
-140.248504638672 -79.023803710938 -216.082122802734 5.356573104858
-160.167694091797 -83.334777832031 -214.159881591797 9.864596366882
-132.338058471680 -78.058464050293 -218.883804321289 5.932950973511
-118.050949096680 -84.774566650391 -222.746963500977 12.171260833740
-157.518341064453 -89.088134765625 -221.979202270508 8.764256477356
-140.440750122070 -84.083023071289 -216.794906616211 4.328702449799
-162.708816528320 -84.854156494141 -220.563995361328 11.503141403198
-150.144577026367 -82.468482971191 -215.889923095703 2.110057830811
-157.225769042969 -81.674697875977 -222.577148437500 5.114748477936
-165.584808349609 -83.376296997070 -216.448623657227 9.487183570862
18.091579437256 -87.460556030273 -252.710296630859 5.774116516113
11.650459289551 -80.456184387207 -251.759475708008 0.811109840870
-156.428176879883 -83.755088806152 -233.145019531250 3.535596609116
-155.795715332031 -84.857276916504 -228.857467651367 3.013892650604
-165.855392456055 -80.460311889648 -234.654403686523 5.523262500763
-154.136550903320 -84.420379638672 -227.903213500977 2.386211395264
-150.447769165039 -80.054122924805 -229.539184570313 1.174074411392
-147.606933593750 -82.926551818848 -229.548233032227 1.604861736298
-136.514663696289 -83.183685302734 -238.567916870117 7.539830207825
-160.107208251953 -85.438941955566 -233.242782592773 6.998272895813
-153.006149291992 -82.427169799805 -241.837249755859 3.392889261246
18.318420410156 -79.240829467773 -262.179687500000 0.787471532822
-152.367889404297 -88.609962463379 -237.644180297852 3.977380990982
-158.872619628906 -88.390632629395 -239.226272583008 8.926073074341
-161.339050292969 -84.614898681641 -234.956207275391 8.617284774780
-127.368911743164 -84.097755432129 -247.617858886719 11.554641723633
-32.010002136230 -83.502212524414 -257.994659423828 15.584435462952
-44.963699340820 -80.371177673340 -253.919601440430 8.304503440857
-69.292900085449 -79.968673706055 -258.341003417969 7.119850158691
-13.727648735046 -77.341964721680 -262.211090087891 2.286913633347
12.362756729126 -81.605422973633 -263.303283691406 2.790818214417
-3.299079895020 -83.720199584961 -266.586486816406 0.730065166950
-112.532264709473 -87.120429992676 -252.121078491211 13.975762367249
-97.980987548828 -82.161888122559 -250.045623779297 9.644282341003
-114.578788757324 -85.188743591309 -253.883987426758 11.246661186218
-103.336883544922 -84.706962585449 -250.998748779297 11.828902244568
-93.603584289551 -86.871070861816 -254.773788452148 11.873326301575
-48.138107299805 -81.469726562500 -256.792877197266 10.932187080383
-117.184600830078 -85.437385559082 -249.910583496094 12.561723709106
-86.894332885742 -82.584732055664 -257.157226562500 8.508953094482
-116.096435546875 -84.856300354004 -255.170028686523 10.566567420959
-134.989501953125 -86.750473022461 -249.456604003906 7.596339225769
-14.468070030212 -78.891548156738 -269.246673583984 2.178441524506
9.952262878418 -81.470634460449 -271.876251220703 2.323156595230
-153.298294067383 -86.393608093262 -250.486129760742 4.425341129303
-162.125350952148 -91.151313781738 -266.519897460938 12.595079421997
-35.653644561768 -62.214927673340 -26.286777496338 19.594242095947
-29.022485733032 -63.599452972412 -24.982698440552 22.408266067505
-27.071056365967 -69.695129394531 -30.459360122681 18.321302413940
-43.787082672119 -65.807090759277 -24.410795211792 19.990348815918
-12.331927299500 -70.080680847168 -32.140403747559 20.735076904297
-47.748668670654 -66.609252929688 -27.236196517944 17.441703796387
-50.510475158691 -67.093315124512 -31.969076156616 13.577105522156
8.965662956238 -67.846893310547 -49.520210266113 18.110446929932
9.782029151917 -68.722717285156 -49.496963500977 17.682100296021
101.112571716309 -63.274715423584 -64.866966247559 2.518290996552
-9.598178863525 -66.864776611328 -56.134132385254 3.254681110382
-10.354737281799 -68.266731262207 -48.969860076904 8.424345970154
93.156311035156 -59.068344116211 -70.119010925293 7.595973968506
123.654640197754 -65.940544128418 -79.011192321777 18.919824600220
-29.922080993652 -68.141693115234 -64.808181762695 7.434755802155
83.835670471191 -65.469139099121 -85.219055175781 9.406897544861
72.471519470215 -62.896472930908 -81.265014648438 6.756969451904
72.541191101074 -64.292251586914 -85.332336425781 6.808452129364
60.921329498291 -64.474739074707 -86.492179870605 2.058393716812
133.937347412109 -63.815410614014 -91.978645324707 26.206485748291
83.051628112793 -60.578929901123 -78.872879028320 6.324035167694
-72.851783752441 -71.807373046875 -68.097526550293 6.590345859528
-51.709121704102 -66.043403625488 -70.718215942383 8.280493736267
79.898399353027 -62.686828613281 -84.654434204102 6.147694587708
65.965263366699 -60.589786529541 -88.029609680176 2.422408580780
65.448364257813 -62.849044799805 -90.120689392090 1.469263672829
-71.010856628418 -69.501251220703 -80.327766418457 11.576962471008
58.771072387695 -63.986415863037 -92.377296447754 3.087701797485
74.225646972656 -63.547565460205 -98.792785644531 5.226420402527
64.448028564453 -65.625144958496 -101.254646301270 2.808756351471
67.099006652832 -64.456886291504 -108.162696838379 5.144057750702
133.516510009766 -63.344776153564 -122.981727600098 19.484075546265
-36.334682464600 -69.372291564941 -101.668548583984 18.957551956177
56.957080841064 -69.908821105957 -118.496047973633 9.739389419556
56.843696594238 -67.211761474609 -117.449264526367 10.093888282776
131.883941650391 -67.317413330078 -132.289016723633 15.330715179443
-53.372108459473 -69.003143310547 -100.209831237793 10.574348449707
-37.185192108154 -71.282958984375 -111.217498779297 21.485803604126
139.058395385742 -62.587089538574 -130.566284179688 23.334022521973
-53.201572418213 -70.862228393555 -108.124359130859 12.717756271362
-32.186061859131 -69.211654663086 -117.970382690430 21.673906326294
-43.838195800781 -67.696060180664 -115.360939025879 13.019336700439
124.529037475586 -64.895698547363 -131.718994140625 8.792593002319
38.230842590332 -74.209289550781 -131.467651367188 1.776987075806
47.320568084717 -67.304519653320 -128.121734619141 7.497681617737
-27.171989440918 -70.135116577148 -125.443428039551 22.298688888550
-46.808288574219 -71.417617797852 -123.108001708984 9.427270889282
42.384033203125 -73.909934997559 -131.641342163086 1.513988137245
-54.432098388672 -72.044006347656 -120.801406860352 5.111735820770
47.353736877441 -69.716056823730 -132.051605224609 7.327807426453
-19.285182952881 -72.032333374023 -130.114730834961 27.755142211914
41.089168548584 -69.071098327637 -135.286331176758 3.475935697556
25.916873931885 -71.483192443848 -134.762039184570 1.837237119675
-55.494239807129 -71.909545898438 -131.185836791992 1.778995871544
-32.672897338867 -76.681030273438 -129.302947998047 16.350292205811
-43.177734375000 -75.290748596191 -127.990097045898 8.621804237366
-33.907184600830 -73.908706665039 -129.027221679688 15.140636444092
21.249809265137 -70.328079223633 -138.663375854492 3.251775741577
-19.431623458862 -74.007995605469 -141.920959472656 20.596868515015
-24.639783859253 -74.858604431152 -138.347595214844 18.981042861938
35.464874267578 -69.758941650391 -147.388275146484 2.826874971390
-25.884407043457 -76.108062744141 -140.917861938477 16.861652374268
39.549797058105 -68.361770629883 -148.594223022461 5.820899009705
130.955612182617 -63.066661834717 -158.901046752930 17.163555145264
-18.121452331543 -73.725395202637 -145.934967041016 18.968496322632
41.902427673340 -74.095115661621 -154.465042114258 7.524562835693
-52.781902313232 -74.439147949219 -139.449905395508 1.392172813416
-44.461872100830 -71.535202026367 -140.955307006836 1.130066394806
-29.019184112549 -68.653320312500 -142.535797119141 13.254025459290
-47.744552612305 -75.816589355469 -145.457809448242 1.636302709579
121.258041381836 -68.912727355957 -166.322723388672 6.441107749939
-132.537765502930 -75.308372497559 -133.603652954102 38.090435028076
-127.668403625488 -78.119796752930 -134.648193359375 34.483814239502
-44.203739166260 -72.750205993652 -145.020080566406 1.175198435783
115.573036193848 -68.920883178711 -168.926040649414 2.515728473663
120.601051330566 -67.378997802734 -168.750381469727 6.804429054260
118.196037292480 -66.582977294922 -173.461914062500 7.543716430664
35.718750000000 -73.752830505371 -170.021148681641 4.501116275787
-22.304269790649 -74.331398010254 -152.325088500977 12.017562866211
-121.269302368164 -76.384010314941 -144.875625610352 23.953069686890
118.392845153809 -66.001487731934 -176.027450561523 7.404582023621
32.854770660400 -70.813087463379 -173.896102905273 4.246893882751
115.396270751953 -66.911659240723 -186.200286865234 7.444280624390
113.905845642090 -62.921188354492 -187.338272094727 9.349871635437
20.810449600220 -82.768722534180 -174.759185791016 4.320723056793
-120.874954223633 -78.324607849121 -157.421234130859 19.675161361694
-112.384262084961 -74.591728210449 -158.002304077148 11.114453315735
-131.177642822266 -83.082412719727 -159.935745239258 22.598485946655
-119.595413208008 -76.755981445313 -160.121490478516 16.909542083740
-109.688499450684 -78.708023071289 -162.713546752930 11.404801368713
-10.843067169189 -77.453201293945 -178.407333374023 2.035938024521
-15.690983772278 -76.348777770996 -177.093399047852 2.090396404266
-117.105796813965 -79.232048034668 -160.252319335938 16.886425018311
-128.440322875977 -80.125083923340 -159.616241455078 23.367034912109
-5.362130165100 -74.663589477539 -187.484039306641 11.305370330811
104.843521118164 -69.865180969238 -191.193466186523 2.510099887848
-10.313801765442 -77.292602539063 -176.842681884766 1.894428610802
95.999382019043 -65.949722290039 -199.557968139648 4.792150497437
26.699769973755 -72.815322875977 -187.603469848633 1.163737773895
3.598856925964 -75.177520751953 -191.388687133789 7.548755168915
27.883039474487 -74.374427795410 -189.586441040039 2.296351432800
-22.898710250854 -72.108947753906 -180.614578247070 2.337881088257
-76.150878906250 -81.760543823242 -182.379577636719 16.625925064087
-85.338043212891 -81.034431457520 -181.465240478516 22.639106750488
-2.395756006241 -79.630706787109 -195.460220336914 11.574736595154
-86.140609741211 -77.245315551758 -181.384963989258 20.006902694702
-86.539215087891 -77.350486755371 -182.168899536133 20.038988113403
91.711959838867 -69.278480529785 -208.645523071289 1.522045373917
-15.687705993652 -78.602821350098 -198.052551269531 1.507677316666
-14.793375015259 -71.250427246094 -200.250457763672 2.149535179138
-16.125377655029 -74.671997070313 -193.937149047852 1.586160182953
-11.839666366577 -74.811668395996 -198.042633056641 1.263048529625
-10.750162124634 -74.964630126953 -195.724609375000 3.180217742920
20.489166259766 -76.117630004883 -200.491256713867 0.566735923290
-129.616317749023 -80.010482788086 -186.781784057617 9.975082397461
82.426818847656 -73.580329895020 -211.007385253906 4.229800224304
3.309977054596 -78.222160339355 -205.878768920898 4.687859535217
17.005544662476 -79.527366638184 -213.253402709961 2.954799413681
85.197685241699 -71.991859436035 -218.462661743164 1.740637898445
-116.582389831543 -81.217597961426 -191.623107910156 9.823651313782
-151.834732055664 -81.430633544922 -191.853088378906 3.004071474075
-127.121589660645 -82.621337890625 -191.020507812500 8.749365806580
19.934995651245 -79.181594848633 -209.299987792969 3.373925209045
13.166787147522 -74.394798278809 -207.807998657227 2.877325773239
-115.459877014160 -83.352958679199 -193.452438354492 11.307828903198
3.271152973175 -79.936912536621 -214.811050415039 4.847518444061
-141.238769531250 -79.459381103516 -193.704910278320 0.721181988716
2.180623054504 -83.315170288086 -209.628707885742 8.034901618958
16.220132827759 -74.481338500977 -214.128265380859 1.701046228409
2.854707956314 -76.030883789063 -212.174911499023 3.487789630890
0.754926979542 -80.555374145508 -221.497192382813 2.010603666306
12.667445182800 -81.302299499512 -215.379150390625 0.893347203732
-155.735168457031 -86.339157104492 -197.614212036133 5.860001087189
-148.251846313477 -83.996253967285 -193.557647705078 1.440241098404
25.749586105347 -73.729499816895 -222.634979248047 6.885566234589
2.060905933380 -79.885147094727 -214.690582275391 5.997782230377
69.695968627930 -75.510810852051 -228.538146972656 3.231266736984
67.311302185059 -71.909355163574 -225.269454956055 5.620092391968
-158.295028686523 -80.747695922852 -198.310592651367 5.814588069916
-154.512634277344 -79.050163269043 -202.604171752930 2.564335107803
-144.426422119141 -82.309555053711 -198.689117431641 0.617393136024
-50.966220855713 -77.154228210449 -210.777862548828 6.534374237061
-3.914414882660 -72.915321350098 -220.171707153320 2.238790988922
-49.140857696533 -81.025901794434 -212.064361572266 7.744052410126
-148.875152587891 -87.183395385742 -207.404571533203 3.909708738327
-52.102436065674 -75.780441284180 -214.727478027344 9.015872955322
19.986770629883 -70.960975646973 -226.625732421875 2.746015071869
-5.277581214905 -78.921150207520 -221.010086059570 1.662508487701
-5.042447090149 -76.080039978027 -229.895523071289 0.998417556286
-155.478637695313 -80.981391906738 -204.984191894531 4.538622856140
-158.305908203125 -82.628227233887 -204.661163330078 6.959298133850
-78.768791198730 -77.610664367676 -210.727798461914 0.402711510658
-158.789550781250 -84.287948608398 -206.538772583008 8.609835624695
-142.658081054688 -83.544456481934 -212.323181152344 2.832686424255
-68.974670410156 -78.179763793945 -220.964569091797 7.868747234344
-93.272598266602 -79.992874145508 -222.027328491211 4.697613239288
-81.786918640137 -81.354324340820 -216.571609497070 2.773498296738
-129.828887939453 -84.159942626953 -216.912841796875 11.354684829712
24.211374282837 -77.557258605957 -233.800277709961 5.668473720551
-94.223136901855 -76.765953063965 -221.794723510742 2.126049995422
-97.080329895020 -77.181602478027 -225.540252685547 3.605695724487
-98.425262451172 -75.348068237305 -223.640045166016 1.969850659370
-110.876441955566 -82.491821289063 -222.025299072266 9.827626228333
-106.073509216309 -83.331565856934 -224.259292602539 10.822368621826
-112.176017761230 -82.914268493652 -223.028717041016 10.241790771484
-142.111679077148 -85.799652099609 -223.333496093750 4.219833850861
-125.398025512695 -82.415794372559 -222.361526489258 8.568344116211
-149.204635620117 -79.796485900879 -219.239486694336 2.689654588699
-144.549133300781 -84.396484375000 -228.213638305664 1.784014344215
-163.604324340820 -85.199943542480 -229.650207519531 9.820497512817
-9.598440170288 -81.927284240723 -253.409591674805 2.885131597519
-127.491424560547 -86.824317932129 -243.336364746094 15.571234703064
-139.028640747070 -87.081420898438 -244.915573120117 8.162188529968
-44.005500793457 -80.047050476074 -260.168762207031 14.268198966980
-87.951057434082 -82.230834960938 -254.776504516602 7.095736980438
-28.747848510742 -83.438179016113 -263.246276855469 15.289297103882
-35.120346069336 -79.744087219238 -263.580780029297 18.691833496094
-118.944190979004 -87.719970703125 -244.732467651367 17.054489135742
-20.709320068359 -81.736473083496 -263.049865722656 7.787032127380
12.771145820618 -78.756927490234 -269.208984375000 3.844719409943
-54.045375823975 -80.729743957520 -254.837097167969 6.810670852661
-120.531852722168 -83.511131286621 -255.170257568359 8.445233345032
-78.111763000488 -78.928733825684 -256.267211914063 3.835695981979
-71.148452758789 -78.476524353027 -257.893371582031 6.414710044861
-30.525815963745 -82.179542541504 -262.480407714844 16.313758850098
-100.031677246094 -83.171707153320 -253.033096313477 10.183612823486
-113.506828308105 -83.993263244629 -252.983337402344 10.589781761169
-13.875213623047 -77.387268066406 -273.791839599609 3.090110301971
-162.813522338867 -81.987663269043 -246.757797241211 7.023933887482
-151.764785766602 -87.722084045410 -256.909759521484 1.685831189156
-155.318374633789 -87.227500915527 -270.469726562500 4.569970130920
66.173301696777 -60.845054626465 -0.703800976276 24.477020263672
60.537631988525 -62.321334838867 -0.521234989166 20.204069137573
61.830261230469 -57.369041442871 -4.913150787354 19.310218811035
55.599021911621 -56.506896972656 -9.816804885864 12.369181632996
57.045127868652 -61.701602935791 -17.129512786865 9.066948890686
64.219375610352 -56.879966735840 -23.470365524292 15.031736373901
51.891159057617 -63.909603118896 -24.973678588867 4.562140464783
-25.957281112671 -64.091941833496 -23.589788436890 24.481157302856
-1.395220041275 -56.547271728516 -27.494503021240 20.382966995239
111.389472961426 -56.162345886230 -60.519496917725 11.831698417664
-62.597442626953 -66.764640808105 -40.761264801025 4.067057132721
97.428077697754 -61.118652343750 -64.016487121582 2.057709693909
-10.873559951782 -70.474777221680 -54.878341674805 5.848731517792
-67.520904541016 -65.914817810059 -50.427146911621 4.644839763641
-23.201759338379 -70.203140258789 -52.949058532715 3.587512016296
127.108757019043 -62.737648010254 -81.464897155762 21.261291503906
-68.268920898438 -67.578071594238 -58.608642578125 7.404767036438
90.194671630859 -62.565158843994 -80.952980041504 7.630422592163
-72.448310852051 -64.766464233398 -56.831485748291 8.124815940857
81.055633544922 -68.925743103027 -81.006416320801 7.517266750336
128.883255004883 -57.900959014893 -87.706916809082 23.213459014893
-47.611602783203 -69.786361694336 -70.933807373047 9.524088859558
66.680381774902 -59.268375396729 -82.112480163574 3.612585783005
100.623786926270 -62.057235717773 -93.641494750977 3.581424474716
109.675888061523 -62.280445098877 -90.751754760742 5.135959625244
65.770187377930 -62.208053588867 -86.039176940918 2.540582895279
129.826278686523 -67.283798217773 -95.774963378906 20.774879455566
-71.842803955078 -71.138862609863 -79.115684509277 9.883347511292
130.625823974609 -59.174716949463 -98.003387451172 23.095394134521
128.029006958008 -61.917339324951 -103.280990600586 17.909061431885
55.660610198975 -65.995925903320 -101.270263671875 2.392189502716
68.173446655273 -66.064285278320 -97.330848693848 2.047664880753
65.701225280762 -70.058372497559 -105.184219360352 6.098407268524
56.487937927246 -66.438789367676 -103.621658325195 4.183360099792
64.125022888184 -66.348106384277 -102.845046997070 4.167422294617
67.495880126953 -63.074897766113 -107.388740539551 4.126025199890
126.956947326660 -64.858894348145 -117.027755737305 13.530595779419
133.336730957031 -62.031982421875 -118.735443115234 20.199745178223
51.367725372314 -70.086380004883 -114.961532592773 3.437723875046
48.978351593018 -68.994140625000 -117.972106933594 3.501012086868
-50.821846008301 -69.643196105957 -105.066802978516 14.608776092529
-32.199745178223 -69.545166015625 -97.500488281250 16.824026107788
129.882217407227 -66.272209167480 -131.991134643555 13.491384506226
48.339710235596 -66.403457641602 -115.764511108398 4.388197898865
56.800811767578 -61.788673400879 -120.458282470703 9.915458679199
-61.311279296875 -70.917701721191 -108.811126708984 8.430748939514
47.211246490479 -68.721916198730 -119.067413330078 2.963747024536
40.804626464844 -71.219497680664 -123.053230285645 1.393142700195
-28.082235336304 -69.856834411621 -116.977279663086 25.464647293091
-54.813087463379 -70.033302307129 -113.570556640625 8.008860588074
-36.061786651611 -71.116485595703 -117.575164794922 19.279441833496
48.433589935303 -66.049629211426 -130.460784912109 9.322959899902
-37.482780456543 -71.749267578125 -124.779640197754 13.390787124634
51.960391998291 -67.061607360840 -141.676223754883 14.385692596436
44.573654174805 -63.864654541016 -145.258865356445 10.780806541443
126.242935180664 -63.599025726318 -148.681854248047 12.695369720459
41.266925811768 -70.746925354004 -137.852951049805 3.855830907822
31.996072769165 -70.182739257813 -138.619354248047 1.530748128891
-22.902521133423 -78.049957275391 -125.783203125000 26.710136413574
-56.502384185791 -69.750228881836 -125.318878173828 2.040693759918
-30.383823394775 -69.575904846191 -131.506622314453 16.908315658569
123.888839721680 -63.304458618164 -151.328292846680 10.751844406128
51.362823486328 -69.402801513672 -144.505935668945 13.670386314392
126.802688598633 -68.231895446777 -157.840225219727 11.340157508850
-19.491188049316 -72.255607604980 -135.229507446289 24.777757644653
32.532711029053 -64.097297668457 -152.451187133789 6.085759162903
14.706165313721 -69.111946105957 -142.912170410156 2.736586809158
-16.815290451050 -68.253379821777 -138.043594360352 26.012231826782
-45.570384979248 -69.444953918457 -137.061996459961 2.220762491226
-15.527660369873 -72.240928649902 -138.755477905273 25.708837509155
-44.356685638428 -75.147224426270 -141.200515747070 1.127293467522
-18.974958419800 -66.832489013672 -147.736694335938 18.630294799805
36.593021392822 -71.797912597656 -153.085632324219 3.492516756058
-25.825983047485 -74.941558837891 -147.422317504883 12.215011596680
-135.958511352539 -77.855285644531 -135.902603149414 40.432067871094
127.542549133301 -65.262474060059 -167.672927856445 13.638031005859
-135.825805664063 -74.527595520020 -143.271621704102 32.956874847412
-131.684814453125 -79.041229248047 -143.091903686523 34.703052520752
27.674707412720 -69.349235534668 -164.209518432617 2.102102279663
37.096115112305 -70.189544677734 -163.660919189453 5.277500629425
-27.573244094849 -71.007316589355 -160.592315673828 4.109841346741
-138.170501708984 -73.235565185547 -145.913558959961 29.791772842407
-17.826847076416 -72.305335998535 -161.045455932617 11.706904411316
-132.413223266602 -73.011245727539 -149.825408935547 27.638814926147
-9.240038871765 -72.606979370117 -171.479324340820 2.803277730942
25.285322189331 -75.520050048828 -171.773483276367 2.238605022430
107.603530883789 -69.318260192871 -192.589859008789 3.463215827942
16.996408462524 -80.298156738281 -174.644653320313 3.627898931503
-114.858528137207 -78.800765991211 -151.632995605469 17.643281936646
-120.537094116211 -76.387893676758 -156.492614746094 18.653926849365
-129.792266845703 -78.641426086426 -160.266372680664 21.552154541016
106.258033752441 -65.379730224609 -190.092285156250 4.214225292206
-121.508331298828 -80.720886230469 -163.617050170898 19.729433059692
17.201812744141 -72.593620300293 -182.311859130859 2.256389379501
-15.370348930359 -70.857261657715 -180.495132446289 5.154312610626
-126.663406372070 -79.783645629883 -162.508438110352 22.755128860474
-134.925109863281 -77.290565490723 -164.344406127930 14.995790481567
106.389022827148 -72.999786376953 -200.210784912109 1.879642486572
-1.003193974495 -73.851325988770 -179.910690307617 8.430812835693
109.439331054688 -69.941299438477 -190.723571777344 2.695254564285
2.235368013382 -71.907859802246 -186.197799682617 10.402131080627
103.307899475098 -71.195220947266 -202.474670410156 2.203073263168
-134.717483520508 -77.528114318848 -165.206542968750 14.607470512390
