-7.100343227386 -76.815559387207 -167.845336914063 1.471351265907
-60.436149597168 -83.362098693848 -176.210617065430 3.494690656662
-26.836471557617 -87.598747253418 -184.730773925781 2.487862110138
-51.503215789795 -84.138259887695 -175.960220336914 3.593749761581
-64.825920104980 -84.735885620117 -182.466705322266 9.354331970215
-54.701000213623 -80.880172729492 -184.011505126953 2.843466997147
-21.888608932495 -78.823104858398 -184.069839477539 1.363125562668
-55.180652618408 -81.911216735840 -183.525878906250 3.239747285843
-149.369476318359 -78.600341796875 -188.712860107422 1.508366346359
-147.355316162109 -81.547050476074 -184.122360229492 1.035248517990
-33.445316314697 -79.529914855957 -190.502502441406 1.517863154411
-155.390136718750 -73.604560852051 -193.258392333984 3.326610803604
-40.629238128662 -83.815406799316 -197.884765625000 1.439820289612
-53.582767486572 -78.041290283203 -196.946823120117 4.414402961731
-62.148242950439 -81.238197326660 -201.847259521484 2.326943635941
-45.327320098877 -81.161674499512 -208.170730590820 6.223968029022
-37.862754821777 -76.249946594238 -207.860260009766 1.740911245346
-70.559837341309 -83.826927185059 -203.172729492188 5.741229534149
-150.993484497070 -79.027816772461 -206.001159667969 2.232759475708
-60.448112487793 -82.997253417969 -209.045333862305 1.216218829155
-68.117012023926 -83.503135681152 -210.916275024414 1.289436936378
-80.447647094727 -82.248321533203 -215.338409423828 2.804259300232
13.406981468201 -80.137924194336 -219.394180297852 1.312711000443
9.763837814331 -79.051017761230 -222.536468505859 1.771030426025
8.913097381592 -79.243804931641 -225.821823120117 3.186043024063
4.199876785278 -84.808525085449 -225.904922485352 6.472059249878
13.072609901428 -82.885459899902 -232.411254882813 1.235580086708
-148.999847412109 -75.704788208008 -225.443878173828 2.437721252441
-153.132095336914 -79.996299743652 -238.362686157227 4.198706150055
11.617137908936 -84.190032958984 -242.671020507813 2.002658843994
15.960121154785 -84.440872192383 -245.122756958008 2.587529420853
8.388380050659 -81.383384704590 -250.465484619141 1.186870574951
2.754894971848 -78.759971618652 -247.145645141602 0.933090209961
-157.882217407227 -82.738204956055 -247.947570800781 6.796274662018
-153.650009155273 -79.518898010254 -251.533493041992 1.455764770508
-157.972625732422 -82.028503417969 -257.982818603516 3.439969301224
-149.293243408203 -74.863143920898 -255.246093750000 2.500293731689
16.164285659790 -78.760803222656 -269.940673828125 2.850413560867
-154.823028564453 -79.502510070801 -265.056030273438 4.022027969360
-8.169557571411 -82.590400695801 -268.761932373047 3.533330440521
3.458240032196 -80.185768127441 -279.305755615234 1.566979885101
-159.383483886719 -84.979591369629 -281.571594238281 7.204669475555
-146.553161621094 -78.312820434570 -279.693267822266 2.491412639618
-160.521987915039 -83.890373229980 -282.129425048828 7.881425380707
-155.098846435547 -85.292556762695 -289.560821533203 1.391260743141
-159.628326416016 -77.722785949707 -289.129913330078 3.051653862000
-154.044784545898 -79.399208068848 -293.125946044922 2.115968227386
-46.992988586426 -82.601112365723 -68.951148986816 2.649322271347
-47.965930938721 -81.079170227051 -70.573875427246 0.973624885082
-31.855445861816 -77.716567993164 -72.780586242676 2.453273057938
-46.733955383301 -81.790122985840 -69.335586547852 2.078862667084
-73.438499450684 -81.087165832520 -68.059219360352 2.099948644638
-76.947517395020 -83.958763122559 -69.240425109863 4.731934547424
-44.036746978760 -82.018905639648 -70.632865905762 0.628872931004
-28.522953033447 -79.370300292969 -78.402641296387 1.721988201141
-55.577270507813 -81.110588073730 -91.518615722656 2.258147239685
-84.723632812500 -82.064987182617 -95.366088867188 1.750881552696
-83.016044616699 -82.812179565430 -99.439483642578 2.109600543976
-90.153297424316 -75.621910095215 -102.075736999512 4.325002193451
40.516895294189 -80.757965087891 -112.383911132813 2.186001539230
37.790920257568 -79.361297607422 -116.798576354980 1.623501300812
41.696674346924 -83.015319824219 -127.732727050781 4.044237136841
36.926521301270 -77.004463195801 -126.387786865234 2.291336774826
35.420299530029 -76.750404357910 -128.891006469727 2.778810024261
31.155918121338 -81.809738159180 -126.956077575684 4.228153228760
32.700908660889 -77.349136352539 -140.049194335938 1.169775724411
33.037437438965 -79.553726196289 -146.998748779297 1.850059390068
34.289882659912 -83.718955993652 -154.955078125000 5.658710956573
33.920734405518 -87.066635131836 -148.866958618164 7.176986694336
-46.100479125977 -82.375350952148 -159.663772583008 5.073322296143
-45.618995666504 -81.562110900879 -153.669174194336 1.791810870171
-45.398258209229 -79.490493774414 -163.140319824219 1.898694396019
21.290033340454 -84.577301025391 -157.357864379883 6.514683723450
23.587921142578 -78.985763549805 -158.895416259766 1.787331819534
-45.037773132324 -82.060020446777 -158.448089599609 4.339777469635
-43.040134429932 -80.094367980957 -162.957672119141 1.265960097313
-39.670093536377 -77.987617492676 -161.442474365234 1.527352333069
30.820663452148 -78.125000000000 -162.335845947266 1.393496632576
27.242649078369 -79.325614929199 -174.196151733398 2.459828376770
-62.167816162109 -82.306282043457 -169.484069824219 2.064770460129
24.462064743042 -78.011848449707 -170.563125610352 1.449876904488
15.383081436157 -81.067344665527 -171.787521362305 4.304808616638
-62.829311370850 -81.511299133301 -169.152099609375 2.039802551270
-38.021507263184 -79.417831420898 -173.010223388672 2.453823566437
-30.503252029419 -80.606834411621 -173.328201293945 3.585475444794
-26.652410507202 -83.187561035156 -171.831985473633 6.261317729950
-11.998343467712 -76.666778564453 -178.076782226563 2.060730934143
-33.299961090088 -80.618598937988 -181.975173950195 1.833029985428
-27.384822845459 -80.055145263672 -181.143203735352 1.981714010239
-49.039901733398 -85.298744201660 -182.327819824219 4.894653797150
-25.801773071289 -82.082992553711 -186.661209106445 1.762736201286
-56.003635406494 -81.621513366699 -189.671356201172 4.246878147125
-38.355220794678 -81.589591979980 -191.567031860352 0.537310063839
-53.099563598633 -71.918426513672 -191.632156372070 4.290087699890
-36.469001770020 -81.668174743652 -195.101150512695 0.257171213627
-26.764036178589 -76.537719726563 -199.268798828125 2.568095922470
-142.673858642578 -71.335067749023 -195.853088378906 2.185402154922
-15.896156311035 -79.652946472168 -198.268249511719 1.887460470200
-53.444549560547 -82.582221984863 -201.029449462891 1.954300165176
-56.105030059814 -84.071205139160 -203.002334594727 1.170659899712
-144.378524780273 -77.942420959473 -198.720596313477 0.623487472534
-61.165916442871 -83.339973449707 -199.285766601563 3.307574272156
-15.551623344421 -76.949951171875 -204.102478027344 1.429185628891
-15.225255012512 -82.453155517578 -207.951950073242 3.082867145538
-10.290190696716 -81.119735717773 -205.805816650391 4.288189411163
-58.784782409668 -80.670364379883 -203.628967285156 1.801424026489
13.672701835632 -81.475379943848 -206.879150390625 2.452230930328
-14.393624305725 -78.502685546875 -216.600097656250 2.436114549637
12.329618453979 -78.742256164551 -211.246231079102 1.392217993736
-30.300130844116 -81.426574707031 -206.655776977539 3.042275190353
-36.445732116699 -84.843383789063 -208.724227905273 5.737327098846
-16.892581939697 -81.347251892090 -217.553131103516 3.992779016495
-30.320175170898 -76.783645629883 -219.573883056641 2.507283687592
3.469826936722 -81.774734497070 -222.172012329102 4.323027133942
-13.797331809998 -84.111915588379 -223.630935668945 7.088856697083
7.516399860382 -80.445465087891 -222.998992919922 1.895717859268
-5.254970073700 -80.021240234375 -226.872421264648 1.171778321266
-152.032684326172 -81.384574890137 -227.428573608398 1.659533500671
-156.137680053711 -74.326828002930 -223.785827636719 3.283654689789
14.848755836487 -80.079612731934 -237.530578613281 0.388658136129
-140.560653686523 -78.823059082031 -230.905120849609 0.799040496349
12.528379440308 -81.459701538086 -239.480789184570 1.937451601028
8.566284179688 -85.030410766602 -238.756134033203 4.113125324249
-151.580871582031 -77.498023986816 -237.531799316406 1.996896624565
-149.640762329102 -77.992507934570 -239.328765869141 2.251927137375
-39.477291107178 -82.066047668457 -248.998397827148 4.837207794189
-39.495101928711 -77.689025878906 -242.711730957031 2.186122894287
-42.789825439453 -76.794250488281 -242.229507446289 1.177916765213
3.161339998245 -83.035011291504 -245.149139404297 4.115924358368
-42.206108093262 -79.205123901367 -242.962722778320 1.492396116257
1.467591047287 -83.097305297852 -245.270385742188 4.321985721588
4.934745788574 -80.625274658203 -254.392471313477 2.878462791443
-11.806450843811 -79.382652282715 -254.533447265625 3.191390752792
-13.926359176636 -77.335693359375 -262.021087646484 2.021904945374
-162.263565063477 -75.971656799316 -260.138580322266 1.939672708511
-153.365127563477 -80.252670288086 -259.139404296875 1.480749845505
-9.180360794067 -78.074638366699 -261.520660400391 2.076420783997
-10.959991455078 -81.408462524414 -273.847534179688 3.445844173431
13.749133110046 -83.607742309570 -275.879211425781 4.282896518707
5.082798957825 -81.258773803711 -280.583892822266 1.526491761208
3.360907077789 -83.230430603027 -286.501190185547 5.538533687592
-156.421966552734 -76.920631408691 -285.934539794922 2.204193830490
-163.099533081055 -79.125167846680 -285.965972900391 3.466929435730
-149.040908813477 -82.157165527344 -285.394592285156 1.010588765144
-65.725914001465 -76.429161071777 -61.743762969971 2.353378772736
-62.379932403564 -77.639823913574 -62.874526977539 2.900358200073
-50.512313842773 -79.604301452637 -61.764091491699 2.165081739426
-49.018718719482 -76.743621826172 -67.821777343750 2.657261133194
-42.757423400879 -80.984001159668 -69.886955261230 1.470494747162
-37.601470947266 -81.358497619629 -71.399971008301 2.091350793839
-42.580772399902 -78.452354431152 -59.808826446533 2.067639589310
-31.887626647949 -79.029045104980 -75.353820800781 2.070631742477
-27.512191772461 -78.435073852539 -71.174766540527 1.846751689911
-26.068161010742 -78.478401184082 -80.417968750000 4.436517238617
-30.989015579224 -77.265983581543 -80.059059143066 0.750599741936
-83.838661193848 -74.508186340332 -85.651702880859 4.333295345306
-43.892852783203 -77.898010253906 -87.856361389160 3.283215999603
-89.246437072754 -79.522804260254 -102.375640869141 2.699629783630
-72.835731506348 -77.675048828125 -99.590278625488 3.093289613724
49.372333526611 -81.994476318359 -108.350090026855 4.423213005066
39.614189147949 -76.089866638184 -113.264999389648 1.703813195229
-82.536323547363 -75.638435363770 -112.219604492188 3.087670564651
41.391445159912 -73.930450439453 -119.715438842773 3.557820081711
39.306941986084 -82.857604980469 -119.509490966797 2.435734748840
40.171367645264 -79.797676086426 -131.419891357422 2.048535585403
33.298995971680 -77.647750854492 -132.151336669922 1.838780283928
38.384429931641 -75.136505126953 -134.239151000977 3.074383020401
36.918724060059 -85.117866516113 -142.358276367188 5.731353282928
25.134534835815 -79.581832885742 -142.147903442383 2.714609384537
33.498085021973 -76.796806335449 -142.905975341797 2.026638031006
30.608509063721 -77.033454895020 -151.669204711914 1.425582170486
-47.540290832520 -81.583000183105 -152.780700683594 2.705995082855
-41.194671630859 -80.868225097656 -156.488174438477 2.749812364578
-45.800392150879 -85.315017700195 -154.955612182617 5.304160118103
-66.302749633789 -84.538818359375 -160.727600097656 4.885053634644
-65.547683715820 -80.473335266113 -167.276382446289 2.140397071838
-69.184959411621 -77.098541259766 -166.136901855469 3.129225730896
-45.062126159668 -79.850555419922 -166.393722534180 2.296487569809
26.915929794312 -74.696128845215 -174.425537109375 1.053269982338
15.400270462036 -79.196479797363 -180.204788208008 3.833736896515
-54.309181213379 -77.522171020508 -176.977188110352 2.109124422073
-31.188419342041 -79.985481262207 -179.188537597656 1.719092607498
-38.372104644775 -82.189918518066 -179.590240478516 4.983767509460
23.093175888062 -81.400650024414 -177.424942016602 2.728732347488
-54.104572296143 -80.108940124512 -181.220001220703 1.471882104874
-60.740032196045 -84.061706542969 -181.230514526367 6.513844966888
-24.963010787964 -79.965911865234 -184.248046875000 1.776201128960
16.844308853149 -80.370071411133 -187.227478027344 3.000956296921
-52.476913452148 -77.712562561035 -184.083282470703 1.450763821602
-48.457275390625 -84.333244323730 -186.455108642578 2.752846956253
19.364912033081 -83.580986022949 -186.673233032227 4.902356624603
-52.653408050537 -74.818962097168 -189.618652343750 0.805780529976
-23.121320724487 -80.745765686035 -188.467727661133 0.641929745674
-29.378997802734 -82.012901306152 -191.043762207031 1.260306239128
14.240838050842 -81.313148498535 -194.902160644531 3.282842159271
-28.419250488281 -74.798118591309 -194.917541503906 1.118882775307
-23.993223190308 -77.774520874023 -193.622573852539 1.834211468697
-15.554153442383 -82.010185241699 -197.237670898438 3.471029043198
20.384349822998 -79.148033142090 -197.341140747070 2.539608716965
-142.464660644531 -78.671058654785 -192.795410156250 1.806136012077
13.795832633972 -78.485694885254 -205.533279418945 2.237124443054
-152.628082275391 -78.411941528320 -196.009826660156 1.396514296532
17.893951416016 -81.199874877930 -201.606124877930 3.899396896362
-46.735668182373 -79.550415039063 -205.932342529297 3.683653831482
-136.935028076172 -77.380767822266 -198.335128784180 1.744386553764
10.381242752075 -80.408103942871 -205.862121582031 1.921085119247
15.193964004517 -81.282546997070 -207.289901733398 1.011058092117
-60.830123901367 -78.377693176270 -207.454101562500 0.934280633926
19.690843582153 -77.949775695801 -208.203598022461 2.475599527359
-60.338512420654 -78.803871154785 -207.655014038086 1.585186839104
-68.973182678223 -77.183387756348 -214.332015991211 2.519159078598
-18.791063308716 -81.183998107910 -204.530563354492 2.647845029831
-19.336757659912 -80.443199157715 -210.269821166992 3.984437942505
-34.379001617432 -85.522865295410 -210.077621459961 5.663568973541
18.409397125244 -77.715377807617 -211.919815063477 3.114137172699
-82.912727355957 -75.682678222656 -208.723449707031 2.669493436813
-150.003540039063 -74.959068298340 -214.461761474609 1.043439984322
5.165669918060 -80.521919250488 -207.813034057617 3.936024665833
-87.728607177734 -76.650062561035 -215.672332763672 1.652493953705
-78.513053894043 -80.099403381348 -212.116683959961 1.182657837868
-12.338888168335 -77.207595825195 -222.128082275391 2.578562974930
-9.779952049255 -80.670593261719 -221.321899414063 1.797770738602
-30.552448272705 -77.459281921387 -220.435729980469 3.137793779373
-149.417633056641 -76.899230957031 -217.313980102539 1.281177520752
-25.868577957153 -84.870193481445 -219.317276000977 5.476763725281
-154.310836791992 -76.591323852539 -215.859390258789 4.614811897278
-11.474557876587 -81.814002990723 -225.422500610352 4.464920043945
10.458017349243 -79.829048156738 -227.300628662109 1.980707883835
15.951934814453 -82.657974243164 -227.406509399414 1.526553988457
14.842892646790 -75.969963073730 -233.948257446289 1.914686918259
4.508316993713 -78.344665527344 -228.910354614258 1.441704869270
1.333178043365 -82.396827697754 -229.199722290039 3.424959897995
-152.318496704102 -71.882331848145 -229.426086425781 2.726113796234
-2.793318986893 -79.017646789551 -233.404785156250 1.770058155060
14.389778137207 -77.137870788574 -237.656494140625 3.014036893845
-148.362304687500 -80.843223571777 -232.872848510742 1.419320225716
-152.513168334961 -82.017471313477 -229.608749389648 2.090240001678
-4.166100978851 -81.849380493164 -239.769042968750 5.597744941711
-24.448019027710 -80.360183715820 -244.580856323242 2.094226360321
-152.554763793945 -76.700378417969 -234.421554565430 2.409448385239
22.337753295898 -75.351722717285 -248.531326293945 1.938284277916
-55.556690216064 -76.074768066406 -242.939178466797 1.026892900467
5.110577106476 -83.049003601074 -249.534133911133 2.655530691147
-156.275115966797 -79.698432922363 -243.850250244141 5.472982406616
-11.456669807434 -80.300109863281 -255.913269042969 1.717919111252
-141.197937011719 -80.561462402344 -255.914154052734 2.650339841843
-157.467010498047 -71.645027160645 -256.296813964844 1.829368829727
-151.243087768555 -81.594047546387 -258.410308837891 2.586438894272
-144.757522583008 -77.844039916992 -260.878601074219 2.169959306717
-12.162018775940 -80.689567565918 -274.894592285156 3.988698005676
9.278125762939 -77.667991638184 -280.002624511719 1.010706782341
5.832108974457 -80.650070190430 -287.573699951172 3.062163591385
-149.246292114258 -77.096199035645 -286.172180175781 2.422930955887
-146.779479980469 -80.578742980957 -286.609497070313 1.970797896385
-160.062011718750 -80.042037963867 -300.709136962891 6.615537166595
-66.569297790527 -79.409194946289 -64.764793395996 0.889615237713
-65.581542968750 -78.309799194336 -62.994537353516 2.489558935165
-68.947952270508 -75.431343078613 -63.833229064941 3.328085899353
-31.881589889526 -78.128913879395 -69.392372131348 1.824725985527
-76.220504760742 -78.003257751465 -63.405193328857 1.991498947144
-23.350158691406 -77.795974731445 -75.712417602539 1.884312987328
-44.314235687256 -80.757057189941 -87.911560058594 3.491285562515
-84.407546997070 -79.189079284668 -88.985328674316 2.464049816132
-87.455909729004 -76.973556518555 -93.011772155762 3.118055105209
-70.829643249512 -80.853317260742 -98.236831665039 4.281316280365
-75.845802307129 -77.943603515625 -98.040397644043 3.021241664886
-77.908187866211 -76.329101562500 -101.957763671875 2.183722496033
-87.534835815430 -81.092132568359 -105.361167907715 1.254276752472
47.105632781982 -78.918235778809 -111.875640869141 2.512679815292
49.622913360596 -81.121955871582 -123.039680480957 6.568648815155
35.794670104980 -76.298957824707 -124.843574523926 0.718617022038
41.230953216553 -77.065353393555 -123.265045166016 1.021357536316
36.631626129150 -79.648963928223 -126.818504333496 1.657039880753
32.463497161865 -82.462776184082 -129.777038574219 2.753341197968
41.846263885498 -78.784286499023 -129.327880859375 2.867731094360
32.335243225098 -79.976539611816 -134.099197387695 1.443456768990
41.918395996094 -74.841186523438 -138.726867675781 3.017394542694
26.112205505371 -77.577819824219 -141.827117919922 1.602768182755
36.488655090332 -81.150825500488 -138.989501953125 1.987812280655
31.433000564575 -81.173019409180 -146.462295532227 1.182018280029
26.607166290283 -81.586891174316 -150.608123779297 2.554609298706
28.478736877441 -77.364654541016 -149.400970458984 1.371656179428
22.274520874023 -82.427352905273 -155.331909179688 3.706918239594
-48.649890899658 -76.104537963867 -147.106979370117 2.116287946701
30.424785614014 -83.229759216309 -155.537780761719 3.772317171097
-44.997390747070 -80.324256896973 -150.789947509766 1.930142283440
-43.453403472900 -77.478904724121 -156.788818359375 2.470353126526
29.013851165771 -83.149833679199 -163.050018310547 3.791373014450
-41.335186004639 -75.779495239258 -161.170425415039 2.369945526123
-70.193107604980 -75.890357971191 -158.977600097656 1.352518200874
18.123338699341 -80.639205932617 -166.276840209961 5.720505237579
-65.388526916504 -79.211517333984 -164.183029174805 1.495628952980
-40.682235717773 -77.625717163086 -167.084564208984 1.625505566597
-4.277040004730 -78.702110290527 -171.066513061523 0.531554520130
-32.205448150635 -81.994583129883 -165.053726196289 3.260500431061
-37.367958068848 -82.806274414063 -167.168884277344 3.464606523514
22.219146728516 -78.819793701172 -173.243865966797 1.588136315346
-3.313067913055 -78.213340759277 -168.369583129883 1.552422285080
-44.586833953857 -84.035247802734 -168.621475219727 6.215818881989
-39.971652984619 -79.646621704102 -171.530609130859 2.273520708084
21.360988616943 -79.082321166992 -181.378585815430 1.497448086739
-35.045783996582 -80.116058349609 -172.930160522461 1.918988347054
-30.635831832886 -78.028717041016 -171.883438110352 3.108370065689
-37.788787841797 -76.525024414063 -174.626785278320 1.705160021782
-41.902172088623 -75.169082641602 -181.535797119141 4.350577354431
29.486093521118 -79.195358276367 -174.661331176758 2.133064270020
-37.277397155762 -77.188674926758 -170.762481689453 0.726418375969
25.206249237061 -79.421379089355 -180.476028442383 1.583246707916
-31.122819900513 -82.854461669922 -185.316818237305 3.100163459778
-17.549989700317 -77.005836486816 -179.501602172852 2.095338582993
-20.918800354004 -82.042755126953 -182.307113647461 1.740051984787
-25.228799819946 -78.274482727051 -183.212173461914 1.840244174004
-22.444377899170 -72.883888244629 -181.603195190430 1.459400057793
-24.197286605835 -74.254005432129 -181.306213378906 1.168696045876
-25.265808105469 -75.490798950195 -187.860397338867 1.821058988571
-32.838348388672 -80.779472351074 -186.959426879883 1.574103832245
-21.111736297607 -76.780136108398 -187.108078002930 1.835156440735
-33.499267578125 -77.045425415039 -187.244155883789 2.421889781952
22.103181838989 -77.233245849609 -188.500152587891 1.949422121048
-41.323097229004 -76.958198547363 -195.952285766602 1.564121723175
-143.732742309570 -81.084922790527 -186.915023803711 1.245150089264
-148.745742797852 -76.961029052734 -185.870132446289 2.274089097977
-55.230598449707 -79.052604675293 -199.651626586914 2.912095546722
-150.565536499023 -72.471824645996 -194.349929809570 1.955406188965
-23.163286209106 -81.142524719238 -199.328872680664 2.971069335938
-152.802825927734 -79.170989990234 -200.077636718750 0.653574228287
9.959572792053 -80.404853820801 -207.118026733398 1.467505216599
-25.805673599243 -76.713897705078 -204.091461181641 3.647693872452
-19.547975540161 -77.653976440430 -201.685684204102 1.860681772232
-26.601694107056 -77.673713684082 -212.452117919922 1.363192319870
-38.755973815918 -76.821975708008 -204.542312622070 2.340592622757
5.495252132416 -79.573226928711 -208.411834716797 2.936167240143
-64.921752929688 -76.674850463867 -212.961563110352 4.152978897095
-67.916877746582 -80.173912048340 -214.487487792969 1.721913933754
-20.638879776001 -76.727455139160 -217.205856323242 0.696248590946
-29.654062271118 -78.489227294922 -217.612792968750 0.445484429598
-82.463722229004 -78.184989929199 -213.162826538086 1.641518950462
-83.791297912598 -76.448455810547 -217.895965576172 2.648164749146
6.526290893555 -80.236946105957 -213.449691772461 1.775762796402
-32.960399627686 -85.980712890625 -213.798416137695 5.211045742035
-15.024838447571 -79.577621459961 -222.591995239258 2.408836364746
-26.940124511719 -80.709114074707 -213.610961914063 1.696267247200
7.711291790009 -79.079132080078 -221.948898315430 0.609779775143
-22.918334960938 -80.885795593262 -224.784637451172 3.859395503998
-26.825731277466 -79.363700866699 -222.544479370117 2.647023916245
-15.024112701416 -80.650482177734 -225.183074951172 4.309940338135
15.092899322510 -78.840576171875 -223.273529052734 1.162462234497
-1.317098021507 -76.658096313477 -225.729690551758 1.912589192390
-1.550912022591 -80.126770019531 -227.917587280273 1.853815793991
11.103951454163 -77.199554443359 -232.783950805664 2.160549163818
-136.314682006836 -75.545471191406 -224.524444580078 3.257843017578
-153.996429443359 -77.188049316406 -225.463363647461 1.521714210510
6.751521110535 -74.301246643066 -231.551528930664 1.838144063950
10.187460899353 -78.936218261719 -232.585449218750 0.967171192169
2.743330001831 -78.455619812012 -240.287597656250 1.319314837456
-7.205334186554 -78.554977416992 -238.875625610352 5.343986511230
-3.408241987228 -81.100036621094 -237.401596069336 4.372975826263
-27.920911788940 -78.116142272949 -245.702468872070 3.145402193069
7.496335983276 -77.234870910645 -249.003814697266 2.852797031403
-38.621669769287 -81.543914794922 -243.169372558594 1.562439084053
-54.002922058105 -77.422813415527 -242.044052124023 0.870965540409
-30.335142135620 -78.373054504395 -245.979568481445 3.337549209595
-61.735927581787 -76.675613403320 -247.907333374023 0.506578028202
-59.504192352295 -77.101432800293 -250.305038452148 1.508733868599
-54.974674224854 -78.172851562500 -246.552856445313 2.049495458603
-53.162261962891 -72.872482299805 -248.000671386719 2.616591453552
-13.675833702087 -76.335975646973 -257.229888916016 2.226138114929
-153.802566528320 -83.346572875977 -245.937377929688 3.646577835083
-142.472335815430 -76.725395202637 -250.113052368164 3.148314237595
10.924894332886 -79.310066223145 -260.235168457031 4.812123775482
-162.881973266602 -77.411491394043 -258.465484619141 3.763203620911
-149.787155151367 -82.389617919922 -259.018585205078 1.547079443932
-157.757583618164 -72.383537292480 -260.141448974609 2.982589721680
-155.387481689453 -79.529212951660 -265.568969726563 4.586590766907
-9.896321296692 -77.673210144043 -274.489440917969 1.373323559761
-156.063308715820 -75.888610839844 -276.216644287109 3.878458976746
-5.950932979584 -78.532600402832 -284.155120849609 3.627988100052
5.900771141052 -77.279319763184 -285.337860107422 1.915958046913
-3.739314079285 -75.738273620605 -288.517761230469 1.940173029900
-145.997085571289 -80.098518371582 -285.928039550781 1.285842418671
-32.968338012695 -76.547035217285 -296.186676025391 4.882747173309
-30.994916915894 -75.694030761719 -292.467437744141 3.032421350479
6.527890205383 -82.005035400391 -294.455139160156 5.602587699890
-156.958831787109 -76.749252319336 -302.680297851563 2.576991319656
-151.035644531250 -79.602310180664 -303.675811767578 3.185736179352
-155.097885131836 -79.584083557129 -308.571350097656 3.437270164490
-50.941432952881 -76.264221191406 -59.688751220703 2.229367494583
-43.825885772705 -75.628082275391 -57.743869781494 2.087272644043
-56.295116424561 -77.639892578125 -60.702102661133 2.836352586746
-45.583068847656 -78.878593444824 -57.302593231201 2.259807348251
-75.594856262207 -78.337135314941 -60.114738464355 2.873278379440
-36.983898162842 -76.482002258301 -60.781986236572 1.168578386307
-29.264959335327 -76.848312377930 -66.587722778320 1.921447634697
-31.291574478149 -76.742218017578 -67.416961669922 1.365202784538
-78.232711791992 -79.807106018066 -73.351432800293 1.583306074142
-80.909645080566 -75.672431945801 -68.628456115723 2.000572443008
-23.341482162476 -72.054962158203 -66.493400573730 4.166979789734
-23.702493667603 -74.686363220215 -82.441207885742 4.140554904938
75.639175415039 -78.757789611816 -89.507392883301 3.668581962585
-38.049148559570 -82.468849182129 -88.171638488770 4.728118419647
90.970451354980 -80.713401794434 -91.907516479492 3.900786638260
89.331459045410 -78.674972534180 -93.737525939941 2.179288148880
79.269226074219 -75.407615661621 -90.113639831543 3.858868837357
74.753921508789 -79.401679992676 -91.379577636719 4.459530353546
78.400375366211 -78.204505920410 -92.622146606445 0.907722771168
89.110588073730 -78.637313842773 -95.135070800781 2.601851940155
-90.689743041992 -77.258987426758 -90.659729003906 1.339249968529
-59.553527832031 -76.336334228516 -97.956741333008 4.821035861969
-60.069183349609 -79.379287719727 -97.424499511719 2.831926584244
-67.574981689453 -78.129310607910 -102.056503295898 1.526399970055
-73.692367553711 -75.436683654785 -100.062942504883 1.833811879158
-78.452514648438 -79.336387634277 -99.294876098633 2.141937017441
41.675910949707 -76.010803222656 -108.892440795898 0.987312257290
44.764297485352 -76.679924011230 -109.538299560547 1.985406160355
36.346668243408 -78.110969543457 -109.662460327148 2.383857965469
-85.906578063965 -73.366920471191 -108.517753601074 2.863893747330
-91.570854187012 -71.133979797363 -113.625518798828 2.990962028503
-87.590118408203 -72.960273742676 -109.451614379883 2.506485700607
37.891639709473 -76.148872375488 -122.789741516113 2.371548652649
34.050315856934 -76.371520996094 -124.468528747559 0.859851777554
32.515968322754 -82.424003601074 -129.595336914063 2.889317035675
39.127933502197 -78.443008422852 -132.320388793945 1.545977473259
24.995908737183 -81.199630737305 -137.484405517578 3.774621248245
-47.746871948242 -76.147514343262 -132.868850708008 3.348535776138
-44.545131683350 -75.980857849121 -143.057907104492 1.273153185844
-41.300315856934 -71.493827819824 -148.190109252930 1.430355310440
-46.251914978027 -85.547309875488 -153.545043945313 5.597002983093
-53.350601196289 -79.840332031250 -148.830398559570 2.094760179520
-48.487693786621 -76.873092651367 -152.914443969727 1.791300892830
-58.097202301025 -70.853073120117 -144.590026855469 1.848735690117
-73.533737182617 -81.850334167480 -149.913864135742 5.616578102112
19.267450332642 -77.570945739746 -161.147537231445 1.982117295265
-66.827056884766 -77.931404113770 -159.676803588867 2.500513792038
-69.326202392578 -72.813339233398 -151.161376953125 1.568441629410
32.831123352051 -78.373176574707 -159.298339843750 2.523719310760
25.855073928833 -80.071098327637 -159.295867919922 2.696644783020
-70.949218750000 -81.637649536133 -158.231185913086 4.885230541229
-41.762794494629 -78.634643554688 -160.190032958984 1.640778303146
26.752033233643 -75.305091857910 -164.799682617188 1.841408252716
-44.077297210693 -76.286033630371 -156.855758666992 1.968510150909
111.023223876953 -79.947303771973 -160.850875854492 3.729072093964
29.080051422119 -82.712402343750 -167.577362060547 4.129753112793
-43.803874969482 -74.581779479980 -172.056030273438 1.637690305710
110.881553649902 -80.566383361816 -172.874557495117 3.798508167267
-58.483726501465 -76.263778686523 -166.781021118164 1.453718781471
27.201026916504 -77.175132751465 -161.709930419922 2.103897571564
-42.747585296631 -74.632698059082 -165.749572753906 1.838022589684
32.071430206299 -78.835762023926 -168.965576171875 4.488056182861
109.396354675293 -73.865188598633 -171.980560302734 1.355716466904
20.264902114868 -78.629768371582 -177.609115600586 1.866365194321
-59.040607452393 -75.355865478516 -172.801620483398 1.833908081055
28.690052032471 -78.302322387695 -175.501892089844 2.814805507660
18.769567489624 -82.392768859863 -173.410934448242 4.383053302765
-9.491942405701 -80.505561828613 -177.047882080078 1.418134808540
-15.610526084900 -78.865409851074 -179.505462646484 1.734216570854
-62.538791656494 -76.332214355469 -181.512771606445 4.050704956055
110.310882568359 -81.813606262207 -184.412933349609 6.995932579041
-31.565250396729 -77.899261474609 -182.987121582031 0.780556142330
106.373107910156 -76.225715637207 -186.989379882813 2.888135671616
18.457057952881 -79.238494873047 -181.814895629883 0.678910732269
-26.235927581787 -78.411926269531 -185.426391601563 0.749165594578
14.216509819031 -79.072326660156 -186.692443847656 1.925946354866
-30.528322219849 -74.402397155762 -185.606857299805 1.871312141418
101.504928588867 -75.574195861816 -192.135391235352 1.394381761551
-56.842773437500 -77.185165405273 -186.227508544922 2.364521265030
102.395729064941 -82.903289794922 -193.538803100586 5.832502365112
-49.564182281494 -75.995002746582 -192.581680297852 1.424860954285
22.715677261353 -74.834892272949 -191.486129760742 1.914139866829
17.946609497070 -80.639968872070 -193.421966552734 2.625257015228
-26.912006378174 -81.976318359375 -193.661254882813 4.146872520447
103.227149963379 -79.194984436035 -195.334274291992 1.873599171638
-47.360382080078 -77.775299072266 -187.089431762695 1.345616579056
96.314636230469 -78.560462951660 -204.552825927734 2.051207065582
-18.530567169189 -80.462409973145 -198.303924560547 1.917653203011
-25.110406875610 -76.904830932617 -197.989044189453 1.265418767929
-19.320764541626 -76.719223022461 -194.640731811523 2.518962144852
-29.686265945435 -78.837730407715 -201.243560791016 3.906981706619
-27.257284164429 -73.659553527832 -199.532653808594 0.982346594334
97.678009033203 -71.751525878906 -200.060348510742 2.492835283279
-133.926193237305 -74.458259582520 -197.062728881836 0.745102643967
-43.483695983887 -76.091911315918 -204.827850341797 2.637117385864
-43.607070922852 -78.284805297852 -202.382675170898 1.886808633804
-151.051300048828 -79.512413024902 -201.629409790039 0.767620623112
-43.523517608643 -82.418838500977 -196.619110107422 2.225180625916
13.934824943542 -78.821716308594 -201.059844970703 2.516084432602
91.380744934082 -78.039306640625 -210.082473754883 1.855088114738
97.948852539063 -80.448249816895 -209.653976440430 4.493675708771
10.624599456787 -78.468231201172 -201.107177734375 1.202643036842
-40.333568572998 -78.184089660645 -208.635162353516 2.328628778458
11.389717102051 -79.637481689453 -207.251632690430 1.368786811829
15.889601707458 -76.348098754883 -209.619461059570 2.390165090561
96.268569946289 -86.235870361328 -208.766159057617 9.547913551331
12.932800292969 -75.398841857910 -212.566741943359 3.356254816055
-35.776821136475 -73.773536682129 -210.326828002930 2.510714530945
8.871850013733 -79.617851257324 -209.585281372070 2.420935630798
94.390487670898 -76.451148986816 -214.198104858398 2.218142271042
-146.668914794922 -77.107192993164 -208.526901245117 2.832984685898
-20.332839965820 -78.840820312500 -209.365005493164 3.581631660461
3.326231002808 -81.026840209961 -214.153579711914 4.969328880310
-5.993597984314 -79.317398071289 -216.237350463867 1.536597490311
-10.397978782654 -82.727073669434 -219.534271240234 2.878556251526
13.833689689636 -77.682998657227 -213.387023925781 2.194344520569
-26.224082946777 -72.009178161621 -214.374664306641 2.381354331970
-94.295501708984 -77.389648437500 -211.749069213867 2.649818658829
-154.886093139648 -76.681793212891 -214.892059326172 5.453991889954
6.277667999268 -74.571174621582 -218.159317016602 2.082976818085
-30.804897308350 -74.936721801758 -222.461227416992 3.825195312500
-15.687542915344 -78.549461364746 -222.442825317383 1.613792538643
-145.843063354492 -78.642425537109 -224.694442749023 1.549034118652
-12.086739540100 -74.322036743164 -225.678909301758 0.756216704845
8.876453399658 -77.337928771973 -218.233367919922 1.597446918488
2.283586978912 -79.567794799805 -233.599304199219 2.570807695389
-5.074070930481 -74.145690917969 -224.362152099609 3.436735153198
-9.088223457336 -76.345497131348 -231.018280029297 2.082944154739
-2.968390941620 -76.273300170898 -236.455551147461 1.895374536514
16.277183532715 -76.932334899902 -237.884201049805 1.321516275406
-154.884506225586 -77.812049865723 -231.910690307617 0.712192595005
0.264427989721 -77.804855346680 -235.789154052734 1.415320515633
-31.135416030884 -76.744918823242 -238.445358276367 1.641040802002
7.887591838837 -77.784713745117 -239.148727416992 1.109168291092
4.270382881165 -79.001274108887 -241.755172729492 2.272825717926
-55.697284698486 -76.598686218262 -242.731445312500 1.163421154022
-26.543813705444 -76.779663085938 -238.473785400391 1.986584424973
-154.984878540039 -76.202033996582 -243.525466918945 4.063605785370
20.446189880371 -75.252281188965 -246.034729003906 0.905231773853
-48.747661590576 -80.137863159180 -247.397186279297 1.749652266502
-56.741519927979 -79.019477844238 -245.078842163086 1.315105915070
-61.835811614990 -78.339431762695 -248.376113891602 1.505063414574
-151.412612915039 -75.833633422852 -249.607681274414 3.450796127319
-14.058597564697 -77.417678833008 -255.104324340820 1.074464797974
-157.058441162109 -75.894355773926 -248.404525756836 3.653920412064
-158.102813720703 -73.609725952148 -250.090438842773 1.768652439117
-135.830017089844 -77.648986816406 -257.411163330078 0.713496506214
-158.580551147461 -79.464698791504 -260.391174316406 4.142147064209
-17.496486663818 -74.702629089355 -268.124328613281 3.574667930603
13.964760780334 -78.751434326172 -279.767028808594 2.597126007080
14.796581268311 -78.770622253418 -273.990814208984 3.205247163773
5.999444961548 -78.364555358887 -284.767333984375 1.189366698265
4.074694156647 -73.982749938965 -288.780029296875 2.665335416794
-37.463203430176 -77.815155029297 -284.375823974609 3.288657903671
-43.428638458252 -78.206680297852 -285.145446777344 1.425334334373
-45.336341857910 -79.299118041992 -289.155609130859 3.863044500351
-20.596555709839 -75.469696044922 -293.352813720703 1.979767680168
-44.087978363037 -81.048385620117 -285.160949707031 3.854021072388
-59.105205535889 -76.019607543945 -288.499603271484 1.524119138718
-6.731017112732 -82.639701843262 -293.635406494141 5.536064624786
-139.026779174805 -75.740814208984 -291.667510986328 3.037237882614
-2.634840965271 -80.097557067871 -290.054260253906 2.245805501938
2.095469951630 -73.648468017578 -291.175598144531 2.207604408264
-50.240764617920 -78.117843627930 -294.371551513672 5.501059532166
12.587778091431 -78.041343688965 -292.004486083984 2.497659206390
-27.115119934082 -78.567054748535 -293.163299560547 3.052971839905
-131.529098510742 -77.516235351563 -288.592803955078 1.353235960007
-35.839717864990 -80.082855224609 -291.383758544922 2.314217805862
-25.933774948120 -78.542205810547 -292.841033935547 2.602695941925
1.425479054451 -75.084472656250 -294.912445068359 2.442667007446
-151.894561767578 -77.308067321777 -290.056945800781 2.591555118561
-164.253204345703 -75.393821716309 -303.340728759766 8.557276725769
-150.551849365234 -75.277282714844 -307.962554931641 3.614481687546
-55.681587219238 -74.876358032227 -55.633255004883 0.904023170471
-65.994560241699 -76.943550109863 -55.773197174072 2.329687356949
-72.112266540527 -76.093597412109 -62.337604522705 3.780120849609
-31.905313491821 -76.066162109375 -59.111343383789 1.668754458427
-30.600294113159 -76.416526794434 -63.985507965088 3.392541646957
-87.548278808594 -74.560806274414 -73.121681213379 1.404517650604
-88.592575073242 -78.491096496582 -77.023406982422 4.360262870789
83.529510498047 -75.343200683594 -78.531150817871 2.440899133682
86.514793395996 -76.438728332520 -83.196037292480 0.852011144161
-33.679626464844 -81.515869140625 -78.058967590332 1.797753214836
79.030609130859 -75.131294250488 -89.453521728516 3.893340110779
88.888534545898 -77.152786254883 -89.792716979980 0.880815923214
-85.689514160156 -77.069168090820 -83.607208251953 1.055168271065
-84.782112121582 -81.791267395020 -85.229049682617 1.900516510010
94.126892089844 -78.300102233887 -92.218544006348 1.494980096817
-53.041019439697 -74.268852233887 -92.642158508301 2.476882934570
88.238464355469 -82.627311706543 -97.776397705078 6.264257431030
88.384056091309 -81.365051269531 -103.364089965820 8.173449516296
90.688606262207 -76.503417968750 -99.554412841797 2.120394468307
57.469394683838 -79.406562805176 -107.237335205078 5.723817348480
-77.475257873535 -72.448760986328 -105.461944580078 4.304173946381
51.724372863770 -78.745826721191 -112.896446228027 2.919868469238
49.650028228760 -74.760902404785 -118.099708557129 3.373788833618
50.611953735352 -81.143798828125 -121.714332580566 6.224721431732
42.065101623535 -78.991943359375 -123.066490173340 1.810721755028
27.230461120605 -76.202339172363 -123.405288696289 2.280305385590
31.969516754150 -75.706245422363 -131.804290771484 2.557539224625
29.973899841309 -75.650192260742 -135.554321289063 1.750244975090
26.672872543335 -76.630432128906 -145.222991943359 1.813926815987
34.847705841064 -77.515861511230 -145.427917480469 1.761362433434
116.702346801758 -70.408004760742 -146.519668579102 1.809486865997
24.787698745728 -79.290275573730 -143.763259887695 2.786418676376
116.129203796387 -79.307518005371 -148.048736572266 4.651670932770
-51.973930358887 -74.346130371094 -135.849151611328 1.634744524956
-53.605674743652 -76.482711791992 -140.908660888672 2.011654138565
115.949760437012 -77.631019592285 -153.514495849609 1.568023443222
112.326812744141 -74.812049865723 -156.971786499023 1.439644813538
25.544635772705 -74.090660095215 -155.066238403320 1.820397734642
-53.483879089355 -77.402351379395 -151.539199829102 2.746764659882
-48.621238708496 -76.897048950195 -148.606384277344 2.050547122955
34.843177795410 -76.551391601563 -154.536834716797 2.116077661514
31.814270019531 -73.742805480957 -158.663604736328 1.292088627815
28.840690612793 -75.188941955566 -160.821685791016 2.672519683838
25.991300582886 -75.271324157715 -156.460754394531 2.980816364288
-45.497005462646 -70.911727905273 -159.002548217773 3.220143795013
22.501668930054 -79.661994934082 -155.644973754883 2.807911634445
-1.779760956764 -74.156372070313 -154.523452758789 7.112811565399
-5.106276035309 -77.241073608398 -165.009338378906 2.208866119385
7.316203117371 -74.345069885254 -162.713577270508 1.759352684021
22.584684371948 -76.552452087402 -171.251968383789 1.432363390923
-32.422447204590 -76.081665039063 -167.789947509766 1.568240046501
26.755657196045 -78.428726196289 -171.899658203125 1.655297994614
110.235939025879 -75.663520812988 -170.391296386719 1.623427033424
19.873624801636 -77.025032043457 -176.158035278320 1.562389135361
-9.172858238220 -77.148750305176 -172.266754150391 2.678807735443
-30.972558975220 -76.080909729004 -173.134994506836 2.730847835541
-10.676708221436 -72.566322326660 -178.480255126953 3.233824014664
19.157773971558 -79.806846618652 -176.940841674805 2.385141372681
-60.003295898438 -73.063354492188 -175.207641601563 1.140974998474
-58.661670684814 -79.181442260742 -176.345489501953 1.372854709625
17.984836578369 -78.884918212891 -181.427841186523 1.036954522133
110.236663818359 -80.218955993652 -188.040725708008 3.845981359482
12.076444625854 -77.491233825684 -181.927658081055 3.943495512009
17.106393814087 -78.157981872559 -183.241409301758 1.574469447136
106.485198974609 -74.425285339355 -185.985412597656 2.573548316956
-58.198116302490 -78.313911437988 -182.781906127930 1.461061477661
31.717290878296 -77.543197631836 -192.709716796875 6.692702770233
-20.363557815552 -77.783027648926 -181.097045898438 2.661560058594
-47.335586547852 -75.977073669434 -189.939117431641 1.780630350113
-145.101028442383 -82.990356445313 -183.838272094727 3.257540941238
102.229827880859 -76.988182067871 -190.755081176758 1.742044925690
-151.347930908203 -78.691955566406 -192.435546875000 1.928111791611
21.841226577759 -80.345588684082 -199.955123901367 3.954648017883
-35.963241577148 -76.421737670898 -190.890930175781 3.865001440048
-51.053356170654 -76.569320678711 -194.778671264648 2.807627677917
-25.906005859375 -78.151519775391 -197.036560058594 1.915926456451
94.199127197266 -76.379776000977 -201.413330078125 2.632169961929
-39.672168731689 -74.859138488770 -201.065475463867 0.722186863422
3.883080959320 -77.511322021484 -206.950881958008 3.540326118469
95.355751037598 -76.471786499023 -204.630401611328 1.041140079498
8.760729789734 -78.217506408691 -208.204727172852 1.803739309311
20.454359054565 -77.325439453125 -206.200149536133 1.455576896667
-13.217188835144 -77.623878479004 -208.578063964844 2.048433303833
15.216337203979 -80.516983032227 -202.655929565430 1.959557294846
-42.432849884033 -75.683670043945 -212.207519531250 6.246071338654
-12.769465446472 -79.895538330078 -204.171295166016 2.936819791794
-21.829536437988 -75.737388610840 -208.283996582031 2.277204751968
-78.692459106445 -75.889221191406 -207.891906738281 2.714642286301
-35.275909423828 -74.273483276367 -211.355682373047 2.802917718887
7.642652034760 -80.768440246582 -208.616485595703 3.482584714890
-13.904195785522 -78.079689025879 -209.424026489258 2.876072883606
92.142791748047 -75.546722412109 -226.280059814453 5.149621486664
-12.880137443542 -73.800781250000 -218.174179077148 0.355951726437
-21.596418380737 -79.552070617676 -216.973114013672 0.629652500153
-83.221694946289 -74.643081665039 -218.692413330078 1.881457567215
-151.698562622070 -73.196472167969 -214.914840698242 2.369499921799
15.257751464844 -74.426986694336 -218.366806030273 1.810544013977
-6.992681026459 -74.192596435547 -217.048049926758 2.615461111069
-22.477777481079 -77.807830810547 -218.232376098633 1.007853388786
-15.162317276001 -78.454856872559 -217.906692504883 2.113018274307
-22.503484725952 -77.421524047852 -224.019470214844 2.111386060715
-1.169342041016 -75.019760131836 -220.492355346680 1.659916877747
-150.883514404297 -78.979713439941 -214.796066284180 2.519439458847
-21.312898635864 -77.482360839844 -227.694534301758 2.669749498367
79.066818237305 -78.721206665039 -229.555099487305 3.155642509460
-15.849655151367 -74.317970275879 -225.995101928711 0.679298222065
-7.372846126556 -80.235252380371 -229.830398559570 3.609418630600
-29.210092544556 -78.358406066895 -231.221786499023 7.029053688049
-159.375762939453 -77.488769531250 -226.093765258789 4.691818237305
76.080459594727 -79.356071472168 -237.604919433594 6.873638153076
-13.788092613220 -80.963356018066 -227.944778442383 3.796149015427
-140.842590332031 -70.594070434570 -227.981842041016 2.789579153061
-149.295501708984 -75.888389587402 -230.859054565430 1.211150884628
-141.020462036133 -80.873992919922 -226.689178466797 1.468593120575
-2.807833909988 -76.746383666992 -233.726181030273 1.073674082756
-149.726837158203 -75.840599060059 -229.302871704102 0.594815373421
2.463241100311 -73.265365600586 -235.318008422852 2.768146753311
17.740362167358 -76.598999023438 -245.157455444336 2.359989881516
-7.327071189880 -73.100738525391 -245.358047485352 1.445119142532
-51.378295898438 -68.706466674805 -241.943649291992 5.254584312439
-51.557079315186 -76.681587219238 -239.393600463867 3.528992652893
-29.758312225342 -78.090629577637 -243.428054809570 1.609961509705
-147.122528076172 -71.302726745605 -237.542205810547 3.673846006393
-41.511032104492 -76.386573791504 -242.370834350586 2.296199798584
-72.359519958496 -79.968841552734 -249.745559692383 3.838188886642
-56.428836822510 -71.646621704102 -247.482635498047 1.450263500214
-63.557415008545 -73.777732849121 -250.789703369141 1.898763418198
-76.534240722656 -77.080856323242 -248.525512695313 3.272196054459
-145.154479980469 -71.181709289551 -254.047836303711 2.324720382690
14.611810684204 -79.306114196777 -263.435272216797 2.313847064972
-133.426422119141 -75.132865905762 -258.521514892578 1.300493001938
-13.270403862000 -83.134559631348 -270.408996582031 5.039657115936
-19.058309555054 -72.700912475586 -271.448577880859 5.549969196320
14.507308959961 -76.255325317383 -278.312652587891 2.282513856888
-153.323669433594 -72.489776611328 -275.923583984375 1.926667213440
-6.404681205750 -74.965301513672 -284.535797119141 2.589160919189
-160.190017700195 -75.745353698730 -277.292999267578 2.198188304901
-138.322250366211 -77.844810485840 -288.314422607422 1.421561241150
-32.623046875000 -74.171936035156 -287.120025634766 1.536049485207
-141.569351196289 -78.381179809570 -286.937408447266 1.431781291962
-70.309669494629 -78.213531494141 -286.005798339844 2.180272579193
-142.605850219727 -74.236518859863 -282.691253662109 2.397773027420
4.149607181549 -75.586280822754 -292.898101806641 1.328905820847
-126.134010314941 -77.501335144043 -291.277587890625 0.716992318630
-68.860671997070 -77.761482238770 -287.110748291016 1.156112432480
-146.902786254883 -76.046302795410 -288.079437255859 1.788952946663
-62.478836059570 -75.465316772461 -288.712127685547 2.624854087830
-38.300514221191 -75.254432678223 -286.080139160156 1.049481868744
-9.708586692810 -76.571266174316 -291.863891601563 2.397684097290
-148.120330810547 -73.337852478027 -296.781219482422 2.418323040009
-164.551116943359 -72.292922973633 -290.689086914063 1.566823482513
-157.323333740234 -75.361427307129 -290.499237060547 1.677267909050
-149.911590576172 -77.266853332520 -297.223327636719 1.712223410606
-147.406890869141 -72.859420776367 -299.905792236328 1.680950284004
-39.766967773438 -72.764488220215 -57.577239990234 1.135626912117
-57.650379180908 -71.575309753418 -56.252075195313 3.801972866058
-58.145744323730 -76.581558227539 -57.535179138184 0.979355871677
-40.055061340332 -77.956039428711 -61.386573791504 1.299401760101
-31.129047393799 -76.909904479980 -62.622741699219 3.983273506165
-30.040689468384 -73.459640502930 -58.597381591797 3.092591524124
-24.633193969727 -75.077644348145 -64.682067871094 2.091906309128
