23.647527694702 -74.910728454590 -145.469848632813 1.219671487808
-48.419113159180 -82.590431213379 -156.240142822266 3.158185243607
30.554403305054 -78.210159301758 -142.098312377930 1.634900808334
24.627101898193 -82.004402160645 -156.123992919922 2.710476875305
-42.311542510986 -81.578292846680 -151.114227294922 2.203798770905
26.255804061890 -78.947860717773 -154.782791137695 0.752961337566
-48.778778076172 -75.901763916016 -159.593170166016 1.693791985512
25.402854919434 -78.939414978027 -165.885757446289 2.066216945648
-61.508018493652 -80.722763061523 -170.053329467773 1.718174576759
-3.866352319717 -82.502265930176 -173.003997802734 3.398075103760
-32.781181335449 -78.553092956543 -173.208618164063 2.093941688538
-8.788824081421 -80.812850952148 -171.666534423828 1.184546351433
-57.668540954590 -79.307113647461 -175.601974487305 1.853749394417
23.742280960083 -81.956207275391 -172.032409667969 2.920541048050
-13.552241325378 -77.430183410645 -184.486694335938 2.207094907761
-24.219821929932 -73.893615722656 -186.834289550781 0.938361704350
-52.171264648438 -75.780632019043 -183.004898071289 1.479588627815
-29.696073532104 -80.465789794922 -186.929168701172 2.047430753708
16.804992675781 -82.413444519043 -191.462036132813 2.445834159851
-148.798812866211 -82.973297119141 -188.243255615234 0.912139773369
-29.903209686279 -80.015457153320 -189.026260375977 0.629787087440
-49.559616088867 -76.264579772949 -189.537078857422 1.518960714340
-150.771240234375 -84.148651123047 -189.595046997070 3.336540460587
-142.505447387695 -81.140136718750 -196.430023193359 1.602778911591
-24.463693618774 -79.438926696777 -197.499313354492 1.778060793877
-23.377403259277 -80.028144836426 -194.886428833008 1.275503993034
-45.530151367188 -78.189094543457 -194.906524658203 0.886791229248
-18.806430816650 -81.777030944824 -194.875900268555 2.442469596863
-48.259418487549 -79.667037963867 -198.078964233398 1.796134352684
-47.269886016846 -80.208992004395 -196.969711303711 0.610546171665
-53.957614898682 -82.325675964355 -199.959655761719 1.945064425468
-19.918367385864 -75.561103820801 -206.216049194336 1.736570000648
-145.171264648438 -80.581756591797 -216.291137695313 1.403198599815
-58.889648437500 -77.674629211426 -209.718032836914 0.843834221363
-59.715507507324 -76.184890747070 -210.018356323242 2.475690126419
-33.468425750732 -72.591003417969 -208.168136596680 1.293064951897
-12.075127601624 -75.910881042480 -206.792755126953 1.359624028206
-34.686927795410 -77.294845581055 -209.605865478516 1.716838002205
-80.581520080566 -79.229301452637 -209.580627441406 1.870298027992
-144.067474365234 -86.617874145508 -209.691589355469 3.891421079636
-33.470848083496 -80.896179199219 -209.082931518555 2.487265348434
5.745273590088 -83.006683349609 -208.555801391602 5.478589534760
-67.542472839355 -82.296463012695 -212.024261474609 1.850049614906
-64.281608581543 -79.032890319824 -214.705032348633 3.612855672836
-25.516792297363 -74.485839843750 -214.451416015625 2.088587999344
-9.707521438599 -86.987510681152 -212.780975341797 5.888452053070
-27.362293243408 -82.070213317871 -216.673538208008 2.680494070053
19.057926177979 -78.733703613281 -215.193527221680 2.507126808167
-151.174530029297 -75.385017395020 -218.906616210938 2.975564956665
-11.886226654053 -86.032997131348 -219.056030273438 4.098434925079
-157.654647827148 -82.727622985840 -226.540893554688 5.069902420044
7.299592494965 -80.849395751953 -230.631134033203 3.188353538513
12.749484062195 -75.052688598633 -226.461975097656 3.487992525101
-1.371589422226 -79.229461669922 -222.502792358398 1.661860942841
15.788845062256 -80.493782043457 -228.682449340820 1.216470718384
-139.538284301758 -86.245544433594 -234.584579467773 4.871290206909
11.604590415955 -80.686828613281 -227.307540893555 1.198492407799
-154.099243164063 -78.185295104980 -228.767318725586 1.818910598755
-145.371810913086 -81.257255554199 -234.307006835938 0.898801028728
-0.622018158436 -80.992797851563 -221.357208251953 0.968136668205
18.668382644653 -83.434867858887 -233.409515380859 3.028304815292
-31.029926300049 -76.273490905762 -238.288299560547 2.102649927139
-145.845260620117 -80.598159790039 -239.489715576172 0.511386752129
-36.723144531250 -78.510261535645 -244.611892700195 2.666002511978
-46.610889434814 -78.014869689941 -240.909179687500 1.505988955498
-36.883129119873 -77.243370056152 -240.193359375000 1.120962023735
19.676023483276 -80.325111389160 -243.843490600586 1.579751729965
-50.062435150146 -73.879852294922 -246.649688720703 0.790237903595
17.489568710327 -80.138977050781 -245.430206298828 2.416022300720
13.286449432373 -76.878349304199 -240.361450195313 2.686548233032
9.352151870728 -81.443717956543 -249.571014404297 1.766223788261
-39.625308990479 -83.847755432129 -246.915557861328 4.034990310669
24.440488815308 -82.411933898926 -246.677307128906 4.117471694946
-142.984100341797 -80.886421203613 -247.333129882813 2.149653673172
20.542665481567 -77.245040893555 -250.959167480469 3.322893381119
0.309227049351 -84.637023925781 -249.504302978516 2.526539087296
10.250045776367 -79.463119506836 -241.390213012695 1.729196548462
-150.201309204102 -75.512321472168 -254.637054443359 2.709692716599
-146.620513916016 -85.004364013672 -258.210876464844 0.277757287025
-141.812652587891 -81.442131042480 -257.506317138672 0.992710292339
-152.031677246094 -80.371086120605 -260.159240722656 1.948408484459
15.545612335205 -74.722473144531 -263.524291992188 4.244244575500
-154.756591796875 -75.939414978027 -272.499298095703 3.474261045456
-6.738932132721 -80.524253845215 -274.244201660156 2.277574062347
-151.843627929688 -82.961822509766 -267.798156738281 2.396721839905
-144.156326293945 -78.618820190430 -281.887817382813 1.825688362122
-153.980316162109 -76.719779968262 -275.859466552734 3.193951368332
-153.720535278320 -83.667655944824 -284.536315917969 0.847449719906
-130.718307495117 -83.971107482910 -289.307922363281 5.311006069183
-153.423568725586 -81.591979980469 -289.499145507813 2.315398693085
-146.089279174805 -84.490318298340 -291.155395507813 1.719239234924
-146.948471069336 -81.362319946289 -290.048522949219 1.061513781548
-153.230407714844 -83.363456726074 -296.689392089844 2.698375940323
-145.107055664063 -77.995254516602 -292.415954589844 2.086468696594
-152.506500244141 -81.117248535156 -301.474639892578 1.370851159096
-147.262207031250 -82.446708679199 -303.666625976563 3.321590185165
-147.281936645508 -76.574470520020 -306.137268066406 2.208054542542
-56.631103515625 -69.420303344727 -61.635978698730 6.915292739868
-64.463081359863 -76.855117797852 -64.541442871094 4.104579448700
-47.100135803223 -77.213882446289 -61.622032165527 2.485750675201
-24.542617797852 -79.105537414551 -76.043083190918 2.429191350937
-51.906303405762 -81.399688720703 -88.322181701660 2.287661314011
-88.204994201660 -86.235038757324 -97.966400146484 6.245482921600
41.803123474121 -78.467643737793 -107.111854553223 2.328668832779
-74.554313659668 -80.540084838867 -100.424110412598 2.375536203384
44.336643218994 -80.807777404785 -114.080245971680 2.153068065643
41.549270629883 -77.897697448730 -122.928199768066 2.266171932220
41.155372619629 -78.688217163086 -124.130317687988 1.380554914474
35.784332275391 -78.775512695313 -135.081039428711 1.289426684380
31.963056564331 -76.387886047363 -134.629592895508 2.366078138351
33.843257904053 -85.606620788574 -135.026000976563 3.474563837051
32.292945861816 -75.212783813477 -150.778152465820 1.665760397911
-45.441181182861 -74.276924133301 -150.248764038086 0.720801889896
29.483837127686 -80.463333129883 -140.004043579102 1.172762274742
-66.341094970703 -74.297462463379 -153.367202758789 0.682012498379
-35.799541473389 -81.197906494141 -152.869857788086 3.692644596100
-61.161514282227 -80.669090270996 -163.466278076172 1.507442712784
-39.062007904053 -80.277755737305 -158.606079101563 3.096402168274
31.638574600220 -79.237342834473 -157.443237304688 2.586204767227
-35.805961608887 -84.918571472168 -157.982376098633 3.584584236145
-1.024856925011 -79.410766601563 -174.290359497070 4.515997886658
34.497184753418 -72.448463439941 -165.055908203125 3.328186273575
-10.236091613770 -79.236770629883 -171.221343994141 1.103885650635
-58.503643035889 -78.592559814453 -163.148040771484 2.535757064819
-37.292465209961 -75.144744873047 -170.534133911133 1.492148637772
-32.171665191650 -75.377952575684 -174.298950195313 3.572108268738
24.061653137207 -80.339660644531 -177.428207397461 3.057913780212
-53.294956207275 -80.143974304199 -176.562973022461 0.597318947315
-27.645765304565 -73.954788208008 -175.231307983398 2.646325826645
22.544322967529 -78.068557739258 -185.208724975586 2.310370683670
-51.466545104980 -80.038406372070 -185.877853393555 1.161400914192
-24.793395996094 -72.950675964355 -180.934951782227 1.535011410713
-54.448238372803 -75.587890625000 -184.812057495117 1.932790279388
-41.076320648193 -77.894660949707 -195.438034057617 0.422281771898
-29.111627578735 -77.087570190430 -189.895675659180 1.630766630173
-41.149402618408 -80.698677062988 -196.086517333984 1.789139270782
-22.700887680054 -78.111389160156 -192.552978515625 1.288325071335
-137.730529785156 -80.672828674316 -197.219055175781 1.834355592728
20.995813369751 -78.292778015137 -201.190811157227 2.188705921173
-133.385101318359 -77.603393554688 -199.459960937500 2.693752050400
-20.686470031738 -75.689750671387 -196.452163696289 1.689662933350
-20.479431152344 -75.812385559082 -197.055557250977 1.322131752968
-41.948162078857 -79.485244750977 -194.653793334961 2.116365194321
12.150835037231 -75.729209899902 -198.276824951172 2.312593221664
-16.161533355713 -81.753654479980 -198.639022827148 2.831278324127
-55.438678741455 -80.683601379395 -205.243988037109 1.884307265282
-34.563083648682 -79.020645141602 -203.924682617188 1.348910331726
-60.657253265381 -76.047874450684 -207.189834594727 2.461128950119
-68.396003723145 -77.511459350586 -211.242630004883 2.455026626587
16.956171035767 -76.605140686035 -209.727600097656 1.394048452377
-86.151222229004 -77.932510375977 -212.094299316406 1.023301601410
-28.213966369629 -79.180191040039 -215.562988281250 2.010860443115
-80.196578979492 -80.041595458984 -210.197753906250 2.027905702591
-148.977264404297 -80.887596130371 -214.107360839844 2.430077075958
-6.967945098877 -78.941535949707 -215.012054443359 3.409970283508
-6.390297412872 -77.030082702637 -218.254013061523 1.985722064972
12.848628044128 -79.512886047363 -217.458770751953 2.398475170135
12.705114364624 -72.463531494141 -226.346145629883 1.231958985329
-1.001598715782 -80.577934265137 -228.665512084961 2.233103513718
-141.917572021484 -78.367942810059 -220.280654907227 3.454231739044
-149.393676757813 -84.441284179688 -234.816802978516 0.671216130257
-153.475204467773 -76.813110351563 -233.259811401367 2.313673019409
1.660541057587 -81.585189819336 -236.617218017578 2.542603969574
2.688520908356 -77.193161010742 -237.478408813477 1.158842325211
-23.727399826050 -83.961929321289 -242.628112792969 5.177347183228
-150.387054443359 -77.578102111816 -238.975418090820 2.400422573090
10.341947555542 -80.359405517578 -243.591201782227 1.579520225525
-22.840192794800 -73.394264221191 -241.711349487305 1.599405407906
19.260694503784 -78.531227111816 -236.272689819336 2.747078895569
-52.673034667969 -77.983375549316 -243.718032836914 1.746963024139
-50.238647460938 -79.338157653809 -249.838195800781 3.346766948700
-146.592269897461 -85.543418884277 -245.845718383789 1.703461289406
-61.862434387207 -80.398483276367 -248.534454345703 3.460248947144
-2.492269754410 -78.570335388184 -246.465606689453 2.754627466202
-10.124547004700 -76.354522705078 -254.722076416016 2.380974769592
-146.914031982422 -84.562988281250 -259.179412841797 1.147884607315
-131.802536010742 -78.167274475098 -256.460601806641 2.808858871460
-135.227890014648 -77.821708679199 -257.946075439453 0.832083344460
17.430335998535 -77.879493713379 -258.460937500000 3.070262432098
-145.530548095703 -81.711662292480 -272.264129638672 1.425413489342
18.157833099365 -80.009773254395 -266.577789306641 1.666273951530
-144.270874023438 -78.236061096191 -275.023223876953 2.403280496597
3.086892366409 -81.472427368164 -277.502838134766 1.338477015495
-141.888854980469 -80.972290039063 -282.172393798828 3.141223430634
-0.560488998890 -81.914482116699 -283.480255126953 2.439717531204
-152.853149414063 -77.986785888672 -284.444091796875 1.905342817307
-143.584854125977 -77.167633056641 -283.418395996094 1.406080722809
-136.169998168945 -84.393722534180 -286.377716064453 1.596115827560
-149.207397460938 -83.235809326172 -294.266540527344 2.800558328629
-20.622621536255 -77.150672912598 -290.426208496094 1.400609493256
-151.140747070313 -79.554412841797 -292.152648925781 3.357796907425
-146.920532226563 -83.939994812012 -295.332885742188 2.321747541428
-151.400039672852 -79.439666748047 -307.913909912109 2.255702495575
-55.851135253906 -74.331314086914 -57.098548889160 1.066759586334
-39.133872985840 -81.833305358887 -63.075332641602 3.898081541061
-75.456077575684 -80.023757934570 -67.924560546875 2.684483528137
-30.575986862183 -74.899078369141 -67.063461303711 3.230207443237
-26.757675170898 -78.010589599609 -71.001152038574 2.488359928131
-86.449790954590 -78.185478210449 -79.537338256836 2.878001689911
85.478630065918 -78.491401672363 -84.686248779297 1.616337895393
-34.871921539307 -74.647857666016 -85.512046813965 4.688241481781
82.450523376465 -80.514038085938 -86.123649597168 2.458575487137
79.091697692871 -77.096191406250 -88.919868469238 2.842564105988
85.340347290039 -76.281211853027 -86.396697998047 2.813283205032
85.924865722656 -74.229362487793 -91.132438659668 3.971416234970
90.407348632813 -75.419212341309 -94.455833435059 1.695914030075
-90.779212951660 -73.995491027832 -93.842247009277 3.444619894028
56.087055206299 -76.955795288086 -105.497665405273 2.065183401108
-96.058883666992 -67.037292480469 -112.140457153320 3.415115833282
46.960411071777 -79.430831909180 -107.831741333008 3.043905735016
50.407493591309 -77.651985168457 -113.233840942383 3.071320772171
39.065696716309 -75.904907226563 -114.685935974121 0.987949728966
34.279762268066 -77.427299499512 -137.517990112305 2.123413324356
27.224462509155 -76.315124511719 -140.867935180664 2.129100084305
22.280586242676 -70.056236267090 -143.847930908203 3.124842882156
32.956970214844 -73.056060791016 -143.034286499023 1.592981457710
-46.146087646484 -80.046066284180 -153.841232299805 0.977311968803
-48.668109893799 -78.657539367676 -151.084014892578 2.573819637299
-40.514335632324 -76.457672119141 -157.922958374023 2.625238656998
23.668653488159 -74.787384033203 -154.214599609375 1.692265033722
30.117113113403 -75.854293823242 -168.049865722656 2.247643232346
-32.886047363281 -73.920547485352 -168.908355712891 3.099941253662
-35.054141998291 -72.364341735840 -158.993118286133 2.581756114960
-45.421253204346 -79.707641601563 -159.071395874023 2.895992755890
2.210390806198 -74.305259704590 -163.421844482422 1.584174156189
25.142671585083 -77.695083618164 -151.270263671875 1.727787733078
33.429294586182 -73.105674743652 -159.631774902344 2.108863115311
29.453306198120 -74.948028564453 -170.416519165039 2.190001964569
-5.886348247528 -76.550071716309 -172.495651245117 1.640324711800
-4.172711372375 -77.959945678711 -170.375885009766 1.161566376686
-57.866516113281 -75.558837890625 -166.717681884766 1.284306645393
-60.441463470459 -76.921875000000 -170.966705322266 0.871533393860
-43.401416778564 -78.708229064941 -169.551300048828 1.892743825912
-37.631568908691 -75.446243286133 -167.518264770508 2.722290039063
22.065504074097 -72.096214294434 -171.384384155273 3.061049938202
-22.577472686768 -81.620948791504 -178.140563964844 3.594758272171
-30.056669235229 -74.343185424805 -181.429397583008 3.368948698044
-62.135005950928 -80.999588012695 -179.123001098633 4.155958652496
98.561317443848 -77.900581359863 -182.081954956055 4.946953773499
21.541849136353 -80.464508056641 -175.158538818359 1.471925020218
-25.446002960205 -77.031562805176 -179.789932250977 1.555211663246
-51.162143707275 -77.316238403320 -178.333404541016 1.684242844582
-21.012025833130 -73.802719116211 -180.607559204102 0.772591173649
112.970985412598 -76.482551574707 -181.858276367188 1.942427158356
-55.122058868408 -79.613090515137 -184.848022460938 2.586608648300
12.964695930481 -78.989685058594 -190.108276367188 2.474635362625
18.254941940308 -76.842597961426 -178.690917968750 1.815492153168
-55.580947875977 -82.787925720215 -176.974792480469 2.743164300919
-24.180465698242 -75.780838012695 -182.490570068359 2.455331563950
-55.532844543457 -80.735969543457 -177.076797485352 2.190698146820
-36.017395019531 -78.918609619141 -177.351303100586 1.397441625595
-28.596082687378 -77.220024108887 -187.354507446289 1.082011222839
20.165782928467 -77.409957885742 -188.486526489258 1.503362417221
-47.876647949219 -79.021514892578 -188.342437744141 2.105267047882
103.932830810547 -75.447982788086 -190.308486938477 0.225749611855
-50.528518676758 -73.901977539063 -189.363281250000 2.741388559341
7.348898410797 -76.511863708496 -202.714279174805 2.034810304642
21.234907150269 -75.830467224121 -198.475601196289 2.583266973495
-49.068679809570 -77.454452514648 -191.410522460938 1.699225902557
-16.190343856812 -78.079566955566 -189.177276611328 3.010433673859
100.182289123535 -76.201988220215 -194.998092651367 2.657171010971
96.755088806152 -80.438751220703 -195.316467285156 5.260266304016
-49.477508544922 -76.115119934082 -186.887802124023 1.692432403564
-149.193511962891 -84.613693237305 -199.405151367188 2.659902811050
-45.228237152100 -77.188285827637 -196.158493041992 1.264272570610
-144.653549194336 -79.348754882813 -196.869232177734 1.883536934853
-134.881683349609 -74.112716674805 -197.424789428711 1.152633070946
-46.220741271973 -80.329833984375 -196.029266357422 1.248785853386
10.176730155945 -78.931045532227 -207.104476928711 0.855887472630
-15.705055236816 -74.663619995117 -204.867721557617 2.049098014832
16.315526962280 -74.466674804688 -201.143630981445 1.053450822830
91.942337036133 -80.505500793457 -212.801605224609 3.466986894608
-34.772678375244 -75.663581848145 -202.234985351563 2.421041250229
-13.889651298523 -75.332054138184 -203.871810913086 2.106896400452
-15.833362579346 -75.003479003906 -213.857086181641 1.190966606140
-35.008460998535 -76.333999633789 -204.296310424805 1.461151361465
6.585539340973 -77.308616638184 -206.204833984375 2.172019481659
-79.047767639160 -78.851699829102 -210.490829467773 0.677548468113
16.542461395264 -78.097656250000 -214.644195556641 1.379207253456
-34.884700775146 -76.452423095703 -205.601272583008 0.327174872160
-144.930999755859 -82.261505126953 -206.929061889648 2.784526824951
-141.550186157227 -74.355865478516 -210.015289306641 4.395227432251
-87.995353698730 -78.474670410156 -212.637863159180 1.183391332626
-34.778800964355 -75.196372985840 -209.161071777344 2.542826890945
-14.550071716309 -82.277297973633 -212.231323242188 3.223631620407
-33.050243377686 -78.460861206055 -206.003433227539 1.625602722168
-90.675750732422 -80.372085571289 -216.835449218750 3.230080842972
-86.757087707520 -79.674148559570 -213.443908691406 1.754379272461
6.605202674866 -82.791618347168 -220.550125122070 2.432720661163
-149.448760986328 -72.913726806641 -212.735427856445 1.968808889389
-14.389001846313 -81.171302795410 -212.460067749023 2.153758525848
9.330093383789 -83.827934265137 -218.768798828125 2.785988807678
-144.205047607422 -76.931381225586 -219.707885742188 3.225971698761
-22.872327804565 -79.087570190430 -215.879562377930 1.432559609413
1.097258567810 -73.124084472656 -219.839889526367 2.762280941010
-8.036252975464 -78.401512145996 -219.584365844727 1.691722869873
-152.431320190430 -74.388656616211 -223.084457397461 3.193883180618
-139.859268188477 -68.582572937012 -226.082458496094 1.658936262131
-4.079796314240 -77.660659790039 -225.563903808594 1.217921495438
-148.161666870117 -83.739219665527 -226.558746337891 0.849337637424
1.124042749405 -72.706382751465 -229.356842041016 2.516570806503
17.753097534180 -76.435180664063 -235.432479858398 1.793841481209
-1.934426307678 -79.920715332031 -229.714523315430 2.451846837997
-1.742015600204 -71.785766601563 -232.533309936523 1.852680921555
8.658967018127 -75.886856079102 -231.672760009766 1.111974835396
-152.198547363281 -79.114234924316 -239.064407348633 2.460478067398
-19.627206802368 -75.075408935547 -233.604751586914 4.627237319946
-34.443946838379 -79.855796813965 -238.564025878906 1.603098034859
1.845596075058 -75.828956604004 -234.546951293945 2.023880720139
3.183020114899 -82.463531494141 -242.526016235352 4.656456947327
1.776339769363 -75.664009094238 -233.165252685547 2.657800197601
-58.193264007568 -77.066497802734 -242.097747802734 2.361218214035
-148.773696899414 -74.741828918457 -248.726806640625 2.994093418121
-153.095123291016 -78.435127258301 -247.148986816406 1.777757406235
11.870771408081 -79.137504577637 -246.992095947266 1.879783034325
25.338369369507 -79.336906433105 -246.187469482422 2.713217973709
-61.196315765381 -74.705581665039 -247.167510986328 1.594840168953
-142.271408081055 -82.855690002441 -251.907135009766 3.320962429047
-153.274414062500 -81.848480224609 -254.229522705078 1.589087009430
-153.810302734375 -82.670646667480 -256.649078369141 1.484769105911
-142.937042236328 -75.439750671387 -261.834686279297 1.450795769691
-141.505722045898 -79.160202026367 -256.214294433594 2.564927577972
-6.983748435974 -79.196823120117 -256.035614013672 1.695638656616
-145.379180908203 -79.794692993164 -261.865661621094 2.903913259506
-14.179287910461 -78.542861938477 -267.760589599609 3.316387891769
-147.514617919922 -77.077850341797 -271.581146240234 1.403545737267
-147.923858642578 -77.930427551270 -282.003417968750 1.678231596947
-148.240997314453 -76.630180358887 -283.762573242188 0.917515456676
-3.625664472580 -72.880187988281 -285.033081054688 1.919937014580
-148.213592529297 -74.149421691895 -282.852661132813 2.266616821289
-25.756895065308 -79.112762451172 -286.031433105469 3.506342649460
-26.286581039429 -74.786811828613 -285.064758300781 1.326710104942
-13.714982986450 -74.868057250977 -293.404815673828 1.748403787613
-14.066594123840 -74.487060546875 -292.646148681641 1.698954582214
12.106530189514 -79.909355163574 -291.032501220703 2.728597640991
-124.945678710938 -80.065391540527 -289.801391601563 2.802223205566
-61.465091705322 -78.192207336426 -286.929077148438 3.900123834610
-41.700187683105 -74.621437072754 -290.115875244141 1.926161050797
-33.136596679688 -78.304412841797 -287.504241943359 1.083417534828
-8.609345436096 -75.395133972168 -293.612335205078 1.522350430489
5.621818065643 -78.452239990234 -287.778991699219 1.889799594879
-141.719482421875 -79.073303222656 -297.436401367188 4.849122524261
10.840457916260 -77.855003356934 -295.569915771484 2.925000190735
-153.538208007813 -75.811820983887 -302.357177734375 1.424318790436
-153.862747192383 -82.753547668457 -300.961639404297 1.604634165764
-153.373184204102 -74.409591674805 -311.974182128906 2.112138748169
-142.969573974609 -77.444519042969 -309.282684326172 3.791000604630
-50.649269104004 -75.772224426270 -50.309814453125 4.674870967865
-53.727535247803 -79.864646911621 -56.004203796387 3.108346700668
-67.190780639648 -74.149360656738 -54.493209838867 1.537335276604
-40.200321197510 -73.906013488770 -62.087051391602 2.584268331528
-35.463020324707 -76.160743713379 -59.142410278320 2.230039119720
-19.038114547729 -75.036697387695 -70.047363281250 1.835862636566
-81.298522949219 -73.404312133789 -68.975349426270 3.691201210022
85.429374694824 -75.966354370117 -78.260444641113 2.229125022888
-90.525909423828 -74.524528503418 -73.840278625488 1.691628336906
80.760070800781 -73.384750366211 -77.266326904297 1.908196330070
88.335273742676 -70.901023864746 -84.197059631348 5.619256496429
97.945167541504 -72.447708129883 -89.594161987305 1.342926979065
-60.739776611328 -79.167442321777 -96.064407348633 2.371171236038
82.438751220703 -76.862602233887 -96.278671264648 2.194233179092
77.036651611328 -79.961601257324 -90.812469482422 3.853461265564
86.732719421387 -75.391342163086 -90.270164489746 3.366314649582
-58.929637908936 -76.614685058594 -97.208496093750 4.741366863251
49.148056030273 -73.606933593750 -97.896926879883 1.186659932137
46.026885986328 -75.031326293945 -106.390289306641 2.054136753082
39.969722747803 -76.553497314453 -103.459289550781 2.756879329681
36.383209228516 -76.140190124512 -101.788238525391 5.561345577240
-91.695983886719 -72.183631896973 -103.847015380859 1.979235291481
35.732921600342 -74.024307250977 -117.134292602539 0.985528171062
-84.583641052246 -76.716651916504 -107.012718200684 3.451057434082
40.696395874023 -77.128028869629 -126.980812072754 0.413432389498
33.028556823730 -76.784461975098 -120.604545593262 2.152706146240
34.377799987793 -68.221908569336 -121.304420471191 2.209172248840
44.749099731445 -73.630706787109 -117.315620422363 1.204599499702
41.692062377930 -78.560264587402 -128.002761840820 2.425253868103
-51.086044311523 -70.015975952148 -134.848419189453 1.257151365280
37.896404266357 -80.059913635254 -133.961425781250 2.519170522690
35.996150970459 -75.465972900391 -143.855316162109 2.441667318344
-55.379917144775 -74.073997497559 -143.409255981445 2.379393577576
-44.709774017334 -76.411155700684 -139.876129150391 1.565659403801
35.309471130371 -74.310111999512 -142.321228027344 3.518334150314
110.760299682617 -70.531547546387 -140.544311523438 1.526046633720
112.680992126465 -71.639739990234 -146.130981445313 2.368656873703
26.828062057495 -77.273361206055 -141.331741333008 1.834239006042
-39.919345855713 -78.903396606445 -149.306427001953 1.493600249290
117.017417907715 -82.028732299805 -152.403045654297 4.993319034576
-37.084884643555 -74.086830139160 -152.288803100586 2.498181343079
-67.518035888672 -75.441452026367 -161.862991333008 0.291515558958
110.959167480469 -79.697830200195 -155.770996093750 3.031450748444
22.997690200806 -76.890419006348 -165.889114379883 2.093341827393
1.252177238464 -76.802406311035 -162.474441528320 1.377960920334
111.556304931641 -75.406204223633 -152.588867187500 1.194168925285
-63.873935699463 -75.828964233398 -165.814163208008 1.710903882980
-38.330463409424 -77.289756774902 -165.006927490234 2.215458393097
111.834121704102 -76.175613403320 -164.690246582031 1.871788501740
27.985683441162 -70.690963745117 -158.299087524414 1.773584365845
-61.531635284424 -69.850479125977 -164.191665649414 0.928764641285
113.023361206055 -75.691574096680 -165.708038330078 3.281288385391
-65.092140197754 -77.866310119629 -168.523666381836 2.266460180283
-48.661857604980 -79.161888122559 -181.828292846680 1.343614459038
106.513793945313 -74.681274414063 -171.085922241211 1.361662626266
-59.273281097412 -74.630981445313 -171.840744018555 0.747935175896
112.841400146484 -74.336074829102 -177.574569702148 1.347425818443
-60.937282562256 -75.364448547363 -175.909332275391 2.419607639313
-15.478863716125 -73.481239318848 -177.164733886719 3.720513582230
-9.658056259155 -81.270935058594 -181.986495971680 4.294724941254
108.083106994629 -77.235328674316 -166.616958618164 2.338339328766
21.820117950439 -77.093490600586 -171.070419311523 0.508238136768
30.924037933350 -70.990524291992 -168.972717285156 3.203856706619
-57.593704223633 -75.259094238281 -177.109771728516 1.087103843689
17.835748672485 -73.932327270508 -181.512359619141 1.959743857384
-57.180755615234 -76.874237060547 -174.459747314453 1.493536353111
-52.014373779297 -74.695144653320 -193.302841186523 2.839023113251
11.353582382202 -73.548095703125 -184.476486206055 1.453837633133
-55.750328063965 -71.477622985840 -179.182144165039 3.018726110458
106.611900329590 -72.853652954102 -188.175186157227 2.386660099030
26.166603088379 -78.598922729492 -181.615386962891 1.511448860168
-34.655727386475 -73.678627014160 -187.948791503906 2.735319375992
-42.670951843262 -78.592201232910 -189.578430175781 1.749778866768
11.612687110901 -78.056327819824 -191.371490478516 2.922976493835
-19.357324600220 -77.276321411133 -187.822738647461 1.718825697899
-47.281978607178 -77.692260742188 -195.099594116211 1.183863639832
102.323013305664 -79.414726257324 -182.493835449219 2.026416301727
10.279173851013 -79.387496948242 -189.988311767578 4.641374588013
-132.221618652344 -82.744682312012 -199.593612670898 3.131991386414
-48.041843414307 -78.503768920898 -195.099197387695 1.957363009453
95.008193969727 -74.630477905273 -198.540878295898 1.867267370224
-149.189102172852 -82.901794433594 -202.073928833008 1.839002966881
18.670341491699 -76.390701293945 -199.755813598633 1.476518154144
-43.025650024414 -73.162223815918 -205.660858154297 3.821605205536
-29.895713806152 -79.290290832520 -206.663879394531 1.461062073708
-36.886779785156 -77.345634460449 -201.270431518555 1.868236303329
-45.223163604736 -82.447547912598 -197.591079711914 1.740574359894
100.989860534668 -75.350067138672 -204.281982421875 1.257750749588
-20.740633010864 -80.118309020996 -199.963043212891 1.469039082527
-149.928451538086 -77.015678405762 -200.815368652344 2.312402009964
16.181266784668 -78.487693786621 -201.451934814453 1.509680032730
-76.817588806152 -80.978302001953 -205.400085449219 1.773119449615
-143.825378417969 -74.814735412598 -213.358901977539 1.560895681381
94.315498352051 -77.895217895508 -213.272262573242 2.705259084702
-32.678604125977 -74.819679260254 -206.724914550781 1.895990729332
-28.550691604614 -76.912696838379 -210.828689575195 1.935071825981
10.140535354614 -76.712570190430 -209.700912475586 1.921844840050
-71.386947631836 -80.731857299805 -207.518402099609 2.666481256485
-26.865982055664 -84.016540527344 -205.636978149414 5.098836898804
-7.763077735901 -77.718856811523 -216.575210571289 2.625490665436
-70.060028076172 -77.760597229004 -213.698425292969 1.327928423882
-13.726731300354 -76.796539306641 -217.203018188477 1.618148565292
7.999197006226 -68.091514587402 -211.204803466797 1.960115194321
13.156337738037 -79.061027526855 -220.875198364258 1.902179241180
-151.073974609375 -78.996070861816 -217.390747070313 1.470471501350
-8.683367729187 -76.194213867188 -213.918502807617 0.938360810280
-101.137466430664 -73.123107910156 -219.778854370117 1.336322069168
-21.638608932495 -75.942764282227 -219.159317016602 1.192060470581
89.142120361328 -81.259986877441 -211.822280883789 4.160956382751
9.392868995667 -74.361305236816 -224.403076171875 1.797855377197
21.417951583862 -75.761283874512 -216.070938110352 3.954694509506
80.404319763184 -77.250907897949 -214.000946044922 3.051576852798
1.675806760788 -80.479362487793 -229.467666625977 1.477635025978
85.686767578125 -76.214424133301 -216.499832153320 1.725881099701
-20.615854263306 -72.300880432129 -224.126083374023 1.789407253265
16.725973129272 -73.018501281738 -218.144699096680 2.176557064056
-148.119644165039 -78.710517883301 -218.653381347656 2.397002458572
-25.367475509644 -77.963981628418 -225.835159301758 3.821365118027
2.264134168625 -73.828765869141 -230.443344116211 1.770374178886
-155.977569580078 -82.660980224609 -225.139205932617 3.906751155853
-137.094528198242 -80.144256591797 -227.582550048828 2.440297842026
3.655339479446 -75.961708068848 -223.184478759766 2.200031995773
-3.432208538055 -72.896293640137 -225.086410522461 2.908830881119
-136.837722778320 -73.664993286133 -228.957626342773 2.162166833878
-146.837280273438 -77.757331848145 -241.474456787109 1.463567018509
-148.468292236328 -77.942535400391 -235.416336059570 1.932023167610
-31.363687515259 -77.862350463867 -236.508941650391 2.812816143036
-141.969375610352 -80.539421081543 -242.917160034180 2.053052902222
15.970851898193 -77.767807006836 -241.075866699219 1.167421460152
6.047862052917 -76.043006896973 -244.371017456055 0.990534424782
-150.442779541016 -71.937667846680 -237.841308593750 2.350594758987
-149.266235351563 -76.969375610352 -244.490615844727 1.268655538559
-45.248832702637 -78.731277465820 -245.351898193359 2.855190992355
-31.199520111084 -77.424560546875 -246.574981689453 4.024508476257
4.523478507996 -76.447654724121 -242.399856567383 1.386693835258
-35.881343841553 -78.666992187500 -245.054458618164 2.959537982941
22.359077453613 -76.611274719238 -246.155883789063 1.482809543610
-5.531700134277 -78.973609924316 -252.294128417969 2.389371633530
-144.187362670898 -78.494789123535 -252.681365966797 2.610903978348
-9.430367469788 -81.750541687012 -252.597320556641 3.577437877655
-148.023162841797 -75.242050170898 -246.826110839844 2.054664611816
-64.987297058105 -78.968322753906 -249.864105224609 1.026009559631
-146.537414550781 -84.827606201172 -258.758087158203 0.760521590710
-127.058395385742 -77.370681762695 -257.908752441406 1.179065942764
-152.434860229492 -77.138145446777 -256.986999511719 2.937639474869
-10.201339721680 -74.128387451172 -266.979492187500 3.984498739243
-145.254058837891 -83.735740661621 -271.868194580078 1.814684271812
-148.831680297852 -78.041816711426 -268.969757080078 2.133674621582
-11.334491729736 -77.233100891113 -270.487670898438 1.486526012421
-143.949630737305 -77.901649475098 -269.808563232422 2.678573369980
-5.897218227386 -75.447715759277 -276.321319580078 1.640521526337
-45.210361480713 -76.298103332520 -283.682281494141 3.385823965073
-134.419342041016 -75.055221557617 -288.138549804688 1.923493981361
-135.083068847656 -76.983299255371 -285.555786132813 1.922265410423
-122.813880920410 -74.138153076172 -281.600494384766 3.354894399643
-51.385192871094 -76.183242797852 -285.973907470703 2.463088750839
-111.579696655273 -75.907455444336 -283.597106933594 4.410718917847
16.940839767456 -75.971641540527 -292.091461181641 1.000603199005
-56.499973297119 -75.043319702148 -288.245727539063 1.558087587357
-140.332077026367 -77.330612182617 -292.950714111328 1.890197753906
-62.753158569336 -75.775978088379 -290.169464111328 2.346172332764
-144.128311157227 -82.872703552246 -293.237854003906 1.531253218651
-115.985527038574 -74.868156433105 -290.683227539063 2.731384038925
-45.369060516357 -79.524078369141 -289.989440917969 3.616899728775
-32.953037261963 -76.898132324219 -291.222930908203 2.678174734116
-137.269210815430 -73.239913940430 -295.840972900391 2.790018320084
-13.545281410217 -71.374412536621 -282.271118164063 3.699763774872
5.281856536865 -76.152427673340 -287.053649902344 2.235281467438
7.277551651001 -74.919876098633 -290.091552734375 2.011176347733
15.899656295776 -77.538200378418 -295.132202148438 1.430867671967
-149.131988525391 -82.003395080566 -297.789520263672 1.107867240906
-144.419601440430 -75.274215698242 -293.027191162109 2.117090940475
-66.098274230957 -73.673843383789 -61.868103027344 3.422293424606
89.344100952148 -76.082221984863 -72.104103088379 1.356586456299
79.245613098145 -75.724723815918 -76.951599121094 1.620336413383
-27.429645538330 -77.728103637695 -76.113075256348 1.973362565041
84.098960876465 -72.891014099121 -74.225273132324 1.656187176704
-37.500011444092 -77.847869873047 -79.487251281738 2.348055601120
83.223342895508 -70.809417724609 -81.536499023438 4.583605289459
96.537452697754 -70.651313781738 -79.504966735840 3.195366144180
-64.160278320313 -69.293205261230 -95.596023559570 3.270416736603
73.238632202148 -75.237297058105 -93.824897766113 1.595120310783
80.412368774414 -72.524284362793 -97.233459472656 2.672358512878
97.058448791504 -77.337898254395 -94.705184936523 2.795176744461
55.770835876465 -76.608276367188 -96.594146728516 1.279812216759
-66.748420715332 -73.169494628906 -101.045471191406 3.427299976349
-73.591491699219 -71.664443969727 -100.810874938965 1.224572539330
51.064357757568 -76.925010681152 -103.131202697754 1.776800513268
-87.332603454590 -77.049774169922 -102.007873535156 3.494219064713
47.641471862793 -71.928329467773 -117.613410949707 0.855076074600
111.135757446289 -73.774101257324 -119.357063293457 1.117515563965
113.461105346680 -76.655700683594 -129.877655029297 1.057745456696
21.290382385254 -73.061882019043 -136.660629272461 4.143896579742
110.788215637207 -76.299980163574 -126.291465759277 0.808317959309
29.148126602173 -72.497451782227 -132.987655639648 2.293334960938
113.340942382813 -68.845794677734 -131.734359741211 1.782054543495
37.612091064453 -72.706939697266 -134.210815429688 2.268104791641
-55.732555389404 -75.103546142578 -140.261901855469 2.333616971970
36.729095458984 -78.719856262207 -144.789215087891 2.301022768021
109.312797546387 -72.555046081543 -134.335601806641 1.624506592751
-45.635196685791 -73.734222412109 -143.522933959961 1.741492390633
32.547260284424 -73.733100891113 -149.750686645508 1.421037435532
-56.242942810059 -70.015907287598 -140.903060913086 0.809112608433
-58.523075103760 -75.300971984863 -144.343444824219 3.302999734879
-52.024589538574 -78.598815917969 -149.697402954102 2.156523227692
-63.868904113770 -78.433036804199 -155.440322875977 1.418090581894
112.531120300293 -78.699943542480 -146.679977416992 1.130501508713
-49.292797088623 -81.839103698730 -154.933731079102 2.800534486771
23.596656799316 -79.973342895508 -155.949584960938 2.348707914352
108.351318359375 -75.479248046875 -161.586425781250 1.906993389130
-64.901405334473 -75.516456604004 -154.432922363281 1.441786050797
-43.094390869141 -76.683784484863 -156.894805908203 2.678889513016
9.508495330811 -72.792243957520 -154.036773681641 1.304298162460
-67.787109375000 -76.030479431152 -154.771652221680 2.009033918381
-63.422569274902 -78.242080688477 -158.292266845703 1.964393615723
0.838806450367 -75.424087524414 -161.949966430664 0.197577223182
-43.368217468262 -71.933341979980 -167.510314941406 1.626125454903
29.534301757813 -72.918609619141 -166.920059204102 2.443827390671
-62.687046051025 -71.773605346680 -167.878845214844 1.623474955559
-55.481544494629 -77.641510009766 -166.287597656250 2.492039442062
15.553161621094 -78.337387084961 -159.514511108398 4.743178367615
-29.743597030640 -74.411277770996 -168.123580932617 2.227202415466
-28.131614685059 -78.097808837891 -166.184432983398 1.826136112213
15.654241561890 -76.680503845215 -174.225387573242 3.474851846695
-42.906288146973 -78.486999511719 -172.577651977539 1.324630975723
-10.020133018494 -76.824058532715 -171.943801879883 2.257620573044
-64.961242675781 -72.477172851563 -171.245468139648 1.869617462158
-6.862557411194 -72.897125244141 -173.574310302734 1.022117733955
-21.194107055664 -75.705421447754 -179.410186767578 1.553764581680
22.934169769287 -72.447792053223 -183.499557495117 1.885095477104
-38.312023162842 -77.234947204590 -171.950469970703 1.312503695488
21.402894973755 -71.324501037598 -175.395996093750 2.556945085526
-22.288526535034 -71.810256958008 -185.171524047852 1.628527164459
-31.545581817627 -78.091850280762 -177.613128662109 1.993858098984
-147.670303344727 -73.618316650391 -191.795394897461 1.603045105934
-17.488529205322 -79.862892150879 -183.540130615234 3.153040170670
-140.267486572266 -74.768348693848 -189.258865356445 3.035147905350
-153.116134643555 -76.647544860840 -187.015090942383 5.049852371216
-49.040996551514 -73.949493408203 -188.224609375000 2.280961513519
98.929634094238 -74.271980285645 -194.327224731445 0.727507889271
-144.361419677734 -77.583450317383 -190.404190063477 1.662942528725
-145.937667846680 -74.512718200684 -195.584320068359 1.958444714546
23.096908569336 -73.603973388672 -195.958267211914 2.529572725296
-137.829895019531 -76.654197692871 -195.934982299805 2.483675241470
14.358060836792 -71.643592834473 -198.677520751953 2.234090805054
-137.707183837891 -79.048629760742 -199.244171142578 1.801439166069
13.714824676514 -71.598503112793 -197.213714599609 1.664546132088
-132.579132080078 -72.939208984375 -195.885269165039 1.021320462227
5.820626258850 -72.133201599121 -202.165527343750 2.753785133362
-151.207153320313 -76.405319213867 -202.428482055664 1.248939037323
95.791542053223 -74.918754577637 -205.818252563477 1.553844809532
-16.157548904419 -78.138099670410 -207.592391967773 1.452363848686
-29.908214569092 -74.589500427246 -208.319366455078 1.232443213463
-11.438722610474 -70.803421020508 -204.916976928711 1.458447694778
-145.023925781250 -80.775520324707 -210.454162597656 1.712085127831
-34.915596008301 -75.671981811523 -203.004043579102 2.389482736588
-83.356124877930 -78.090652465820 -203.530105590820 7.818308830261
-26.249797821045 -77.125015258789 -208.035842895508 2.497979640961
15.396474838257 -75.941596984863 -212.997070312500 2.300643444061
-145.916198730469 -74.315803527832 -214.771179199219 2.790312051773
-88.616157531738 -78.271141052246 -218.382858276367 1.949813961983
-28.704551696777 -74.474174499512 -218.757034301758 2.902002334595
-26.635992050171 -75.529640197754 -220.122375488281 2.892016172409
-8.109398841858 -77.216026306152 -209.059738159180 2.413013696671
-26.769025802612 -74.818969726563 -207.825836181641 2.892030239105
-83.329063415527 -76.352897644043 -221.053039550781 2.973408699036
-89.030708312988 -81.298522949219 -219.194641113281 4.712207317352
-22.344057083130 -74.997016906738 -221.146118164063 1.263774991035
-1.284996986389 -83.516166687012 -224.300231933594 3.564500570297
-155.214736938477 -78.580726623535 -216.971923828125 5.351512908936
-1.804365873337 -77.195762634277 -220.914535522461 1.083121061325
88.201515197754 -79.308967590332 -226.755279541016 4.708398818970
-138.913269042969 -79.032882690430 -222.892379760742 2.766812086105
-3.645277500153 -76.254981994629 -220.933944702148 1.639471054077
-138.813491821289 -78.095626831055 -225.466735839844 1.162104249001
-146.461868286133 -84.722015380859 -224.884140014648 1.596422195435
-5.196759223938 -74.520202636719 -227.917648315430 1.921212911606
21.962337493896 -76.404678344727 -214.296066284180 4.523037910461
-138.423675537109 -74.653091430664 -229.053665161133 2.510467052460
-17.109930038452 -77.350143432617 -227.417434692383 2.667407512665
73.017036437988 -76.171997070313 -224.950164794922 4.998757362366
75.605087280273 -75.501060485840 -233.261383056641 1.587489247322
11.074928283691 -77.592041015625 -229.570373535156 2.129152059555
-32.981071472168 -77.181556701660 -235.527160644531 2.571979045868
-22.817403793335 -83.417190551758 -241.741134643555 4.228031635284
3.518674135208 -74.008483886719 -242.756530761719 1.317565917969
-46.153877258301 -71.610954284668 -243.112106323242 3.220139026642
-20.362947463989 -73.841522216797 -242.492797851563 1.163312435150
10.817174911499 -72.593673706055 -238.623718261719 1.516106486320
-62.495643615723 -76.612213134766 -245.136444091797 1.404267787933
-35.243938446045 -80.645790100098 -243.435882568359 2.019129037857
-38.033531188965 -74.587699890137 -245.011993408203 1.952733159065
-147.336288452148 -74.435417175293 -245.612380981445 2.244518280029
-44.249870300293 -79.016838073730 -247.937469482422 3.228811740875
-51.968952178955 -68.872451782227 -246.959564208984 3.964385509491
-65.065055847168 -75.949081420898 -248.543823242188 2.473098278046
-9.794507980347 -80.021545410156 -245.653640747070 5.522341251373
-78.301498413086 -77.634765625000 -254.646881103516 1.584916830063
-155.753906250000 -82.861778259277 -253.218170166016 1.974064111710
-139.837295532227 -75.471946716309 -253.369171142578 3.077053070068
-120.845527648926 -78.202110290527 -258.289367675781 5.185022354126
-157.615814208984 -73.304206848145 -258.261169433594 3.119401693344
19.931856155396 -82.191429138184 -265.841796875000 2.023847579956
-13.716289520264 -78.294433593750 -268.346862792969 2.597512483597
-153.940216064453 -79.684715270996 -273.743225097656 2.562012910843
-151.830535888672 -83.437240600586 -278.153625488281 2.504307746887
-144.980133056641 -79.448104858398 -285.240356445313 2.051469802856
-57.852939605713 -71.655136108398 -279.690399169922 5.514481067657
-37.948799133301 -71.107688903809 -285.106323242188 2.337532043457
-18.014028549194 -73.617843627930 -288.861145019531 2.277663946152
-8.592417716980 -72.099388122559 -278.755462646484 1.897945880890
-65.284721374512 -79.408836364746 -284.747497558594 3.754481554031
-80.069419860840 -80.548454284668 -285.630950927734 4.401349067688
-1.267226457596 -76.929626464844 -282.232452392578 1.954092383385
4.139680385590 -77.405441284180 -291.493530273438 0.814954459667
-138.815780639648 -75.361114501953 -285.889739990234 2.622578620911
-79.660926818848 -73.168128967285 -285.740417480469 3.772995233536
-146.219543457031 -75.736213684082 -287.183135986328 1.244312167168
-93.661361694336 -84.880493164063 -285.090362548828 9.436705589294
-77.871673583984 -75.781394958496 -285.395202636719 2.516949892044
-85.044296264648 -73.699386596680 -295.109252929688 3.497135639191
-62.064228057861 -75.843360900879 -291.312530517578 2.692049264908
-29.585544586182 -69.809532165527 -294.663146972656 3.970110893250
-7.399694442749 -75.463096618652 -290.085388183594 2.077884912491
-150.298355102539 -70.159233093262 -298.721954345703 2.909553050995
-148.010696411133 -74.625938415527 -300.419891357422 1.837766647339
-143.074020385742 -75.605804443359 -304.652435302734 0.970761537552
-156.811172485352 -76.498313903809 -304.570312500000 2.413550615311
-56.120525360107 -70.781349182129 -55.697624206543 3.749245882034
-47.811820983887 -73.464385986328 -52.480720520020 1.794622778893
-39.151416778564 -75.587951660156 -53.305671691895 2.197210311890
-76.842422485352 -77.036911010742 -61.879417419434 1.893626809120
-28.877391815186 -72.673339843750 -64.241851806641 3.583608388901
-34.067199707031 -73.507209777832 -79.308769226074 2.698660612106
74.912338256836 -77.545608520508 -82.251441955566 2.793354511261
75.595710754395 -73.965675354004 -78.943916320801 1.222033143044
73.038543701172 -71.269836425781 -82.876464843750 3.579288005829
100.484428405762 -70.078422546387 -89.663421630859 1.248688220978
69.036201477051 -76.060241699219 -88.505317687988 3.183278799057
48.717506408691 -76.679481506348 -88.427268981934 5.310177326202
52.238498687744 -79.471229553223 -100.680564880371 2.461647510529
-66.029777526855 -72.958557128906 -101.658950805664 3.606970787048
-73.601104736328 -69.593780517578 -102.074325561523 2.380702972412
45.389827728271 -75.257965087891 -102.527389526367 0.538393497467
-81.560340881348 -80.135383605957 -109.642463684082 3.413398742676
-92.423843383789 -72.812156677246 -110.201271057129 1.557098627090
51.711421966553 -73.830047607422 -107.806289672852 2.731614828110
107.901062011719 -72.521095275879 -114.852027893066 1.334866523743
33.640529632568 -76.142738342285 -124.784675598145 0.579611659050
43.316535949707 -75.583168029785 -118.049079895020 1.622267127037
40.676757812500 -72.720657348633 -122.537513732910 1.866031169891
30.584280014038 -75.774444580078 -121.726936340332 2.256540060043
109.771072387695 -73.703086853027 -120.347358703613 0.932532429695
39.795478820801 -76.983398437500 -130.820632934570 0.891295671463
35.001289367676 -70.072746276855 -131.828323364258 1.955339670181
-43.978942871094 -73.404838562012 -141.709777832031 2.029539346695
-69.667968750000 -77.907035827637 -142.942001342773 2.788136005402
-52.480213165283 -73.598037719727 -148.369659423828 1.720485925674
-73.935203552246 -79.266716003418 -145.531814575195 3.862604618073
-38.060150146484 -74.224632263184 -147.362884521484 2.906500816345
106.791954040527 -74.382621765137 -155.591217041016 3.901071310043
-71.142959594727 -77.137153625488 -155.950988769531 3.083273172379
24.062597274780 -79.261344909668 -145.920516967773 1.863484859467
29.291112899780 -76.964599609375 -149.217285156250 1.526653409004
111.933212280273 -77.182235717773 -161.802932739258 2.556369066238
10.285357475281 -77.685646057129 -158.753173828125 1.414613008499
33.697307586670 -71.826667785645 -154.905273437500 1.022449135780
-62.464653015137 -77.292198181152 -158.972915649414 2.561955928802
-39.876552581787 -77.008918762207 -173.034179687500 0.914743065834
21.987270355225 -74.328659057617 -162.700424194336 1.691167950630
-64.653778076172 -73.861412048340 -156.572845458984 1.797322750092
-69.500503540039 -75.061012268066 -165.251342773438 3.494061470032
