# This PCD file was generated using the MATLAB® pcwrite function
# from Computer Vision Toolbox®.
# .PCD v.7 - Point Cloud Data file format
VERSION .7
FIELDS x y z
SIZE 4 4 4
TYPE F F F
COUNT 1 1 1
WIDTH 1456
HEIGHT 1
VIEWPOINT 0 0 0 1 0 0 0
POINTS 1456
DATA ascii
-67.726257 165.032623 -65.691093
-72.130783 171.099518 -70.100342
22.276627 173.204636 -71.585655
-59.582130 176.814392 -66.564674
-32.278980 172.427002 -67.200836
8.401088 173.356247 -69.536682
109.285492 171.643173 -66.442574
8.380218 176.868820 -71.091835
-32.309780 175.609467 -68.799759
-1.413903 175.709824 -64.719353
108.132278 178.052826 -65.526794
-40.878235 175.547775 -66.096985
29.720621 182.144714 -65.814224
113.545326 182.381393 -70.996902
-56.727551 186.176971 -65.757408
-27.667633 184.588989 -70.783302
103.517548 184.098663 -68.314484
29.646484 179.641174 -66.627113
108.150124 185.143051 -69.916237
-36.389160 188.136963 -65.529442
108.919334 190.659821 -70.586105
-61.367580 187.591263 -66.246155
-24.981544 188.797180 -72.010841
-145.901672 193.601746 -64.207863
-53.630005 190.697525 -67.619530
-146.589279 196.267303 -68.932755
-33.545456 195.005234 -66.500175
27.431089 191.702225 -71.798744
107.026314 193.277206 -68.762558
-33.493000 193.854752 -68.608688
11.538899 200.755127 -68.946732
17.861078 213.522812 -67.979988
-147.625809 199.740372 -69.159958
105.625916 205.533859 -70.162804
-20.785681 203.162979 -66.179848
101.904007 198.241821 -69.044426
13.432413 199.430038 -66.099518
-136.346558 213.710495 -68.247375
-138.252640 209.892075 -68.259193
100.849472 211.320068 -70.616951
-11.329374 210.379883 -71.912575
-15.782671 212.936615 -69.266762
11.135970 217.328766 -70.245895
-149.458176 215.913132 -67.000885
-145.674301 218.070328 -69.856453
100.655869 214.622223 -64.243164
-81.613480 218.158218 -68.047226
-35.468269 211.626999 -68.981613
19.406885 223.306030 -70.829903
-24.612827 221.093719 -68.865425
-75.958771 217.855209 -66.894302
91.595078 219.681870 -68.265434
-79.841042 222.362778 -66.191383
-146.767914 228.628006 -68.923630
-79.383087 223.234497 -67.250092
-12.665728 219.865356 -63.947372
-20.073423 228.886383 -66.039658
19.092123 223.263748 -68.229866
-4.889584 229.486130 -69.719131
-87.670631 228.818985 -71.549347
93.216377 223.602509 -67.462463
-97.803070 225.645889 -67.565697
-151.647202 234.083145 -67.839325
-24.590721 233.636887 -67.422173
18.359806 226.003098 -68.796364
-101.437767 229.985580 -68.594986
7.988037 228.834030 -65.399292
-25.075195 225.580658 -68.441757
83.463989 234.182663 -66.662071
-144.726913 229.159286 -67.822861
10.924406 235.756424 -67.045418
-8.880782 235.667404 -71.240715
18.084661 232.485413 -62.683376
84.226418 232.261017 -69.018127
-12.997423 238.491394 -70.523270
-129.961578 236.536987 -69.600296
-13.247798 234.431244 -68.523872
17.347332 241.093994 -68.712151
-126.122223 237.216583 -70.476425
-151.023773 239.563660 -65.480629
-141.811325 238.895737 -67.501778
-130.311401 237.894012 -66.682137
-12.557469 235.198730 -66.366402
72.442123 238.155914 -67.868668
-142.715439 246.284668 -65.130432
71.383133 238.726257 -69.256042
-19.858271 239.596542 -71.434135
-141.677139 239.311020 -71.635490
77.924713 238.809616 -72.810799
10.299501 243.423386 -71.981636
-141.024124 245.249802 -72.496315
-149.486832 243.879669 -67.530357
17.426615 241.444244 -65.140472
-2.113004 247.641373 -70.584991
-27.113153 247.167725 -67.772820
-1.070102 247.583023 -64.451866
-160.212265 247.702820 -70.448662
8.522592 253.506165 -67.195999
-164.151718 248.751328 -68.950203
-12.222446 247.642410 -69.398369
62.110344 249.153503 -68.949791
-12.513570 248.082916 -67.378151
-24.321907 254.339081 -67.525963
-24.441715 251.738831 -67.778618
-12.274321 250.825073 -70.405495
-145.755051 241.002213 -68.699570
8.655026 252.291702 -67.563637
64.819496 253.635910 -67.698097
15.270859 255.098999 -66.160858
-165.419662 251.589401 -66.819778
-49.926254 250.773834 -67.246887
4.537686 258.066895 -74.827232
17.571180 254.201019 -68.250648
-53.641960 257.181213 -67.547668
-2.268193 258.262756 -64.422325
21.515806 257.882935 -72.884445
-168.576401 258.791107 -66.596298
-66.996712 258.128143 -71.368088
-51.005589 257.391754 -67.107658
-80.542366 261.329071 -67.307930
-160.447632 256.980652 -69.162613
-150.203445 259.598724 -62.597595
-59.533543 259.648376 -69.925209
-68.195229 259.953522 -68.031715
-153.062927 262.746918 -66.401115
-151.461395 262.337219 -68.967659
-75.299240 264.433563 -65.156326
-92.877579 265.276062 -65.803749
-163.840240 262.315002 -63.782814
-156.264984 269.784729 -68.426140
-134.242508 268.313629 -69.619820
-82.574272 261.391846 -68.123886
-161.614731 263.021118 -65.499588
-141.293060 266.957367 -66.472450
-84.762421 261.310547 -67.280334
-96.143394 270.415894 -66.003342
-144.505707 266.054810 -69.011940
-92.931763 266.173492 -67.810112
-152.041016 266.110077 -66.627426
-101.764648 265.657745 -67.646111
-168.124863 268.947968 -67.498497
-160.926941 273.501190 -69.534660
-125.855049 266.655212 -70.865250
-151.129120 269.530823 -68.281059
-111.296730 272.041260 -65.483070
-13.783212 271.955933 -66.918999
-141.029282 271.120483 -67.861298
-125.292839 270.221283 -67.483185
-153.628830 272.787079 -66.615990
24.136002 280.844940 -68.942787
-148.089981 288.753204 -70.371574
-167.842072 290.241760 -68.503258
-7.611057 289.504028 -68.307266
-145.288254 290.629883 -68.126137
-8.957453 293.256561 -66.807213
13.414656 296.150146 -68.595375
-136.066544 296.110260 -66.784302
-67.701813 297.034637 -69.916992
-32.729969 298.128174 -70.429871
-112.304588 294.533569 -68.066277
-94.712830 300.330139 -71.747047
-89.026718 301.524353 -68.486015
-49.214901 301.981750 -69.539970
-115.355911 298.693726 -72.133980
-113.115990 300.393890 -69.375725
-32.484383 299.307220 -65.930717
-114.731842 303.148956 -68.668167
-126.491135 300.383270 -64.258713
-143.804291 303.714935 -70.134972
7.748529 301.598419 -68.065842
17.234156 303.376678 -69.991364
-159.311279 302.990326 -68.179955
-157.709290 310.804352 -71.742096
-146.373184 320.632233 -69.621201
-151.370193 321.003357 -67.164490
-151.955276 323.700104 -69.835999
29.647501 24.959679 -69.619888
31.576847 28.345982 -64.959778
22.221827 34.341476 -67.005844
29.729162 49.343658 -64.833160
-57.334446 59.834923 -65.925476
-64.430634 60.268333 -66.431480
-38.068001 60.368095 -69.657249
-83.661819 73.056206 -63.235535
81.988823 84.257935 -70.051361
-14.677198 81.153328 -65.306343
89.887512 76.456284 -68.087921
100.120354 87.060387 -67.018700
-91.820808 86.452515 -65.216911
68.408813 90.514397 -67.193703
-40.287933 95.697914 -70.885544
101.678528 92.180000 -66.373421
-54.864799 98.745293 -65.910683
51.795254 100.658211 -67.725105
71.707481 100.821663 -72.448318
56.250076 106.406700 -66.595695
53.578331 108.658989 -69.111572
75.173889 105.751968 -70.471153
47.239285 115.325150 -67.244041
101.174767 110.878746 -68.133095
106.657715 116.514130 -71.384712
80.741318 113.553741 -64.841972
92.569382 113.557709 -68.720482
101.625031 105.242668 -67.699326
110.265625 113.810745 -68.087608
40.328548 116.231407 -67.483871
113.281029 128.746201 -65.069374
114.535568 128.959061 -68.916451
32.073597 133.637360 -66.173065
45.497204 128.961685 -68.786751
116.027458 140.277298 -68.137611
36.992619 136.747787 -67.179169
115.826355 137.793915 -71.195480
109.522614 132.516327 -68.635124
27.192530 145.647354 -68.450783
-47.180382 144.200302 -67.966400
-51.346752 145.226501 -65.992432
112.129654 145.060913 -67.132217
-68.429344 150.568680 -71.197449
-72.034042 150.456467 -68.271416
-58.152466 151.297165 -68.162369
32.724121 153.700073 -67.737396
116.993256 155.962341 -69.554459
-68.603256 157.236710 -64.583534
-47.176968 152.694397 -67.367332
34.218540 161.301392 -68.380310
-67.302116 157.930862 -68.783852
114.820618 151.379959 -66.839478
112.696457 167.619812 -66.106346
117.156639 163.008087 -68.981819
-37.552185 163.146072 -70.156166
-63.886520 174.426010 -67.806702
-68.343071 167.289673 -64.666718
30.998272 156.443542 -68.789978
-1.234353 172.146606 -69.708603
110.014771 171.666336 -67.488823
112.672279 163.077255 -66.188698
113.122604 168.416687 -70.078300
-62.876793 170.179642 -65.076027
-44.471241 175.300949 -69.667389
-1.448236 175.123459 -67.030556
-28.365051 184.974823 -68.019600
106.857544 177.275848 -67.058418
-33.486080 170.110046 -70.671425
110.300682 178.408005 -66.411972
-40.886761 183.693985 -68.318481
109.535873 178.680405 -65.787277
-150.589294 190.115479 -68.665054
-26.036945 186.856094 -64.131561
-19.405277 193.402771 -67.908058
25.782921 187.150269 -70.826424
15.958464 193.205338 -67.509766
28.539934 193.084671 -68.243774
105.173256 193.726181 -71.682106
-150.924362 194.972504 -64.893082
-18.824522 194.886902 -70.032501
103.096039 188.608795 -68.767105
104.082970 199.720413 -64.869347
109.095245 187.814728 -69.013077
99.963341 203.746262 -69.619545
-150.438522 206.592972 -68.207542
100.916672 215.507019 -68.779015
-27.348804 207.214584 -65.723099
98.425522 205.797089 -67.693222
-120.512703 210.159149 -70.812035
-28.886314 200.143509 -72.195839
-141.061356 208.387161 -63.739670
96.217705 208.624069 -68.056473
9.514578 209.096924 -68.597786
24.742546 202.603561 -66.589989
-147.240189 212.982712 -68.068626
-138.087677 212.129410 -66.917221
-9.188069 216.743637 -67.468803
-123.533211 213.829742 -67.494598
-143.042725 209.772812 -70.001831
4.810349 209.610397 -68.111221
-23.383785 211.110733 -69.949806
21.534660 212.313492 -70.634361
7.483190 221.837524 -69.169586
86.293434 218.573395 -65.552635
-17.551764 221.963776 -65.348991
92.180908 218.971512 -65.814156
97.916626 216.999680 -69.772568
-148.117950 224.611862 -68.664253
96.350189 221.566299 -69.637733
5.846513 217.324249 -66.965355
4.429348 224.418274 -69.977753
-32.126026 217.007843 -67.422882
-88.587234 223.176468 -67.150978
-25.389042 220.862823 -69.212830
85.974442 226.895203 -67.222839
90.133728 227.005646 -67.057716
-31.004425 222.259293 -67.038498
-83.563118 228.459885 -64.819359
-0.211845 228.708206 -69.854988
82.881660 223.162262 -64.503754
-151.098907 231.961288 -71.323524
-164.984665 224.443604 -66.026024
-161.156082 232.381058 -70.030731
-20.570974 236.877151 -68.738678
-153.072678 232.869812 -70.469162
-4.899846 234.471375 -69.005745
7.397922 228.385025 -68.887123
-166.334564 235.697540 -67.458527
-157.983109 237.533386 -67.960152
80.110428 241.367035 -71.060570
1.099740 236.652527 -66.742615
-156.717972 236.338776 -63.029964
-141.669617 234.514481 -69.185974
-18.360125 233.939819 -66.892395
0.442828 232.435638 -71.998817
80.904678 235.576538 -65.556442
-160.439514 238.056992 -65.967102
-143.168167 241.039490 -65.367905
-124.282806 241.061447 -66.074974
79.641640 236.607437 -69.325592
-114.798927 239.310272 -67.562309
-145.575027 239.461380 -67.544495
-149.679199 241.608765 -66.293846
-148.187286 241.513275 -68.341232
-154.995255 239.286835 -68.109245
-164.247803 239.219681 -68.024666
-132.866562 245.512131 -67.795959
-132.437134 243.304611 -68.767593
-152.346619 243.069458 -71.218567
-144.543793 247.041916 -64.185928
-150.773209 245.512482 -68.088348
75.804260 242.357025 -69.902588
68.233101 245.949265 -63.190601
-156.157944 245.593781 -66.205566
72.629707 243.234589 -63.598740
-18.890831 246.695328 -66.435028
12.311569 247.084549 -69.064468
7.826594 246.023666 -68.631882
-153.631653 252.868668 -67.748680
15.492233 251.105927 -67.307152
61.864574 247.942200 -66.713280
14.317204 247.962601 -65.445435
6.266720 251.583939 -68.311234
-5.602712 250.394806 -65.792961
-20.239191 252.902527 -66.418678
-0.813781 251.998230 -67.762856
4.738787 255.004883 -70.486237
58.338024 251.537567 -68.885414
-54.538689 254.844208 -71.099487
20.510357 257.363556 -66.832771
-58.657707 251.914917 -68.714989
-8.968190 257.942200 -68.007660
-65.194885 260.429718 -64.476799
-85.163620 263.303802 -66.216202
-81.731155 262.281281 -68.708351
-8.952301 264.854065 -67.215500
-123.005035 269.263916 -67.584099
-13.220102 263.047424 -68.720604
-116.119949 265.914551 -67.787689
-115.629402 268.853577 -66.476234
-102.688332 266.734222 -67.600296
-143.022949 272.090393 -66.821220
-144.167572 277.492188 -67.250679
-167.810547 273.888947 -67.793694
20.247000 290.294525 -71.340973
-57.187458 295.541138 -66.014023
-66.379211 293.862427 -66.865135
-41.289959 293.993439 -69.576004
-27.196400 296.577362 -68.830872
-95.483215 299.415009 -69.722855
-29.992569 295.838196 -65.987839
-3.262953 296.255188 -67.936752
-166.555298 299.600311 -67.850143
-15.029495 295.968414 -69.959518
7.198953 298.001312 -69.084961
14.969997 293.641968 -72.221916
-56.133896 297.754944 -70.162376
-32.398991 301.591766 -68.331375
15.028510 303.137878 -66.072052
-70.101517 303.094513 -66.520073
-39.439991 299.285675 -65.396111
-17.045145 300.096497 -65.926857
15.871009 301.062347 -70.128914
-10.749779 304.295654 -69.560219
4.759582 303.876343 -66.766815
15.074596 300.636627 -69.865768
-134.095535 304.585754 -66.869041
-144.164383 309.382660 -70.168640
-150.214615 323.460022 -68.307961
44.053734 23.743307 -65.972427
31.154379 21.856726 -66.389626
40.306774 25.443375 -66.675819
22.999310 28.782644 -63.434021
45.970268 32.411800 -64.567444
26.560061 34.023632 -64.786720
24.770407 37.539082 -66.863380
25.805767 48.316696 -67.451508
40.556122 40.815918 -68.645691
27.298552 46.347374 -70.064018
44.070759 47.698799 -65.358864
32.860989 49.448013 -67.155861
39.779472 45.953358 -67.961426
31.947599 49.988739 -65.784424
44.597366 51.197876 -66.610817
34.715435 49.025963 -66.136894
-39.990417 58.345985 -64.899246
-29.122072 60.754562 -61.744179
-88.432541 64.880501 -65.069809
-88.114952 75.634094 -67.454422
78.868843 76.565437 -69.085693
85.269966 82.389389 -66.431129
-18.714125 83.594498 -64.697891
-87.305420 81.796562 -66.700150
-24.245165 86.768700 -65.952843
-48.744404 94.977043 -67.670311
66.853806 96.127182 -62.990860
53.642838 103.111526 -65.695396
100.438240 101.245827 -64.899452
70.383987 106.417938 -68.178123
-67.303696 101.060768 -68.003944
-61.279083 107.913437 -64.796593
45.752739 107.265411 -67.121918
78.349594 109.683067 -65.259911
55.423023 114.806992 -73.634071
102.213783 106.385063 -66.264168
-94.298248 117.280609 -68.222229
40.781715 120.508514 -66.949257
107.977806 118.448822 -67.479874
49.423233 121.072975 -66.558708
102.418968 119.451889 -67.590263
-84.547432 125.319847 -66.683624
36.752552 121.682716 -69.825371
107.550148 126.506218 -65.547775
105.639610 125.509644 -64.081161
106.450203 124.805634 -66.992210
111.446106 124.265274 -65.651001
40.837635 119.979012 -68.348396
32.965073 127.133034 -64.317551
41.844791 123.938683 -66.305679
107.715218 131.456726 -67.929848
41.028736 133.041626 -65.105469
109.984642 141.837692 -65.828102
111.857765 140.726273 -65.405373
34.482506 130.430634 -64.535912
-77.107269 135.335938 -66.541039
114.772781 143.917206 -64.208191
-53.596584 147.344757 -66.836105
36.375259 144.521088 -67.487137
-72.474960 145.309982 -67.069244
27.781260 141.454971 -68.827499
-78.804581 152.688583 -67.274681
-44.525299 151.756424 -69.655701
-73.191208 148.048691 -67.439644
111.024002 146.715942 -65.811966
118.005035 151.260025 -64.870071
118.907104 156.031555 -69.688606
-76.556374 153.518845 -65.839272
8.758946 160.608490 -63.003654
-51.272942 159.196777 -67.391174
-50.060368 165.103943 -67.704285
107.669922 171.327835 -67.052528
-40.688065 159.048218 -68.544075
14.738196 167.479126 -64.731895
23.082100 167.361557 -68.392159
115.479332 174.289154 -66.073586
30.540697 175.495972 -66.282440
-0.148198 173.267731 -68.129791
32.586010 170.554001 -67.583694
-67.051620 167.507172 -65.203171
-65.049858 168.940826 -66.467552
-68.148476 175.461823 -65.503075
115.475471 171.100479 -63.395699
-43.838230 172.780121 -66.979790
18.489456 175.269638 -66.985497
-63.225765 179.436401 -65.817314
-62.346741 181.194595 -65.114861
-40.571892 170.036179 -67.646904
-32.824821 178.382767 -68.914612
115.739342 180.926636 -68.793449
-36.316959 189.572174 -62.347321
14.471177 182.883469 -67.831657
111.460686 193.930573 -69.396072
-146.897186 185.822815 -68.514771
-145.191345 183.330154 -66.587189
-147.934570 189.712891 -65.081612
-141.709030 192.517563 -68.160851
-31.126286 195.258209 -65.562851
-22.369755 195.468857 -66.952652
24.003313 200.820160 -63.362019
-140.710068 196.478409 -66.004807
-146.550491 198.307068 -67.114464
-20.568230 196.214157 -64.344215
11.850592 192.275574 -67.152802
-148.621063 204.008118 -66.752808
-30.835312 197.709534 -67.530327
100.875610 198.007645 -66.870270
107.023499 199.476379 -65.871895
24.914385 203.180862 -62.582565
-12.757103 198.232040 -67.059563
-26.992775 203.096924 -68.740173
-154.598495 208.889511 -67.808456
-131.881302 206.606155 -67.690483
-124.442833 204.806290 -64.175392
-123.952637 207.386826 -65.166901
-21.735548 205.920197 -62.806908
13.429758 202.174606 -68.789574
93.412987 210.866730 -70.337173
-149.319519 205.209152 -63.175137
-144.323929 208.510895 -64.342407
-150.153259 209.913452 -66.152084
-154.190933 207.237686 -64.498680
-24.013748 209.388885 -66.353584
-9.966606 205.160309 -65.382851
-145.627747 211.921295 -62.930622
-17.705652 210.951538 -66.064285
-160.671066 210.422913 -65.978485
-133.604416 209.170425 -66.482590
16.480303 216.798264 -68.622314
-160.554031 213.887894 -63.526932
-145.371429 216.254181 -68.073189
8.994039 212.623489 -64.983467
-153.376038 212.444214 -64.172638
-23.828901 211.627502 -66.233612
98.143112 209.092804 -67.491188
-157.715469 222.259979 -67.567665
-163.748962 217.448120 -69.617714
-76.120331 218.125198 -64.758377
90.046936 218.837158 -66.208214
-3.075216 228.232178 -65.654099
-153.790070 222.686203 -65.504440
-86.862846 223.282806 -66.788620
-8.564332 221.120941 -69.348793
16.321182 229.746048 -66.634178
-144.189102 229.866547 -67.322136
-2.850566 230.719879 -70.636703
-18.641230 228.072845 -67.776321
-13.893162 230.309494 -63.753384
90.997864 228.958939 -66.905800
-20.006042 226.673828 -65.547363
-31.003103 226.986893 -66.233994
-106.857735 234.627548 -62.520382
-15.401616 233.096146 -65.236069
93.169601 228.868622 -64.945595
78.244072 230.353500 -67.675095
7.938333 229.200134 -68.010513
-10.451370 235.293594 -64.737328
79.375381 231.928650 -67.461914
-121.657127 235.020813 -69.791252
-19.302885 233.097855 -64.945877
-96.424088 233.496414 -66.041771
-101.787918 234.042267 -66.753189
-130.858353 238.540466 -68.570755
82.060181 233.562210 -66.998756
-122.474350 237.156693 -67.218430
5.458689 238.690079 -66.257278
81.972481 234.380386 -65.547768
-14.997600 240.458145 -67.844009
-12.815858 237.346054 -67.545624
-1.133765 239.819000 -71.729362
11.020211 237.343826 -68.660393
89.630226 236.430237 -68.145546
10.692021 241.361465 -65.421410
6.285142 239.388855 -66.564911
-8.284035 241.188782 -67.389580
-6.018487 240.073883 -67.674255
19.476830 242.706436 -65.691078
-11.729997 243.192520 -64.453934
71.766190 249.748108 -67.496117
-8.400573 248.788269 -65.410980
19.745180 245.709763 -67.899124
-162.165253 250.285889 -65.360229
-4.847441 247.055603 -64.798584
-7.370161 250.165207 -67.650047
-166.975647 260.619141 -67.222672
-10.126729 254.388748 -65.342110
16.285330 255.500534 -64.404343
-146.957123 261.651550 -68.574554
-72.590569 260.327332 -66.197495
-60.937511 256.944672 -67.638641
53.039017 256.827911 -64.846382
-73.990723 256.733459 -66.375885
17.572966 259.508026 -67.576462
-72.410561 261.217163 -67.163803
-14.668628 255.915726 -65.270660
-144.837799 262.570648 -69.338791
47.296940 260.017426 -63.767532
-79.385727 265.615021 -68.918205
-102.106590 264.909546 -63.929993
-98.699188 264.461578 -68.321266
-119.246239 262.881927 -64.862778
-105.200943 267.022278 -64.394363
-105.206306 267.996094 -66.467873
22.224932 268.551117 -64.542435
-128.757736 274.936432 -64.470322
-13.274987 285.537628 -67.810585
-147.162445 293.152222 -64.408272
-168.226654 295.336304 -68.367439
-124.479370 293.971680 -67.766739
-113.732155 296.733765 -63.858856
-75.129868 294.439758 -62.790440
-57.089279 296.622253 -67.483856
-41.490311 296.025696 -65.832077
-14.956180 299.776459 -69.847885
-13.439785 301.732239 -64.583664
-38.031082 300.139984 -68.693085
-34.032307 298.745941 -66.664902
-18.650347 298.756989 -63.921875
-71.495903 302.938568 -65.859711
-55.229404 301.019531 -66.170250
-17.332987 301.500916 -63.509308
-13.426848 299.705109 -68.396355
-3.414938 302.393890 -66.088509
2.767264 302.234222 -63.676128
-91.877167 302.862030 -66.906067
-139.510895 304.844604 -68.407349
-116.045120 302.511993 -67.730309
-153.314377 304.760895 -65.638283
-151.743393 309.346832 -67.469986
-146.510757 309.883850 -65.249031
45.435398 31.067347 -63.244144
20.852692 33.277550 -68.104538
50.464237 34.895130 -62.741791
48.023594 44.896240 -66.297112
88.458618 80.023834 -65.353798
96.417061 83.754448 -67.153114
102.051659 87.971954 -65.137627
99.127304 93.319717 -66.077644
57.507969 99.240067 -66.518364
46.363331 101.001518 -70.618683
64.118752 100.627617 -64.511589
-64.427414 103.026047 -63.138634
71.618370 97.678452 -65.023537
101.631332 108.804497 -59.549084
75.320030 110.972572 -66.336838
95.081284 112.439705 -64.578674
-83.796280 113.343925 -66.466202
45.925217 108.004486 -64.605843
-85.724815 112.159988 -66.883545
51.924881 120.234222 -66.979782
38.540409 113.488251 -70.607170
102.923424 113.171234 -64.696785
37.950825 115.853035 -65.366577
43.329243 128.452789 -66.665215
43.486294 122.956841 -65.401772
110.832054 122.296043 -64.357834
-80.607262 131.432068 -69.482185
112.945679 133.906281 -68.754753
40.724865 134.682083 -62.248055
41.250107 130.154953 -64.910843
35.700657 130.801712 -66.014969
-55.070030 139.476196 -69.661781
30.869308 133.395157 -64.757774
-76.764114 147.751053 -64.020012
-54.701679 142.529999 -68.825790
-78.876625 144.819992 -63.634018
36.223019 140.691299 -63.834801
-58.993023 143.545578 -66.704346
35.778393 143.324570 -64.941345
-71.376068 149.574097 -63.880207
-58.652920 150.710922 -63.352917
26.288084 152.590485 -66.388878
111.501740 153.094208 -68.206833
115.879349 147.145081 -61.856552
31.313885 151.472610 -65.688354
-47.610580 150.170059 -66.953255
107.368393 162.232376 -63.662025
-74.998970 153.030167 -65.509445
-58.062649 152.272736 -65.689751
32.156239 157.431564 -61.881992
-77.000145 156.125046 -66.923050
-70.104248 160.225082 -65.593620
115.462250 159.577911 -69.191895
-64.138565 165.085434 -65.048004
-38.827740 162.224579 -63.085960
26.241728 155.974258 -64.151237
-72.669670 156.012756 -66.058372
12.918094 159.762466 -65.220009
32.355473 166.941513 -65.102638
31.507811 160.241730 -63.441261
15.734975 164.134720 -69.836823
-49.407806 163.229523 -67.074776
25.268721 163.164749 -66.933365
-45.701321 160.168091 -64.788475
5.216578 164.062119 -65.853256
20.958502 159.979156 -64.861755
-68.433098 167.396851 -65.020699
-46.185307 164.110825 -62.896946
-67.720634 163.751404 -65.149551
18.592402 168.497543 -64.506332
24.699507 160.116257 -64.809555
2.958906 174.535294 -65.666504
21.791042 163.598770 -65.437439
31.168596 177.195343 -65.344307
-46.904148 173.213776 -66.926208
-36.388695 173.208984 -71.602364
-40.439045 170.829163 -66.382782
28.252956 168.715118 -65.914406
-43.897839 176.791412 -64.031296
-39.402287 176.387131 -64.215836
21.741552 175.791687 -64.340569
-39.511772 185.196716 -66.171326
28.284346 180.140030 -62.249260
112.065193 174.998474 -62.546616
-33.180775 182.011734 -65.547653
103.109406 183.330856 -63.314323
-34.250721 187.408508 -65.262115
-37.098640 191.394913 -68.481583
21.486561 187.029373 -68.320869
106.144882 192.084808 -65.915039
-31.189896 192.899323 -64.126282
-34.868496 187.494370 -65.098289
-22.903391 196.814270 -68.993965
-148.757660 198.820740 -66.336098
13.243240 193.382874 -65.353745
105.278923 201.194092 -64.210030
-158.689713 202.968277 -65.393982
-22.697088 199.529678 -62.709835
-115.365791 207.277679 -67.344093
-130.529678 205.501877 -67.129623
-107.618782 209.740463 -66.244270
-113.389832 210.168716 -64.959000
-12.048466 206.363098 -66.420929
20.386013 206.142303 -64.448387
-15.542253 211.895401 -62.069447
-126.462975 215.492432 -65.786354
-20.578920 213.017822 -62.073906
-129.096848 212.862137 -64.651756
-15.136112 210.263229 -65.747688
-145.816406 212.741653 -64.632088
92.098831 216.551315 -61.857327
-164.266235 211.410019 -61.122223
-2.476742 227.865540 -67.241135
11.754956 219.909134 -66.728210
10.613440 227.036163 -67.685303
82.948677 226.774826 -65.474640
8.812327 223.084152 -66.566742
12.917622 224.789230 -64.711769
-15.535421 225.904617 -68.804741
-90.173569 224.424377 -66.061836
-97.704704 226.556305 -65.803894
0.305892 229.162399 -64.570473
-166.174591 231.893753 -67.594765
15.443869 229.662338 -63.587925
-144.337738 231.200089 -65.101952
13.271806 234.984131 -65.899345
-134.345596 234.811432 -67.075294
-115.623322 237.149445 -66.677589
17.077923 230.923981 -64.819580
78.717758 231.433029 -65.528999
7.057670 233.504944 -65.576134
-109.578911 240.877563 -65.024887
72.683647 237.867523 -66.425385
84.334717 239.556519 -66.575806
-124.907578 245.047699 -65.531296
-116.733131 240.415985 -65.742516
-9.727045 237.854004 -62.492634
72.310127 241.462555 -66.235298
64.972549 243.267639 -66.137192
73.608887 239.569778 -65.038086
-134.965714 244.060226 -62.491943
70.497055 242.429916 -66.627426
66.489784 245.410233 -63.406246
-165.838898 240.483719 -64.386002
1.755626 250.981644 -71.927368
19.677435 249.549911 -66.838074
-5.718061 250.741699 -63.100182
16.066099 249.370575 -60.782520
66.547646 248.223602 -66.509529
9.223863 253.457077 -63.849445
-10.636256 250.870361 -59.767063
-0.233105 247.535645 -62.521084
65.263931 252.530151 -66.209282
3.365700 252.633087 -66.146072
-6.687024 253.201477 -66.381760
14.588267 252.965393 -67.970024
-167.186722 251.076523 -67.373940
56.331486 257.351807 -65.907654
50.243176 260.951019 -60.132362
58.507912 252.906754 -66.294685
-11.870327 257.980469 -63.964943
57.493397 255.785919 -65.401688
-73.607552 259.886139 -65.211464
51.076714 258.750732 -65.987816
-88.470551 262.500549 -65.504784
-122.943542 266.645538 -66.800903
-132.131653 262.907349 -65.682144
46.412708 261.954559 -67.136719
-132.294296 263.148132 -68.206261
-108.934883 265.081543 -63.946880
-115.818710 267.441559 -63.486610
-83.482277 264.682556 -66.083244
-110.741585 269.129669 -64.008713
-123.822479 272.390045 -68.904587
-146.270370 277.572205 -63.245964
-15.053963 275.685516 -64.294098
-171.091476 274.396973 -67.699783
-14.353083 283.843262 -65.057220
-158.770782 277.233063 -62.535515
-152.475784 283.379608 -65.931755
-169.720428 287.461090 -65.658813
-14.017933 289.401978 -65.656090
-129.994202 293.119568 -67.971443
-157.856277 296.164520 -65.421089
-143.772720 290.917358 -64.736702
-134.688705 290.457550 -68.443642
-8.015769 294.542084 -59.942421
-125.681450 293.382965 -69.076248
-140.862045 295.563293 -63.664249
-115.555092 295.695099 -68.490456
-78.828484 298.050751 -63.743031
-60.536865 297.077087 -66.230873
-6.835969 297.901459 -66.499222
-53.758614 295.740265 -64.408829
-57.054417 298.650116 -63.298298
-70.252914 300.331726 -63.865299
-87.912056 303.776001 -64.677658
-94.891174 298.976654 -63.372074
-160.195541 301.399048 -64.769089
-160.955551 303.642731 -66.565559
-124.487633 303.842102 -68.359383
-144.528473 304.927795 -65.821663
-152.948578 313.662811 -67.885139
-150.387177 322.074982 -67.960068
48.532097 24.731634 -63.583527
17.334223 39.838566 -66.713982
42.517349 44.750893 -61.705723
-14.961247 76.389153 -68.207062
82.322540 75.251846 -63.150715
89.190781 76.102715 -61.010063
78.436607 75.585693 -67.963730
73.256378 79.338379 -66.133377
91.717804 85.065422 -67.210060
-95.629539 80.205658 -62.169724
68.327972 85.505089 -65.528008
-36.050148 87.370567 -66.157051
99.409279 96.008507 -64.721092
61.944202 100.495842 -62.294140
107.595825 103.785942 -69.108391
102.012032 108.544479 -68.163017
72.757553 110.752350 -64.632111
-79.758308 111.473969 -63.993961
54.780071 114.323471 -64.728836
107.529358 116.176544 -62.080006
47.471127 122.477707 -65.432640
80.317749 115.530998 -63.611797
42.037258 117.522148 -64.415047
104.664680 113.373657 -64.248482
47.953266 117.867424 -64.191071
107.657227 120.042587 -69.262383
110.540108 121.469360 -67.389694
-79.070610 124.113846 -63.120483
-82.618187 129.303650 -63.315811
44.290344 130.116425 -67.629959
114.163551 131.443359 -66.024757
114.033195 133.732147 -64.163734
-86.936028 136.907364 -64.129303
106.323151 135.907059 -66.252090
-59.032753 141.751633 -69.063965
-85.863480 137.222961 -65.310059
-72.235725 137.089539 -65.122826
-58.899990 136.726868 -61.198189
31.943087 140.222519 -64.314346
42.684769 144.767227 -63.066055
-72.845085 146.547791 -64.588539
29.044596 140.989975 -62.759121
111.993736 153.043518 -64.361443
-39.884369 158.248047 -64.847298
30.686438 158.885513 -65.407234
114.197586 157.831360 -62.750523
35.863441 152.785980 -65.130798
110.689262 150.938492 -63.163353
-52.040314 159.341888 -65.059776
-70.990303 160.910828 -62.375847
-54.823441 162.497772 -65.295242
-41.792110 174.915771 -68.120262
5.000482 165.864273 -65.902939
110.141975 163.622528 -64.522743
109.272278 169.730011 -64.183479
10.337320 167.448212 -64.003418
3.595905 171.302902 -64.658585
19.524378 165.263306 -63.846352
25.949171 165.677063 -63.254333
109.028587 175.729538 -63.862961
109.871475 177.818253 -67.306938
24.208979 184.401260 -61.936104
25.285997 173.831329 -66.551628
112.520012 172.093338 -62.377331
-28.836699 187.140121 -63.530037
110.506798 177.858932 -64.481865
17.824274 177.601654 -65.027023
21.917286 177.730499 -64.408234
108.832932 182.951233 -64.437698
27.031103 180.387741 -63.656979
112.576538 193.805176 -63.551781
-38.001434 187.652374 -64.028191
25.406237 181.111786 -64.105064
107.777977 193.950912 -64.086296
23.396973 188.567368 -65.460091
-151.590317 196.313309 -63.512794
-27.948195 199.285812 -61.675312
24.871475 194.904343 -62.420048
-113.482880 201.738922 -66.204819
-110.589943 201.195892 -62.418797
24.064407 198.534058 -64.977036
11.951609 195.019302 -62.628311
-26.620876 200.174377 -62.035061
-29.348030 199.159042 -68.327644
-27.724747 197.138809 -64.904205
15.091210 189.977570 -62.496586
-150.581131 204.914230 -64.822746
-145.080780 202.691055 -64.498840
-144.112946 208.168137 -67.682144
-22.642017 201.347000 -63.599838
13.914083 209.564758 -62.276150
99.137268 203.440491 -63.379044
-113.458916 208.223755 -63.627808
21.551769 208.364883 -67.605347
-15.046007 205.525406 -63.448341
-17.447739 208.696045 -63.857735
101.238358 209.638885 -63.032772
8.211801 209.279633 -66.262177
-21.698107 206.457809 -62.803387
-121.072708 212.960602 -67.634232
-133.916336 213.156723 -64.900154
-113.832993 214.824402 -60.361961
-141.901642 213.240051 -67.512817
17.786373 207.769180 -64.012413
94.092491 211.961212 -65.407150
-165.677063 211.297012 -60.420490
100.273033 212.302780 -63.814106
-21.360910 216.041443 -68.032829
94.862000 220.673019 -62.152473
88.336784 221.645905 -65.579102
12.406833 216.006439 -66.037415
20.028687 222.044266 -63.778713
13.092667 217.895401 -61.585903
-10.619357 232.424973 -64.751915
-94.172516 228.528580 -66.526253
-10.173442 222.308304 -66.443863
89.316193 226.455551 -64.401680
-93.291504 227.607162 -66.728531
-100.906128 231.138321 -62.412010
-94.201019 229.431229 -65.249260
88.487839 232.124115 -65.760742
-135.056580 235.049576 -65.129951
-132.202240 236.612289 -68.545853
-116.420357 234.736115 -64.566124
-112.882973 233.110001 -62.076248
-133.119080 237.103134 -63.309586
-111.451897 237.424728 -71.194618
-111.977158 237.980698 -64.528778
-6.614150 234.688354 -67.610344
-15.691997 233.208252 -66.679008
-0.742911 240.512482 -62.506733
-9.929136 237.056061 -61.677559
15.628586 243.606384 -65.148705
-18.623232 239.179337 -62.837784
-166.612747 232.142929 -63.233505
-3.872562 243.536774 -64.439888
81.045334 241.375580 -61.514076
11.209072 243.742966 -66.181938
-5.663008 244.849060 -63.762753
-156.648743 246.381348 -62.593357
-142.059814 240.303360 -63.346588
62.827332 246.056366 -63.085506
-5.418015 244.188950 -65.395485
9.556944 240.813217 -66.452927
69.683990 240.446472 -66.469276
77.203140 244.486252 -64.706749
71.277367 251.544846 -65.442429
-1.328641 245.770615 -67.231659
58.277092 248.116577 -62.722698
-18.777969 249.778305 -67.026962
-15.051208 250.445602 -62.236633
8.460046 249.444672 -64.358597
65.032097 248.062378 -67.473656
65.671806 250.829407 -62.891853
49.846214 256.271881 -64.596519
61.377388 252.894791 -67.416992
-15.294524 259.709717 -68.891609
-83.399986 264.131714 -62.107563
-76.648514 262.901642 -62.660412
44.498722 257.918304 -67.145149
-148.916061 260.521057 -65.907860
36.224766 266.355164 -64.419449
-91.820030 261.837799 -68.111168
-156.060837 264.541382 -61.160915
-140.143341 263.184753 -58.744019
45.388355 263.654449 -64.237144
-124.799492 267.759796 -60.961609
-116.675125 265.247253 -64.968300
-92.178085 267.017242 -60.772438
-13.491055 260.440125 -61.375782
32.088303 267.323273 -64.122314
25.149517 269.571808 -61.919662
-158.785095 270.146637 -60.470421
-114.548378 272.570038 -67.301750
-13.724307 271.996704 -64.183434
-132.608429 275.251556 -64.509254
-13.957654 280.354401 -63.269112
-164.730545 282.339142 -64.005150
-7.151458 289.534210 -65.401840
-160.757187 297.623474 -65.049858
-163.718948 287.706696 -66.550903
-142.488464 295.059479 -64.913605
-170.054565 294.465546 -66.676697
14.158311 298.069000 -66.592934
-103.054214 296.460388 -65.622772
-87.095871 295.943176 -60.569386
-167.682053 294.392517 -62.010548
-91.910721 293.934113 -68.402618
-153.619995 298.312592 -65.168236
-75.391716 303.580536 -65.473030
-70.550217 298.689545 -63.892044
-82.452652 301.268219 -65.587708
-3.628138 299.014801 -61.887531
-87.946877 298.584808 -64.553391
-98.926598 300.858368 -65.995995
-116.602806 302.566345 -64.974358
-116.532860 302.705444 -62.018051
-134.121414 302.078186 -64.071877
-142.775665 310.661774 -64.936783
-144.219269 321.604614 -66.166992
24.542099 25.200666 -62.114468
32.984909 26.465616 -63.302525
30.022667 28.312323 -65.942001
44.813789 30.649384 -62.008522
25.552311 41.702042 -63.872139
-74.285172 56.955688 -62.307423
90.293678 75.616051 -59.571819
-17.021912 77.516579 -62.101532
103.239113 83.003159 -62.637890
95.706718 85.703911 -67.459999
69.120277 88.554649 -65.139763
70.864258 92.677299 -66.977104
-44.077446 92.367310 -67.153679
61.768253 92.445457 -67.055588
-93.848480 98.185356 -64.383110
-48.638905 95.175110 -61.726635
-55.299206 97.472595 -70.553825
101.584473 107.650742 -69.044968
59.800167 102.300705 -66.868797
66.461189 101.060440 -63.067890
-95.173073 106.784973 -58.725300
108.442039 103.166794 -65.110184
44.662971 108.964760 -62.528126
101.988319 108.185394 -63.444607
107.312408 116.069023 -61.649937
101.845589 114.608368 -64.034431
74.445084 110.749290 -65.951103
87.872734 116.595367 -65.770958
50.568581 121.213722 -63.584755
111.204315 113.672386 -61.559189
46.775764 115.434669 -66.346550
41.125027 111.575188 -61.973366
113.318604 120.428116 -64.073608
-77.993469 119.515160 -61.207512
46.654907 122.875542 -62.973782
35.314690 125.046570 -65.709404
106.024971 120.160454 -61.435188
39.960396 121.501801 -61.002041
-87.516876 122.701073 -63.391457
-95.026215 124.627396 -60.922035
104.616173 129.186295 -66.803375
-94.229012 128.444122 -65.078651
39.524590 131.254013 -65.760422
37.517090 130.747086 -63.446842
-82.877739 134.031555 -63.368340
32.934650 144.661850 -61.976723
111.414528 141.281357 -65.000313
-52.095936 145.897797 -63.412807
-87.705750 141.444397 -62.548374
38.495457 141.621536 -66.918236
-88.563782 145.682877 -59.507187
-88.362213 149.406372 -65.723053
-49.118298 146.644745 -64.841721
-70.314163 149.337463 -61.847641
-50.153412 143.304230 -62.715893
115.970474 147.625946 -61.066319
-72.680756 146.609039 -65.051277
37.076103 141.262817 -64.018593
-78.149826 149.941360 -62.564041
-72.783195 145.565704 -63.318764
-90.844460 149.924988 -61.625603
-53.332642 156.880768 -61.533554
31.981651 155.756836 -59.855453
28.067694 159.484787 -61.935677
19.688566 154.296341 -59.092693
113.373749 156.370255 -63.010204
-92.970062 162.264236 -62.080364
13.546205 162.334183 -65.085442
-71.390991 163.128082 -62.990280
24.016947 159.727020 -62.652855
-48.622452 165.267685 -62.512997
10.111345 163.189316 -62.227650
15.650161 168.339645 -65.866226
18.337105 173.834595 -67.684669
-48.372574 172.396454 -65.415443
-38.641781 164.707855 -62.553516
-45.838421 170.886383 -63.838223
-103.161453 181.700623 -63.974350
22.266632 184.004654 -64.521385
-34.247681 185.836624 -63.230030
15.966230 188.251602 -67.084435
-143.124115 185.443390 -63.477631
-31.722803 182.702545 -60.570530
-154.505463 187.494843 -67.895332
23.930471 191.791519 -59.355598
-32.405392 181.356506 -64.440063
-107.172905 187.452499 -61.837700
-106.618141 193.284851 -67.463394
-29.509829 195.115463 -59.189110
-23.111507 191.660782 -67.294334
14.467519 199.244598 -62.496410
17.448061 207.194458 -61.078861
14.355642 196.924164 -63.317436
-142.380722 197.182724 -62.460205
22.055321 199.927826 -60.087479
8.028658 206.703156 -63.263729
-136.625443 204.157150 -62.007576
-113.866608 205.176178 -63.105877
15.362943 211.166336 -61.823948
-115.891136 206.551544 -62.376053
-107.302177 201.952347 -58.842651
-164.862579 209.782425 -64.744034
-23.841265 209.933960 -62.396584
13.374608 210.225067 -61.926689
-142.526718 213.682037 -63.700260
-135.329865 216.097107 -65.270042
-19.651012 217.224884 -61.756462
-11.441712 214.486282 -64.435394
-14.317060 215.883759 -63.977161
-140.352737 214.172836 -66.625618
-16.081158 222.846237 -63.695953
-10.015962 224.232788 -66.944839
18.006561 221.002563 -60.901051
-14.398416 221.434555 -66.644325
10.952122 220.038818 -63.620171
-9.930343 225.555435 -64.258057
-20.542492 221.924652 -60.893311
13.135043 230.990295 -67.674736
-1.109791 229.754227 -68.114960
11.657233 231.195358 -60.066311
-5.585117 236.862411 -65.351227
-158.342346 235.073074 -64.118660
81.301689 230.218155 -65.546082
-134.805481 234.173218 -61.672413
-134.567780 232.957138 -65.120979
-7.946748 235.218475 -64.133369
9.008072 243.845795 -63.245224
-156.449326 239.339600 -63.192181
88.510353 230.139938 -62.038490
-1.693354 235.747665 -62.269138
1.096865 232.984360 -64.086205
74.486458 239.472061 -65.914505
1.077643 244.877823 -61.284714
-14.252804 237.134613 -65.281288
-126.052612 244.164810 -61.978622
-3.809707 246.898819 -63.169117
2.924075 241.992188 -61.303524
66.489174 248.394730 -61.552097
-157.787918 248.070084 -64.739571
-12.045514 254.705673 -62.916584
-168.635635 248.634796 -65.757484
10.307958 252.116425 -60.788506
-164.124832 248.816101 -64.265137
-160.321548 255.938248 -64.869232
57.479492 255.359070 -63.309200
62.725243 252.788116 -64.683830
56.603756 254.606110 -63.902550
52.183929 259.053741 -63.310707
-155.000092 253.893250 -64.268723
-156.083679 258.325714 -61.249260
-12.909371 259.439575 -66.218315
-150.954956 256.611908 -63.133247
20.083479 261.283325 -64.812729
-169.302567 260.937653 -68.045547
-167.193359 258.207520 -61.933807
-81.709244 258.865936 -64.883995
-169.048141 269.699585 -63.176838
-84.989067 266.698730 -63.104343
42.947277 263.348877 -62.574226
22.674971 266.373627 -66.669380
-158.289780 271.771118 -64.326653
-100.447296 269.597717 -58.161991
39.659809 265.886475 -63.627438
-104.442268 269.023285 -69.619987
-153.733765 274.856201 -59.403381
-104.814568 268.474976 -62.487892
-167.464676 269.553528 -65.450989
-112.734604 273.307281 -64.558960
-152.916092 275.684692 -65.619064
-158.203156 273.490417 -62.045498
-165.685013 273.686859 -62.962086
-163.705017 272.238922 -61.928879
-165.351852 275.647583 -63.606960
-165.345093 272.628265 -64.197685
26.165159 275.395630 -64.673431
-149.464981 273.614502 -66.789810
-149.459946 294.157104 -63.189808
25.085373 286.560394 -64.317413
-11.308461 284.559021 -65.136993
-125.485046 294.385559 -62.366711
-136.029739 296.057343 -64.579636
-134.149902 298.494293 -62.653023
-126.535309 295.892120 -64.192207
-114.053619 299.902679 -62.479340
-105.015984 295.573242 -60.296108
9.613498 302.573608 -66.281654
-84.694748 299.979309 -64.293320
-148.810669 298.304626 -64.288582
-101.415794 300.749786 -63.794319
-128.969040 301.879364 -61.226860
9.916129 298.294495 -65.977875
-111.748199 299.105316 -58.649860
3.201961 303.290680 -63.783287
-142.907715 298.770020 -63.209953
-152.690689 305.912598 -64.198318
-157.776108 324.096100 -63.302277
-154.982071 321.787872 -62.900455
48.640251 34.700821 -65.384674
24.069981 45.506859 -63.491295
31.575628 46.641273 -64.375305
-44.165188 57.403118 -65.288994
-12.017992 72.195038 -61.422092
94.981987 78.523857 -64.234016
69.321045 79.687271 -59.106071
-23.558275 84.357704 -63.127724
-97.410851 96.218773 -67.031219
-41.886040 92.479393 -63.240269
62.159695 91.519608 -62.360695
62.829571 96.031937 -65.410034
54.071560 97.635735 -60.865849
-58.320145 100.194138 -62.041664
67.396889 99.377464 -59.348293
44.254314 107.927231 -66.166367
69.058960 104.757408 -64.586037
-61.698090 105.898506 -61.318390
50.730129 103.231659 -64.834587
46.260094 108.430649 -64.605263
103.894142 110.663467 -60.244293
-65.932297 108.733948 -62.981373
111.159058 110.485039 -62.333523
-78.461327 110.944595 -65.062309
55.062550 115.021904 -65.492874
48.561516 110.738525 -61.243904
92.386993 113.902664 -61.165615
85.045746 116.714828 -61.420422
55.360348 114.583206 -62.828541
-75.756905 120.896683 -63.603409
-76.284119 124.751129 -62.229691
-79.848000 128.150421 -64.176437
-92.642807 128.248383 -67.601334
105.422005 126.593872 -57.909618
-87.853745 128.799286 -65.264648
-76.161079 131.058655 -59.457329
110.084412 126.126671 -61.593391
-61.075142 127.875298 -55.729031
114.249268 141.518860 -66.021164
110.581314 139.497116 -64.105560
107.820961 135.874268 -63.755623
-92.934235 147.538406 -63.397781
-46.523586 151.628342 -62.821495
-78.644569 154.267197 -60.940331
-68.825600 158.773743 -62.895412
-69.763016 157.730988 -61.536896
-54.655888 153.438995 -62.224838
-46.428444 155.820480 -66.479836
16.899166 156.311539 -62.857563
-93.642433 152.636658 -59.984909
-45.207932 157.096756 -61.477997
-51.662418 157.478241 -57.113804
-41.604988 164.676666 -61.091141
28.023954 171.811600 -64.833572
-49.533821 160.791351 -63.162121
-99.936737 159.206375 -58.985817
-44.843445 166.631714 -60.058392
26.228254 158.090057 -64.639320
-98.042274 172.769272 -67.601059
23.220232 167.579117 -64.721863
-107.186333 179.582642 -60.293797
-100.586937 173.416656 -63.158634
22.687992 174.857498 -62.570374
26.673616 177.776306 -61.078838
-107.835533 183.387360 -64.952927
-141.622177 184.307602 -60.949787
-19.354214 199.258713 -63.158543
-26.941031 191.545227 -61.995922
-114.855125 196.736099 -64.055466
-143.322144 196.752975 -58.659145
-102.928322 191.396851 -60.275772
-157.542969 200.244675 -63.082832
-130.757217 204.999481 -66.903336
-132.739761 205.950714 -64.749672
-19.355055 199.306229 -61.098679
-119.851334 207.779007 -63.422272
-116.535645 208.771866 -59.670235
-26.438719 204.451294 -64.652870
-153.858017 207.636032 -60.605370
-131.753906 214.626419 -64.652435
-124.464470 214.309647 -60.803688
18.601648 211.776871 -64.644379
-161.523849 212.938049 -62.345566
11.680651 225.222763 -61.782001
14.394661 224.636948 -63.738297
-16.549431 218.938339 -59.363777
-4.578902 226.312836 -62.887913
-169.569565 220.086151 -60.362591
-158.636292 222.723343 -59.595127
-94.255455 228.324600 -62.604656
-98.172859 232.638031 -64.304428
-160.514069 234.960373 -63.306988
-106.044746 229.164078 -61.051105
-11.616399 224.136887 -61.200294
-126.997612 232.167130 -64.403770
-141.678909 233.897873 -63.486103
-2.672250 231.267227 -64.148293
-133.870148 234.629395 -61.290379
-123.303352 233.069138 -66.632370
-113.903709 234.628586 -64.793434
0.764964 238.106232 -58.163521
-106.836578 240.573746 -61.363140
-160.019150 232.772217 -57.829018
-146.237488 236.631012 -61.946465
-164.982910 234.985550 -62.278812
-7.506044 236.659683 -62.232834
-7.984031 242.542999 -62.889740
78.891998 235.550217 -64.804428
0.313799 239.478302 -64.595505
-142.565918 246.058334 -62.634026
-13.812756 239.146744 -61.215210
74.511856 238.110245 -62.984173
75.104683 243.162430 -63.091106
-134.162140 242.343552 -61.440880
-156.962677 238.280823 -65.234169
-113.778664 242.840958 -61.494205
-124.309921 245.546799 -58.743450
-163.285187 244.731308 -61.559799
-159.684402 245.570251 -63.166100
-146.320541 244.046997 -59.287254
-12.337149 245.311203 -61.766178
-4.789614 250.451370 -62.102917
-160.322586 250.550323 -61.336174
5.885135 248.175705 -63.569592
3.264196 246.633881 -63.436268
-159.686127 248.704941 -62.494431
17.198616 252.243271 -66.417511
51.186543 255.391068 -64.991173
50.987862 254.425644 -64.939209
-15.592649 256.911285 -63.786327
48.585377 259.196381 -61.602444
-161.158859 259.992035 -59.756828
-158.787170 257.346832 -63.000111
-160.173569 259.420227 -66.155167
55.074253 258.757935 -62.519028
-91.918594 262.711823 -61.655071
-124.600235 264.276001 -61.982494
-105.580338 263.562439 -66.676056
26.852306 267.450439 -66.363991
41.587303 261.195129 -60.845715
-100.548996 264.828064 -60.300171
-93.402809 261.539642 -58.837360
45.697788 264.522125 -66.408966
42.464321 266.733185 -61.219086
-154.685074 267.799316 -67.328484
30.672623 269.256317 -62.743847
-142.712646 274.162384 -65.605415
-113.300797 272.287689 -62.317787
-136.866852 272.388702 -61.720322
31.427872 272.770538 -62.453312
-126.044479 273.369995 -61.583237
-11.092710 268.079376 -61.577606
21.690615 281.018463 -65.813004
-5.564538 275.279022 -66.794495
19.845728 289.867035 -64.749054
-153.219193 292.261078 -64.608940
-10.886336 290.576050 -61.585159
-153.070633 292.323669 -66.206009
-123.758377 294.825073 -64.482056
-160.453110 296.057037 -68.501427
-114.722954 296.889465 -62.741241
-104.437912 299.372437 -63.117447
-6.937005 295.201660 -61.366062
-108.304962 299.018250 -64.112213
-116.479691 294.995178 -60.680531
-120.277016 301.403870 -59.942261
-138.055054 299.591644 -62.610023
-126.239723 301.288086 -60.580521
-157.695114 299.659943 -67.195992
-146.860809 302.547028 -61.059757
-156.537598 311.515930 -60.613884
-154.220505 320.786530 -61.281776
-158.357300 310.808655 -61.437687
-141.805054 320.350433 -63.833714
-149.615509 323.562805 -64.117546
36.341583 18.709595 -63.536873
47.713474 26.184896 -66.581055
25.001825 33.243984 -59.765499
51.319939 37.136429 -63.456978
29.040533 44.056343 -65.149513
33.737286 44.307442 -64.022598
-56.859329 57.025261 -58.841518
80.708031 70.969147 -59.041927
81.986435 76.639465 -63.600582
-89.513725 71.910797 -63.507927
-11.777485 71.120125 -60.141388
-91.625580 79.641655 -64.405144
97.300064 78.493233 -64.485527
-12.884210 77.626999 -59.673286
68.478508 88.540764 -65.068863
-41.105797 88.874039 -66.612373
-26.358992 85.411469 -66.054382
57.038673 95.933678 -59.345528
-43.230145 94.007370 -72.435020
65.671280 96.710251 -55.449612
53.712925 99.427681 -66.481445
54.471722 103.378815 -62.620926
60.390045 100.511276 -66.878342
57.632736 105.444420 -59.683804
100.525803 107.471703 -59.682289
106.759338 108.371468 -58.539387
60.575680 109.624771 -64.927246
107.690460 109.272034 -58.566692
-76.150558 108.752083 -62.052090
-71.906906 111.520752 -61.960567
101.090424 108.224365 -59.404537
54.012802 110.508888 -63.003925
71.207581 108.370613 -63.770599
-71.731087 116.863350 -62.496769
-84.393333 116.686150 -61.119053
89.942711 114.046585 -65.095192
40.967148 113.910126 -63.517128
105.603630 115.560020 -59.062595
47.293503 123.144699 -64.468796
110.866333 113.270721 -62.453411
-77.963409 120.540337 -61.862877
105.269302 118.288513 -58.274197
-83.586594 130.670380 -59.998547
-57.876060 138.011703 -64.507149
-55.216591 134.360489 -61.310505
-71.806053 139.414459 -63.595413
-50.298122 140.438950 -63.562847
-83.385643 142.367004 -63.819729
-76.863235 142.505447 -59.338947
-79.942360 140.420166 -62.348183
-59.589451 151.013855 -66.585129
-70.996994 150.138000 -62.014389
-59.388355 144.590057 -65.369858
-57.986744 151.341904 -62.532780
17.333498 153.413132 -58.852962
-90.400948 151.671600 -62.678558
-47.090664 156.186142 -65.820892
-95.930984 159.199432 -60.494884
-100.345329 158.702972 -60.049774
19.680424 163.370422 -63.994019
14.570498 167.732895 -63.436527
-95.334526 169.206146 -63.882610
-102.982239 163.674164 -62.402054
-99.911072 177.868576 -61.134071
22.512564 179.486053 -61.479698
