# This PCD file was generated using the MATLAB® pcwrite function
# from Computer Vision Toolbox®.
# .PCD v.7 - Point Cloud Data file format
VERSION .7
FIELDS x y z
SIZE 8 8 8
TYPE F F F
COUNT 1 1 1
WIDTH 786
HEIGHT 1
VIEWPOINT 0 0 0 1 0 0 0
POINTS 786
DATA ascii
-16.211931842307106 -76.222808145185709 -213.128368233911459
-147.397427708552954 -78.891319293272005 -205.750814123965085
92.648515006268113 -74.477098124156711 -212.424108440068267
91.367205438686042 -72.814850409561402 -217.199606286081604
92.662691146751570 -74.558188094413296 -219.045233932587024
-99.805554524577715 -77.377992889207391 -219.942300847779819
-150.529144327163522 -80.596577189330858 -221.889118574523167
-17.550324326863485 -75.047662469194250 -222.033057387019653
82.365169548272917 -72.519647444418396 -225.056245318922834
-147.093096644090281 -81.489037651826663 -223.842782344949796
-25.557112266391712 -77.375076763548293 -218.383001265377573
-131.003925350848220 -76.605775670107874 -231.152426635369920
-9.306307973252778 -78.448573262198124 -229.322041490226866
19.939523838174580 -75.063320440019012 -225.291127687110020
22.181666225100503 -76.602886177714595 -231.940130355657828
-152.259161735795033 -81.449304201260361 -234.136343699749659
-123.432663488278195 -74.862398917644811 -232.611195395335898
-5.725195791690230 -75.497403944214625 -234.570161384948619
2.556678458970147 -75.394236991105274 -236.543299770717567
71.673829638085579 -74.708999096253152 -231.956986892752326
73.109125185383874 -72.442546993265992 -237.036058835679256
2.104208172534098 -74.761287725123466 -239.596372358859355
18.845469844455017 -72.551147626828083 -238.995868706456264
-27.769633580574826 -70.941968073991035 -240.097925861336790
-31.108402996297386 -82.070773124787451 -240.862925609529754
-44.387795074075008 -76.188705928006996 -238.212651118557375
-36.794926622251779 -74.777774973401307 -240.441173092014992
-14.937180398927271 -77.556911959248936 -242.104168659248387
-49.953523175645522 -75.277183715241492 -243.387666312209745
4.374493696728518 -76.343266121751043 -244.399542957403497
-65.672131133075311 -77.739472397383182 -243.748045941927302
23.221986867819183 -76.568412238164981 -246.331636507365744
-141.582987434464400 -80.421333431653593 -244.949902340134344
-70.104682278343631 -79.488770518934089 -251.251434753533289
17.859774647000311 -77.412503065836134 -248.408791555883880
-158.839375685245017 -77.522026212509601 -249.424099271397580
17.645052940111118 -79.112180894057886 -251.999896788037489
-77.514399914721679 -73.620946322003192 -250.445941767615039
-72.662888976600982 -77.854946771143844 -250.458120325734541
22.178651686981240 -77.291453756442095 -254.259043894416521
-86.685484648557818 -76.805839783200099 -251.911425638232544
-123.214678482570520 -75.580467211703578 -254.992251976595270
-130.981805241627342 -80.427494678717764 -259.364239443832844
-132.515934527787209 -80.436467981198803 -254.608389190254769
-144.561030746974239 -79.051574188233587 -260.821127783612667
-141.866651420476671 -76.062547443554550 -255.040414264655482
-132.337331782983966 -76.709399187306758 -261.640477492592368
-159.190323079088955 -76.149332158588606 -260.787520338759634
-124.505799901233544 -77.304311357607048 -266.038612520139623
-132.867959960371110 -74.866892994600533 -262.513500714041641
-161.205777318132021 -76.272737769190769 -267.408316532797187
-154.234439971853135 -76.291186024609999 -264.134417463814543
-146.828823662047938 -76.928099803195593 -265.480005403710834
-145.501262226340145 -78.800770664561853 -265.564129594244093
19.304250445385950 -78.594776398896101 -277.756255128748478
-163.590091160195641 -78.527744554009189 -267.083891781605928
-149.337287349296503 -79.297966300460843 -273.390946523697949
-3.096528340443835 -83.204348789927465 -272.299899848150289
-154.753852958776292 -76.676607562641465 -272.552050945982728
14.822810516811856 -79.805721985029834 -281.153325797107016
-149.707551758345659 -78.237950737395039 -281.796842963557935
-161.904015445501642 -79.650404494545043 -287.730958222499339
-152.286130277182281 -80.348570033350569 -280.209880612701454
-162.542158952161657 -77.317745370883713 -287.757206383399478
3.979867557108899 -78.867738370423965 -286.704621180012452
9.967173840983468 -80.477733943277428 -282.239271638936998
-99.438153262049710 -76.490536066823594 -290.586930837534965
-151.296877817718553 -82.648900759118689 -287.586633261925556
-145.742651278506713 -76.816053988392142 -285.869498809074798
-104.745582341016089 -77.038373234721575 -290.439635449665786
-149.594128565766226 -80.659330218060433 -291.780707025289132
-145.839475212415948 -81.268062034045286 -289.251223923919042
-69.509268145069043 -79.757806057248601 -292.091277779735833
-163.174308507093713 -80.465318109866189 -289.446031759844516
-120.575839501662642 -75.605989648928272 -291.268651694032201
-40.551729657645886 -80.309144898807162 -287.340911979632835
-150.807244312370329 -78.392120173968166 -288.435911010703990
-130.623325779936835 -74.402393918942380 -293.379541548477619
-16.058372916164728 -74.866084159517797 -293.221996968602980
-125.462196630819562 -75.801801323174928 -293.285625868648424
8.438853616355249 -77.293999246414657 -293.621891322115971
17.919398864990203 -74.409807681213280 -291.815531897869448
-131.031855082987079 -75.835338931020672 -291.661990594874339
-143.045144940024215 -79.846238315761852 -297.064406411436835
-153.480898882095602 -80.840685891708659 -313.789676379885123
-70.254027284319349 -70.173802114666060 -52.138318905661954
-20.381592783620473 -68.941939515588643 -63.425502057484493
-18.284188160218889 -75.405785427241739 -64.558706495671046
74.545131677025680 -70.526898288986516 -76.156547953763109
92.965455054482561 -71.820129158864916 -74.779386304617717
-35.037105416837825 -73.566601355460861 -78.567824821214401
77.244432724712766 -71.824242012564170 -78.603590800428407
91.522705543194462 -75.411245788416579 -81.231503736689504
69.926073935340199 -72.447311569381867 -82.630778481675819
74.664237296236536 -71.773582625989263 -87.892373438139074
-47.764766096764170 -75.540097337310428 -85.941329859549143
-89.790946117511936 -76.868515951870549 -88.198915680389206
60.755030428725753 -74.614929691034277 -92.992471126787066
52.145927311121547 -74.364119210455314 -98.200507157806143
95.745276343312526 -69.988895368556570 -98.261228507394435
-90.222006179408439 -71.162394487497338 -101.646396121009431
83.896819023835334 -69.497111027464214 -98.330928985225327
75.114139425312402 -72.989637613604160 -99.165601390317775
93.722700671369154 -73.926666347616262 -97.342139879761191
85.212665007770156 -72.087657564380635 -97.105495112318224
85.057208503463883 -75.015208992852365 -97.620451882300614
-83.290649906721910 -76.535460061684276 -102.237415653083190
44.502936583584528 -71.828013853688475 -106.083137954007782
107.530121729307950 -73.116730102484809 -109.795325613877893
110.145524564864502 -72.699400299946618 -109.803578307296732
50.250070030679872 -75.469100762721951 -118.009920893401997
113.276153625587853 -74.439017891768458 -120.090937706018124
118.815782121894145 -74.960327414074072 -133.922519683639678
-49.336157297752308 -72.806366077545775 -131.018811212231299
29.478073426431806 -73.246394445782599 -133.892712175061973
42.774166678647589 -75.839842061112094 -132.874808330337544
27.221360296352426 -71.324507019293335 -142.180636841428935
115.148473313962640 -74.973223013360595 -137.423063943865571
113.903547131476103 -73.175058215594774 -130.876759866110831
-71.435625736594986 -75.176223807200344 -148.098225308729781
-41.807604884055110 -74.104606805117641 -142.595933207256707
-69.072717414266009 -73.457866655625864 -151.190479187780312
21.857141357842860 -72.623529743393561 -149.146479517442401
114.673568850919892 -70.709109635220869 -148.578756456211948
-51.441904677295113 -76.055655061768846 -150.696931708485295
-69.097057340818353 -73.907796349417396 -150.890781061350026
-36.693950785287029 -77.726683885980307 -152.139270828787687
34.477225310298536 -69.293416757547149 -152.693179681787228
112.154661036031968 -70.006320766849186 -150.384353982917588
117.564346864515954 -71.755483039582586 -159.728960367282980
-66.098180865604292 -72.262441485846765 -154.961383198009287
-70.426265134003188 -76.785413098909345 -160.999507649501908
23.999593574437597 -77.161446168053402 -162.735642192174851
-57.898691519039595 -73.157877470438038 -166.703044558266498
-30.607067036623004 -73.422536255726882 -162.207132039125071
10.101276745782124 -75.280410214143956 -162.960106256188595
110.934193253506905 -70.961307536760856 -160.900655244323474
10.112557501476338 -76.871243327846912 -166.456708918202224
-30.606469726144628 -75.053905017399757 -165.373236831681709
0.238665244832272 -70.605067759052474 -165.399392285220699
109.794935075235628 -70.124451475322218 -167.323580187479450
-39.206748230818526 -72.453437746207541 -165.371186181361651
31.408701860791986 -71.392253447221364 -171.706095061518056
115.289589840231812 -75.572966623934860 -171.575888481008690
-55.017753214204596 -72.411477358585230 -176.062600316927558
-25.906277122074091 -77.072681828025793 -174.314631565440948
105.237226800538821 -73.028367009478131 -173.357954740059853
31.334588527267172 -72.180541297901257 -169.194699549883552
109.892596261284311 -74.585043411640726 -174.368606936309249
-34.676100751410182 -71.959881393995076 -177.948594028593249
110.691082641221755 -75.301565505906723 -179.875345591946768
-59.646113936046291 -72.970066756700220 -177.489215098638766
-23.189469720386288 -78.310582379736402 -178.500005730207448
-144.174637085430419 -72.005200895435891 -183.836842589739177
-51.880738754213304 -74.282123220009254 -180.552312775484779
-144.795484899395348 -76.764776463876856 -186.456688625958094
-31.794465003100104 -72.966097246158043 -184.795916947046010
29.227749873637826 -77.500376634596392 -181.210658400017394
108.786571027029581 -73.527453305417950 -182.518246138360325
-31.721297711867077 -75.062055209981565 -183.623827123720133
13.337789255092774 -74.930817433099037 -190.351625568803456
19.697322617943563 -74.017970139740086 -203.104718431280048
-145.815786088060491 -77.039584504109413 -189.931121579866868
107.450408595232247 -75.068592418282662 -194.765160316054420
-19.007959112756684 -72.575751176942461 -192.908636249674430
103.687236064443994 -73.920968913093816 -187.498889758305523
15.192045438226625 -72.047842970381737 -189.048524222189627
-134.494272279785832 -76.133729197901260 -203.867456939779316
-136.414834568940819 -76.129645946749747 -200.056282779528345
102.702144236850486 -75.638556725957883 -200.564298935446118
-9.456055949528830 -78.267729757017960 -200.031285988187278
-13.930691030406859 -75.701495098241338 -202.631505545310745
13.014510572180697 -76.402722772223456 -206.912563949775347
-147.611216298405822 -75.066729667708799 -206.131788652811736
-143.785212032170762 -77.898514117716942 -208.245591213773196
102.445256022958560 -69.301360373112502 -203.931912466835200
-79.750680764753383 -75.323328955416784 -208.111881571300870
-33.623211193704186 -75.638818269195383 -201.398629960824138
21.314867967802829 -76.948237872320448 -212.852537494344148
-22.733388614970316 -75.488664091251124 -210.825303100284287
-74.111349249471388 -74.099764218976532 -207.799447654645519
93.452757413768325 -73.482941452145980 -208.984236600349760
-77.984267564711871 -73.489130703177707 -212.328457233183599
-144.849031420470936 -77.085968404003253 -218.816247703861734
-77.510340901399331 -74.551065268340196 -213.187624604378868
-10.850678996906902 -70.415703621118070 -209.602347492515918
-18.197923455387009 -72.687916011216728 -218.629284714112742
20.968934493777827 -74.351861481905246 -212.837923114290390
-2.969041741685185 -76.191205996494176 -219.134622979017507
-85.724317323868092 -79.005660995692068 -218.759040339026285
95.079512354565111 -72.700415767091570 -212.906749663311302
-95.915780634823832 -75.111649159982875 -215.664676425807670
-149.719774711068993 -76.115543942236016 -224.300393011699356
-22.679988475123700 -74.172527319369635 -223.382350752311794
20.254033289941301 -74.954838720438232 -215.574084269605095
-99.521119329891320 -76.228343732482159 -220.007245536061475
9.853485333968043 -71.711086919544883 -218.478316517710397
-23.183419819683827 -75.116087753125328 -215.318025550422476
85.359265943348177 -72.124193962743774 -223.530974971955487
-142.819274474414470 -75.966283483261421 -219.351062885147599
12.836048975297397 -73.392051085901471 -225.372531936382643
-6.917853854877799 -77.823078952099706 -225.314987771911802
19.931025196491039 -68.911636723978532 -222.119319873062040
86.142321191061384 -74.451342963092912 -221.582584816293888
-11.031810049208389 -77.183653717310563 -228.161544126477679
-128.005346139742045 -77.641516860326760 -226.654899722571628
-11.321734955258062 -75.146325728467389 -224.122938514371356
19.299010793750995 -75.035799222898774 -230.668743611209266
-124.153206616894323 -78.478457180921765 -227.311145333181969
-149.103346791617781 -73.805252299004181 -229.802276313222023
-139.870083441235920 -75.709067675634927 -229.079286270816340
-128.384721641268300 -74.741667249529044 -228.042882188408186
-10.654242041944451 -72.988637734975512 -224.909770917318696
74.368037845364100 -73.502912569583543 -227.532998150437805
-140.773846069344984 -73.423772679936150 -236.495326237491810
73.327895826461770 -74.908581133527207 -228.093142626790524
-17.876971446279924 -78.187767559670078 -229.283055065482017
-139.684964114267899 -79.844876367618951 -229.451933226821637
79.911711725098641 -78.385415436477388 -228.115774929461708
12.299767935453662 -78.412896709816337 -232.991099589735313
-138.998752638085875 -80.758002129769011 -235.379149506746700
-147.525365818671986 -75.880094422783912 -234.091392972694678
19.337012719997730 -71.467163294925228 -231.055059894353207
-0.112114436471351 -77.207828371038985 -237.269573082980941
-25.145695161187277 -74.690554076653939 -236.918271128407781
0.857278390294827 -71.062378380492234 -237.269795827236862
-158.200335407559663 -78.965238693697685 -237.924776889978119
10.504883056993799 -73.751377326017547 -243.128692531284372
-162.153307552312839 -77.524768897982426 -239.003247704584737
-10.234920951200369 -76.142414038345933 -237.320576817507117
64.092516982177145 -74.819145681060974 -238.557637959988995
-10.548429575276803 -74.130398008197744 -237.782727064605837
-22.329873111800442 -74.483031249476383 -244.081261341206300
-22.456715059743644 -74.710720103488583 -241.479039396754700
-10.262458858808053 -77.182313123368942 -240.492987400017199
-143.791054204266715 -76.975297163949662 -231.188212947644729
10.636997419018032 -74.105067805711982 -241.910060533069384
66.803856299520433 -73.580623308608949 -243.042380536169304
17.246426508462896 -72.651712424430954 -244.706693275455791
-163.435601023100958 -75.438570633501826 -241.867607139353709
-47.949329924192725 -74.474423684048304 -240.615002795815968
6.629015201284537 -81.475638320467212 -247.626347390153995
19.568036062775580 -74.704594617235955 -243.778859367938651
-51.636367643739973 -74.884638790712955 -247.032862771217282
-0.299757933342966 -71.155492475393530 -247.953690153904603
23.581901119218550 -79.327926593073158 -247.398574731090008
-166.566899635653328 -75.325951078944172 -249.082993271903689
-64.940807902013006 -78.874102325773165 -247.990857379223399
-49.004640557567953 -74.415249776706943 -247.237995364108286
-78.521474613913298 -75.009102893886080 -251.283709652085207
-158.415143230514104 -77.776254821615780 -247.216045069397779
-148.239990829868248 -71.115930431355650 -249.862456215442904
-57.489566102394768 -77.357453289303194 -249.497735976915379
-66.171990315673142 -75.571003331702798 -249.854605671792143
-151.041672844305452 -74.985148751037073 -252.982432743637304
-149.411218846526424 -77.528044652172483 -252.540613022541464
-73.292431902908902 -72.826465483687542 -254.390291708581941
-90.858402184980505 -73.692837735602481 -255.292008851123597
-161.851060126075993 -72.491838364634177 -252.617595620227945
-154.192083643241688 -77.119637642062898 -260.011198764082337
-132.162782495311404 -78.034551955894258 -258.445511307199638
-80.543239378161829 -75.849925484099344 -251.345781901082290
-159.602503508736447 -74.188913383489435 -253.297842832558871
-139.255592267166378 -74.958240008420390 -257.147807616882744
-82.741598488510633 -75.031854367412691 -251.281279521113305
-94.101696203068116 -73.983635134752674 -260.441740982656654
-142.441167709411587 -77.526732789038064 -256.231471546096259
-90.885163503186391 -75.708703533255289 -256.169151161052525
-150.004130524720182 -75.233301623204341 -256.339259570207503
-99.721307341884327 -75.645258019525883 -255.688200449349182
-166.065338486967676 -76.325634874136838 -259.228373197945700
-158.826066625162042 -78.321533956347579 -263.733616458978190
-123.767533727343974 -79.162577843334560 -256.743078954707073
-149.059336959465696 -76.910502545005485 -259.739542137473165
-109.253762592315724 -73.661358953918167 -262.129088358272838
-11.731102286852735 -73.928606347206866 -261.663771950622674
-138.959153384060897 -76.385976921966190 -261.295542759616751
-123.231939365413325 -75.810361587192475 -260.341285184501203
-151.566127447246657 -75.308592111298864 -263.021934093992115
26.243670551286097 -75.588241633640237 -270.389563302591512
-145.921126736717326 -79.159307499784006 -278.928109074086649
-165.688205187818625 -77.542830528510123 -280.509617145411426
-5.474980639220028 -75.420755716719171 -279.173566315633536
-143.139160285739649 -76.899629810793982 -280.817053088937769
-6.824658367366735 -73.975064067415076 -282.946203651432768
15.578227148404581 -75.524464266488337 -285.737578373301574
-133.912990353451931 -75.503115690721486 -286.276224254246699
-65.512668430716346 -77.826187124091064 -286.912484155691288
-30.533222526156251 -77.931335025063717 -287.869697922396028
-110.143701521428426 -76.484414564641739 -284.597535220437521
-92.486971022605090 -80.012870721959672 -290.290355283608733
-86.835608755778196 -76.696264567346432 -291.496413170739629
-47.012572750139711 -77.278016875592158 -291.793879108694057
-113.130141801060233 -80.630343066496138 -288.727442680447098
-110.916740419454811 -77.862848183459036 -290.447212343117371
-30.336793761464389 -73.441751933872368 -289.093586610983209
-112.530253142483772 -77.202665702824717 -293.215378045502007
-124.351948639834845 -72.906513913877106 -290.538832910352255
-141.580719892516896 -79.023146463551583 -293.875311386769226
9.927301580343530 -75.118095017958368 -291.212154477584022
19.442043408479446 -76.947831499982328 -292.935153202235824
-157.112626294617371 -77.246704183270467 -293.228762012917230
-155.438019324065863 -80.868468390952884 -301.000038764424062
-144.090101169332684 -78.711760702670531 -310.806471362749107
-149.114603833119247 -76.318950721253444 -311.221322586279371
-149.657323250646101 -79.024484814994167 -313.892888869838941
30.772960729573953 -73.604278675513044 -14.491822581560916
32.659634186256788 -68.955980755970145 -17.918168465991123
23.352962569756016 -71.174614925828990 -23.927519210397463
30.891810018887458 -69.064445100543509 -38.922821559076588
-56.111332056140689 -71.305530789738924 -49.728553752437506
-63.199245789032588 -71.900838774600061 -50.183372573538612
-36.799798788115304 -74.811553069930000 -50.151492237960753
-82.417596597075431 -69.065247453641192 -63.075104099093934
83.344704745784981 -74.010312786051813 -73.586076973847582
-13.382360419635305 -70.391885214946953 -70.892180834149386
91.189158914326256 -71.873416475711849 -65.775291372125238
101.449454836216418 -70.789335680438029 -76.351321114709052
-90.500473726764454 -71.279931706582147 -76.481010715756625
69.755857832586045 -71.379062914987074 -79.922162856287912
-38.868227991654862 -76.424565007176071 -85.475035824039765
103.019609320586710 -70.177397465079707 -81.471368335753766
-53.491536841934717 -71.655765474859464 -88.627529560661245
53.189186726842969 -72.212203425918588 -90.122214558731514
73.156854737303505 -76.698061404864561 -90.162935188171218
57.652416300913075 -71.087886673489223 -95.865178931027714
55.019621781384039 -73.658286514896190 -98.101717137274932
76.618463899891495 -74.729631593156071 -95.100103125413597
48.684571032987208 -71.934492992400166 -104.810260537046133
102.609223652381061 -72.132514899337394 -100.152975088561433
108.152350047174664 -75.375228202277270 -105.734359786753473
82.148448219758563 -69.113597863319924 -102.937899480904932
94.021889286365223 -72.850039540634029 -102.858039419252094
103.032472607821902 -71.636250914868029 -94.519960739397604
111.710166543141327 -72.007912998265738 -103.051203061183784
41.780746468549523 -72.266234042435912 -105.739915087640554
114.747085097795008 -69.105406966769792 -118.005226569304838
116.048265870001288 -72.939146518625847 -118.174184459361044
33.578131518502701 -71.230952278722384 -123.189125270544494
47.013791283694950 -73.636163279098270 -118.436805254576100
117.574525822792310 -72.257319781614896 -129.494099201775498
38.520806939978421 -72.209574480713499 -126.270690297505652
117.400328757546404 -75.292035897625468 -126.980466079957566
111.046108321895773 -72.753955562042421 -121.752889708831972
28.771092546153390 -73.688631859933722 -135.193498563795941
-45.607350857203627 -74.080184408271293 -134.030128932304393
-49.792984135418024 -72.166754398183244 -135.091986820909881
113.683532963521216 -71.347233966587410 -134.302278709428691
-66.791443555063566 -77.629856034693375 -140.444834079005346
-70.431215869194432 -74.746208285215516 -140.375940465483552
-56.548780074292935 -74.479480756818887 -141.165688082183920
34.324885355793853 -72.990761463483992 -143.232284587618295
118.617833453083065 -73.821493312214926 -145.160167130836470
-67.018487442675564 -71.086459923329585 -147.180496974392838
-45.578228845753209 -73.567289947477306 -142.529813317851335
35.856265082941235 -73.692788333351160 -150.821006781064568
-65.664632095661531 -75.277719854673876 -147.826946271648580
116.395235546400002 -71.086390951324915 -140.613852075606474
114.325313210404104 -70.543476450352813 -156.868175713718500
118.801624908326346 -73.318420321854248 -152.210719214207188
-35.880486166927419 -76.346524575659259 -152.916401689481035
-62.197158075991638 -74.427072100407088 -164.318278883262735
-66.718441304275800 -71.268466663585912 -157.231045981828572
32.622347637289984 -74.091701314745507 -145.971336365780928
0.463966179865544 -75.555418570346177 -161.784888064788674
111.675991516604952 -71.998930577988162 -160.910426376096382
114.284548197880667 -70.580040495775833 -152.325138154262504
114.801916734265561 -74.517920445623233 -157.622945852791645
-61.236528244781219 -71.641579556110102 -160.096193909700673
-42.757812411859454 -76.063922323946898 -165.101466193594547
0.229651871044810 -72.910450952050482 -164.789647106731252
-26.635133922153425 -74.321583393349002 -174.731208786293593
108.535575745179855 -71.663271135940533 -166.535822381536377
-31.781611928042214 -76.883655004694774 -159.859481765646763
111.975107156204544 -70.987157346436021 -167.661596391822314
-39.157246396226419 -74.757375386190759 -173.494318329809715
111.203956373363809 -70.374459788807641 -167.943209461074645
-148.822178298609401 -76.482618964336325 -180.322940331090138
-24.346338978387159 -70.425224646587907 -176.643252740849675
-17.644793233823300 -74.188239499828967 -183.126225936350409
27.550497202486209 -76.501748798884634 -176.675050465451278
17.710649907580954 -73.364543973782077 -182.800359358862835
30.299425185600509 -73.946586635481765 -182.625082142103622
106.970241694283104 -76.473383879323535 -182.944396756056904
-149.183451059168874 -72.764378815529611 -185.219358963588490
-17.032986368590901 -76.320517913264467 -184.586452273569279
104.838600212336232 -73.531718137467138 -177.864789567068073
105.821915850977746 -69.735306989631596 -189.011760804262394
110.837199141304950 -73.697771501605473 -177.045785274048285
101.774879908268559 -74.575076588305251 -193.004418682213554
-148.613137709568406 -76.190459679648356 -196.803558900297588
102.763598759218567 -73.842502620004254 -204.769473829478414
-25.560345240794778 -72.238734252159503 -196.989246584925439
100.222123763706819 -72.688202644471630 -195.080509820628606
-118.644790041242544 -78.472461188093504 -200.230867949702315
-27.047832873193368 -78.657378831635597 -189.858412287430241
-139.283093560438743 -71.629048877481978 -198.608021032935739
98.029751604004360 -73.106514335670909 -197.911895916682141
11.341731143105978 -74.690750128844726 -198.704070610305536
26.519419554242866 -72.435007913673687 -192.174486810128542
-145.391995597156466 -76.078063195024711 -203.182354080243726
-136.257246952225415 -74.808552765152371 -202.306538452549290
-7.343340305896375 -73.863401249096768 -206.431909893902429
-121.690456205190969 -75.228825470512632 -203.946356220768223
-141.184205049289858 -77.928216689723001 -199.937222974834896
6.634051051377356 -74.265781638468269 -199.240096345915248
-21.530118466249213 -76.456955493079249 -200.827253228353271
23.397618864757654 -76.615764709115481 -201.854665895319272
9.366613005079905 -75.416009136177962 -211.445707405694719
88.114864455490036 -70.822717540785177 -207.923326072790132
-15.711484415456475 -71.896936562038263 -211.704672352798639
94.006537069962363 -71.017745784867074 -208.296696273455382
99.781421475871397 -74.886993788747034 -206.263166061880924
-146.217593580077022 -76.802060762877332 -214.808040973966257
98.231163903940484 -74.817243839048871 -210.836759707020377
7.686296983658775 -73.185876897008214 -206.961284310372690
6.332640115817261 -76.286815164254520 -214.029514600161605
-30.279019813877479 -74.094826865695126 -206.782512749306363
-86.715172063317439 -74.561587112465759 -213.165094892053560
-23.506288959465024 -75.842978736691748 -210.593790132043097
87.848023300424401 -72.580928960846308 -216.228825159549615
92.005439223773109 -72.367142516040943 -216.325359682366354
-29.141780155896342 -73.750315868651782 -212.033366245472052
-81.698841221816750 -72.223675665606493 -218.453127555290109
1.706941785130428 -76.263144994795837 -218.337834564462952
84.708591565539876 -69.861354760458966 -212.535391044773519
-149.138146462307645 -79.571231089873891 -222.141114307856043
-163.115121296424320 -74.364413888393912 -214.729863910677921
-159.208336681574025 -78.403279754488452 -222.611710766182398
-18.632310144310193 -75.473597964373738 -226.593952621180648
-151.118444108353629 -78.749821452524145 -223.065682912874195
-2.968532776053602 -75.528586544102197 -224.126879678635134
9.303308488877436 -75.201001397179496 -217.996019298018666
-164.404282605038730 -75.927032679145299 -225.973603267893111
-156.040394666264433 -76.347212331801543 -227.772939674011326
82.086257911289479 -76.635165274953494 -230.682682750428739
3.012007722068309 -73.216014643748721 -226.308478026643144
-154.838822479510384 -71.390368235374481 -226.623881662753291
-139.725232902133456 -77.346928792667157 -224.680600762987041
-16.455033038664190 -73.571281171794212 -223.667317348410705
2.401569891150033 -78.436671996762371 -222.040755746167832
82.792352104591259 -71.063482160694178 -224.945620064907558
-158.518369585035373 -74.389131316100503 -228.326020587763736
-141.243994672574132 -73.613444571702246 -231.249734128659782
-122.351594580562448 -74.094513976739108 -231.193727214633924
81.578387065130130 -74.857746361332190 -225.942795484038129
-112.857483304334821 -75.450345950417216 -229.391969818884633
-143.630791977477656 -75.802582740212813 -229.658563088914832
-147.741261221842507 -74.623009106575310 -231.833938940142900
-146.225398636104472 -76.651310549231965 -231.712008941284068
-153.044213089617642 -76.478292760393941 -229.513571134162532
-162.297303153691161 -76.503833834259680 -229.481950499427455
-130.896917673902465 -75.963205814079501 -235.658779393362238
-130.464465960382086 -76.907191195685542 -233.439883093048508
-150.344041817550305 -79.593876921140364 -233.254373850138876
-142.610399951980980 -72.508957491379604 -237.269001510964159
-148.798665465123548 -76.469978696709873 -235.723245052519502
77.770437490276805 -75.538928208591543 -231.700545225472410
70.133659039280346 -68.954855440829959 -235.389314130987430
-154.205134542406626 -74.652730404223263 -235.843894189600320
74.524289778411202 -69.282767883168489 -232.654167148406032
-16.941813636400926 -73.249681516772810 -236.428722149273085
14.291022622163069 -75.509123968702085 -236.674224836068817
9.797132900205716 -75.119535561176974 -235.634615840045342
-151.632482630632325 -76.239180197180545 -243.093167986641646
17.466018458675343 -73.754719634432746 -240.701349477164086
63.815387327389452 -72.573568521199704 -237.370109177335593
16.256702121083169 -71.875424379564237 -237.581576229132139
8.255063563473064 -74.873992829622637 -241.203671560202338
-3.648091901899293 -72.486097189047570 -240.084734639759859
-18.266251126334254 -73.312427656623527 -242.640774338633378
1.170176886299067 -74.414666539954894 -241.650054177898483
6.766444087623488 -77.101716331113053 -244.607983054374301
60.328947824746976 -74.824124279529656 -240.956351326353797
-52.499673581535262 -78.423057948061043 -244.663173250029132
22.502292425386788 -73.283769813080170 -246.944640678880347
-56.658159873164692 -76.058467936805982 -241.773778502899859
-6.957675911798930 -74.817361718520885 -247.621733320658535
-63.212470212543032 -71.985427225976238 -250.355745109121671
-83.147756524694486 -73.992870682238959 -253.286761015009489
-79.689772406106385 -76.433242931329090 -252.226051531603702
-6.924505147152704 -74.095203582802498 -254.541201506476710
-120.946814571811970 -75.874159868556774 -259.374374617916772
-11.180995591219812 -75.632904056549123 -252.735325922064334
-114.072796434413192 -75.961315727750801 -255.997335437446992
-113.586571367617580 -74.673953770478832 -258.947709677379464
-100.641300500107860 -75.621426217001996 -256.768541693739678
-140.961326047037602 -75.379736205249955 -262.283460236399492
-142.079836981373603 -75.877628533655511 -267.684850492674002
-165.728410599237577 -76.667138907759892 -264.164876454120133
22.420152255493239 -78.128529770117282 -279.828733550915672
-55.051501346916638 -73.782652085562489 -285.419435318535875
-64.238867570157112 -74.726698726773222 -283.766593151600432
-39.118725403958287 -77.138140715545447 -283.775977268836073
-25.025172068936612 -76.250546067666846 -286.314532693757883
-93.284995858292916 -77.988871221795137 -289.398784974034584
-27.857913688876422 -73.433848799233914 -285.614847952834907
-1.105525014955533 -75.066687581334520 -285.911811118755622
-164.373125582677403 -76.969295612833577 -289.869448825066399
-12.848108915166307 -77.227190521114437 -285.648536219572293
9.376017682985704 -76.107190526590713 -287.606937050539841
17.167028351127545 -79.106499223659199 -283.186777163150964
-53.939945840412463 -77.940330250898143 -287.586905418115293
-30.213918151391255 -75.864259664406802 -291.353223170823981
17.188868837483387 -73.052991330719877 -292.744556373576870
-67.929285618025162 -74.519874781101890 -293.015597573895263
-37.298319396343700 -72.990279617386435 -289.103549869561050
-14.895762845377000 -73.261024813249804 -289.825007334724546
18.071692841416933 -77.078217301375531 -290.624664732020449
-8.541281901148256 -76.861142457453582 -293.963317998451771
6.931897057228552 -73.878119330818379 -293.514375834228474
17.270555392589010 -76.820323267795814 -290.204634203955095
-131.908339306328401 -75.650195591431398 -294.742971262920435
-141.918457074083705 -79.118600193451627 -299.543708460308949
-147.935964984815712 -77.473357250562316 -313.661864964762856
45.129821602333855 -69.772429196978479 -13.258700631146956
32.229162248961039 -70.324902281832223 -11.416312153041092
41.398128259712607 -70.537841943513314 -14.965542002219879
24.066249616785999 -67.537548494272642 -18.402486500145926
47.062969165568973 -68.432578771171890 -21.933814674270863
27.663139728007717 -68.900594349323612 -23.616044516471867
25.912011510809311 -71.034079338737243 -27.116838173336248
26.996001735494044 -71.719034573316890 -37.883947664438544
41.730434194774723 -72.660381428224198 -30.316179242094130
28.512232244723052 -74.293377607655259 -35.882535274542519
45.232190686282891 -69.401674920576369 -37.218968343087134
34.051516300380214 -71.350417123425643 -38.991775116611635
40.965552271910759 -72.037600049113266 -35.463196829828959
33.123921943437750 -69.995569498337616 -39.549861758831995
45.787235095188223 -70.682653149608740 -40.703112707819855
35.892022472398772 -70.305090395527316 -38.573181133139059
-38.786675386448195 -70.056648085941930 -48.185172806310497
-27.947524396529438 -66.796255950275878 -50.585025880334129
-87.197676727596971 -70.873509667736613 -54.899070443297902
-86.810052702763059 -73.363080766607652 -65.626549251927315
80.183687139068084 -73.004111736595775 -65.915559767719557
86.575152757792381 -70.332288628827357 -71.742225908964329
-17.416788109552300 -69.856603322431781 -73.354530637655856
-85.985748072784375 -72.661702568836617 -71.793304693182293
-22.920136110322723 -71.209819931641846 -76.536485707063804
-47.365197408191598 -73.303676219140996 -84.818644998527517
68.172521734856701 -67.252277777748716 -85.583257244853201
55.021890124437746 -70.185500774067833 -92.589139329446283
101.796896528093555 -68.810400160788944 -90.556322942401962
71.804146670346327 -72.500992654335420 -95.807339194730119
-65.895514022903214 -73.921196139737958 -90.968151640423272
-59.883147728417839 -70.711594107261448 -97.830516064938095
47.165506738383030 -71.748448913192647 -96.757810890435721
79.746927713464004 -69.520870140850107 -99.072157254009255
56.941929647176813 -78.220488548322194 -104.196376474708828
103.608469049659021 -70.205805249648549 -95.674702091813785
-92.822594790529337 -74.627178744325136 -107.285957941134029
42.244042359841949 -71.769634034099980 -110.020518483892943
109.433215698290667 -71.474683442229619 -107.703769614882148
50.882402790888676 -71.281383113772819 -110.556546088643756
103.880012611898096 -71.661794084996416 -108.726481088454662
-83.059810240118566 -73.053533483447382 -115.303861163258631
38.254065648634260 -74.705547447198185 -111.180449705166140
109.013699766448354 -69.629655413028416 -115.781975184497099
107.081952478842879 -68.175992706624569 -114.807557935890671
107.924502641130985 -71.069837645885428 -114.070898157885793
112.901914674137188 -69.663491858988806 -113.525514207336869
42.314608624170646 -73.162561840386260 -109.476584619164129
34.422229653068207 -69.299029781722510 -116.700743856366998
43.312622569822416 -71.148192313858814 -113.453057418470237
109.226337784929356 -72.059662231282985 -120.707307750550669
42.517519907108891 -70.050215848189097 -122.570748617037012
111.510655936613020 -70.036276474102721 -131.100569370730028
113.374287011071516 -69.579898868297278 -129.986503095711555
35.954906068721009 -69.532635515889353 -119.990239502774372
-75.583188450930663 -72.923451098978774 -125.292937150506688
116.287128830958380 -68.380319671042614 -133.178521700143165
-52.024375621665847 -73.058745697910297 -137.209953161687565
37.937242001960151 -72.603727694582219 -134.042708656535325
-70.906356075756719 -73.497272970375008 -135.243657405646530
29.348054728379548 -74.015736760645837 -130.995319254972799
-77.204483720443832 -73.853303965803519 -142.643447260475938
-42.903084541404425 -75.814112927336822 -141.558649181526846
-71.607532126712314 -73.903977101449442 -137.981115121050578
112.568612526650554 -70.057168209216286 -135.974802281872712
119.555433269008759 -69.077880338177891 -140.502055385263020
120.533400719705554 -73.933409694600229 -145.220839523980942
-74.970373848903691 -72.399570637271736 -143.479858071610153
10.331819839860033 -68.614623989265112 -150.278309363932721
-49.648442656130122 -73.706116552864003 -149.046914827508118
-48.409375808394628 -74.064574642834813 -154.945999602227545
109.324810426234421 -71.587334421238623 -160.585175505122407
-39.051212131874550 -74.730624149674298 -148.846959950139450
16.357805127830080 -70.340732502820671 -157.108532365927147
24.744284679860243 -73.899441824932538 -156.922420991797367
117.133377918707851 -70.545032550946175 -163.527031756690633
32.208581973874637 -71.783165793795561 -165.049901648618402
1.535528869746179 -73.975165050491654 -162.917959598186258
34.250147735176647 -73.009651525934260 -160.087302880214139
-65.419848173679142 -71.791595594651994 -157.438228398531407
-63.397606330634645 -73.046391018850485 -158.851418574070721
-66.482266136523592 -72.185266190384112 -165.393465525927525
117.085221073324661 -67.835184405641513 -160.365837987507632
-42.166680434432038 -73.343509950248915 -162.605792460227036
20.165804238612608 -72.628143343196086 -164.861573500582352
-61.540817032964299 -72.480828899617833 -169.346164675694439
-60.663444382569487 -71.785766407859512 -171.108117254335809
-38.903251156756966 -73.943603672925988 -159.842977650861428
-31.109371632073298 -75.203035565638316 -168.147133482889444
117.451506171452905 -73.328760358023345 -170.135441834111020
-34.636333702723135 -68.791842016636252 -179.415865580400066
16.187393434237567 -73.599528883520392 -172.481391900447591
113.230683073312647 -74.114417938703625 -183.148505458982754
-145.148759700024328 -76.244611100597808 -176.018226737348101
-143.475701773065452 -74.271562029868377 -173.538957261529703
-146.211990156011922 -72.863746618326743 -179.946932907039752
-139.939337918689375 -75.896503882106572 -182.696746545501099
-29.385693580310701 -72.002486123619235 -185.049361558620063
-20.612448516412179 -73.289400528997575 -185.213029949244373
25.734818612703645 -69.198200924370411 -190.426842589976275
-138.950865359745535 -73.768931308689488 -186.675579335731754
-144.770511627641213 -74.966930777645132 -188.514710016352694
-18.839314739822839 -70.667271560897092 -185.978107779726940
13.595243669592792 -73.047383037819031 -181.889678125896694
-146.823183524580543 -74.687927911467639 -194.226866271034737
-29.061777515915917 -73.991095084752359 -187.479409287304975
102.632064950328001 -71.757019641152340 -187.290727687458570
108.773235368007775 -70.700046757516006 -188.746511002275781
26.645647714145799 -68.431874671531290 -192.791932531257231
-10.988587398252115 -73.309217013944419 -187.938944749107264
-25.184262264339203 -75.209416296159674 -192.839760439000912
-152.768663213587701 -75.864524513674539 -199.119615071446447
-130.063496515285351 -75.451391246670497 -196.752478055884694
-122.674529024066985 -71.829410999481311 -194.960654910892003
-122.162554806478909 -72.841097523218693 -197.529101919839633
-19.987343235925231 -69.242561606819052 -195.703609512743100
15.232114565845320 -74.765432738071851 -191.765537540258492
95.261150649008300 -75.443261626142956 -200.141700296107274
-147.559639408923090 -71.131240548893913 -195.466891858254911
-142.537737730326597 -72.272033378656616 -198.737831659969800
-148.339585012988380 -74.165512507110904 -200.143713271052917
-152.407026447201360 -72.533523887408649 -197.500076128115012
-22.209615031238346 -72.851257846789721 -199.144501203598196
-8.191521161243276 -71.669558604134252 -194.873429868867618
-143.845110559518815 -70.910619670980608 -202.167297876694505
-15.899423029438358 -72.502307708251578 -200.686373396987335
-158.856666327746979 -74.123042692935002 -200.694320593606903
-131.790972250463540 -74.290284119428264 -199.335357772274477
18.336992799082172 -74.709968043364796 -206.378607531353026
-158.755497138719761 -71.705528793779450 -204.183632425990595
-143.510673672667366 -76.093424904031707 -206.446582137413031
10.791736392120960 -71.118872777036728 -202.269196951987965
-151.575945589200501 -72.250564656548818 -202.706565254847163
-22.017554819247163 -72.751789282682708 -201.383515850578647
99.950073964282296 -72.522997654212219 -198.379147277780675
-155.836544143854439 -75.796678543615911 -212.503427489218780
-161.863708661717908 -77.869922774945792 -207.693574920947526
-74.297345366733623 -71.968774377892501 -208.091784203567386
91.876916195289283 -71.435945448121274 -208.166332019982349
-1.208185014266483 -72.092231323200309 -217.915356060053170
-151.934429648635188 -73.691026902583687 -212.935935842352706
-84.994833051350824 -74.179703984285908 -213.268657380882672
-6.680280526004389 -75.780081915781338 -210.787468206214555
18.204242244641719 -72.855287948772897 -219.346478275483207
-142.284745900395109 -75.466352974549665 -220.061367026525630
-0.914459687951062 -77.096761332945405 -220.351312794132838
-16.748261535253551 -74.398966557017502 -217.792737907388329
-12.039930266040926 -70.342352305885839 -220.052445119276371
92.875249889181674 -72.224706189534473 -218.276847261031520
-18.144982557963797 -72.172437488443677 -216.421622483180585
-29.131772489631807 -72.993838238840823 -216.768878254833908
-104.995207029972747 -70.266461898744510 -224.731128017079754
-13.519789736150184 -71.871177329381240 -222.829480838786594
95.023071562449161 -70.237821804784559 -218.198366750538156
80.137037296694302 -73.160764255822414 -219.711276633242676
9.836367427044644 -74.326294734911130 -218.817985508061838
-8.567385215184389 -71.335507494303030 -225.013332960164860
81.271806715977320 -72.950037430648592 -221.284266194776194
-119.705134006653225 -77.717635114965773 -225.105754083184991
-17.424208932986655 -71.627753003529847 -222.848763230050110
-94.524726516016841 -73.651012639302678 -223.525096019993299
-99.877532751167223 -74.432106000586842 -224.083766888292701
-128.906587751606423 -76.643158345359311 -228.672108463588899
83.957186057872363 -72.471354939138394 -222.912388744225268
-120.544737723814436 -75.176575136639144 -227.270778466893660
7.372703510338395 -72.699206717167982 -228.334521651990684
83.855339898807046 -71.029892186656340 -223.745626260823514
-13.056199228165323 -74.548618825405299 -230.162966634588770
-10.890229100110831 -74.192585127990256 -227.045923791474451
0.850446332555736 -78.261004724749611 -229.432334856565575
12.957262674644921 -75.021778277258790 -226.943030517508930
91.551418376344955 -73.556443933572766 -225.740200848514490
12.605981677968174 -71.827867284369518 -230.994657403647778
8.205466113021009 -73.003991686511000 -229.027026397278092
-6.345759608021153 -74.021265615101711 -230.873034750422619
-4.081305079613943 -74.267471808016694 -229.746813181702606
21.398520634155688 -72.005951921805178 -232.303886651899177
-9.818737637106350 -71.147563586882256 -232.919471235151491
73.732553422178682 -73.256060009017602 -239.130836784257497
-6.456506334891658 -72.121373013961374 -238.492666635623436
21.704822065665038 -74.240970198418879 -235.283537968932080
-160.203909888409783 -73.927013435049020 -240.566845631579014
-2.917665889168291 -71.448935189463555 -236.753027980705326
-5.394124909579538 -74.361790033962876 -239.842853860365551
-164.951724169571492 -75.951618115904324 -250.898540614114410
-8.161684167522901 -72.129975771507844 -244.099985137591148
18.241406331092346 -70.887337768126230 -245.122296760605280
-144.914644791915180 -77.074100259210027 -251.842112149463361
-70.587430899738166 -73.793429433347967 -250.263546792218932
-58.931174607912887 -75.060559505832316 -246.822743448880743
55.002614424477294 -70.902690879361387 -246.307383047191109
-71.999248175438652 -73.952117397092451 -246.673315290466434
19.582303931652042 -74.084288969220125 -249.092414746843957
-70.392461620800276 -74.766487618937404 -251.142807948261606
-12.698171689795959 -72.128405936490751 -245.644618324483275
-142.782810787159491 -77.822186362739771 -252.745430101577000
49.260450656095770 -69.925075735090573 -249.529213934408943
-77.329127513487762 -76.648794927519248 -255.548669787728414
-100.110470046513811 -71.926104361923336 -254.979181339042981
-96.652657078878406 -76.271493783166065 -254.473740502444826
-117.245481371410861 -73.043444351480431 -253.006399706314568
-103.190864216534152 -72.448895745733253 -257.098652458374545
-103.167711970752208 -74.532089638553018 -258.051308844508242
24.232673862821905 -71.086639948004347 -258.148449702491462
-126.714284004655966 -72.887175668642286 -265.099830055237248
-11.159737347711156 -74.951732153283459 -275.233681107330483
-145.047821196936582 -73.230243786615532 -283.384138589032716
-166.054670973314018 -77.463298621859138 -285.606685100632319
-122.323274860778483 -76.324997873359536 -284.084346845081200
-111.612862009630135 -72.316918573477452 -286.845809677013278
-73.035235629476276 -70.763140941875662 -284.418185770458592
-54.931604966602386 -75.262092759611846 -286.485146718081069
-39.355885216895153 -73.417683105268750 -285.847003731809991
-12.761400546457295 -77.153311236768445 -289.457218876722663
-11.300390195523466 -71.891414458492079 -291.460827258596908
-35.846865751817688 -76.278641273004880 -289.918944306914796
-31.878004539307803 -74.188688816823301 -288.530661242850385
-16.529950385386002 -71.261926254007051 -288.512016795728869
-69.332047240393138 -73.874708901866711 -292.871613398218074
-53.070544638261175 -73.970971515800159 -290.888578310564014
-15.207003684815728 -70.861462396864894 -291.255048992249783
-11.249790213977285 -75.682923463274449 -289.394929182349529
-1.255810833205744 -73.282745093798226 -292.069549030330279
4.896494556652720 -70.795016126462741 -291.911301054495084
-89.699516000157359 -75.164207890132914 -292.860786062051773
-137.303911379388751 -77.255782675714116 -295.006426243334772
-113.857085838031082 -76.274188338903755 -292.592927012323230
-151.139682023534334 -74.651493323921116 -295.002648526962901
-149.529219412306077 -76.510666843590087 -299.563770682141069
-144.321425956218860 -74.232775097901481 -300.103775338244873
46.507146090588385 -67.102212456494627 -20.604924200792794
21.992933028099319 -72.278778231675020 -22.857592988893217
51.544401298965184 -66.578523025504595 -24.418757490809590
49.185072069356465 -70.264054054026261 -34.392206195600330
89.741544871720038 -69.192918794275485 -69.375837545332089
97.735268857786977 -70.934551285644545 -73.058083452498863
103.361682801773810 -68.894612924773497 -77.274760828406542
100.469464763391002 -69.923764277858496 -82.623590324162535
58.881563881501897 -70.922824173396634 -88.695042005905535
47.793554980471100 -75.173948916707118 -90.456378248596920
65.473242613894328 -68.851209381115595 -90.078183625319909
-63.069925550494297 -69.041973655722401 -92.972099195027624
72.966973402039599 -69.243384547671297 -87.095877064702208
102.955275842556603 -63.523058005592254 -98.164580307151695
76.735443848198457 -70.647018282616372 -100.361967223293334
96.479834580264964 -68.667326042222001 -101.772881214862181
-82.357639513454544 -72.705693073034382 -103.328045170342278
47.310799484763379 -69.238113306507515 -97.521826408896814
-84.285622088478291 -73.134070815178916 -102.147152356984208
53.385635159231640 -71.663944193915725 -109.704180111970615
40.019414074435858 -75.382740744640941 -102.971803854054315
104.325597763185272 -68.698937997145720 -102.473781020224052
39.376475218832852 -70.173834341113889 -105.392042418357690
44.818710573454418 -71.535686765953940 -117.957673856317840
44.939409251572989 -70.214783179022163 -112.474330627526243
112.264858930465650 -68.357866269112009 -111.571873417313199
-79.062903409641123 -75.866555333199543 -121.372450633550173
114.475709059967002 -72.846677346513985 -123.128717187504733
42.185914074683346 -67.213428109492781 -124.241355429280148
42.725383555331902 -69.823688881048341 -119.685398800016642
37.192050036444755 -71.000687672578039 -120.341665173859994
-53.494418490003419 -75.821920387699407 -129.318592100529401
32.356108689100573 -69.827799715785147 -122.965866229615088
-75.222123857045446 -70.524530059028621 -137.731716663808555
-53.124261152763069 -75.012590941509018 -132.379350618941828
-77.350413868632330 -70.134154580485472 -134.812675722511557
37.726606017903279 -68.914825391604083 -130.250921768352100
-57.436659176445708 -72.953091631896271 -133.432559570171662
37.305408646733881 -70.053262232124609 -132.874430828146728
-69.829117625052618 -70.338713160904007 -139.535889173828366
-57.108865332882928 -69.670667953629589 -140.630347641133056
