-8.963826179504 -79.827163696289 -175.508911132813 1.121346592903
-67.392059326172 -78.383049011230 -168.600234985352 2.222044706345
-8.568559646606 -81.748016357422 -171.197814941406 1.549318194389
-25.919542312622 -87.212562561035 -177.263931274414 6.286147594452
14.798513412476 -84.702804565430 -184.580261230469 6.861892223358
-38.312183380127 -78.498863220215 -176.976058959961 2.690372228622
14.510436058044 -82.784439086914 -179.747680664063 6.983049869537
-19.028015136719 -81.720497131348 -186.837448120117 3.071999311447
-35.965820312500 -80.615783691406 -179.489074707031 3.024958372116
-147.840591430664 -68.980804443359 -183.000961303711 3.203812837601
-28.380098342896 -80.428535461426 -185.761734008789 1.176989674568
-149.070724487305 -74.881103515625 -189.635070800781 2.166889190674
-155.976348876953 -77.914085388184 -184.021118164063 7.331645011902
-48.583595275879 -84.734397888184 -188.370178222656 4.673569679260
99.735534667969 -88.083206176758 -197.409973144531 10.560540199280
-149.004882812500 -75.807731628418 -187.201080322266 0.665253639221
-154.519271850586 -78.503700256348 -193.797042846680 3.102888584137
16.491926193237 -82.559822082520 -196.774261474609 3.705711126328
-137.700729370117 -73.718505859375 -190.098129272461 5.659820556641
20.358686447144 -75.019165039063 -199.026519775391 1.875157713890
-143.177856445313 -73.595565795898 -199.536987304688 3.113813400269
6.721859931946 -82.746643066406 -196.200439453125 7.326343536377
-141.076995849609 -76.077613830566 -198.439804077148 1.531343698502
4.081336021423 -79.592887878418 -206.220581054688 5.014118671417
-152.666275024414 -76.930664062500 -195.367492675781 1.148381114006
87.334060668945 -79.449134826660 -207.735183715820 5.219103336334
-17.270610809326 -78.639816284180 -208.382614135742 2.205482959747
-29.055469512939 -79.009864807129 -205.715530395508 1.350378036499
-13.770943641663 -87.415122985840 -202.282775878906 7.629263877869
-153.296188354492 -81.996200561523 -204.391815185547 3.832014560699
-45.988376617432 -84.374259948730 -206.662399291992 4.890511512756
-87.107086181641 -77.731437683105 -207.304763793945 5.523550510406
-34.790454864502 -82.286209106445 -213.105834960938 3.673082590103
14.255530357361 -76.155410766602 -210.065490722656 2.173391819000
-149.183456420898 -79.048255920410 -201.790832519531 2.417885303497
-89.389961242676 -79.296066284180 -210.873565673828 4.149487495422
-27.397779464722 -81.750999450684 -215.285675048828 2.543489694595
-29.426309585571 -76.436347961426 -221.841430664063 3.368308067322
-18.940719604492 -78.924652099609 -218.447158813477 1.616731405258
-28.193271636963 -80.713981628418 -216.232818603516 2.694412708282
-82.886886596680 -81.677261352539 -218.121917724609 3.605412960052
-87.344467163086 -82.232734680176 -222.005508422852 7.089509487152
-25.250579833984 -83.592491149902 -224.278015136719 6.603466987610
-10.767860412598 -80.129432678223 -222.581878662109 3.335437774658
-150.808059692383 -74.375495910645 -211.588455200195 1.471198201180
-6.089083194733 -78.131187438965 -218.289855957031 1.997036337852
77.941246032715 -82.008247375488 -229.376724243164 6.168540477753
-148.921188354492 -83.932098388672 -224.905944824219 1.013364911079
-9.158923149109 -80.332695007324 -223.821884155273 3.165205717087
-148.260910034180 -79.295890808105 -227.824981689453 0.865737259388
-155.099731445313 -86.901031494141 -220.293685913086 7.452707290649
-10.101582527161 -82.294967651367 -229.074707031250 5.876716136932
18.879055023193 -83.382377624512 -222.305969238281 5.373843193054
-144.811996459961 -78.719421386719 -223.454162597656 0.439753144979
-18.342399597168 -82.020271301270 -232.692718505859 7.281887531281
71.238716125488 -85.622581481934 -230.261901855469 10.672966957092
78.280570983887 -86.574287414551 -240.789505004883 14.124762535095
4.545487880707 -79.260116577148 -232.644134521484 1.766968846321
-29.191003799438 -79.434310913086 -244.367294311523 1.529008150101
-25.510955810547 -82.099006652832 -232.176376342773 7.405078411102
4.315012931824 -82.557739257813 -245.476821899414 3.422782421112
-50.906929016113 -76.836029052734 -242.263626098633 2.448860406876
-31.924995422363 -84.435707092285 -249.209915161133 7.401497364044
3.533642053604 -84.904953002930 -245.660461425781 4.868175029755
-69.726997375488 -81.860687255859 -249.945770263672 5.047804832458
-35.004119873047 -79.403221130371 -249.870849609375 5.697192668915
-48.380168914795 -80.961524963379 -242.348739624023 1.589022517204
-155.137725830078 -77.623123168945 -238.218414306641 5.141211032867
-55.177104949951 -83.554985046387 -248.861450195313 5.473398685455
-59.248397827148 -81.726951599121 -244.647796630859 3.642554521561
-69.204299926758 -89.029640197754 -248.611923217773 11.815747261047
-9.613033294678 -78.876823425293 -250.089965820313 2.036437988281
-89.740196228027 -77.651802062988 -250.904495239258 4.199276924133
-151.939865112305 -86.416259765625 -254.411300659180 2.126171588898
-142.111648559570 -89.982337951660 -255.105865478516 5.765001773834
-129.849639892578 -75.113533020020 -258.782928466797 1.111179828644
-159.340225219727 -77.274269104004 -256.912628173828 4.210470676422
13.895354270935 -82.541648864746 -261.760284423828 0.422256231308
-14.937045097351 -83.125274658203 -269.534393310547 6.456867694855
-157.838912963867 -80.241333007813 -259.705413818359 2.977700948715
-157.486099243164 -78.764266967773 -269.333648681641 4.648382186890
-146.757980346680 -83.228279113770 -275.320404052734 1.572952151299
-62.106918334961 -88.053314208984 -283.449615478516 12.094928741455
-41.217750549316 -82.074485778809 -287.746856689453 5.378307819366
-30.048336029053 -84.501464843750 -294.382965087891 8.102206230164
-19.925338745117 -84.404113769531 -287.114868164063 6.602843284607
-72.804336547852 -82.736450195313 -282.291259765625 9.386397361755
-82.127960205078 -81.042846679688 -283.941009521484 6.812422752380
-12.182352066040 -87.660087585449 -289.701934814453 9.960401535034
6.211890220642 -87.767074584961 -292.576049804688 10.246174812317
-138.987625122070 -84.865898132324 -285.127441406250 2.234806299210
-82.586402893066 -79.435844421387 -287.433105468750 4.441989898682
-153.511444091797 -81.254287719727 -288.661621093750 2.831664323807
-98.629493713379 -80.555511474609 -287.382629394531 5.789967536926
-72.326431274414 -79.739738464355 -288.487487792969 4.678297042847
-89.953887939453 -85.868408203125 -287.587188720703 10.690005302429
-70.997703552246 -86.935356140137 -287.774566650391 11.167111396790
-25.901273727417 -84.744873046875 -295.399261474609 8.809906959534
-7.477385044098 -82.691818237305 -291.241149902344 6.229887485504
-161.907333374023 -82.758041381836 -289.824249267578 6.625046253204
-149.288528442383 -84.127273559570 -292.329254150391 2.310424804688
-150.519210815430 -81.242561340332 -299.187652587891 2.073335886002
-160.238983154297 -80.819915771484 -303.879302978516 7.852348804474
-58.059539794922 -72.058013916016 -55.476280212402 3.930466651917
-46.576236724854 -70.311080932617 -52.703247070313 2.803843259811
-42.388656616211 -69.782478332520 -52.918979644775 3.676636457443
-75.242767333984 -79.233299255371 -56.681823730469 4.161755561829
-30.100780487061 -73.957138061523 -57.785057067871 2.662577629089
-26.967674255371 -74.696640014648 -78.089324951172 1.951424956322
75.366943359375 -84.991271972656 -90.783294677734 8.438202857971
82.297508239746 -80.338790893555 -91.032112121582 3.024605274200
81.219528198242 -76.431541442871 -90.807167053223 2.137108087540
97.197662353516 -84.332511901855 -94.974021911621 9.473999977112
73.148483276367 -79.646385192871 -95.727951049805 5.080983638763
58.057312011719 -80.286148071289 -97.063568115234 5.174466609955
44.036434173584 -78.026054382324 -104.730758666992 1.816473245621
-65.021575927734 -79.881401062012 -102.252494812012 2.962597846985
-73.411521911621 -73.346633911133 -96.603073120117 4.212101459503
44.182350158691 -74.959472656250 -105.253028869629 1.616466641426
-84.497756958008 -76.282325744629 -106.421730041504 3.494553089142
-91.460960388184 -69.532363891602 -108.813796997070 4.440218925476
48.605930328369 -75.360603332520 -104.748458862305 1.775078058243
103.986740112305 -77.969787597656 -118.434684753418 5.705435276031
33.761383056641 -80.111335754395 -123.808647155762 2.057691097260
44.232872009277 -83.823539733887 -117.976219177246 3.867589235306
43.504905700684 -80.801559448242 -124.607139587402 2.132629871368
27.933477401733 -79.107757568359 -128.725112915039 2.427918910980
109.510665893555 -79.128105163574 -120.933311462402 4.421290874481
30.409233093262 -82.342842102051 -125.989891052246 4.316572189331
30.879203796387 -78.087135314941 -131.562332153320 1.455138087273
-41.673423767090 -72.535072326660 -141.481430053711 3.285191774368
-70.190093994141 -78.913360595703 -147.410827636719 3.280723571777
-53.031085968018 -76.197593688965 -150.754287719727 1.875324726105
-72.229660034180 -75.948326110840 -139.028610229492 2.326715230942
-42.521881103516 -79.542427062988 -149.105865478516 1.513402700424
108.441993713379 -79.143684387207 -155.993621826172 3.797073364258
-72.836952209473 -76.871444702148 -150.600402832031 1.795852899551
19.824417114258 -87.549919128418 -154.104415893555 9.579762458801
31.112115859985 -73.609283447266 -152.404891967773 1.339114665985
112.974967956543 -78.303260803223 -157.091278076172 2.139931201935
5.866900920868 -75.030693054199 -156.728424072266 1.683215856552
32.614410400391 -77.305969238281 -159.311889648438 2.637283563614
-58.370342254639 -78.406967163086 -159.134048461914 3.791348218918
-50.395198822021 -83.000679016113 -170.623489379883 6.634945869446
17.282003402710 -80.224258422852 -166.369506835938 4.287170410156
-70.279991149902 -75.332939147949 -166.988174438477 3.705403327942
-64.981163024902 -71.892478942871 -157.250305175781 1.819307327271
110.174278259277 -86.421180725098 -169.206298828125 9.028201103210
-14.425559997559 -72.767974853516 -168.207656860352 6.646563053131
-57.224773406982 -82.768806457520 -175.360961914063 2.733436822891
-33.594558715820 -76.549629211426 -174.210525512695 2.356613636017
-56.816707611084 -77.825515747070 -170.752166748047 1.970147728920
29.226789474487 -87.649009704590 -171.071182250977 9.064444541931
108.683555603027 -74.346374511719 -171.111801147461 1.089403629303
108.047340393066 -87.943893432617 -184.636795043945 10.657987594604
113.720108032227 -87.107810974121 -196.734130859375 14.208748817444
105.771469116211 -84.232566833496 -176.566162109375 7.721457004547
-62.810699462891 -80.474090576172 -190.923828125000 10.189726829529
-55.154159545898 -77.041999816895 -179.839233398438 1.028269171715
20.236278533936 -81.194252014160 -186.061096191406 2.453762054443
-54.889205932617 -70.689453125000 -184.385803222656 3.583577632904
-26.140140533447 -76.104515075684 -187.501159667969 2.456913232803
-52.976177215576 -76.188156127930 -190.844345092773 1.253697633743
-145.691741943359 -79.555320739746 -193.591766357422 1.846078753471
96.671630859375 -79.725364685059 -195.746047973633 4.005810737610
-48.742488861084 -79.003265380859 -189.355148315430 1.694980025291
-16.230712890625 -82.628372192383 -194.848129272461 4.154749393463
-139.756698608398 -77.309585571289 -199.945373535156 2.269316673279
-46.918907165527 -82.534019470215 -194.071380615234 1.633757710457
103.889808654785 -92.467155456543 -196.315444946289 15.013442039490
106.033859252930 -84.857215881348 -194.057571411133 8.302886009216
-50.676239013672 -82.679534912109 -196.766220092773 3.044735670090
-25.565700531006 -78.704475402832 -194.867050170898 1.375913500786
-153.160278320313 -83.091377258301 -196.655349731445 2.033691167831
-30.874034881592 -77.227775573730 -201.767089843750 2.278012990952
-154.744079589844 -80.185111999512 -193.043258666992 4.532938480377
-155.556030273438 -77.380401611328 -198.444015502930 1.932416796684
-144.526397705078 -77.172401428223 -196.951141357422 2.937643527985
-40.071208953857 -78.768051147461 -195.833419799805 1.635655760765
100.475662231445 -86.921768188477 -204.898025512695 9.984234809875
-40.977310180664 -78.767181396484 -201.356124877930 1.257328271866
-146.874572753906 -80.276588439941 -196.429077148438 1.037542581558
-40.864070892334 -81.181129455566 -209.432250976563 4.323215007782
-21.891208648682 -83.290283203125 -210.392822265625 6.153092384338
90.110481262207 -85.120338439941 -207.263168334961 8.456377983093
92.169418334961 -84.649642944336 -209.479888916016 7.569305896759
-29.417549133301 -83.535659790039 -215.893630981445 4.436481475830
-91.528045654297 -83.391929626465 -209.751937866211 8.178334236145
-72.531211853027 -81.499504089355 -210.458984375000 1.567346572876
-21.905908584595 -82.534332275391 -217.781936645508 4.183335304260
-153.645782470703 -73.136123657227 -210.693481445313 3.751062870026
81.455993652344 -87.084968566895 -221.256042480469 10.741491317749
83.231079101563 -80.145843505859 -226.394973754883 4.908514976501
83.750076293945 -87.969024658203 -221.638198852539 11.379064559937
-103.853096008301 -71.304275512695 -221.538925170898 1.424978375435
-149.125930786133 -79.723220825195 -220.817840576172 3.366328716278
-21.599111557007 -88.842506408691 -218.518478393555 9.972228050232
77.841018676758 -81.960266113281 -227.361083984375 5.830778121948
-148.143783569336 -87.525352478027 -220.879425048828 3.328439235687
-38.375553131104 -80.217254638672 -221.338455200195 9.603251457214
-136.715759277344 -70.721893310547 -231.051834106445 2.672411918640
-15.464843750000 -83.763519287109 -227.190368652344 6.708901882172
16.702829360962 -81.157157897949 -220.642578125000 2.854116439819
10.432375907898 -81.459121704102 -237.471664428711 0.604426085949
-161.319671630859 -82.492576599121 -230.936904907227 8.211565971375
-126.072433471680 -74.905311584473 -228.038543701172 0.979723572731
-12.538504600525 -82.389656066895 -232.502456665039 6.958870887756
-2.480984926224 -79.710655212402 -241.972091674805 5.197265625000
61.813945770264 -87.444938659668 -238.161285400391 13.509701728821
62.985244750977 -83.317596435547 -239.597732543945 9.122962951660
-2.392568111420 -84.246337890625 -242.052200317383 8.253561973572
16.694915771484 -84.423072814941 -238.266250610352 2.513890028000
-27.307889938354 -80.672180175781 -242.900726318359 1.874436140060
-45.350387573242 -86.598686218262 -247.277893066406 7.166552066803
-52.731632232666 -85.299896240234 -233.255096435547 12.245239257813
-46.821758270264 -85.376266479492 -242.284240722656 5.481422901154
-23.714151382446 -86.040199279785 -245.329147338867 8.135400772095
-59.466018676758 -77.525253295898 -239.483016967773 5.041366100311
2.000432014465 -82.580116271973 -245.869750976563 2.993724584579
-77.022483825684 -74.711204528809 -245.316787719727 3.176125288010
9.264819145203 -79.690010070801 -246.045623779297 1.122746944427
-150.633972167969 -81.868652343750 -245.029449462891 2.119185209274
-72.943138122559 -87.046127319336 -251.041290283203 10.737273216248
6.296114921570 -85.393211364746 -249.465835571289 3.781708002090
-170.463562011719 -78.839073181152 -246.316375732422 7.462807178497
12.942294120789 -80.567321777344 -250.666824340820 1.230495333672
-89.575500488281 -83.514419555664 -252.159133911133 9.136580467224
-78.703376770020 -76.453262329102 -249.601333618164 1.294584631920
19.191513061523 -83.444175720215 -259.068023681641 3.314604282379
-92.754806518555 -78.645896911621 -256.037841796875 4.959603309631
-136.676269531250 -81.544342041016 -251.513229370117 5.037099838257
-141.992782592773 -82.048080444336 -253.678848266602 2.836698770523
-139.231903076172 -80.662780761719 -254.842025756836 2.715161085129
-146.223876953125 -77.562774658203 -255.421768188477 2.934876680374
-143.461456298828 -83.846801757813 -251.164718627930 2.374341726303
-140.993087768555 -78.084083557129 -259.865905761719 0.861631333828
-162.008392333984 -80.882766723633 -252.287826538086 6.818076133728
-133.890945434570 -76.230987548828 -260.276123046875 0.583348214626
-139.602722167969 -76.364799499512 -253.907653808594 3.746161937714
-166.250305175781 -84.424560546875 -263.052124023438 10.221823692322
-158.478027343750 -80.233993530273 -259.628265380859 3.604546070099
-153.954986572266 -79.384658813477 -262.838623046875 0.693682730198
-150.483489990234 -86.478065490723 -260.546081542969 2.092053890228
7.780512809753 -95.531578063965 -283.579956054688 15.122364997864
-168.420547485352 -83.954711914063 -263.140808105469 10.130338668823
-160.731552124023 -75.603050231934 -273.319213867188 2.057360172272
-10.463736534119 -82.718345642090 -277.919311523438 6.435514926910
-164.942916870117 -80.324478149414 -262.520721435547 6.118046283722
10.456928253174 -89.437370300293 -281.900421142578 9.206807136536
-158.669082641602 -78.965209960938 -278.808898925781 6.299898147583
-166.039779663086 -76.950111389160 -289.263092041016 3.291431665421
-156.910293579102 -76.269210815430 -276.599212646484 3.713812112808
-174.384628295898 -70.742736816406 -276.066589355469 6.362670421600
-2.835782051086 -83.079307556152 -289.597229003906 5.731079578400
6.777778148651 -90.366897583008 -282.648406982422 10.116033554077
-102.321594238281 -73.306289672852 -283.885040283203 3.082640647888
-157.564575195313 -82.890953063965 -284.510375976563 3.900054931641
-152.944259643555 -81.748275756836 -278.888275146484 2.924677133560
-116.314025878906 -77.631423950195 -289.609527587891 1.514577984810
-155.147644042969 -79.127372741699 -287.495727539063 1.784375667572
-155.281768798828 -79.627525329590 -291.216857910156 1.647920846939
-73.769981384277 -82.152320861816 -288.489013671875 6.639657974243
-167.128616333008 -84.415100097656 -288.910369873047 10.087032318115
-125.480331420898 -84.439498901367 -284.274688720703 8.167924880981
-48.455745697021 -89.478408813477 -290.896942138672 12.701730728149
-157.021484375000 -77.437080383301 -289.582061767578 2.758349418640
-148.679977416992 -81.264633178711 -287.068481445313 0.467369645834
-24.216630935669 -88.826187133789 -292.242980957031 11.392360687256
-131.816986083984 -79.581687927246 -296.196563720703 5.634780406952
-3.796293020248 -85.469535827637 -291.022583007813 8.006403923035
5.185389041901 -88.543243408203 -289.590698242188 11.158176422119
-138.119735717773 -80.257629394531 -292.822998046875 1.618048429489
-150.054565429688 -78.729644775391 -291.056396484375 2.629104375839
-161.559677124023 -77.824851989746 -303.779602050781 7.398245334625
-69.255081176758 -71.861595153809 -47.501518249512 2.597797155380
-24.307386398315 -73.386322021484 -61.832305908203 2.190075635910
-21.698284149170 -75.556510925293 -65.993301391602 1.183096766472
75.602447509766 -76.012039184570 -76.414817810059 1.872334599495
90.803840637207 -76.723045349121 -79.790359497070 1.418100237846
-35.889186859131 -67.997406005859 -79.312667846680 1.966901779175
82.910583496094 -79.993568420410 -78.075622558594 3.229460477829
87.601463317871 -82.170783996582 -83.234657287598 4.952545642853
73.593002319336 -77.516021728516 -82.771102905273 2.042541742325
68.936904907227 -74.399162292480 -93.160644531250 3.028476715088
-44.068157196045 -78.094375610352 -83.276466369629 1.978824138641
-94.433853149414 -70.893692016602 -90.059875488281 0.963970601559
58.859672546387 -79.932472229004 -94.081207275391 5.716618061066
47.818214416504 -80.138351440430 -99.234542846680 2.759575843811
97.278732299805 -73.335594177246 -102.750297546387 2.983039855957
-94.033447265625 -69.949218750000 -102.490264892578 2.690751075745
84.904212951660 -77.348793029785 -99.508583068848 2.843221187592
85.196823120117 -78.461677551270 -104.194694519043 6.592450618744
90.505897521973 -80.390075683594 -98.003852844238 4.867520332336
82.418281555176 -73.590072631836 -108.318740844727 5.816771030426
95.831939697266 -76.984466552734 -105.290885925293 6.383667469025
-84.401161193848 -81.090713500977 -100.146308898926 3.026554584503
41.554046630859 -83.034980773926 -112.819892883301 3.715071201324
102.457054138184 -80.853492736816 -117.709793090820 8.970279693604
113.439628601074 -74.711135864258 -114.105155944824 2.691342592239
46.280265808105 -77.215820312500 -120.218872070313 2.066780328751
109.712776184082 -75.719451904297 -129.908889770508 0.850616097450
113.496139526367 -83.265991210938 -139.915466308594 6.845904827118
-52.422199249268 -74.146301269531 -128.863479614258 3.538869142532
30.806344985962 -80.210380554199 -134.397598266602 1.664625525475
31.465948104858 -84.465507507324 -128.113113403320 5.202183723450
19.447341918945 -75.683456420898 -144.090896606445 4.470776081085
113.638771057129 -80.510406494141 -142.114044189453 4.213633060455
109.141151428223 -82.428810119629 -137.988906860352 6.754914283752
-75.958694458008 -78.362411499023 -147.934341430664 4.742097854614
-50.893093109131 -79.711715698242 -148.563995361328 2.071322917938
-75.215301513672 -73.371131896973 -147.548690795898 1.159147381783
18.583824157715 -82.540412902832 -153.563247680664 6.560274124146
109.348976135254 -79.520133972168 -159.194641113281 3.540200710297
-57.184749603271 -77.711204528809 -152.484848022461 5.322549819946
-72.201873779297 -75.678939819336 -148.500823974609 0.943769633770
-43.190452575684 -82.686492919922 -156.380889892578 3.506519794464
36.566417694092 -79.883483886719 -151.612716674805 4.001162528992
107.017486572266 -83.492225646973 -161.824752807617 7.431678295135
117.484695434570 -84.335769653320 -160.652923583984 8.620274543762
-70.743576049805 -76.757377624512 -149.684310913086 1.815109729767
-75.714584350586 -78.628402709961 -162.974243164063 7.532721042633
17.476175308228 -84.822799682617 -163.959609985352 7.714381217957
-58.372383117676 -82.016586303711 -160.102233886719 5.768852710724
-31.841468811035 -88.989265441895 -164.011978149414 9.426175117493
5.555199146271 -77.054145812988 -165.882263183594 2.771283388138
109.911140441895 -85.435661315918 -171.650222778320 8.373452186584
4.759987831116 -78.566429138184 -166.752624511719 2.998790025711
-40.256214141846 -79.485420227051 -167.271804809570 1.865849971771
-3.131541013718 -75.613220214844 -164.448181152344 1.232181906700
100.803070068359 -80.523811340332 -180.391983032227 5.566778659821
-44.238216400146 -71.090080261230 -176.460754394531 5.303471565247
28.714235305786 -76.813499450684 -170.827011108398 1.792679548264
111.072181701660 -79.880523681641 -174.616714477539 2.840547800064
-51.973529815674 -77.870414733887 -179.765762329102 0.971380591393
-30.177619934082 -81.546707153320 -169.114822387695 2.610061168671
95.572608947754 -86.662185668945 -177.846450805664 13.934174537659
32.246265411377 -84.341407775879 -173.923934936523 8.094871520996
114.608657836914 -78.064392089844 -181.491729736328 5.388721942902
-40.931739807129 -81.883346557617 -169.350860595703 3.070849657059
104.644508361816 -80.273963928223 -185.173278808594 3.602505445480
-59.187408447266 -77.393455505371 -177.699691772461 1.770804643631
-25.877042770386 -77.948738098145 -174.783416748047 0.670591235161
-144.592529296875 -75.392013549805 -178.184341430664 2.497440099716
-57.159683227539 -78.500190734863 -184.753265380859 2.642220735550
-148.940597534180 -73.241783142090 -179.139022827148 2.247158765793
-34.735561370850 -78.790832519531 -186.416213989258 3.519403934479
18.214033126831 -79.418914794922 -188.717437744141 0.536580920219
110.125885009766 -77.293861389160 -185.713256835938 2.278493881226
-32.802944183350 -78.574264526367 -192.186676025391 2.604840993881
11.369874954224 -82.879463195801 -194.349594116211 5.167333126068
13.448641777039 -81.234291076660 -199.883392333984 2.840472221375
-152.410034179688 -71.412910461426 -190.124282836914 2.907416582108
99.311851501465 -88.440139770508 -202.563308715820 11.546815872192
-21.499204635620 -76.199424743652 -194.992965698242 2.574501991272
104.001884460449 -77.187469482422 -196.369796752930 0.730319499969
13.910007476807 -79.340560913086 -191.467849731445 2.583694219589
-132.916107177734 -75.315177917480 -200.009033203125 2.003986835480
-147.958618164063 -73.368492126465 -192.877685546875 0.829358160496
91.156761169434 -74.578750610352 -202.822708129883 2.931151390076
-14.196103096008 -78.313621520996 -200.659439086914 0.643176853657
-18.775407791138 -82.733192443848 -195.755477905273 2.666090250015
10.588513374329 -81.303558349609 -203.778106689453 2.519505977631
-148.588119506836 -75.951049804688 -203.185348510742 2.249101877213
-150.759078979492 -77.436904907227 -203.399520874023 1.198904514313
98.087677001953 -90.903053283691 -209.828109741211 13.922873497009
-76.782226562500 -81.241569519043 -209.104385375977 1.471783876419
-39.012306213379 -76.574325561523 -200.839050292969 0.260959804058
19.010978698730 -79.902496337891 -212.086654663086 3.880674123764
-25.871644973755 -84.406303405762 -209.247360229492 5.433998584747
-81.461288452148 -76.055015563965 -212.839965820313 2.415292978287
90.859413146973 -82.056488037109 -209.622116088867 5.130653381348
-84.872795104980 -73.899101257324 -214.249282836914 2.143622398376
-151.047683715820 -77.308555603027 -215.826828002930 1.648342490196
-81.594070434570 -81.742233276367 -215.465057373047 2.982362985611
-18.841133117676 -81.712150573730 -212.039855957031 4.657813549042
-25.640962600708 -83.174156188965 -217.820831298828 4.213279247284
21.476587295532 -79.152832031250 -212.817932128906 4.165902137756
-8.371981620789 -78.274749755859 -211.374389648438 1.690002202988
-82.289710998535 -78.668823242188 -218.452407836914 2.366214275360
87.564323425293 -83.921043395996 -218.529327392578 7.467003822327
-97.065460205078 -80.247604370117 -211.629272460938 7.488240718842
-148.171600341797 -85.847770690918 -222.540054321289 2.541653394699
-13.501420974731 -83.585235595703 -216.872161865234 4.629406929016
13.547131538391 -81.749359130859 -216.625244140625 1.960022330284
-107.697593688965 -75.880134582520 -216.551162719727 6.965070247650
6.670687198639 -84.242828369141 -219.767623901367 5.053315162659
-31.126033782959 -84.348350524902 -214.875366210938 4.824423313141
78.878364562988 -86.812698364258 -228.168777465820 10.595211982727
-148.949996948242 -75.092498779297 -215.709869384766 1.229106545448
5.686320781708 -78.511001586914 -227.268447875977 1.543238759041
-8.240371704102 -81.656738281250 -221.630111694336 1.855145573616
13.644330024719 -76.999191284180 -222.131210327148 2.291451692581
82.492904663086 -80.492210388184 -231.769607543945 6.604242324829
-17.043920516968 -82.369689941406 -226.099319458008 4.991088390350
-132.323867797852 -82.818069458008 -225.643981933594 3.268061876297
-9.456142425537 -86.706542968750 -225.584838867188 8.338088035583
13.425159454346 -80.414855957031 -235.676208496094 0.817317068577
-129.489822387695 -76.004882812500 -218.312698364258 8.113661766052
-154.230178833008 -79.751556396484 -226.870437622070 1.037837862968
-142.575668334961 -78.122367858887 -225.732757568359 0.744819939137
-133.855499267578 -77.023857116699 -225.830337524414 2.034507989883
-12.373187065125 -80.578880310059 -227.707611083984 3.963910102844
68.054595947266 -83.053329467773 -232.624343872070 8.551881790161
-144.931716918945 -79.339157104492 -234.127670288086 1.204960465431
68.361221313477 -80.557495117188 -229.189956665039 7.136362075806
-17.664501190186 -83.689857482910 -225.679382324219 6.069330692291
-146.020111083984 -83.877342224121 -228.398818969727 1.233343362808
72.737182617188 -89.425285339355 -237.523147583008 14.713876724243
12.030096054077 -87.374656677246 -237.818145751953 4.524751186371
-145.090759277344 -72.596687316895 -234.423889160156 1.699562788010
-152.404861450195 -78.456764221191 -233.940826416016 1.172324419022
8.298928260803 -75.840919494629 -236.723114013672 1.984890341759
-5.842201232910 -83.061729431152 -240.548370361328 8.072008132935
-27.210777282715 -78.034706115723 -245.857009887695 3.627912282944
-9.689256668091 -81.476264953613 -240.972778320313 7.378635883331
-165.909835815430 -78.943252563477 -232.363265991211 5.914128303528
5.524353981018 -81.969970703125 -246.729263305664 2.978502750397
-166.634780883789 -75.339050292969 -230.472793579102 3.169994354248
-21.375495910645 -79.376411437988 -230.763458251953 6.204427242279
65.128921508789 -85.528053283691 -241.872619628906 11.424856185913
-10.569984436035 -79.835975646973 -241.926620483398 5.687078475952
-29.887145996094 -81.773620605469 -238.767166137695 2.454216003418
-30.153257369995 -77.636444091797 -241.392684936523 2.341565608978
-18.589401245117 -78.221984863281 -247.026168823242 5.147207260132
-146.066024780273 -75.719596862793 -232.216491699219 2.536141633987
5.764181137085 -85.861557006836 -244.717636108398 6.352019309998
61.386913299561 -88.300155639648 -242.572143554688 14.482988357544
7.247474193573 -83.704841613770 -244.408752441406 3.836884498596
-166.234176635742 -75.642601013184 -235.375534057617 3.684219598770
-51.164459228516 -84.738151550293 -243.667053222656 5.348245620728
3.266499042511 -85.836807250977 -249.205535888672 3.951712369919
14.006280899048 -76.560012817383 -253.024459838867 4.045732021332
-63.412532806396 -80.613739013672 -250.506729125977 3.393822193146
-6.959980010986 -81.035049438477 -242.347396850586 6.840374946594
16.339015960693 -86.510643005371 -253.929351806641 4.840515136719
-169.920593261719 -76.819931030273 -240.809188842773 5.553329944611
-76.484039306641 -83.981513977051 -253.860214233398 8.497742652893
-57.565277099609 -77.148025512695 -247.035751342773 1.895075440407
-84.048675537109 -77.495948791504 -246.042587280273 5.776638984680
-166.251861572266 -75.516006469727 -237.121734619141 2.669764518738
-156.540039062500 -78.423194885254 -247.039718627930 5.435041904449
-63.440093994141 -75.659370422363 -253.863540649414 3.540522813797
-73.024452209473 -87.369239807129 -248.804458618164 10.923793792725
-158.693283081055 -75.762115478516 -248.376647949219 2.521968126297
-156.660827636719 -74.596282958984 -244.567031860352 1.481814742088
-81.949943542480 -79.546920776367 -248.186355590820 4.841317176819
-96.102050781250 -74.318595886230 -249.512969970703 4.375690937042
-166.324752807617 -79.364799499512 -247.318069458008 5.851805686951
-158.271148681641 -76.821464538574 -246.732177734375 3.885304212570
-139.336563110352 -73.658409118652 -254.498687744141 2.955950498581
-85.478355407715 -83.349388122559 -250.447082519531 8.661087036133
-168.052200317383 -72.756584167480 -250.705810546875 2.098701953888
-152.872299194336 -83.764488220215 -252.506958007813 2.509576559067
-98.503395080566 -79.567726135254 -251.892944335938 6.828501224518
-105.808410644531 -72.232498168945 -257.971191406250 1.071013927460
-153.448638916016 -75.987129211426 -255.357803344727 2.911279201508
-102.002281188965 -79.057815551758 -261.483917236328 6.662045001984
-156.383255004883 -76.318191528320 -249.076995849609 3.414174556732
-104.540634155273 -81.658500671387 -252.543930053711 9.553669929504
-171.874481201172 -82.296211242676 -250.761489868164 10.577066421509
-167.334548950195 -84.161338806152 -252.866760253906 10.605703353882
-126.570281982422 -76.196517944336 -252.974853515625 3.299643516541
-152.594863891602 -83.586814880371 -253.968505859375 1.980440735817
-111.454528808594 -77.399261474609 -256.805450439453 5.121271610260
-18.958274841309 -88.439979553223 -260.276397705078 12.187821388245
-147.306533813477 -76.255760192871 -257.594757080078 0.576713681221
-130.874053955078 -77.631629943848 -258.765594482422 1.938946366310
-160.954727172852 -77.080757141113 -261.593963623047 2.291844367981
16.457128524780 -84.806938171387 -268.932586669922 3.570958137512
-158.408981323242 -75.547409057617 -280.004089355469 4.978434562683
-173.431976318359 -75.390739440918 -275.755645751953 6.722209453583
-10.286909103394 -89.480026245117 -283.626678466797 12.688109397888
-154.456192016602 -81.466171264648 -275.180572509766 4.062277793884
-11.353226661682 -81.169685363770 -277.246002197266 5.776715755463
10.421908378601 -84.288948059082 -287.597747802734 6.972063064575
-137.820281982422 -76.638809204102 -284.347625732422 3.653340101242
-74.546081542969 -85.416755676270 -279.142150878906 13.005010604858
-46.368171691895 -80.556350708008 -280.888183593750 7.863018035889
-121.125480651855 -76.967399597168 -285.858459472656 3.217554330826
-95.435951232910 -80.516517639160 -292.311462402344 6.063778400421
-95.800651550293 -79.940864562988 -293.937500000000 6.318083763123
-53.898029327393 -87.199775695801 -286.936187744141 10.057695388794
-120.070976257324 -74.951446533203 -290.458801269531 2.404816389084
-112.806388854980 -81.130531311035 -289.980377197266 6.469033241272
-37.462989807129 -86.480461120605 -290.973999023438 9.009442329407
-121.579444885254 -82.124038696289 -285.506256103516 6.827022075653
-131.335479736328 -83.342704772949 -285.512664794922 5.396237850189
-150.258697509766 -82.667259216309 -291.056091308594 1.870375752449
4.762517929077 -80.711265563965 -288.376403808594 3.579265117645
9.625863075256 -86.281188964844 -294.347167968750 9.222179412842
-161.202636718750 -78.938194274902 -290.511108398438 4.452386379242
-160.423721313477 -78.617462158203 -300.418212890625 6.530440807343
-152.212753295898 -82.982765197754 -306.518463134766 4.647193431854
-156.196578979492 -75.728507995605 -303.648010253906 2.346842050552
-158.079376220703 -83.727790832520 -309.438018798828 7.834179878235
28.575954437256 -72.542190551758 -16.283498764038 1.657629609108
28.690565109253 -70.747901916504 -24.533735275269 2.539763212204
28.015602111816 -72.510749816895 -21.618476867676 1.672309279442
30.471244812012 -74.592964172363 -42.040973663330 3.535441398621
-49.351467132568 -64.211547851563 -55.715290069580 9.674738883972
-61.746742248535 -69.464561462402 -52.288272857666 3.577036380768
-37.544677734375 -71.047187805176 -52.447692871094 2.289638280869
-79.623191833496 -72.724899291992 -58.758522033691 1.337731361389
82.646133422852 -82.949081420898 -83.721000671387 5.443142414093
-16.964902877808 -70.666107177734 -75.968177795410 4.015057086945
92.724502563477 -80.480003356934 -70.748199462891 6.951678276062
97.520095825195 -76.113967895508 -83.826416015625 3.401253938675
-90.654624938965 -70.816795349121 -80.653053283691 3.030628919601
77.608543395996 -71.982002258301 -78.789047241211 4.247755527496
-38.795700073242 -77.109321594238 -84.632423400879 2.269195556641
103.588836669922 -77.844291687012 -88.120193481445 7.083725452423
-54.745937347412 -76.062248229980 -89.544189453125 1.773631572723
51.983711242676 -75.343437194824 -90.348709106445 2.276924133301
74.064407348633 -78.092353820801 -89.125595092773 1.995212793350
58.075855255127 -81.631988525391 -96.397735595703 6.533521175385
48.011665344238 -74.787742614746 -107.017234802246 2.195605278015
68.379661560059 -79.769317626953 -97.554695129395 7.643025875092
49.656738281250 -68.669715881348 -100.091049194336 2.354942321777
101.969429016113 -78.624290466309 -107.897003173828 6.109536170959
114.106979370117 -80.468872070313 -112.060241699219 7.238575935364
76.740226745605 -73.962593078613 -103.474105834961 3.040087223053
90.545578002930 -77.893875122070 -108.608230590820 8.224567413330
102.495208740234 -76.025016784668 -105.761024475098 3.786191463470
106.937248229980 -68.432327270508 -104.952972412109 2.167389154434
40.685886383057 -84.443489074707 -109.298675537109 5.026669025421
108.123916625977 -80.481178283691 -123.062416076660 5.951601028442
115.249137878418 -82.118957519531 -126.533386230469 7.132703781128
33.500175476074 -75.985877990723 -119.843208312988 1.380933403969
39.471694946289 -78.729141235352 -120.799804687500 2.781710147858
106.648979187012 -77.076499938965 -134.148727416992 3.964181661606
38.305328369141 -82.242912292480 -128.213790893555 3.140431880951
115.919349670410 -75.610733032227 -135.502593994141 0.828214943409
110.439659118652 -78.242935180664 -132.375106811523 2.841138124466
25.024627685547 -74.894355773926 -138.689025878906 2.298542976379
-47.704246520996 -79.352737426758 -131.128341674805 7.150215625763
-57.535858154297 -76.493255615234 -140.376907348633 2.202988862991
115.383636474609 -78.117477416992 -137.326507568359 3.467181921005
-75.374015808105 -78.134094238281 -141.820083618164 4.423501014709
-75.271743774414 -72.822921752930 -137.166641235352 1.608707666397
-59.083084106445 -78.102851867676 -138.071716308594 4.407496452332
33.650955200195 -79.054618835449 -140.315444946289 2.198179721832
104.202880859375 -78.092124938965 -152.688644409180 6.924104690552
-63.804508209229 -77.274482727051 -143.727966308594 6.058820247650
-44.668304443359 -71.134918212891 -144.049377441406 1.142890214920
40.043075561523 -84.394828796387 -151.885803222656 9.193054199219
-64.031723022461 -78.633926391602 -150.958221435547 3.713619470596
113.020530700684 -72.969314575195 -149.026092529297 1.394764661789
108.352012634277 -82.712036132813 -160.416183471680 6.409491539001
109.458282470703 -82.436088562012 -152.150741577148 6.600797653198
-39.060825347900 -76.054298400879 -155.920074462891 2.172542333603
-66.258430480957 -75.306823730469 -154.632965087891 1.450928568840
-69.597389221191 -65.999282836914 -151.676361083984 3.491002082825
28.056186676025 -74.086982727051 -154.365417480469 3.832715988159
-0.837019026279 -80.758445739746 -164.803634643555 2.489038228989
106.983642578125 -79.390686035156 -159.961227416992 5.009460926056
107.648803710938 -75.215202331543 -160.353820800781 1.988054513931
113.057922363281 -79.981697082520 -162.626510620117 3.363856315613
-65.511833190918 -81.719947814941 -158.020095825195 3.699696302414
-48.057678222656 -78.454795837402 -160.819763183594 1.800875544548
4.370078086853 -81.533988952637 -171.343994140625 6.486575126648
-25.891424179077 -74.695320129395 -173.364944458008 1.366749882698
104.838333129883 -81.083732604980 -165.763168334961 6.204280376434
-37.121170043945 -73.426422119141 -160.962860107422 1.283277869225
109.108795166016 -83.912017822266 -172.093780517578 6.705733299255
-42.542934417725 -73.941375732422 -171.176071166992 1.318961024284
109.618370056152 -84.303634643555 -172.131240844727 7.151810169220
-152.316513061523 -69.625694274902 -178.178298950195 1.310840845108
-33.045906066895 -75.421127319336 -174.465179443359 3.585553407669
-21.993856430054 -73.245018005371 -179.376907348633 1.988242626190
29.710098266602 -84.675323486328 -176.410842895508 7.209687709808
13.508723258972 -77.119880676270 -179.922698974609 2.764499187469
20.703540802002 -81.022438049316 -182.904083251953 2.087923288345
103.784545898438 -86.395942687988 -192.035263061523 9.104364395142
-154.481933593750 -69.800949096680 -183.954528808594 2.589685678482
-23.694864273071 -78.263496398926 -187.326553344727 1.083119392395
103.497802734375 -80.757896423340 -182.269088745117 3.970449447632
100.893066406250 -80.533462524414 -195.478851318359 3.322117805481
102.641601562500 -82.434020996094 -184.752548217773 5.931514263153
93.174171447754 -87.308685302734 -199.270812988281 10.937368392944
-159.023696899414 -84.999084472656 -193.480484008789 8.664069175720
94.922576904297 -88.591835021973 -206.380966186523 11.229634284973
-35.391513824463 -78.039230346680 -195.703155517578 2.601721525192
95.242538452148 -79.005882263184 -199.571441650391 3.182883024216
-130.482574462891 -75.661048889160 -188.518524169922 8.415303230286
-33.804489135742 -80.282386779785 -190.725418090820 2.446767091751
-144.442474365234 -76.000663757324 -199.631927490234 1.478961110115
87.746543884277 -80.835090637207 -202.473114013672 7.781877040863
6.516221046448 -78.284080505371 -202.697906494141 3.610739231110
21.409679412842 -82.686965942383 -197.664062500000 5.462586879730
-152.565948486328 -77.115974426270 -194.978759765625 1.477368712425
-139.893356323242 -72.788192749023 -204.474487304688 2.808223724365
-19.018610000610 -80.840888977051 -206.871871948242 2.914666175842
-128.592437744141 -83.547485351563 -200.821395874023 5.856693267822
-150.506393432617 -77.576713562012 -197.151062011719 2.230453491211
4.352116107941 -77.043754577637 -200.032791137695 5.255887508392
-28.737001419067 -77.791664123535 -204.805419921875 2.382556200027
15.292112350464 -79.224784851074 -209.297271728516 1.104716658592
3.012002944946 -80.098327636719 -210.777389526367 5.465883255005
82.620002746582 -82.534622192383 -216.880691528320 7.064195156097
-28.885540008545 -71.038085937500 -211.708770751953 2.354918956757
91.363151550293 -81.524612426758 -214.875289916992 4.622201919556
99.168144226074 -82.988121032715 -210.907440185547 7.149336338043
-145.731246948242 -70.756240844727 -216.248626708984 2.795717954636
91.568679809570 -78.060295104980 -214.271148681641 2.238705635071
3.433505058289 -74.933547973633 -210.388214111328 3.376809120178
0.970690011978 -78.013916015625 -210.309539794922 6.662743568420
-37.085491180420 -76.482955932617 -209.788024902344 0.381280094385
-95.295021057129 -71.937141418457 -212.149948120117 3.341193437576
-37.638835906982 -78.754402160645 -213.902709960938 4.828167915344
81.138366699219 -83.747932434082 -219.670272827148 7.776977062225
79.844154357910 -84.372406005859 -220.263397216797 8.519500732422
-41.842689514160 -72.896553039551 -215.423049926758 8.451299667358
-80.554611206055 -69.327827453613 -224.040802001953 9.316959381104
-6.393834114075 -77.909942626953 -216.153808593750 1.112323164940
85.466491699219 -83.893646240234 -222.019927978516 7.277721405029
-150.125000000000 -79.113403320313 -217.059906005859 1.429777622223
-173.421112060547 -76.881896972656 -206.927719116211 9.975150108337
-161.254791259766 -74.335830688477 -215.477584838867 3.195193290710
-22.900041580200 -83.183258056641 -228.723297119141 7.916532993317
-155.565475463867 -79.961059570313 -219.642486572266 5.919608116150
-10.915730476379 -87.107765197754 -228.658111572266 9.789840698242
2.829924106598 -77.822090148926 -218.665267944336 4.174833297729
-164.693527221680 -81.557571411133 -216.294998168945 9.254035949707
-167.647445678711 -74.012657165527 -221.309448242188 3.673330783844
73.833274841309 -81.982612609863 -233.132308959961 6.650200843811
1.768108963966 -82.132583618164 -230.825714111328 2.922146081924
-152.212097167969 -78.000717163086 -217.968139648438 1.888884425163
-146.423004150391 -76.949691772461 -216.713943481445 1.228597164154
-25.031589508057 -82.354942321777 -225.869583129883 6.957082748413
0.315609991550 -80.575370788574 -223.620513916016 2.036517620087
80.747947692871 -82.583023071289 -225.324111938477 6.799718856812
-161.843658447266 -78.068862915039 -225.793457031250 4.519856929779
-149.581802368164 -73.815490722656 -224.509994506836 2.190707206726
-129.386779785156 -72.934127807617 -227.407867431641 2.667782783508
78.400932312012 -87.514526367188 -234.587753295898 12.639657020569
-118.868339538574 -72.215080261230 -229.938217163086 2.774516105652
-148.939880371094 -79.331336975098 -225.392684936523 1.786743044853
-157.605163574219 -81.485671997070 -224.733291625977 5.043107986450
-150.358291625977 -75.689392089844 -222.774215698242 1.158342123032
-154.823989868164 -71.498527526855 -226.572341918945 1.493621587753
-170.491531372070 -71.256851196289 -233.690948486328 4.074289321899
-140.913223266602 -76.302482604980 -232.947265625000 1.840636253357
-139.886627197266 -74.896072387695 -230.038055419922 1.695334672928
-159.224365234375 -75.450736999512 -224.260665893555 3.098319530487
-149.139083862305 -74.851791381836 -227.535964965820 1.755632519722
-155.461318969727 -71.575294494629 -229.406448364258 1.182835698128
67.834571838379 -80.764595031738 -221.233078002930 11.507266044617
64.293266296387 -78.423149108887 -242.266601562500 4.653973102570
-165.225402832031 -73.955970764160 -235.666976928711 1.974149465561
65.182029724121 -83.321426391602 -236.713226318359 8.962954521179
-24.894660949707 -78.598541259766 -236.121124267578 2.701632499695
5.005058765411 -81.138290405273 -240.816909790039 3.774588346481
13.844905853271 -85.777961730957 -235.906753540039 3.030858755112
-144.749435424805 -75.837982177734 -239.524841308594 2.654032468796
12.598707199097 -81.043395996094 -245.113296508789 1.257550835609
62.612216949463 -84.305358886719 -239.736282348633 10.143593788147
5.947719097137 -79.641700744629 -236.394790649414 2.836308956146
0.555486977100 -84.857101440430 -245.579589843750 5.382843017578
-11.858759880066 -74.550598144531 -240.677841186523 0.224150061607
-22.328659057617 -85.487541198730 -247.727767944336 8.975625991821
-2.798146009445 -85.503181457520 -242.468292236328 8.884647369385
-0.937804996967 -78.248855590820 -242.054336547852 3.158988237381
52.453784942627 -84.749671936035 -242.897918701172 12.572091102600
-63.553379058838 -80.852577209473 -244.799453735352 3.865633249283
14.296298027039 -83.033416748047 -251.804214477539 2.464629173279
-61.600624084473 -77.325401306152 -244.736877441406 1.803426623344
-11.264313697815 -80.215736389160 -250.656616210938 3.287134647369
-68.184654235840 -76.364151000977 -252.974044799805 2.379323482513
-88.523468017578 -85.971183776855 -249.108276367188 11.856583595276
-85.307807922363 -84.218482971191 -250.749114990234 9.355874061584
-21.940341949463 -79.468132019043 -251.998596191406 9.746199607849
-128.963027954102 -83.456634521484 -259.047485351563 6.012708663940
-19.791242599487 -75.464157104492 -256.661315917969 6.202175617218
-128.022766113281 -76.958297729492 -252.514907836914 4.513185501099
-123.083068847656 -73.363983154297 -255.947799682617 1.334609389305
-108.605293273926 -83.903808593750 -254.345260620117 11.231100082397
-146.376052856445 -75.612022399902 -255.724441528320 2.019413232803
-150.939636230469 -75.023109436035 -263.262786865234 1.847825527191
-171.394149780273 -72.860671997070 -261.008178710938 3.988580226898
8.185891151428 -85.277427673340 -282.972656250000 6.013836383820
-66.974266052246 -84.741340637207 -281.786621093750 10.264677047729
-70.574340820313 -82.271553039551 -282.012725830078 8.476735115051
-50.520896911621 -83.854080200195 -283.665557861328 7.689067840576
-31.246543884277 -83.953224182129 -281.648712158203 8.594692230225
-96.994323730469 -80.721870422363 -293.780120849609 6.813481330872
-35.997081756592 -79.853042602539 -288.537048339844 2.800019502640
-5.988862991333 -76.161788940430 -285.929656982422 1.681852579117
-169.705017089844 -80.213973999023 -285.776062011719 6.301123142242
-21.836992263794 -85.104660034180 -291.058105468750 7.478553295135
2.360713958740 -77.732673645020 -291.561614990234 1.645369291306
9.884408950806 -76.193031311035 -293.366638183594 2.183820486069
-60.632740020752 -83.281723022461 -291.500427246094 7.124575614929
-33.304042816162 -86.942855834961 -285.272308349609 9.526543617249
10.849045753479 -80.348709106445 -290.675659179688 2.783021688461
-73.083091735840 -83.246498107910 -293.338562011719 8.638484001160
-43.432289123535 -81.262168884277 -289.867523193359 5.378703594208
-21.711103439331 -81.404273986816 -292.114440917969 4.289279937744
3.164402008057 -82.746543884277 -292.990997314453 6.161127567291
-20.069120407104 -86.365592956543 -288.617797851563 8.299680709839
1.620133042336 -80.922866821289 -293.766815185547 4.448958873749
6.153450012207 -84.023185729980 -293.139526367188 6.868494033813
-139.216583251953 -82.741149902344 -286.106079101563 2.856654882431
-145.461853027344 -81.052673339844 -298.793548583984 2.232165098190
-156.333740234375 -84.383491516113 -305.957733154297 7.205924987793
41.335227966309 -61.386314392090 -14.201828956604 2.163316011429
33.128669738770 -70.547790527344 -9.855863571167 2.827967166901
43.259403228760 -71.678779602051 -16.642103195190 2.275584220886
23.481260299683 -71.574333190918 -23.225271224976 1.533416628838
44.060302734375 -72.260139465332 -28.844839096069 2.008434772491
23.012117385864 -67.639755249023 -20.586244583130 3.510208368301
25.968441009521 -76.858680725098 -31.970680236816 4.406993389130
24.264905929565 -75.121910095215 -37.832614898682 3.339651823044
44.409919738770 -68.545730590820 -36.822814941406 2.008681774139
28.977357864380 -71.081115722656 -40.869789123535 1.052648425102
41.410179138184 -72.706314086914 -33.349803924561 1.963166475296
36.407691955566 -68.140243530273 -39.508861541748 2.862057209015
31.655256271362 -72.845985412598 -43.085823059082 2.581170558929
