-122.394508361816 -68.849731445313 -256.129577636719 1.679916858673
-100.432052612305 -69.376007080078 -253.425659179688 0.853632152081
-22.625797271729 -80.416381835938 -257.433654785156 10.484777450562
27.614383697510 -76.196029663086 -264.919097900391 5.638416290283
15.766983032227 -79.784576416016 -266.072937011719 2.627386093140
-159.504913330078 -66.503921508789 -253.311691284180 2.797289371490
-117.439239501953 -68.945220947266 -264.109252929688 1.109111547470
-16.262582778931 -75.261070251465 -261.499847412109 1.686124444008
-139.298217773438 -66.905975341797 -265.048217773438 3.416770696640
-16.875757217407 -71.553009033203 -276.405029296875 4.897869110107
-166.491043090820 -67.179313659668 -278.406585693359 3.639625549316
-14.642350196838 -68.680999755859 -278.476074218750 4.038545608521
-168.843582153320 -64.776702880859 -289.358825683594 6.335718154907
-161.841461181641 -67.148063659668 -275.604797363281 3.231316804886
-157.299377441406 -65.660850524902 -284.088195800781 2.366544961929
-174.962768554688 -65.921134948730 -281.240905761719 9.342375755310
15.472294807434 -69.482849121094 -292.736938476563 3.222346782684
-110.991737365723 -75.128395080566 -286.430480957031 2.240801572800
-94.185317993164 -68.307495117188 -286.043762207031 1.915361404419
-176.228378295898 -66.111968994141 -281.836761474609 10.057593345642
-94.440368652344 -72.818679809570 -290.860046386719 1.493067383766
-163.675491333008 -73.412673950195 -287.782318115234 2.243698358536
-81.902519226074 -73.628524780273 -293.849853515625 3.407283544540
-72.539573669434 -71.824501037598 -291.852752685547 1.426369547844
-87.353996276855 -69.082214355469 -291.377075195313 0.905989825726
-7.982481956482 -68.813735961914 -291.038146972656 3.071424484253
-90.330467224121 -72.221527099609 -293.321380615234 1.901249647141
-102.601348876953 -71.002899169922 -291.649749755859 2.946500301361
-124.211776733398 -68.062126159668 -293.189086914063 1.471750855446
-121.918960571289 -67.041107177734 -295.695526123047 4.568284988403
-145.421890258789 -62.730205535889 -291.549926757813 1.541849732399
-147.765487670898 -76.679885864258 -298.550231933594 1.171376585960
-151.917007446289 -74.512321472168 -309.442626953125 3.336750507355
29.666162490845 -71.436370849609 -22.648778915405 2.575240850449
32.945270538330 -67.764183044434 -29.938049316406 5.945930480957
33.683834075928 -75.430969238281 -21.611200332642 6.462444782257
50.284526824951 -74.234161376953 -33.011859893799 3.409665346146
23.399562835693 -73.868530273438 -36.211208343506 1.602857828140
-78.437004089355 -65.726455688477 -52.546291351318 3.341688156128
85.924186706543 -73.952957153320 -71.777816772461 1.578365683556
-10.119697570801 -69.188331604004 -70.878158569336 4.815812587738
103.232971191406 -78.028343200684 -79.076423645020 7.169870853424
96.550056457520 -70.217857360840 -86.799407958984 3.386117219925
75.171257019043 -80.551193237305 -89.216407775879 4.542726516724
69.370910644531 -71.476898193359 -93.708526611328 1.020795345306
-48.751850128174 -67.390480041504 -84.169494628906 2.013694524765
60.046489715576 -73.589271545410 -86.627441406250 2.449254751205
-99.086494445801 -67.124748229980 -89.577949523926 2.655046701431
-47.123634338379 -69.661811828613 -91.198493957520 5.764253139496
-55.716880798340 -72.303428649902 -85.455284118652 5.021152019501
95.593093872070 -75.866722106934 -104.026527404785 4.912648677826
56.616775512695 -74.592887878418 -108.530548095703 4.647798061371
62.100440979004 -70.112586975098 -97.467163085938 2.518465042114
-93.390022277832 -65.881233215332 -95.453811645508 4.544326305389
110.265014648438 -71.599800109863 -101.242622375488 1.470785260201
48.639499664307 -72.706230163574 -98.698181152344 2.029899120331
102.427474975586 -72.849578857422 -104.381904602051 1.821075797081
106.604118347168 -75.065093994141 -114.668090820313 1.922583341599
100.465560913086 -73.670822143555 -110.779602050781 4.597252845764
75.734718322754 -73.251113891602 -111.311302185059 7.592319011688
85.576560974121 -73.853195190430 -114.712776184082 10.447927474976
46.102642059326 -76.349273681641 -115.446464538574 1.473388671875
107.626266479492 -72.787506103516 -115.684410095215 1.987847447395
47.394756317139 -73.928756713867 -115.272422790527 1.798393130302
47.753978729248 -70.086921691895 -107.016448974609 1.144494295120
105.721534729004 -78.912544250488 -124.956253051758 5.372622966766
-78.703819274902 -63.660392761230 -108.410087585449 1.490200161934
48.019435882568 -70.661354064941 -120.282096862793 3.389135837555
35.374225616455 -73.565139770508 -116.267585754395 1.876890778542
107.498916625977 -77.207672119141 -115.230949401855 3.823757171631
43.489753723145 -72.226654052734 -119.002449035645 2.038847208023
-89.615798950195 -66.006675720215 -120.533721923828 1.841497182846
-97.690063476563 -65.779830932617 -117.212432861328 1.642519116402
109.211372375488 -72.761398315430 -130.783676147461 0.710223793983
-91.580848693848 -71.788909912109 -116.448654174805 1.970964193344
39.684852600098 -71.970626831055 -128.955123901367 1.735337853432
36.896579742432 -72.342430114746 -122.105369567871 1.472665905952
-77.976623535156 -69.669136047363 -123.993820190430 1.178580284119
27.892543792725 -68.738441467285 -132.532028198242 2.377330780029
108.742233276367 -75.732398986816 -142.005065917969 2.157999753952
-47.651748657227 -70.319496154785 -141.590377807617 1.477544784546
-89.658081054688 -69.238784790039 -132.435562133789 0.682408988476
33.894123077393 -73.552711486816 -143.918869018555 2.361026763916
-86.362602233887 -68.385475158691 -136.535598754883 0.642796218395
-91.349433898926 -70.799812316895 -134.939285278320 2.360032558441
-47.926704406738 -72.316970825195 -137.501495361328 1.116530656815
-73.731697082520 -69.792648315430 -139.706375122070 1.020129442215
-50.277549743652 -69.380874633789 -141.425537109375 1.959615826607
113.705024719238 -73.555397033691 -145.920379638672 0.952238500118
-75.532157897949 -62.704399108887 -142.382308959961 3.966217041016
35.724525451660 -74.601547241211 -133.742065429688 3.054726600647
-75.161338806152 -63.066768646240 -140.049896240234 2.827628135681
-79.713378906250 -66.737037658691 -132.748382568359 1.990820884705
-87.300743103027 -69.160728454590 -136.337173461914 1.063854932785
-59.485397338867 -68.023811340332 -154.202728271484 6.944171905518
30.390233993530 -70.603340148926 -156.896133422852 1.342729806900
33.160099029541 -73.198036193848 -157.719146728516 2.380973815918
19.852672576904 -70.684570312500 -149.766204833984 2.143452167511
111.978240966797 -80.550842285156 -158.592239379883 3.448565483093
-99.495788574219 -75.663764953613 -157.144424438477 6.940641880035
16.873800277710 -72.568077087402 -149.402236938477 2.716188907623
-69.652244567871 -72.162796020508 -146.953094482422 0.886850595474
22.208147048950 -70.775917053223 -153.310363769531 1.214197158813
-44.380245208740 -67.583511352539 -155.521377563477 0.856721222401
5.689356803894 -67.647109985352 -151.757202148438 3.852350711823
4.786690235138 -70.415840148926 -159.814437866211 1.791146755219
15.047105789185 -71.087844848633 -165.959304809570 3.985580205917
-48.195545196533 -71.348175048828 -167.650985717773 4.405125617981
-42.079586029053 -62.740692138672 -155.063613891602 5.414841651917
-48.681648254395 -67.953697204590 -157.818069458008 2.049128293991
-101.323722839355 -66.208572387695 -169.866638183594 0.584026277065
14.592690467834 -67.653358459473 -175.626495361328 2.875550985336
-39.854106903076 -72.967689514160 -176.781387329102 2.950619935989
10.479888916016 -62.882602691650 -182.542037963867 7.839082717896
-148.715682983398 -71.194061279297 -169.189071655273 6.363886833191
-37.124488830566 -64.707427978516 -178.535186767578 5.339196681976
-152.962661743164 -61.303077697754 -174.864944458008 3.616535186768
15.812788963318 -74.420532226563 -185.161499023438 1.695804119110
-35.852115631104 -76.390342712402 -173.413894653320 2.058001995087
-110.729911804199 -71.083717346191 -183.421249389648 1.440193533897
-105.760353088379 -67.616775512695 -182.664367675781 1.326604604721
-37.219985961914 -67.959960937500 -182.372772216797 4.042237758636
-19.040029525757 -71.233970642090 -193.111755371094 2.318851470947
10.793456077576 -73.670471191406 -193.414672851563 1.541499257088
17.868843078613 -72.753570556641 -200.875350952148 1.957004070282
16.188657760620 -65.526611328125 -192.631149291992 2.804403781891
-140.911437988281 -66.063789367676 -183.338668823242 1.353972434998
13.536655426025 -72.643981933594 -199.377822875977 2.192931652069
7.504792213440 -73.389244079590 -202.320388793945 2.271805047989
-142.991622924805 -62.984222412109 -195.697875976563 2.198853492737
-121.418815612793 -68.782096862793 -200.112548828125 3.022017955780
13.051095962524 -69.616950988770 -202.985366821289 2.178862571716
-114.349678039551 -70.794876098633 -191.081161499023 2.552293777466
-111.645782470703 -70.037719726563 -191.986648559570 0.717782735825
-165.575988769531 -69.314079284668 -199.973602294922 0.900222182274
-18.437925338745 -78.097953796387 -207.974090576172 2.434944629669
13.246701240540 -67.771713256836 -207.048858642578 2.089099407196
-140.035888671875 -62.144706726074 -197.269302368164 2.134616613388
-137.497863769531 -68.315200805664 -208.067993164063 5.109572887421
-22.385391235352 -69.392700195313 -209.906585693359 3.009383916855
-15.121885299683 -68.399185180664 -207.957397460938 1.541974306107
-17.587953567505 -73.906051635742 -214.199874877930 0.408149331808
-149.627182006836 -69.957740783691 -207.132019042969 2.714910268784
-24.472442626953 -73.962516784668 -204.053833007813 1.953394889832
-15.276870727539 -68.237007141113 -212.263854980469 1.761503458023
12.263366699219 -71.566429138184 -212.872070312500 1.925705313683
-13.758770942688 -72.015373229980 -210.713287353516 2.867780447006
7.990935802460 -67.758895874023 -216.850006103516 2.589047908783
-10.366036415100 -75.443954467773 -220.815124511719 1.597545504570
-17.772317886353 -75.337890625000 -214.009399414063 1.636019587517
5.971818923950 -72.726860046387 -230.106887817383 1.258939623833
-8.805767059326 -72.534622192383 -222.280822753906 1.146181106567
9.489394187927 -71.146438598633 -226.065109252930 1.562330365181
-7.982995986938 -75.191246032715 -226.704467773438 1.167320370674
-162.794448852539 -66.834152221680 -218.670761108398 2.580680847168
81.727096557617 -77.021141052246 -228.627182006836 3.106564283371
-137.694961547852 -66.273910522461 -219.844650268555 6.388210296631
-137.610473632813 -66.454673767090 -223.499893188477 4.248142242432
-11.829522132874 -71.872390747070 -232.331481933594 1.682024002075
9.786548614502 -76.084930419922 -239.189193725586 1.072971582413
-152.935623168945 -64.179397583008 -219.251632690430 4.644920349121
81.499488830566 -72.068855285645 -228.960754394531 1.010299086571
-12.395994186401 -72.528938293457 -227.286834716797 0.702002227306
0.081745997071 -74.582237243652 -231.474029541016 3.149100303650
67.204925537109 -74.277679443359 -234.689880371094 2.951354503632
1.374665021896 -75.356376647949 -236.250015258789 1.374664902687
-21.729677200317 -68.141616821289 -234.200241088867 6.063771247864
-124.018241882324 -72.316787719727 -236.923721313477 2.789972305298
-9.515675544739 -72.452674865723 -241.965545654297 1.773075580597
-5.327898025513 -74.278633117676 -236.402053833008 0.849071919918
64.953460693359 -77.337471008301 -241.197265625000 3.341193199158
-166.868927001953 -65.701393127441 -236.557205200195 2.726991891861
-13.280161857605 -70.682006835938 -251.005661010742 2.320364713669
-169.781890869141 -67.824951171875 -237.693664550781 3.375697135925
3.998776912689 -74.534599304199 -249.105957031250 4.809153556824
-170.952774047852 -65.524734497070 -235.916259765625 5.893055915833
-158.701034545898 -62.317485809326 -240.657806396484 6.021001338959
49.357803344727 -80.618217468262 -259.194763183594 11.578597068787
59.246273040771 -72.841331481934 -250.013015747070 3.036468029022
49.675140380859 -74.209526062012 -249.042938232422 2.115101099014
44.871459960938 -79.430076599121 -253.690582275391 7.822103977203
-164.861007690430 -65.390876770020 -244.243209838867 2.915761947632
-155.421920776367 -67.544151306152 -248.642227172852 2.802336215973
-20.077604293823 -71.561096191406 -249.784637451172 4.601714611053
-158.689712524414 -64.675476074219 -246.017028808594 3.767478466034
15.593947410583 -76.445014953613 -261.480468750000 4.475863933563
-169.346069335938 -64.678855895996 -249.362411499023 5.518492221832
-173.777694702148 -59.176071166992 -241.063034057617 12.368142127991
-84.256546020508 -67.096992492676 -253.027038574219 1.728239536285
-176.901565551758 -67.179885864258 -263.778350830078 9.862924575806
-90.985496520996 -71.366737365723 -261.794006347656 4.784599304199
31.596752166748 -67.922340393066 -253.922576904297 1.244864940643
19.967870712280 -77.802406311035 -260.712158203125 1.692368626595
-161.760528564453 -62.768260955811 -256.937561035156 6.165133476257
-107.090164184570 -64.593475341797 -261.517883300781 3.114412069321
34.682346343994 -73.341331481934 -263.873687744141 5.534552574158
-105.687667846680 -68.777976989746 -258.845428466797 2.075192689896
-155.439529418945 -64.217567443848 -256.147186279297 0.392527192831
-111.014320373535 -64.972999572754 -257.472290039063 2.425956964493
-166.671051025391 -66.304817199707 -256.236968994141 3.983077526093
-118.133110046387 -69.467010498047 -261.665771484375 1.700564146042
-159.914688110352 -67.947975158691 -267.478271484375 2.063263893127
-162.219940185547 -69.196815490723 -261.183502197266 1.490733504295
-172.137741088867 -70.264724731445 -262.973144531250 4.787690639496
-164.025909423828 -66.906494140625 -263.796569824219 2.742388963699
-170.482360839844 -62.139461517334 -266.540893554688 8.404878616333
-168.778335571289 -59.753047943115 -265.351196289063 9.758310317993
18.950510025024 -75.041412353516 -268.144927978516 3.142967462540
-153.197067260742 -64.855972290039 -266.852172851563 2.364108562469
-154.163864135742 -65.071098327637 -286.997344970703 1.439818263054
11.905008316040 -81.764747619629 -284.324737548828 5.408277511597
-12.675649642944 -71.638092041016 -279.500946044922 2.542478799820
-131.988815307617 -72.460693359375 -284.201141357422 1.007860183716
-143.436920166016 -75.194358825684 -288.107421875000 1.646491765976
-143.840148925781 -68.839637756348 -285.193176269531 1.060184717178
-135.299880981445 -63.590160369873 -283.903472900391 4.095193862915
-121.610778808594 -67.963508605957 -288.769561767578 2.764388799667
-113.990890502930 -71.852943420410 -287.029296875000 0.560630738735
6.615495204926 -72.305458068848 -296.774902343750 4.234240531921
-96.417282104492 -67.865959167480 -284.929443359375 3.479334115982
-151.262863159180 -69.370597839355 -294.333374023438 1.472837209702
-104.684967041016 -66.590591430664 -288.524017333984 1.959904789925
-135.635620117188 -67.510147094727 -291.345855712891 0.963869333267
6.296891212463 -80.810096740723 -292.469757080078 3.587587594986
-121.664482116699 -72.389099121094 -294.308471679688 2.710459232330
-4.191039085388 -74.099891662598 -291.882843017578 2.531799793243
-148.237747192383 -70.430191040039 -287.391540527344 1.153222322464
-163.092025756836 -70.257492065430 -301.045135498047 7.852539539337
-171.967559814453 -67.962547302246 -305.329254150391 16.563896179199
-158.961135864258 -68.626319885254 -309.167083740234 3.734392166138
52.174072265625 -77.573623657227 -30.745595932007 6.984576702118
22.545730590820 -71.235137939453 -35.670970916748 0.603278756142
38.113559722900 -73.250839233398 -43.107059478760 3.116958379745
-48.152206420898 -66.414833068848 -54.449893951416 7.296831130981
-10.619902610779 -66.871788024902 -65.301086425781 1.563608527184
95.393035888672 -80.387939453125 -82.822273254395 4.720177650452
68.012268066406 -70.268592834473 -72.880462646484 1.801036596298
-17.905719757080 -70.830543518066 -77.424896240234 4.731595039368
-91.267059326172 -64.910163879395 -81.552131652832 6.319511413574
-36.241867065430 -69.360717773438 -82.748031616211 5.590153694153
64.775047302246 -74.338706970215 -85.853683471680 4.295444488525
56.635681152344 -80.044265747070 -88.266983032227 7.296948432922
58.469058990479 -75.376220703125 -92.590621948242 1.310757756233
-54.468780517578 -71.331863403320 -85.755844116211 4.439144134521
69.911254882813 -71.709648132324 -93.459129333496 1.122396707535
45.635406494141 -78.006790161133 -101.056152343750 0.912951409817
67.542427062988 -77.530143737793 -95.379837036133 6.548314094543
-61.591602325439 -66.430000305176 -99.120658874512 4.859297275543
56.185340881348 -67.829139709473 -102.914596557617 2.788407325745
47.913063049316 -75.005653381348 -102.854309082031 1.721443653107
104.502876281738 -79.506469726563 -101.129341125488 5.733615398407
-69.756263732910 -75.672149658203 -100.445114135742 0.559969842434
111.320816040039 -77.556396484375 -109.183731079102 3.721963882446
-79.313430786133 -64.905456542969 -94.375854492188 6.759087562561
56.890972137451 -75.035484313965 -113.291938781738 7.420041561127
51.135032653809 -71.062103271484 -107.617530822754 1.854890108109
97.061592102051 -74.244430541992 -105.248275756836 4.906194210052
88.825553894043 -65.296516418457 -121.922859191895 13.270803451538
57.316040039063 -77.480949401855 -109.669776916504 7.130252361298
-68.285102844238 -69.561820983887 -105.973899841309 4.278713226318
-80.287361145020 -68.829093933105 -110.049591064453 1.733076334000
-85.065353393555 -71.009704589844 -121.062210083008 2.887847185135
-94.952705383301 -77.138725280762 -115.621421813965 4.527903556824
101.165359497070 -77.523361206055 -121.393867492676 7.613129615784
-86.022979736328 -63.677330017090 -120.686698913574 2.847840309143
-79.499565124512 -64.342651367188 -120.526016235352 1.275873541832
111.462463378906 -73.229789733887 -124.124130249023 1.938675045967
-62.588527679443 -62.343559265137 -118.906845092773 1.467813014984
111.442657470703 -79.761161804199 -138.714904785156 3.649003982544
107.155517578125 -75.201545715332 -137.831756591797 3.136184930801
113.016410827637 -75.217453002930 -123.814506530762 0.760350942612
-94.230491638184 -64.539421081543 -133.464019775391 2.997062683105
-53.993144989014 -63.550960540771 -140.380203247070 1.517282366753
-76.796142578125 -71.230514526367 -147.532028198242 1.777342319489
-69.290100097656 -64.962890625000 -152.271713256836 4.585662841797
-74.421455383301 -66.295501708984 -144.623229980469 1.115654826164
-53.694313049316 -63.975448608398 -150.061279296875 4.360947608948
-48.476154327393 -66.268272399902 -154.880432128906 2.672110319138
18.989282608032 -74.590423583984 -149.130218505859 3.705418825150
-95.556083679199 -61.026321411133 -157.383361816406 3.928326606750
-43.988945007324 -73.560058593750 -149.995391845703 1.809984445572
-56.070152282715 -67.643165588379 -154.647277832031 5.249835968018
-45.837539672852 -63.620941162109 -158.279922485352 5.259519577026
26.604707717896 -77.525978088379 -163.367996215820 0.794028162956
-49.169925689697 -68.708915710449 -158.648696899414 1.864142298698
-96.523292541504 -68.277389526367 -148.298645019531 1.416257858276
-43.276435852051 -68.253517150879 -162.548294067383 0.542849540710
23.831308364868 -69.156677246094 -163.305999755859 2.710634231567
-101.595008850098 -68.133666992188 -164.587173461914 1.474092841148
20.743249893188 -70.383377075195 -163.374420166016 1.358578801155
-105.288345336914 -59.914432525635 -171.561477661133 3.293722391129
-101.523223876953 -61.791679382324 -164.570953369141 2.227769374847
21.174148559570 -65.104965209961 -174.307785034180 2.934960603714
23.985612869263 -69.179824829102 -172.147232055664 0.329664856195
-109.314834594727 -69.398223876953 -173.975479125977 2.303507089615
-146.103485107422 -64.879447937012 -173.991333007813 1.898196935654
-27.454282760620 -67.942207336426 -189.389419555664 0.789916455746
-22.937875747681 -66.547653198242 -186.610595703125 2.323119163513
-115.346229553223 -64.207542419434 -189.562881469727 3.285860538483
-142.720138549805 -64.675476074219 -188.048690795898 1.473651885986
-106.924919128418 -70.966423034668 -180.119384765625 2.153622388840
-151.797622680664 -70.229873657227 -197.523895263672 2.754632472992
-130.615966796875 -69.358764648438 -191.543945312500 3.368053674698
-139.931045532227 -64.375244140625 -194.200210571289 3.212626218796
-23.762823104858 -64.194686889648 -196.433227539063 4.028988838196
-121.654647827148 -67.019729614258 -190.374755859375 4.941376686096
-115.620574951172 -63.044956207275 -193.784973144531 4.107479572296
-19.191154479980 -74.423080444336 -196.457122802734 3.060329914093
-156.392395019531 -59.985168457031 -191.423980712891 5.464358806610
-139.558395385742 -68.327835083008 -211.119659423828 5.460682868958
-125.797195434570 -62.158111572266 -203.219497680664 1.000257492065
11.664318084717 -68.933647155762 -209.622848510742 1.577754735947
-163.555969238281 -65.302200317383 -203.807846069336 2.833821058273
8.748018264771 -76.109077453613 -214.211074829102 1.094638347626
10.813097953796 -79.420486450195 -218.193145751953 1.685657024384
-21.332368850708 -70.271430969238 -211.943893432617 3.219402074814
-8.942625045776 -72.205520629883 -216.027496337891 2.659291028976
-169.788894653320 -65.648872375488 -211.779083251953 4.789002418518
-161.937957763672 -62.144104003906 -216.621520996094 5.047091960907
-106.923530578613 -68.254951477051 -217.937744140625 4.027671337128
-103.562522888184 -65.299842834473 -227.746658325195 2.632688522339
-160.607849121094 -61.690361022949 -217.314743041992 5.666254520416
-110.339492797852 -66.861000061035 -222.354766845703 3.055640220642
-21.084665298462 -73.275718688965 -221.275604248047 1.500520825386
-127.519691467285 -65.476196289063 -229.337890625000 3.239783048630
-148.956314086914 -68.532981872559 -221.675949096680 2.655225038528
-12.473038673401 -75.513862609863 -232.081375122070 2.084771633148
-135.042861938477 -63.089347839355 -225.626983642578 2.412576913834
-129.253387451172 -59.845413208008 -226.566711425781 4.225811004639
-113.924476623535 -69.476860046387 -231.645523071289 1.638244628906
-4.763226985931 -71.550041198730 -234.479217529297 1.509548544884
-112.042442321777 -63.995937347412 -226.505096435547 2.011347770691
-161.117172241211 -71.474067687988 -219.152786254883 3.888123989105
-149.801376342773 -71.414413452148 -223.729003906250 1.731840848923
-168.022994995117 -65.578193664551 -226.181701660156 3.872689247131
-10.343779563904 -69.956520080566 -232.319793701172 1.279307365417
-12.882623672485 -59.492191314697 -233.631835937500 6.033742427826
73.262268066406 -63.826629638672 -233.776199340820 3.791306018829
-0.269232988358 -68.400047302246 -238.436904907227 1.231044888496
-147.282943725586 -63.744800567627 -231.992065429688 2.002591371536
-16.045988082886 -73.568084716797 -233.667373657227 3.139243125916
74.200653076172 -80.559501647949 -228.154769897461 5.422793865204
64.208534240723 -74.847404479980 -237.538574218750 1.615845799446
-132.289108276367 -65.997642517090 -229.582199096680 2.643340826035
-164.539886474609 -64.053375244141 -224.932083129883 3.827021121979
-113.725547790527 -62.386634826660 -231.067062377930 2.970892190933
-122.067817687988 -65.622901916504 -232.985794067383 1.873709797859
-173.475143432617 -59.049201965332 -231.200744628906 12.268326759338
-161.879135131836 -62.577709197998 -237.165115356445 4.773871898651
-136.961441040039 -64.600364685059 -240.796524047852 7.619140148163
-14.055332183838 -77.902046203613 -235.540298461914 3.567804098129
-6.596821784973 -69.909957885742 -248.182357788086 3.539950370789
-163.973327636719 -62.015579223633 -240.803207397461 6.241750717163
5.210002899170 -75.787101745605 -244.923156738281 1.030870318413
5.662570953369 -70.365455627441 -244.394104003906 2.632290601730
-168.482833862305 -63.744216918945 -240.469467163086 5.791189670563
8.772399902344 -71.797920227051 -246.175704956055 2.862004995346
47.354969024658 -72.622734069824 -254.102233886719 2.197839736938
48.224712371826 -69.874725341797 -259.346069335938 5.223596096039
-9.844347953796 -72.461891174316 -248.106338500977 1.434087395668
46.755943298340 -71.120414733887 -251.060607910156 1.692005515099
-166.803222656250 -65.608978271484 -254.407394409180 3.667408227921
-169.391220092773 -61.734546661377 -247.204116821289 8.321439743042
-167.999893188477 -67.330566406250 -243.994232177734 2.376538276672
51.049961090088 -71.563056945801 -261.122589111328 8.348814010620
-95.042984008789 -72.371719360352 -253.447875976563 0.507721483707
-127.945129394531 -64.982749938965 -251.277175903320 4.291675567627
-112.527114868164 -69.281288146973 -253.787185668945 3.256123065948
27.416276931763 -73.277023315430 -260.969818115234 3.795011520386
32.846393585205 -74.539474487305 -259.402618408203 4.375760078430
-100.400909423828 -67.715118408203 -252.543334960938 2.553454637527
-96.189369201660 -66.322898864746 -257.930633544922 1.666639447212
40.710311889648 -71.365745544434 -262.272705078125 5.137770175934
35.622329711914 -70.524513244629 -258.981872558594 1.636681318283
-161.930801391602 -66.312149047852 -258.683471679688 3.323778390884
29.400463104248 -69.069175720215 -258.033538818359 1.040252685547
-142.783081054688 -68.003562927246 -265.029602050781 2.262308835983
-122.660148620605 -62.537887573242 -258.375640869141 3.819380998611
-135.751098632813 -62.594905853271 -265.794952392578 5.232555389404
32.635227203369 -78.598678588867 -269.584045410156 11.391585350037
-132.807540893555 -70.134368896484 -263.057586669922 2.286312103271
-13.972507476807 -67.451927185059 -259.654205322266 2.634583473206
15.696387290955 -75.548942565918 -280.302978515625 1.632314920425
-19.238981246948 -69.710762023926 -271.402893066406 5.419633865356
19.932498931885 -68.990684509277 -289.932983398438 5.895307540894
-154.788116455078 -68.278305053711 -281.496673583984 2.893158197403
-17.236927032471 -75.912429809570 -278.152008056641 6.987860679626
-159.600845336914 -68.589355468750 -288.421539306641 2.873802185059
-132.437774658203 -65.761901855469 -283.933746337891 2.839581012726
-166.696701049805 -67.049423217773 -288.209899902344 3.202914476395
-129.638763427734 -66.361099243164 -284.882873535156 3.001876354218
-112.183258056641 -72.682403564453 -290.984710693359 1.677405714989
-14.616320610046 -72.357231140137 -293.308441162109 2.256300926208
-117.389083862305 -68.665359497070 -294.313903808594 2.266370534897
-124.826316833496 -74.391258239746 -289.926574707031 1.625967741013
-128.671600341797 -71.129051208496 -290.887634277344 4.301722526550
-143.199310302734 -63.378807067871 -289.274841308594 1.666827440262
-130.529022216797 -72.465873718262 -293.167175292969 3.852311134338
-165.750503540039 -66.891677856445 -286.815521240234 3.196352720261
-151.204849243164 -74.054618835449 -295.828155517578 2.070356369019
-158.826721191406 -65.475128173828 -295.205871582031 4.360886096954
-160.270462036133 -62.900672912598 -303.890533447266 8.504029273987
-166.012100219727 -63.505039215088 -300.002166748047 11.587515830994
-154.587173461914 -69.061836242676 -310.959075927734 1.513393282890
-156.153976440430 -68.460159301758 -311.999938964844 2.371150493622
37.365596771240 -69.576690673828 -23.324754714966 5.596831321716
48.645046234131 -72.845329284668 -25.189043045044 1.208553314209
35.487014770508 -66.192085266113 -37.695301055908 2.377678632736
56.055683135986 -68.435661315918 -36.537826538086 7.956877708435
36.140632629395 -67.031654357910 -43.323177337646 3.873373746872
46.091354370117 -76.204582214355 -40.559906005859 5.881751060486
-50.700920104980 -67.196197509766 -46.938392639160 2.446465253830
88.145370483398 -71.921714782715 -65.249267578125 2.456666231155
87.765716552734 -71.299026489258 -73.140846252441 3.178084611893
-91.420417785645 -60.432384490967 -65.037933349609 5.151833057404
-11.416102409363 -65.861373901367 -64.250411987305 1.659134984016
-83.064270019531 -69.622154235840 -67.673019409180 5.857304096222
100.056945800781 -70.522117614746 -76.383895874023 1.690829396248
-13.686644554138 -64.858062744141 -69.983245849609 2.410726785660
71.206459045410 -73.987953186035 -84.596572875977 0.729832589626
-37.269882202148 -69.443611145020 -79.374053955078 2.800775289536
-27.702146530151 -72.168159484863 -83.780006408691 5.755958080292
57.651573181152 -66.686553955078 -93.125923156738 2.254703760147
-45.948818206787 -77.729675292969 -90.914199829102 4.257657051086
63.734436035156 -66.124282836914 -85.140197753906 1.806931972504
55.576461791992 -69.347251892090 -90.098541259766 2.613802671432
50.536251068115 -75.599105834961 -97.668258666992 0.827287852764
68.296867370605 -70.040962219238 -98.924728393555 2.323413848877
60.048622131348 -70.362358093262 -105.953895568848 5.305534362793
106.074897766113 -68.191581726074 -102.584671020508 1.017702817917
105.024002075195 -77.781326293945 -102.670806884766 3.803804636002
59.254791259766 -76.532875061035 -103.760276794434 5.108585834503
111.122581481934 -71.829849243164 -108.290588378906 1.439946174622
-69.474441528320 -75.168312072754 -101.598609924316 0.795083582401
-70.251403808594 -70.525459289551 -105.284065246582 4.127742767334
107.183273315430 -79.030006408691 -103.964836120605 4.915688991547
56.053234100342 -69.553619384766 -107.993995666504 3.536186695099
72.939582824707 -75.070358276367 -108.738342285156 7.735626220703
-65.071929931641 -56.901004791260 -101.114418029785 3.761048793793
-77.728828430176 -63.156654357910 -107.877273559570 0.730097830296
96.555763244629 -71.261680603027 -119.522697448730 9.793968200684
44.698780059814 -71.283302307129 -108.186752319336 2.134684085846
102.331481933594 -73.569145202637 -108.949127197266 2.758294105530
44.657958984375 -68.988067626953 -115.470146179199 2.524557828903
115.941627502441 -69.691970825195 -117.803024291992 2.707267045975
-85.427558898926 -59.925132751465 -108.240882873535 3.770717144012
105.737556457520 -67.740554809570 -118.669998168945 2.868991851807
-85.498580932617 -61.557384490967 -115.665748596191 1.366111755371
-58.005016326904 -68.933746337891 -124.871597290039 1.099864721298
-59.828353881836 -65.944648742676 -131.343246459961 1.591016292572
-72.402275085449 -69.534812927246 -132.124130249023 1.483254194260
-49.154121398926 -69.318176269531 -133.451049804688 0.625136852264
-87.327659606934 -66.165069580078 -134.847595214844 1.963328599930
-78.385650634766 -71.064804077148 -136.081039428711 1.670718908310
-86.415786743164 -66.632118225098 -129.307754516602 2.462437391281
-53.453407287598 -71.469444274902 -139.155456542969 2.547782897949
-71.884658813477 -65.521751403809 -140.628860473633 2.100311040878
-60.076499938965 -67.406173706055 -136.124893188477 2.051752328873
-64.120063781738 -69.519889831543 -138.794616699219 3.487574100494
22.505582809448 -74.316596984863 -144.375610351563 1.242168545723
-85.383911132813 -69.876914978027 -145.615280151367 6.012886524200
-46.315170288086 -72.596755981445 -150.770446777344 2.863159418106
-98.483497619629 -63.324649810791 -150.947357177734 2.770951986313
-104.111167907715 -64.109344482422 -153.275924682617 3.921153545380
16.915096282959 -77.377182006836 -158.471252441406 4.334565162659
14.107496261597 -75.485961914063 -165.276473999023 4.929005622864
-102.505920410156 -66.864143371582 -160.351379394531 2.407894849777
-99.535217285156 -63.478988647461 -158.588470458984 1.334897994995
-94.477073669434 -65.381469726563 -168.531143188477 6.985392093658
16.171659469604 -67.310050964355 -175.586669921875 1.844821929932
-116.478843688965 -69.783767700195 -165.661010742188 10.460603713989
17.594135284424 -73.842079162598 -173.590927124023 1.527468085289
-146.375793457031 -68.730667114258 -177.828567504883 2.572222948074
15.298668861389 -71.074821472168 -180.719482421875 1.319126486778
20.007083892822 -73.965965270996 -192.242370605469 2.095671892166
-155.061187744141 -61.358745574951 -186.561935424805 4.344258308411
16.235389709473 -75.628082275391 -185.144714355469 1.818379521370
11.747837066650 -69.576904296875 -181.874679565430 3.231443166733
-138.489105224609 -73.912628173828 -192.381301879883 4.472497940063
-153.055816650391 -67.657379150391 -188.682907104492 1.760157704353
13.818223953247 -70.338050842285 -194.364196777344 0.832852602005
19.722091674805 -68.736968994141 -189.947784423828 1.648836493492
-149.553222656250 -64.000190734863 -191.021270751953 2.420969724655
-111.102226257324 -72.348785400391 -193.021530151367 1.748415470123
20.398441314697 -70.468421936035 -200.869491577148 0.950802206993
-128.724273681641 -61.226734161377 -190.406829833984 6.723805904388
8.513523101807 -73.552078247070 -202.267089843750 1.894579887390
-134.416122436523 -61.052154541016 -194.918273925781 3.553555727005
-150.838790893555 -65.177680969238 -191.203262329102 2.445229768753
-164.341644287109 -68.103927612305 -201.073303222656 1.112313270569
-165.759323120117 -62.267429351807 -201.102233886719 4.777816295624
-21.881616592407 -66.465873718262 -208.453933715820 3.280960083008
-169.056976318359 -63.404182434082 -200.597137451172 5.718350410461
-22.332605361938 -68.394844055176 -198.212280273438 1.059289574623
-18.481719970703 -68.441184997559 -200.680831909180 2.127806901932
9.363064765930 -71.141464233398 -199.938247680664 1.976719737053
-160.702804565430 -60.585605621338 -194.626754760742 6.661798000336
-113.281723022461 -63.976203918457 -202.384658813477 1.402973055840
-19.236660003662 -74.203262329102 -212.157211303711 2.171428442001
-157.623153686523 -66.705055236816 -197.652999877930 2.401001930237
16.771512985229 -67.143989562988 -204.253952026367 2.457648277283
-165.491195678711 -64.220092773438 -196.894149780273 4.455565452576
-123.039405822754 -69.455360412598 -205.314483642578 1.980804562569
-110.947776794434 -65.669815063477 -209.092224121094 6.035620689392
-129.891967773438 -60.670028686523 -208.703323364258 6.084005832672
-17.149377822876 -74.180488586426 -205.255981445313 2.849488735199
-22.884069442749 -66.213401794434 -207.020828247070 3.944712638855
-164.212356567383 -60.628742218018 -207.515228271484 6.086999893188
-163.338455200195 -62.118637084961 -211.071701049805 4.815957546234
-169.130249023438 -66.002563476563 -216.298553466797 3.802378654480
-152.998931884766 -68.599678039551 -205.310714721680 1.614397048950
-146.638824462891 -63.602676391602 -223.582382202148 0.711985111237
-10.070632934570 -68.248657226563 -224.605697631836 2.108322381973
-18.520036697388 -68.934852600098 -222.599151611328 2.494511127472
-105.694923400879 -66.442161560059 -222.965209960938 1.636994600296
-11.285300254822 -68.831115722656 -221.285797119141 1.151974678040
-168.343765258789 -62.763736724854 -223.917190551758 5.804482460022
-118.750679016113 -61.023670196533 -232.486526489258 4.266665458679
-4.258289813995 -67.869049072266 -234.379135131836 0.992599189281
2.480917930603 -69.217239379883 -233.862503051758 1.129947900772
-116.545692443848 -64.642616271973 -233.804519653320 1.480044364929
-7.228985786438 -63.758480072021 -236.065414428711 2.036937236786
-119.096389770508 -64.966773986816 -238.017150878906 4.469491481781
-7.450184822083 -66.847412109375 -246.151657104492 3.398293972015
-8.412388801575 -73.702980041504 -235.589263916016 2.526694536209
-5.702175140381 -67.814643859863 -246.718048095703 4.524118900299
61.390975952148 -75.143379211426 -243.039932250977 2.242476463318
-19.996660232544 -73.016548156738 -238.299301147461 0.907906115055
1.158499956131 -68.943481445313 -240.796340942383 0.908198714256
6.338171005249 -71.921768188477 -246.057403564453 3.331618547440
4.154566764832 -77.686752319336 -243.775436401367 1.769849181175
-2.237251996994 -77.770210266113 -245.623062133789 1.942660570145
62.764614105225 -77.713119506836 -245.931701660156 5.172530651093
67.576744079590 -72.617851257324 -247.228530883789 4.806364059448
12.022382736206 -73.975173950195 -245.289154052734 1.494401931763
55.456134796143 -73.537887573242 -245.358398437500 2.172419786453
53.252201080322 -77.698127746582 -244.602996826172 5.803103923798
42.894214630127 -66.352851867676 -250.356277465820 2.477547168732
30.857646942139 -74.167976379395 -257.107208251953 4.218304157257
34.200687408447 -74.947845458984 -259.143493652344 5.292644500732
-138.046844482422 -65.662948608398 -253.398178100586 4.429699897766
-21.194164276123 -76.198860168457 -253.790924072266 7.726387977600
21.675579071045 -74.876083374023 -262.674163818359 1.521201968193
43.654350280762 -73.140373229980 -259.703765869141 4.868910312653
20.025991439819 -65.660400390625 -260.225769042969 5.667738914490
-104.683158874512 -65.815467834473 -262.811737060547 3.523914575577
28.650968551636 -71.142097473145 -259.092803955078 1.861570477486
-155.016479492188 -63.954338073730 -259.255645751953 1.461399197578
-120.605133056641 -62.050254821777 -262.228210449219 4.392688274384
-107.008750915527 -68.350006103516 -254.535064697266 1.873944878578
-11.507434844971 -69.122024536133 -263.009643554688 0.551042497158
-161.422363281250 -71.668006896973 -252.244308471680 2.151597023010
26.138034820557 -69.495796203613 -261.932891845703 1.460137367249
-116.580749511719 -69.833900451660 -253.561050415039 2.746375560760
25.252746582031 -72.589797973633 -261.929809570313 1.364846587181
-135.439773559570 -63.931182861328 -260.520141601563 2.204582214355
-124.119903564453 -68.045562744141 -259.441680908203 1.784066081047
-109.154846191406 -61.899925231934 -261.842132568359 5.323185443878
-120.893280029297 -66.933166503906 -265.632415771484 3.415472984314
-142.941711425781 -68.012832641602 -262.760192871094 0.327126294374
22.902502059937 -70.005493164063 -269.788696289063 1.249357461929
-123.012695312500 -62.364040374756 -266.534179687500 5.416379928589
-148.359375000000 -66.386741638184 -270.493865966797 4.181188106537
-10.021542549133 -74.251266479492 -277.517242431641 2.160148859024
-159.806152343750 -63.510791778564 -276.638824462891 7.113441467285
-16.816154479980 -73.441642761230 -286.368743896484 2.831269502640
-8.071898460388 -76.896469116211 -291.687255859375 2.662142038345
-140.954452514648 -70.070854187012 -287.574920654297 2.818480014801
-125.647468566895 -61.922042846680 -290.399566650391 3.558385133743
-144.706192016602 -60.528198242188 -290.029724121094 3.366474390030
-134.424896240234 -67.731338500977 -294.529663085938 1.739059329033
-154.581314086914 -67.304916381836 -294.909881591797 2.396314382553
-155.181854248047 -71.791763305664 -300.391906738281 1.271305322647
-157.136398315430 -73.138610839844 -305.573913574219 1.359449148178
-155.863693237305 -61.922214508057 -294.696533203125 3.173666000366
-147.282348632813 -67.928184509277 -303.036376953125 2.370991706848
-149.512390136719 -67.885734558105 -304.482910156250 2.963281869888
-158.282119750977 -67.520683288574 -309.039978027344 3.913101673126
28.613079071045 -74.144294738770 -36.770996093750 2.363042593002
52.980319976807 -73.100105285645 -40.581550598145 8.067891120911
31.026136398315 -76.688453674316 -41.458469390869 4.630154132843
35.646682739258 -72.054328918457 -46.282867431641 5.142789363861
-44.131973266602 -64.528266906738 -55.029548645020 8.250005722046
-75.922729492188 -63.767303466797 -51.253528594971 4.828934669495
82.269927978516 -71.418769836426 -70.997154235840 2.659256458282
86.372650146484 -66.098281860352 -66.976051330566 3.284368038177
72.938629150391 -71.860603332520 -72.362785339355 1.045681595802
-95.061538696289 -62.493541717529 -71.171203613281 2.817809343338
102.446983337402 -74.323051452637 -79.398956298828 4.563322067261
-34.003643035889 -60.085029602051 -78.416969299316 1.822078824043
74.237579345703 -72.821060180664 -82.606933593750 3.318826675415
-40.612380981445 -62.693294525146 -82.219894409180 2.908669233322
-48.696720123291 -65.639457702637 -81.555358886719 2.502391338348
54.887939453125 -69.507240295410 -95.011314392090 3.430050373077
103.545494079590 -70.758064270020 -95.575820922852 1.959758996964
66.648574829102 -69.816871643066 -99.607360839844 3.717760801315
57.093585968018 -71.064636230469 -100.577301025391 1.987771272659
48.485504150391 -72.241348266602 -110.391929626465 1.528521299362
63.707344055176 -69.802902221680 -104.284217834473 7.485812664032
107.477600097656 -72.989845275879 -107.747657775879 1.434992909431
71.738807678223 -77.223335266113 -116.008041381836 14.598762512207
53.749412536621 -70.870971679688 -113.887527465820 5.076765537262
78.759162902832 -72.152450561523 -113.551437377930 8.604014396667
92.051506042480 -72.925354003906 -119.749382019043 13.715065002441
-81.263938903809 -67.811851501465 -114.527259826660 1.508212447166
-84.847381591797 -68.820709228516 -109.785919189453 1.731034636497
-86.947013854980 -66.701004028320 -117.841125488281 2.649332284927
-62.306190490723 -66.985931396484 -117.555343627930 1.474529385567
-53.674476623535 -72.911384582520 -123.416511535645 5.208283901215
-92.639015197754 -60.196994781494 -121.002525329590 2.558715105057
-79.451263427734 -66.670845031738 -121.448287963867 1.263317584991
-77.339584350586 -65.869392395020 -126.304229736328 1.626114487648
-60.528656005859 -70.476913452148 -125.997955322266 2.859591245651
-88.252105712891 -56.782508850098 -131.077392578125 7.026837348938
-95.413757324219 -65.727607727051 -131.765548706055 4.253994941711
-51.939281463623 -66.633392333984 -140.769470214844 0.670609533787
-58.619441986084 -62.868648529053 -139.023147583008 1.090374588966
-77.065872192383 -64.452651977539 -139.695114135742 2.647120714188
-59.003005981445 -65.863433837891 -145.766433715820 3.460801839828
-73.970939636230 -67.941452026367 -151.785171508789 2.747037172318
19.795114517212 -68.069717407227 -149.350524902344 2.442382812500
-60.856544494629 -65.380195617676 -147.662261962891 5.885000705719
-48.536518096924 -67.882568359375 -151.916107177734 2.154690265656
15.827321052551 -72.303001403809 -157.641494750977 0.823807239532
12.040770530701 -68.843864440918 -157.483322143555 1.453056097031
-145.121383666992 -60.608341217041 -175.127914428711 2.122320652008
-106.078483581543 -69.509368896484 -181.705261230469 1.330118894577
-111.049163818359 -67.728179931641 -185.058120727539 1.766655087471
-148.268463134766 -65.543647766113 -194.528259277344 2.074713945389
-111.845352172852 -65.521446228027 -185.873275756836 0.780302762985
-155.079574584961 -60.427646636963 -195.408706665039 2.236264228821
-117.199653625488 -59.944087982178 -194.482437133789 6.642949104309
-145.956863403320 -67.327117919922 -196.885192871094 1.610550522804
-152.194885253906 -71.375404357910 -199.249328613281 2.407685041428
-156.693649291992 -70.313140869141 -207.989807128906 3.705461978912
-147.749176025391 -68.020561218262 -218.548019409180 3.105205535889
-158.285171508789 -69.880661010742 -221.027023315430 1.877661705017
-107.438652038574 -66.364662170410 -223.525436401367 0.931963682175
-103.113914489746 -67.132759094238 -228.491744995117 3.271412372589
-125.053092956543 -58.458374023438 -224.147888183594 6.232948303223
-115.346908569336 -61.787521362305 -228.313507080078 3.082756757736
-157.784942626953 -66.345146179199 -232.818786621094 3.471692800522
-8.539636611938 -73.841094970703 -235.285476684570 2.386615037918
-131.508346557617 -63.266891479492 -226.305511474609 2.121528863907
-162.787734985352 -65.067962646484 -235.486953735352 2.813374996185
-139.750839233398 -63.353069305420 -233.276931762695 2.606800079346
-14.039932250977 -71.903701782227 -247.429183959961 1.465145111084
1.613006949425 -74.676574707031 -248.728729248047 4.094171524048
59.094284057617 -66.972885131836 -246.791000366211 1.205427169800
16.636634826660 -73.390617370605 -252.872680664063 3.720855712891
58.605739593506 -72.077423095703 -253.816818237305 6.006465435028
35.233860015869 -68.857162475586 -246.658065795898 5.904066562653
49.456462860107 -72.819175720215 -253.907409667969 2.465125799179
-156.990325927734 -66.959342956543 -249.867294311523 2.525889158249
-157.314208984375 -61.704711914063 -248.725524902344 6.954242229462
37.804233551025 -80.631484985352 -255.395050048828 9.681679725647
25.076692581177 -69.109382629395 -265.875823974609 0.753091990948
45.021045684814 -67.548194885254 -254.889617919922 1.954638361931
-147.207077026367 -67.445007324219 -257.444061279297 1.416261434555
-140.162429809570 -64.258659362793 -252.651397705078 4.462628364563
-129.874710083008 -66.474601745605 -258.702239990234 3.445273637772
-136.037338256836 -58.218559265137 -258.196014404297 6.851938247681
-143.162353515625 -59.510349273682 -258.783660888672 3.417731523514
-126.793998718262 -65.429191589355 -255.065261840820 1.026612281799
-146.938064575195 -65.321624755859 -258.993988037109 2.323843479156
-131.408584594727 -68.080886840820 -259.718750000000 3.925173997879
-129.472457885742 -59.149642944336 -259.841583251953 6.070253849030
-131.575988769531 -71.739379882813 -262.008453369141 2.499328374863
-123.344749450684 -67.691535949707 -258.244384765625 1.357694268227
-7.270041942596 -72.133766174316 -268.584503173828 4.243070125580
25.587194442749 -75.951988220215 -267.664306640625 4.015096664429
-149.927856445313 -69.720703125000 -262.211944580078 2.284848451614
28.075662612915 -67.820320129395 -273.348266601563 4.396663188934
-13.192455291748 -69.922584533691 -271.611572265625 0.893807947636
10.620169639587 -76.297569274902 -287.913665771484 1.530154466629
-147.897872924805 -66.650421142578 -289.453186035156 2.285130262375
-126.881690979004 -65.172126770020 -288.148071289063 0.749504029751
-138.378417968750 -67.747062683105 -281.071655273438 5.075998306274
-163.328765869141 -63.377193450928 -286.407684326172 6.757510185242
-128.860229492188 -67.401374816895 -287.443267822266 2.515939712524
-121.561355590820 -61.851203918457 -287.834259033203 5.174171447754
-132.151535034180 -63.710964202881 -287.799468994141 2.538964033127
-161.377105712891 -67.097976684570 -294.660339355469 4.026897907257
34.418521881104 -71.136047363281 -18.793045043945 1.864986300468
26.841125488281 -75.026565551758 -26.140392303467 3.495796203613
43.021518707275 -75.020027160645 -23.874958038330 4.565646648407
47.618972778320 -67.011238098145 -32.293052673340 3.317668676376
27.775611877441 -71.681449890137 -32.418178558350 0.758216679096
30.812891006470 -72.343055725098 -34.983318328857 1.224876880646
-33.972282409668 -71.039566040039 -45.477519989014 5.116738319397
-75.099243164063 -67.362442016602 -51.184513092041 3.030271768570
-9.994840621948 -68.015373229980 -59.609981536865 3.309470653534
72.022949218750 -70.136695861816 -73.688804626465 1.611686348915
97.623466491699 -72.268676757813 -73.268959045410 2.227359771729
65.099044799805 -68.555908203125 -85.940238952637 1.161273121834
64.887809753418 -63.378017425537 -88.804046630859 1.692934155464
97.765464782715 -66.337738037109 -89.869194030762 5.416308403015
-59.576072692871 -62.349910736084 -87.648582458496 2.419347763062
-61.698387145996 -60.711502075195 -93.757286071777 4.344120025635
51.592567443848 -65.393486022949 -99.301750183105 1.399913668633
-57.937835693359 -61.962779998779 -100.384811401367 7.538018703461
-68.824989318848 -58.155509948730 -101.714393615723 3.333482027054
-101.076255798340 -61.676120758057 -98.535667419434 2.295464277267
-69.897918701172 -62.978851318359 -101.389533996582 1.655730128288
50.442230224609 -70.576705932617 -113.700080871582 2.148652791977
-69.994003295898 -67.393768310547 -105.258590698242 1.813848853111
50.914813995361 -71.623626708984 -103.964485168457 1.956962704659
98.889900207520 -74.650703430176 -107.438560485840 5.616585731506
89.327644348145 -74.407226562500 -115.065231323242 10.401852607727
-73.889404296875 -65.721038818359 -112.722045898438 1.687719225883
-82.504463195801 -66.068992614746 -109.616714477539 2.645335912704
-63.828189849854 -60.140697479248 -119.838623046875 2.495164871216
-92.958351135254 -61.810890197754 -115.541069030762 4.760128974915
-77.465988159180 -71.507583618164 -130.843170166016 1.268916726112
-87.696029663086 -58.141708374023 -130.775390625000 5.609529018402
-65.351692199707 -64.840553283691 -123.851188659668 1.954757094383
-58.975727081299 -67.469131469727 -119.513122558594 2.543726682663
