20.012800216675 -82.013946533203 -163.679367065430 3.923452854156
-55.846260070801 -80.745559692383 -159.257537841797 6.720183372498
-29.210416793823 -87.169700622559 -163.387451171875 8.924864768982
7.924570083618 -74.479255676270 -165.485321044922 3.036707878113
112.382209777832 -80.742317199707 -172.047088623047 4.485639572144
7.153446197510 -76.004005432129 -166.355606079102 3.236619234085
-37.837879180908 -77.824882507324 -166.549530029297 1.569306254387
-0.778501987457 -73.218315124512 -163.982360839844 0.769632995129
103.113220214844 -75.982398986816 -180.703338623047 2.056605815887
-42.055126190186 -69.477630615234 -175.677124023438 3.767854690552
31.037012100220 -73.755500793457 -170.598098754883 1.490996956825
113.409706115723 -75.154167175293 -175.000808715820 0.773815631866
-49.677082061768 -76.399787902832 -178.951339721680 1.704780936241
-27.733846664429 -79.676612854004 -168.473922729492 3.299422740936
98.025840759277 -82.233848571777 -178.143051147461 9.229633331299
34.696350097656 -81.199584960938 -173.749374389648 7.814185142517
116.858222961426 -73.242240905762 -181.894500732422 5.508038520813
-38.480499267578 -80.228271484375 -168.632705688477 0.572769522667
106.913505554199 -75.637962341309 -185.511566162109 2.494621276855
-56.883636474609 -76.075355529785 -176.830841064453 1.250488042831
-23.548225402832 -75.972282409668 -174.160034179688 2.029085159302
-142.312973022461 -75.787590026855 -176.684158325195 3.595428705215
-54.886219024658 -77.115325927734 -183.903198242188 2.707361698151
-146.710220336914 -73.721633911133 -177.598876953125 1.781230211258
-32.473655700684 -76.949516296387 -185.730957031250 1.485826373100
20.459465026855 -76.505752563477 -188.421173095703 0.872867941856
112.329887390137 -72.546440124512 -186.080215454102 3.088790893555
-30.588397979736 -76.673065185547 -191.514511108398 2.891534090042
13.644715309143 -80.082405090332 -194.016326904297 2.578278303146
15.649188995361 -78.375579833984 -199.558853149414 1.064576864243
-150.296569824219 -71.922607421875 -188.551467895508 0.697467982769
101.617530822754 -83.845886230469 -202.893157958984 7.127306461334
-19.355566024780 -74.061454772949 -194.394210815430 2.047007799149
106.126525878906 -72.524047851563 -196.691268920898 1.775380015373
16.134559631348 -76.503784179688 -191.139770507813 1.267055511475
-130.801773071289 -75.396423339844 -198.593093872070 2.626444339752
-145.827270507813 -73.778305053711 -191.344726562500 1.650018334389
93.184410095215 -70.150199890137 -203.040222167969 1.855707168579
-12.053540229797 -76.007812500000 -200.121871948242 0.672784268856
-16.506992340088 -80.536369323730 -195.201461791992 2.488975048065
12.762368202209 -78.488014221191 -203.432815551758 1.299679040909
-146.480880737305 -76.335250854492 -201.657287597656 1.923215866089
-148.623138427734 -77.863601684570 -201.861251831055 2.165031671524
100.389427185059 -86.306282043457 -210.158157348633 10.498393058777
-74.628959655762 -80.161056518555 -208.120635986328 1.714452385902
-36.900283813477 -74.766571044922 -200.113632202148 2.726758956909
21.093517303467 -76.887702941895 -211.797256469727 3.337449550629
-23.667594909668 -82.302261352539 -208.647445678711 5.079381465912
-79.438529968262 -75.055870056152 -211.802169799805 0.873773336411
92.986923217773 -77.607460021973 -209.865692138672 1.330303788185
-82.902885437012 -72.963752746582 -213.178329467773 0.954982161522
-149.005920410156 -77.695594787598 -214.285537719727 2.177566528320
-79.476593017578 -80.734954833984 -214.447860717773 1.169699549675
-16.713317871094 -79.457260131836 -211.480926513672 1.702741265297
-23.524927139282 -81.034355163574 -217.217620849609 2.901276826859
23.538133621216 -76.085998535156 -212.543670654297 5.252074718475
-6.310579776764 -75.812782287598 -210.878860473633 2.026741743088
-80.255752563477 -77.665229797363 -217.418319702148 2.305152416229
89.664268493652 -79.505203247070 -218.755645751953 3.316713333130
-94.946121215820 -79.565368652344 -210.493530273438 6.904789447784
-146.008789062500 -86.150703430176 -221.052047729492 2.856521844864
-11.372913360596 -81.205047607422 -216.359191894531 1.614783287048
15.634469032288 -78.827285766602 -216.302810668945 1.383217692375
-105.699722290039 -75.394294738770 -215.320983886719 6.715801239014
8.786414146423 -81.446830749512 -219.404388427734 2.103204250336
-28.963466644287 -82.329238891602 -214.236663818359 2.548508882523
80.967155456543 -82.535392761230 -228.342346191406 6.649930477142
-146.952301025391 -75.438301086426 -214.175460815430 2.123674154282
7.631989002228 -75.708503723145 -226.875946044922 1.624737143517
-6.186841964722 -79.153892517090 -221.148056030273 1.563552021980
15.595765113831 -74.056015014648 -221.791229248047 1.391950249672
84.427558898926 -76.130462646484 -231.945388793945 5.020152568817
-15.007055282593 -80.027122497559 -225.555541992188 3.439689397812
-130.248336791992 -82.792030334473 -224.260055541992 5.622840404510
-7.330244064331 -84.212585449219 -225.113006591797 5.052474021912
15.345210075378 -77.425788879395 -235.347167968750 2.047351360321
-127.497467041016 -75.950187683105 -216.923797607422 8.928490638733
-152.220184326172 -80.161582946777 -225.314834594727 2.115878343582
-140.592605590820 -78.302856445313 -224.256103515625 1.879100918770
-131.897186279297 -77.029098510742 -224.413177490234 3.900166511536
-10.385167121887 -78.137001037598 -227.191070556641 2.536172628403
70.037597656250 -78.977859497070 -232.704406738281 4.394999027252
-142.985656738281 -79.535980224609 -232.638153076172 1.404925465584
70.319450378418 -76.488952636719 -229.262863159180 3.110010147095
-15.597922325134 -81.361015319824 -225.136123657227 4.362505912781
-143.940536499023 -84.116043090820 -226.918823242188 0.506970942020
74.810760498047 -85.236526489258 -237.661499023438 11.023209571838
14.074234008789 -84.404319763184 -237.505340576172 1.816790699959
-143.282058715820 -72.797027587891 -232.907531738281 1.414360523224
-150.473419189453 -78.804519653320 -232.393386840820 2.453176736832
10.120701789856 -72.951919555664 -236.339187622070 1.246613264084
-3.900615930557 -80.441192626953 -240.088531494141 5.126132011414
-25.404291152954 -75.824890136719 -245.221817016602 2.322945833206
-7.781720161438 -78.931755065918 -240.478805541992 5.723630905151
-163.953903198242 -79.567878723145 -230.719100952148 6.526298046112
7.395849227905 -79.098785400391 -246.348083496094 0.947923839092
-164.737014770508 -75.985900878906 -228.809677124023 3.481297016144
-19.432079315186 -77.104385375977 -230.176498413086 3.293739318848
67.093994140625 -81.476966857910 -241.940414428711 7.997074127197
-8.702177047729 -77.305999755859 -241.419937133789 4.453639030457
-27.952762603760 -79.642723083496 -238.126907348633 1.435471773148
-28.321149826050 -75.502143859863 -240.734634399414 1.872074842453
-16.789752960205 -75.834724426270 -246.454605102539 4.620753288269
-144.178192138672 -75.946945190430 -230.704971313477 2.512390613556
7.728504180908 -82.992103576660 -244.353088378906 3.070593595505
63.403270721436 -84.321075439453 -242.623153686523 10.363143920898
9.170486450195 -80.807189941406 -244.046829223633 1.541986584663
-164.366592407227 -76.263404846191 -233.716339111328 3.231727838516
-49.201919555664 -83.015975952148 -242.882537841797 3.615602016449
5.197784900665 -83.001098632813 -248.822494506836 2.319041252136
15.720905303955 -73.496582031250 -252.684402465820 4.471014976501
-61.580364227295 -79.113342285156 -249.616836547852 1.954829096794
-5.072055816650 -78.430793762207 -241.871627807617 4.911906719208
18.245979309082 -83.394989013672 -253.644180297852 4.049845695496
-168.068649291992 -77.494628906250 -239.127365112305 5.309151649475
-74.606094360352 -82.730636596680 -252.887557983398 6.766822338104
-55.778335571289 -75.543640136719 -246.175460815430 2.583889722824
-82.241386413574 -76.426940917969 -244.990264892578 5.608338832855
-164.399688720703 -76.130798339844 -235.461868286133 2.938814640045
-154.704956054688 -78.806060791016 -245.461502075195 4.197255134583
-61.732040405273 -74.148277282715 -252.954452514648 2.917469978333
-71.042060852051 -86.066688537598 -247.870132446289 9.486192703247
-156.920928955078 -76.183883666992 -246.772521972656 3.264765501022
-154.884216308594 -74.991424560547 -242.973449707031 3.634811401367
-80.117820739746 -78.427497863770 -247.157104492188 4.499547481537
-94.381332397461 -73.479591369629 -248.360397338867 4.414988040924
-164.470611572266 -79.942939758301 -245.671981811523 6.648148536682
-156.465515136719 -77.240554809570 -245.135238647461 3.934682369232
-137.655990600586 -73.669502258301 -253.027725219727 3.621341228485
-83.585853576660 -82.291748046875 -249.406448364258 7.341864585876
-166.355178833008 -73.358390808105 -249.021820068359 1.352995634079
-150.971282958984 -84.052581787109 -250.975677490234 2.137168169022
-96.694419860840 -78.767150878906 -250.742752075195 6.354195117950
-104.189712524414 -71.557891845703 -256.739532470703 1.305110812187
-151.724487304688 -76.277976989746 -253.792617797852 2.455377340317
-100.273490905762 -78.292495727539 -260.305908203125 5.319924354553
-154.605453491211 -76.690895080566 -247.491851806641 3.711329936981
-102.693153381348 -80.976341247559 -251.357589721680 8.929443359375
-169.985687255859 -82.972579956055 -249.085922241211 10.252723693848
-165.424911499023 -84.738441467285 -251.231353759766 10.914182662964
-124.830482482910 -75.956291198730 -251.606826782227 4.194196701050
-150.708251953125 -83.864021301270 -252.438537597656 1.424421072006
-109.722328186035 -76.841224670410 -255.552276611328 4.768811702728
-17.051387786865 -86.009506225586 -259.740600585938 9.143750190735
-145.594909667969 -76.415031433105 -256.075378417969 2.421561956406
-129.147216796875 -77.456336975098 -257.371398925781 2.029979467392
-159.252929687500 -77.499290466309 -259.977905273438 3.658396959305
18.219209671021 -81.634361267090 -268.641296386719 2.282980442047
-156.874343872070 -75.847763061523 -278.400177001953 4.890663146973
-171.865707397461 -76.008346557617 -274.041564941406 6.090729713440
-8.533416748047 -86.789741516113 -283.157379150391 10.550726890564
-152.768173217773 -81.703567504883 -273.628234863281 3.556133747101
-9.719070434570 -78.525901794434 -276.737487792969 2.855620622635
12.037275314331 -81.169357299805 -287.259765625000 4.360294342041
-136.300506591797 -76.509590148926 -282.898040771484 3.307782649994
-72.826316833496 -84.034133911133 -278.188232421875 12.828937530518
-44.765193939209 -78.602500915527 -280.121520996094 7.199502944946
-119.614074707031 -76.497329711914 -284.532012939453 3.605332851410
-93.906845092773 -79.506217956543 -291.185913085938 4.926618576050
-94.294998168945 -78.932052612305 -292.807037353516 5.061063289642
-52.204727172852 -85.373619079590 -286.139617919922 8.709603309631
-118.634178161621 -74.443786621094 -289.132232666016 1.851608276367
-111.243804931641 -80.477455139160 -288.730377197266 6.113872051239
-35.817649841309 -84.309646606445 -290.294586181641 7.059161186218
-119.961929321289 -81.663299560547 -284.196136474609 7.489778518677
-129.691329956055 -83.077606201172 -284.135955810547 7.549006938934
-148.664688110352 -82.762008666992 -289.538421630859 1.632296442986
6.301684856415 -77.703216552734 -287.983459472656 1.000949978828
11.231567382813 -83.152465820313 -294.010742187500 5.870555400848
-159.676879882813 -79.255477905273 -288.899322509766 3.857504129410
-158.977676391602 -78.882911682129 -298.810577392578 6.091841220856
-150.726043701172 -83.060104370117 -304.987182617188 4.255790233612
-154.833251953125 -75.897857666016 -302.060119628906 0.458695501089
-156.597930908203 -83.912086486816 -307.866668701172 7.440485477448
31.953279495239 -70.053466796875 -16.042552947998 2.133594274521
31.971014022827 -68.227058410645 -24.286516189575 5.279390335083
31.353065490723 -70.013763427734 -21.373138427734 3.160240888596
33.699234008789 -71.971481323242 -41.820808410645 1.765934228897
-46.414325714111 -63.145126342773 -54.872211456299 9.153238296509
-58.676147460938 -68.658500671387 -51.374790191650 3.846130132675
-34.449043273926 -69.754203796387 -51.716968536377 1.410071730614
-76.530868530273 -72.253456115723 -57.726684570313 3.621606826782
85.722282409668 -79.125587463379 -83.912254333496 2.713319301605
-14.055135726929 -68.873855590820 -75.385498046875 5.322045803070
95.844535827637 -76.502113342285 -71.004096984863 4.794169902802
100.455001831055 -71.992820739746 -84.100265502930 1.069032549858
-87.759574890137 -70.487144470215 -79.532653808594 5.482517242432
80.502288818359 -68.280006408691 -78.901924133301 8.007242202759
-35.815662384033 -75.722404479980 -83.914550781250 3.151352167130
106.525375366211 -73.585205078125 -88.444801330566 6.236623287201
-51.819492340088 -74.977874755859 -88.705688476563 0.999055922031
54.865436553955 -72.113006591797 -90.286865234375 1.514621257782
77.005241394043 -74.422416687012 -89.235504150391 3.088931560516
61.037673950195 -78.255775451660 -96.404121398926 5.524457931519
50.760181427002 -71.576187133789 -106.923706054688 1.334851026535
71.293235778809 -76.182342529297 -97.629188537598 3.751901388168
52.333286285400 -65.451744079590 -99.986473083496 1.278385639191
104.776069641113 -74.325180053711 -108.212089538574 1.505579829216
116.917129516602 -75.910400390625 -112.470840454102 5.606054782867
79.491775512695 -70.187271118164 -103.587348937988 0.739196300507
93.334938049316 -73.821716308594 -108.837081909180 5.549476623535
105.265365600586 -71.723709106445 -106.070129394531 1.551685333252
109.560089111328 -64.046348571777 -105.265640258789 3.461946964264
43.612876892090 -81.368682861328 -109.188331604004 1.975026011467
110.854507446289 -76.002586364746 -123.429008483887 2.428591012955
117.985336303711 -77.484237670898 -126.958122253418 4.581718444824
36.181407928467 -73.018539428711 -119.647827148438 2.762105226517
42.199516296387 -75.637817382813 -120.658447265625 2.629649877548
109.229835510254 -72.587661743164 -134.491210937500 2.290782690048
41.049182891846 -79.147140502930 -128.077041625977 2.469657421112
118.458709716797 -70.931083679199 -135.907150268555 2.381794929504
113.056129455566 -73.684219360352 -132.749771118164 1.126187562943
27.546865463257 -72.028472900391 -138.426971435547 1.433645844460
-45.020217895508 -77.974075317383 -130.352386474609 7.868498325348
-54.975158691406 -75.278778076172 -139.517959594727 1.159776091576
117.959930419922 -73.441383361816 -137.736633300781 3.303416967392
-72.786987304688 -77.272201538086 -140.837051391602 3.313312053680
-72.756919860840 -71.977111816406 -136.164291381836 1.250349521637
-56.472747802734 -76.927543640137 -137.207672119141 2.230236053467
36.242652893066 -76.008689880371 -140.132156372070 1.908509016037
106.667877197266 -73.584335327148 -153.016494750977 3.981590747833
-61.251434326172 -76.173454284668 -142.826095581055 4.532271385193
-42.245090484619 -69.649711608887 -143.263870239258 3.024847745895
42.655044555664 -81.177070617676 -151.769149780273 9.539768218994
-61.504676818848 -77.510711669922 -150.059631347656 5.251713275909
115.407806396484 -68.298934936523 -149.398956298828 1.487053632736
110.851699829102 -78.091690063477 -160.791671752930 1.905021190643
112.013168334961 -77.823837280273 -152.533523559570 2.568498849869
-36.627822875977 -74.412025451660 -155.193847656250 1.397413492203
-63.824707031250 -74.215568542480 -153.705307006836 2.172195196152
-67.327743530273 -64.987846374512 -150.688995361328 4.524885177612
30.445886611938 -71.103019714355 -154.121887207031 1.433589339256
1.616054058075 -78.315093994141 -164.374160766602 1.293412208557
109.420394897461 -74.800170898438 -160.314086914063 1.656122088432
109.998779296875 -70.610771179199 -160.695632934570 2.097592353821
115.485473632813 -75.259323120117 -163.025894165039 1.261776804924
-62.974666595459 -80.599967956543 -157.122207641602 3.754332780838
-45.610626220703 -76.974754333496 -160.036804199219 1.307055711746
6.789261817932 -78.961975097656 -170.955261230469 7.509606838226
-23.617382049561 -72.725028991699 -172.729125976563 3.769517660141
107.266723632813 -76.514717102051 -166.106613159180 1.914535522461
-34.778511047363 -71.727287292480 -160.240615844727 1.443504810333
111.546218872070 -79.233482360840 -172.478958129883 2.884661674500
-40.264060974121 -72.313621520996 -170.415847778320 1.333189129829
112.063255310059 -79.614646911621 -172.521636962891 3.242711782455
-150.150787353516 -70.177604675293 -176.599761962891 1.721751451492
-30.763792037964 -73.590324401855 -173.779830932617 3.015806913376
-19.794141769409 -71.174751281738 -178.763824462891 4.322781562805
32.149112701416 -81.575256347656 -176.218963623047 7.069155216217
15.774009704590 -74.333869934082 -179.583618164063 1.477303624153
23.023448944092 -78.080223083496 -182.632293701172 1.562610507011
106.125885009766 -81.750823974609 -192.390350341797 5.073901176453
-152.354812622070 -70.375167846680 -182.360656738281 0.456713020802
-21.452772140503 -76.197250366211 -186.719879150391 1.494566679001
105.798187255859 -76.155456542969 -182.600952148438 1.441664457321
103.092086791992 -75.935035705566 -195.790390014648 1.322546482086
104.957473754883 -77.839332580566 -185.084442138672 1.944123148918
95.482849121094 -82.849967956543 -199.551635742188 6.124194145203
-156.661041259766 -85.626472473145 -191.910980224609 8.051062583923
97.204132080078 -84.071716308594 -206.679199218750 6.818235874176
-33.213050842285 -76.177246093750 -195.009933471680 4.609875679016
97.382026672363 -74.506256103516 -199.835754394531 1.299534797668
-128.277084350586 -75.735404968262 -187.122070312500 9.613463401794
-31.544679641724 -78.406295776367 -190.052490234375 1.698593497276
-142.308975219727 -76.314605712891 -198.134445190430 2.330101728439
89.903015136719 -76.474990844727 -202.689559936523 3.900800466537
8.638422966003 -75.554893493652 -202.311431884766 1.913707733154
23.653913497925 -79.676208496094 -197.403274536133 4.482902050018
-150.373901367188 -77.609848022461 -193.426345825195 1.301559805870
-137.861038208008 -72.993728637695 -202.997833251953 2.269030809402
-16.870098114014 -78.608665466309 -206.308517456055 2.375244379044
-126.319992065430 -83.537216186523 -199.468353271484 7.770302295685
-148.321594238281 -78.021179199219 -195.615386962891 2.730300903320
6.469602108002 -74.368041992188 -199.625869750977 2.641565799713
-26.632173538208 -75.762794494629 -204.159545898438 4.014792442322
17.382488250732 -76.295021057129 -208.978225708008 1.549726247787
5.111780166626 -77.409561157227 -210.371948242188 2.781599760056
84.705429077148 -78.224388122559 -217.065673828125 2.405714750290
-26.967042922974 -68.988342285156 -211.035858154297 4.196180343628
93.441123962402 -77.046356201172 -215.120346069336 2.799331426620
101.302963256836 -78.367347717285 -211.215209960938 5.576915264130
-143.825210571289 -71.036338806152 -214.721191406250 3.438272714615
93.581596374512 -73.580841064453 -214.504531860352 2.913473606110
5.432483196259 -72.238822937012 -209.966201782227 2.594326496124
3.032583951950 -75.368293762207 -209.881271362305 4.023216724396
-35.041763305664 -74.603775024414 -209.076034545898 1.776615977287
-93.346588134766 -71.219177246094 -210.995468139648 4.170052051544
-35.579784393311 -76.870796203613 -213.195190429688 2.461436986923
83.227882385254 -79.456985473633 -219.848953247070 3.666534900665
81.942115783691 -80.105148315430 -220.434997558594 4.008524417877
-39.911369323730 -71.093025207520 -214.662475585938 7.555207252502
-78.749595642090 -68.270881652832 -222.983642578125 9.769962310791
-4.375461101532 -75.390838623047 -215.671157836914 1.413299918175
87.540611267090 -79.507156372070 -222.230697631836 3.925351381302
-148.056365966797 -79.477027893066 -215.532180786133 1.291556477547
-171.317153930664 -77.750885009766 -205.221725463867 9.189425468445
-159.267745971680 -74.929740905762 -213.850448608398 3.793462753296
-20.864883422852 -80.948516845703 -228.139755249023 5.306614398956
-153.497650146484 -80.424308776855 -218.078170776367 3.599912881851
-8.804125785828 -84.631782531738 -228.177032470703 6.541606903076
4.825901031494 -75.108589172363 -218.249572753906 3.230084896088
-162.566909790039 -82.216033935547 -214.670211791992 9.731019973755
-165.708435058594 -74.713661193848 -219.634201049805 2.323071002960
75.789741516113 -77.789459228516 -233.250473022461 2.507557153702
3.761054992676 -79.395004272461 -230.418258666992 2.165015935898
-150.171997070313 -78.403160095215 -216.420898437500 1.224030256271
-144.396057128906 -77.240692138672 -215.205032348633 2.567557334900
-22.991502761841 -80.173622131348 -225.267425537109 4.514826297760
2.330816984177 -77.893653869629 -223.196762084961 1.870000600815
82.772483825684 -78.279464721680 -225.495315551758 3.250155687332
-159.857727050781 -78.636062622070 -224.175888061523 5.466941356659
-147.674484252930 -74.142044067383 -222.965820312500 2.149990797043
-127.523132324219 -72.844718933105 -226.007720947266 0.815411925316
80.456550598145 -83.223175048828 -234.760284423828 9.179038047791
-117.040191650391 -71.905334472656 -228.612060546875 2.341859579086
-146.928619384766 -79.640617370605 -223.874160766602 2.378448963165
-155.543853759766 -81.970932006836 -223.159713745117 4.946619033813
-148.400421142578 -76.037498474121 -221.231567382813 1.432924985886
-152.977172851563 -71.923278808594 -224.980987548828 1.471700549126
-168.698486328125 -71.970230102539 -231.984024047852 3.426127195358
-139.020263671875 -76.423561096191 -231.475585937500 2.411394596100
-138.000656127930 -75.007476806641 -228.568603515625 2.463828563690
-157.280227661133 -75.971488952637 -222.652297973633 3.853940010071
-147.233428955078 -75.158164978027 -225.998855590820 3.093200445175
-153.633728027344 -72.002456665039 -227.810638427734 2.124118089676
69.855773925781 -76.735710144043 -221.303207397461 8.745905876160
66.113136291504 -74.388885498047 -242.301239013672 1.535026907921
-163.394012451172 -74.555801391602 -234.008712768555 2.146043777466
67.140907287598 -79.288619995117 -236.773193359375 5.023171901703
-23.005567550659 -76.377731323242 -235.505325317383 2.410137891769
6.903613090515 -78.299346923828 -240.428970336914 1.843125700951
15.870710372925 -82.778503417969 -235.601196289063 2.424097061157
-142.913452148438 -76.012115478516 -238.023147583008 3.967611551285
14.461928367615 -78.036254882813 -244.780303955078 2.968097448349
64.569107055664 -80.312889099121 -239.781127929688 6.062743186951
7.848670959473 -76.800323486328 -236.008178710938 1.451463937759
2.494496107101 -82.089302062988 -245.173141479492 3.170378208160
-10.087436676025 -72.052185058594 -240.141662597656 1.553248405457
-20.387632369995 -83.171295166016 -247.156539916992 7.562273025513
-0.822461009026 -82.813980102539 -242.039932250977 6.406351089478
0.895033001900 -75.525321960449 -241.611953735352 0.407275170088
54.398574829102 -80.949531555176 -242.870162963867 8.433015823364
-61.674285888672 -79.375854492188 -243.909622192383 2.841510534286
16.149675369263 -79.967285156250 -251.490966796875 1.687869310379
-59.792243957520 -75.810424804688 -243.847869873047 1.133038043976
-9.453139305115 -77.667678833008 -250.146011352539 1.931336402893
-66.454818725586 -74.951446533203 -252.033020019531 2.288681745529
-86.567810058594 -84.979057312012 -248.055435180664 11.120252609253
-83.400146484375 -83.156135559082 -249.713027954102 8.060864448547
-20.151622772217 -77.129707336426 -251.407135009766 7.252477169037
-127.121887207031 -83.240722656250 -257.689422607422 7.220160961151
-18.117708206177 -73.066345214844 -256.070159912109 4.071994304657
-126.263969421387 -76.748771667480 -251.139190673828 5.099374294281
-121.422805786133 -73.043449401855 -254.594345092773 2.522807121277
-106.725151062012 -83.296211242676 -253.137725830078 10.726596832275
-144.663742065430 -75.759590148926 -254.209457397461 2.813424825668
-149.293716430664 -75.234848022461 -261.711975097656 1.703815937042
-169.770278930664 -73.491859436035 -259.299835205078 3.690136194229
9.855712890625 -82.219459533691 -282.622283935547 4.080513954163
-65.289283752441 -83.197135925293 -280.885345458984 9.734863281250
-68.939727783203 -80.799324035645 -281.075775146484 7.886728763580
-48.871326446533 -81.972778320313 -282.881011962891 6.551427841187
-29.584505081177 -81.692230224609 -281.005371093750 7.358148097992
-95.471580505371 -79.737442016602 -292.643920898438 5.614153862000
-34.467002868652 -77.663085937500 -287.843170166016 0.738334655762
-4.520422935486 -73.379539489746 -285.440948486328 1.787089109421
-168.116806030273 -80.719070434570 -284.107208251953 6.296767711639
-20.223432540894 -82.620033264160 -290.487518310547 4.645506381989
3.817198991776 -74.761825561523 -291.139678955078 1.691752195358
11.294982910156 -73.064804077148 -292.993713378906 3.084902286530
-59.050140380859 -81.574920654297 -290.639587402344 5.188833236694
-31.608318328857 -84.709289550781 -284.625213623047 7.647583961487
12.362589836121 -77.210098266602 -290.325714111328 1.751251101494
-71.511917114258 -81.782997131348 -292.386596679688 6.585648059845
-41.882068634033 -79.216354370117 -289.124664306641 3.272140979767
-20.179571151733 -78.914024353027 -291.530670166016 2.133744001389
4.710704803467 -79.753273010254 -292.593963623047 3.055945634842
-18.412673950195 -83.854133605957 -288.065002441406 6.034228324890
3.124491930008 -77.958145141602 -293.351562500000 3.037515401840
7.723575115204 -80.969085693359 -292.769195556641 3.679132938385
-137.587081909180 -82.632263183594 -284.669494628906 3.043622970581
-143.958389282227 -81.023117065430 -297.304504394531 3.177924156189
-154.813858032227 -84.545341491699 -304.401702880859 5.030768871307
44.501277923584 -58.651317596436 -14.011659622192 2.795264720917
36.512382507324 -67.991584777832 -9.640789985657 3.337611436844
46.613414764404 -68.894065856934 -16.505088806152 1.457778692245
26.789125442505 -69.162719726563 -22.943201065063 1.700510621071
47.335762023926 -69.414558410645 -28.715473175049 3.086242675781
26.260656356812 -65.248039245605 -20.285858154297 2.546784162521
29.317190170288 -74.364006042480 -31.726596832275 3.351392984390
27.535966873169 -72.640357971191 -37.569282531738 2.234722852707
47.551952362061 -65.664710998535 -36.681591033936 1.713827490807
32.143901824951 -68.494659423828 -40.625381469727 1.496563553810
44.661956787109 -69.897377014160 -33.202629089355 2.130944013596
39.523605346680 -65.410171508789 -39.307563781738 2.599090099335
34.840232849121 -70.197273254395 -42.867614746094 1.907761693001
37.899799346924 -67.079078674316 -43.753246307373 4.413985252380
49.389778137207 -69.796859741211 -46.972267150879 9.790846824646
38.729537963867 -64.055480957031 -47.648807525635 6.687616348267
-33.513042449951 -64.355201721191 -56.917087554932 7.924479484558
-24.086366653442 -64.047187805176 -42.601188659668 7.392797470093
-84.513885498047 -67.942276000977 -52.966770172119 1.421313047409
-82.278282165527 -72.182456970215 -60.808494567871 3.005094766617
85.602920532227 -70.955932617188 -69.068382263184 1.644235014915
85.801033020020 -71.812118530273 -73.950469970703 2.599081754684
-10.404887199402 -74.175491333008 -76.119087219238 9.105168342590
-80.083450317383 -71.776977539063 -68.688278198242 5.645775794983
-19.897111892700 -70.265670776367 -79.798126220703 6.051460742950
-45.933185577393 -77.186874389648 -89.430480957031 3.367805719376
66.043693542480 -72.160377502441 -87.816650390625 2.720526695251
59.358257293701 -67.208015441895 -93.586280822754 0.964050233364
99.517807006836 -73.355499267578 -90.790328979492 2.178266286850
79.260841369629 -75.660972595215 -98.251808166504 1.795546770096
-59.756748199463 -75.177551269531 -89.627044677734 5.176264286041
-61.230640411377 -68.337524414063 -93.943893432617 3.642426252365
47.563690185547 -72.398803710938 -98.565780639648 1.373131990433
73.628532409668 -79.903366088867 -102.986625671387 7.609892368317
52.906803131104 -76.928054809570 -102.705787658691 1.646961212158
105.317169189453 -77.457519531250 -101.117591857910 3.680875539780
-84.601707458496 -72.735961914063 -104.154769897461 2.055526018143
42.950962066650 -80.454856872559 -111.074317932129 1.574505567551
110.572265625000 -70.538825988770 -112.903175354004 1.832804203033
48.644584655762 -68.634986877441 -112.550827026367 2.171637296677
106.743118286133 -69.800254821777 -111.155174255371 2.212538719177
-80.337936401367 -69.824951171875 -112.835845947266 0.700627267361
38.300518035889 -70.369468688965 -119.861770629883 1.348193168640
114.513252258301 -76.636817932129 -123.995422363281 2.207961082458
103.426513671875 -73.669189453125 -121.203842163086 3.810892820358
109.611022949219 -77.873405456543 -119.068115234375 2.619888782501
112.526733398438 -79.983741760254 -120.024856567383 5.216714859009
34.384429931641 -74.784507751465 -116.705543518066 1.418836474419
36.182971954346 -78.661727905273 -119.405632019043 1.857385516167
46.949249267578 -72.362815856934 -113.740493774414 1.015956282616
112.197372436523 -74.671226501465 -128.772781372070 2.167605161667
43.786418914795 -71.275405883789 -125.544937133789 3.306323051453
113.626609802246 -77.191673278809 -136.922317504883 2.315922021866
117.519844055176 -72.086372375488 -132.684555053711 1.254649877548
34.697208404541 -71.910224914551 -121.249168395996 1.872636437416
-74.816375732422 -76.424880981445 -121.768165588379 7.935988426208
119.230834960938 -80.667922973633 -140.452621459961 6.539391517639
-59.026847839355 -81.007392883301 -140.749481201172 6.492266178131
35.103752136230 -76.249671936035 -137.859176635742 2.588377237320
-72.345771789551 -73.034835815430 -137.435485839844 0.469607383013
31.442064285278 -71.608688354492 -136.455474853516 2.449452161789
-69.814315795898 -76.152847290039 -139.601730346680 3.396336317062
-41.071411132813 -76.975555419922 -148.506790161133 0.848103165627
-71.150108337402 -78.463531494141 -132.353958129883 7.636763095856
111.599853515625 -67.694396972656 -142.543258666992 1.647036671638
119.896049499512 -76.509979248047 -144.475097656250 4.168890953064
127.171356201172 -74.932968139648 -151.677337646484 10.499713897705
-70.214759826660 -76.337272644043 -142.745483398438 2.253845453262
9.826540946960 -73.486145019531 -150.620758056641 2.402776956558
-57.603218078613 -71.092102050781 -152.591003417969 4.250881671906
-44.567008972168 -77.914459228516 -151.154067993164 0.911625802517
110.271118164063 -72.918197631836 -163.906585693359 1.829272985458
-37.282806396484 -77.733993530273 -150.330215454102 3.547635078430
11.028946876526 -72.136314392090 -162.782196044922 3.037865400314
23.869554519653 -72.941299438477 -161.279922485352 2.446827173233
113.709571838379 -76.865592956543 -168.330200195313 1.593940019608
34.289924621582 -69.061904907227 -160.746261596680 4.322027683258
-1.881060957909 -80.113845825195 -158.190704345703 5.434221744537
32.204383850098 -73.688720703125 -165.231109619141 1.508422255516
-68.011344909668 -66.094268798828 -155.862442016602 3.769082784653
-60.154975891113 -71.756858825684 -156.637435913086 3.835889339447
-65.160194396973 -72.014717102051 -159.754638671875 1.388034224510
112.608139038086 -74.495223999023 -166.017654418945 2.000138044357
-45.520610809326 -70.704513549805 -162.503051757813 0.980707168579
17.081161499023 -81.360229492188 -172.922348022461 3.991873025894
-61.956314086914 -78.470733642578 -173.240570068359 1.389949560165
-59.032199859619 -78.178710937500 -172.702590942383 1.090663552284
-43.124538421631 -77.263641357422 -161.678222656250 2.355306625366
-37.250484466553 -65.826194763184 -165.478744506836 3.561591625214
113.959678649902 -70.305877685547 -179.959335327148 3.350180387497
-33.706241607666 -76.224037170410 -172.499649047852 2.364807128906
17.139629364014 -74.085227966309 -170.119522094727 2.077705383301
105.486869812012 -83.005226135254 -196.090393066406 6.162958145142
-153.048828125000 -77.047393798828 -171.578460693359 7.745482921600
-141.721893310547 -75.325561523438 -168.823699951172 7.837260246277
-151.385330200195 -72.286277770996 -172.142761230469 3.559253692627
-143.883865356445 -69.180427551270 -175.851181030273 2.063611984253
-25.690977096558 -72.599555969238 -179.165390014648 1.614843845367
-25.267335891724 -74.352203369141 -183.328247070313 2.700305461884
23.032199859619 -71.327606201172 -192.287368774414 1.380599379539
-141.091033935547 -74.232765197754 -182.149215698242 2.703474044800
-143.240631103516 -71.739646911621 -177.607986450195 1.594642519951
-22.862937927246 -65.805274963379 -186.410934448242 3.012760400772
14.914031028748 -80.512832641602 -182.712188720703 3.725226402283
-138.876052856445 -75.599227905273 -187.666793823242 4.805070400238
-36.307960510254 -79.904090881348 -179.097503662109 2.507271051407
101.928077697754 -80.980484008789 -193.319183349609 3.439622163773
106.772720336914 -74.046188354492 -199.427551269531 2.992128849030
20.158054351807 -75.767219543457 -189.343750000000 1.077952384949
-21.227312088013 -81.763847351074 -189.433105468750 2.843549013138
-25.067001342773 -80.311592102051 -198.124465942383 2.682808637619
-146.239151000977 -70.319198608398 -192.114837646484 2.474500179291
-135.154464721680 -72.947959899902 -194.326995849609 3.488026618958
-122.668388366699 -73.391372680664 -189.907135009766 6.082053661346
-124.542846679688 -78.464920043945 -192.901138305664 6.850647449493
-16.977813720703 -74.941085815430 -193.920318603516 2.033064603806
11.930861473083 -79.113761901855 -193.391708374023 2.730593681335
93.555130004883 -71.476837158203 -203.312667846680 0.492538809776
-146.093276977539 -75.525993347168 -189.935501098633 2.203583955765
-146.761199951172 -71.143836975098 -198.345794677734 1.048434972763
-145.991470336914 -67.389549255371 -193.441558837891 2.587950706482
-156.041473388672 -69.007293701172 -196.018722534180 2.457319736481
-30.214267730713 -74.335014343262 -200.162063598633 4.787746429443
-13.766342163086 -82.214797973633 -192.552337646484 5.328444480896
-143.456100463867 -66.003013610840 -189.911743164063 1.919094085693
-20.036645889282 -79.510108947754 -194.053070068359 0.762165009975
-163.705810546875 -75.895500183105 -193.787094116211 6.566094875336
-130.844421386719 -74.765960693359 -194.277832031250 3.243039369583
9.662752151489 -72.734420776367 -210.792800903320 1.274170160294
-162.266494750977 -72.924324035645 -196.801193237305 2.165478229523
-143.581466674805 -77.073234558105 -196.611145019531 2.226718902588
10.724855422974 -78.841789245605 -201.510604858398 1.765523314476
-156.865600585938 -78.807655334473 -201.280944824219 4.095302104950
-23.721548080444 -77.503982543945 -200.733657836914 2.323789596558
102.422401428223 -77.138175964355 -203.655349731445 3.302347660065
-153.784454345703 -75.009613037109 -208.669509887695 4.065573692322
-163.375946044922 -76.023284912109 -208.293197631836 4.000384807587
-80.711639404297 -73.191833496094 -211.645217895508 1.365557074547
92.556251525879 -76.933364868164 -213.167495727539 1.116320133209
-4.787991046906 -76.724578857422 -211.985137939453 1.278312563896
-154.723449707031 -75.070907592773 -204.598831176758 2.883610248566
-90.671447753906 -68.961463928223 -213.195083618164 3.014661073685
-6.236765861511 -76.205718994141 -208.570404052734 2.435729026794
14.199618339539 -73.570549011230 -222.673080444336 1.314131140709
-144.286987304688 -76.945663452148 -213.169067382813 2.270747900009
-3.903259992599 -79.135398864746 -219.100357055664 1.542290925980
-15.139773368835 -70.254798889160 -219.239105224609 1.556270956993
-21.416309356689 -72.121131896973 -218.075149536133 1.015928626060
85.767021179199 -78.843254089355 -217.805221557617 2.406028509140
-23.190694808960 -70.837188720703 -213.477432250977 3.781190395355
-29.683206558228 -76.764205932617 -217.683425903320 0.369134634733
-103.539749145508 -75.428390502930 -216.927230834961 4.317418098450
-16.197864532471 -76.075454711914 -225.680816650391 1.536905765533
88.332885742188 -76.322151184082 -222.008712768555 2.808680295944
80.315246582031 -75.891677856445 -221.356246948242 2.180584907532
6.204007148743 -82.231918334961 -225.488204956055 4.315248012543
-14.405229568481 -75.533348083496 -226.154388427734 1.702630162239
77.970268249512 -86.625152587891 -224.591171264648 10.740840911865
-130.367797851563 -75.243171691895 -217.690063476563 8.431812286377
-25.005313873291 -79.271934509277 -220.327331542969 0.909380853176
-104.247550964355 -73.279220581055 -222.110061645508 1.375956058502
-109.045021057129 -79.118415832520 -225.423095703125 6.658256530762
-135.375686645508 -73.487823486328 -223.233215332031 3.012328863144
76.471138000488 -78.744651794434 -226.266708374023 3.714941024780
-128.791030883789 -78.395423889160 -223.723999023438 5.415113925934
-1.139248967171 -76.279968261719 -230.793762207031 1.950136899948
71.230781555176 -77.701080322266 -226.011657714844 5.046384334564
-16.659708023071 -78.605728149414 -230.396636962891 3.281966924667
-9.906022071838 -78.873313903809 -229.723754882813 3.017487525940
-7.287220001221 -74.908622741699 -233.175521850586 0.604918718338
5.758020877838 -78.455986022949 -230.905670166016 2.658499002457
80.877670288086 -78.006210327148 -228.554794311523 2.850871562958
14.619316101074 -78.429893493652 -232.891174316406 1.699638009071
0.767774999142 -78.663177490234 -232.463043212891 1.873536467552
-6.070525169373 -79.508644104004 -224.362030029297 1.921116948128
-7.379434108734 -74.681144714355 -233.977005004883 0.938952326775
13.989463806152 -75.350296020508 -233.086822509766 2.931459665298
-10.503753662109 -73.915977478027 -235.426605224609 2.522501468658
72.697151184082 -77.179161071777 -238.518478393555 3.712951660156
-10.208695411682 -74.356735229492 -233.277252197266 0.738457918167
21.256166458130 -77.388923645020 -228.438690185547 3.885747909546
-162.519973754883 -71.268844604492 -237.968978881836 2.909028530121
-7.261138916016 -77.306228637695 -243.069793701172 4.077748298645
-12.342372894287 -76.880638122559 -240.595520019531 2.394542932510
-169.349945068359 -74.636367797852 -253.648986816406 3.559304714203
-11.473512649536 -78.812271118164 -243.189514160156 5.037130355835
17.331493377686 -81.179580688477 -243.275680541992 3.269672393799
-149.917922973633 -79.868614196777 -246.124298095703 0.698378622532
-68.892410278320 -77.102882385254 -246.191589355469 2.113162755966
-59.546314239502 -74.797256469727 -247.298110961914 2.310764551163
52.208091735840 -76.435440063477 -249.861862182617 4.345597267151
-79.042350769043 -77.392456054688 -243.025222778320 6.619899272919
11.872220993042 -77.714279174805 -245.057632446289 1.582187175751
-79.941757202148 -78.426368713379 -247.764465332031 4.209906578064
-21.712017059326 -78.076164245605 -246.149322509766 3.843629598618
-152.589431762695 -78.057037353516 -250.022079467773 2.991718292236
45.843059539795 -75.499847412109 -250.660690307617 3.902498483658
-86.243774414063 -72.644630432129 -245.036132812500 5.311713218689
-97.134254455566 -77.978805541992 -252.619705200195 4.770189762115
-97.753395080566 -84.422027587891 -248.491394042969 12.401316642761
-127.180923461914 -77.627029418945 -255.628463745117 2.892113447189
-111.867195129395 -73.792617797852 -253.448852539063 4.332821369171
-110.173759460449 -74.077850341797 -256.506042480469 1.958947300911
13.948017120361 -77.546585083008 -258.920104980469 4.847274303436
-132.071304321289 -72.978492736816 -262.289581298828 2.186039686203
-11.243579864502 -82.402488708496 -276.744903564453 6.368202209473
-150.061782836914 -81.613418579102 -277.170013427734 1.956548094749
-172.577545166016 -75.956314086914 -276.423492431641 5.976145744324
-132.145416259766 -78.738433837891 -283.669403076172 3.497353792191
-119.720993041992 -80.333885192871 -274.688964843750 12.798509597778
-83.871429443359 -73.587188720703 -285.290771484375 2.050273656845
-59.745750427246 -72.583374023438 -288.703430175781 2.655294179916
-48.527275085449 -77.352912902832 -284.809356689453 2.686453819275
-16.544094085693 -77.573684692383 -289.619659423828 1.504788994789
-13.897554397583 -77.287811279297 -287.188079833984 1.201145410538
-38.273319244385 -80.067420959473 -288.583465576172 2.430483579636
-38.333335876465 -77.706413269043 -286.052215576172 1.618109345436
-24.421815872192 -75.159133911133 -292.743682861328 2.787101030350
-77.726036071777 -81.525802612305 -289.992736816406 5.595953464508
-58.082168579102 -75.053016662598 -293.693450927734 3.617655515671
-16.502946853638 -73.564147949219 -290.943023681641 1.302219986916
-18.901432037354 -79.052856445313 -290.671234130859 1.353500962257
-8.808365821838 -78.229164123535 -291.939819335938 2.233897924423
-0.132256999612 -73.994354248047 -296.727264404297 4.973653793335
-90.630508422852 -76.610939025879 -281.005401611328 6.783905506134
-151.087631225586 -75.045227050781 -281.998809814453 0.521177589893
-121.466926574707 -79.250473022461 -292.523986816406 5.133956909180
-157.873703002930 -82.507011413574 -297.688842773438 6.195447921753
-159.464889526367 -79.298423767090 -293.257354736328 4.758799076080
-147.446411132813 -77.939453125000 -299.041351318359 1.863096475601
51.452121734619 -71.884132385254 -28.391731262207 2.422783613205
23.300750732422 -68.449417114258 -25.510766983032 2.749214649200
56.050849914551 -71.320388793945 -27.771167755127 6.216098785400
54.665405273438 -73.728034973145 -34.773948669434 6.984418869019
90.513778686523 -65.230644226074 -70.835289001465 6.095030307770
101.875717163086 -68.633636474609 -79.941474914551 1.478640317917
99.850868225098 -70.286010742188 -84.283798217773 1.105166554451
98.513603210449 -69.255294799805 -93.246452331543 2.611766099930
51.964252471924 -71.389221191406 -89.429298400879 1.539840221405
53.997730255127 -71.413749694824 -93.855659484863 1.920155405998
63.471370697021 -68.940261840820 -95.410850524902 3.163367271423
-61.731388092041 -66.086776733398 -90.841514587402 2.092843055725
76.129440307617 -72.730926513672 -93.540618896484 2.725109100342
106.138748168945 -70.578086853027 -95.259719848633 1.833081364632
76.518051147461 -75.902488708496 -102.409729003906 3.663291692734
96.613998413086 -67.608253479004 -99.252906799316 2.964210271835
-78.293472290039 -72.293701171875 -98.826492309570 1.248401761055
49.118492126465 -72.274314880371 -106.601242065430 2.434477567673
-86.100318908691 -74.843841552734 -106.869361877441 3.901578664780
52.845989227295 -73.688156127930 -115.696907043457 4.283872127533
45.458850860596 -66.853279113770 -108.565155029297 1.076109290123
104.589233398438 -75.648963928223 -110.178428649902 2.727356433868
43.415985107422 -68.467697143555 -110.478889465332 1.574204683304
44.048645019531 -75.796264648438 -116.668853759766 1.507304549217
43.065319061279 -68.830566406250 -118.745513916016 1.839909672737
105.266113281250 -66.825752258301 -122.368667602539 3.736255884171
-78.464218139648 -70.202926635742 -116.815246582031 1.964035749435
116.175308227539 -75.996627807617 -125.102378845215 3.005362987518
41.929798126221 -65.710784912109 -118.493507385254 3.547746896744
46.716171264648 -73.898094177246 -117.616012573242 0.994504094124
34.637180328369 -73.780868530273 -121.030448913574 0.929356455803
-52.921772003174 -70.920890808105 -129.955718994141 2.496002435684
31.489028930664 -70.682228088379 -123.107315063477 1.586371064186
-76.456077575684 -73.701614379883 -133.991836547852 1.254609584808
-59.163608551025 -71.053535461426 -132.528320312500 0.816945493221
-73.670745849609 -69.377258300781 -128.037811279297 1.791036009789
36.328014373779 -72.069244384766 -127.807929992676 2.913145065308
-53.592048645020 -69.885482788086 -130.087600708008 1.401497960091
41.909111022949 -73.057739257813 -133.586807250977 2.518450975418
-75.238883972168 -72.749649047852 -135.814880371094 2.202271699905
-55.377338409424 -75.362091064453 -139.085678100586 1.424061894417
30.644119262695 -71.895965576172 -139.611267089844 1.621681213379
113.526931762695 -78.469093322754 -150.574295043945 3.514631032944
121.215736389160 -74.560142517090 -142.678588867188 4.368137836456
35.647598266602 -72.250419616699 -141.976089477539 1.333123564720
-46.652256011963 -69.819892883301 -143.314041137695 1.840169787407
110.057991027832 -74.193901062012 -163.410644531250 2.136168956757
-71.810737609863 -71.980659484863 -147.012863159180 0.679025053978
-46.480335235596 -74.335830688477 -136.154220581055 2.219866752625
36.571628570557 -78.720092773438 -153.384521484375 4.257701396942
-66.958892822266 -74.003501892090 -140.441696166992 3.703973054886
-68.325515747070 -74.770874023438 -142.300125122070 2.718968868256
118.601455688477 -69.091476440430 -151.276718139648 3.229380607605
-61.504776000977 -70.065048217773 -145.278503417969 4.052338600159
-39.510322570801 -70.813667297363 -148.717758178711 1.580654621124
32.978584289551 -67.795783996582 -155.026062011719 2.931784868240
-74.263740539551 -71.575775146484 -145.704101562500 2.107692480087
8.493892669678 -76.130569458008 -161.238967895508 2.502504825592
35.646873474121 -69.645256042480 -157.946655273438 4.303633213043
26.253843307495 -74.635505676270 -152.523422241211 2.455765962601
6.576601982117 -77.865333557129 -155.285446166992 3.195716857910
-46.427440643311 -69.955322265625 -151.823303222656 1.100855112076
25.563936233521 -73.398422241211 -152.216644287109 2.274750471115
-46.652179718018 -75.250373840332 -147.966735839844 2.364782333374
7.608119010925 -75.672813415527 -149.657684326172 4.950294971466
21.917169570923 -74.652122497559 -148.554779052734 2.340009927750
-71.402702331543 -77.237991333008 -149.833831787109 1.793077826500
-43.585041046143 -73.538070678711 -153.639160156250 2.998956680298
-70.658813476563 -69.567344665527 -160.017318725586 3.217110157013
11.147023200989 -65.630187988281 -166.794509887695 8.836624145508
19.561552047729 -74.125984191895 -145.589263916016 3.928017616272
1.950410962105 -70.992942810059 -163.189407348633 1.249694108963
23.598939895630 -68.582191467285 -155.660614013672 1.429563164711
29.228063583374 -74.392959594727 -162.600692749023 1.438112258911
-45.156986236572 -75.713317871094 -160.944229125977 1.958061575890
-31.342557907104 -72.610588073730 -159.098510742188 3.015244245529
-35.417808532715 -71.534118652344 -159.887176513672 2.183668851852
31.862243652344 -75.668609619141 -165.009292602539 0.982341825962
-45.460601806641 -73.084678649902 -163.492843627930 1.670582532883
-42.805404663086 -74.047866821289 -160.829132080078 2.528537750244
21.390037536621 -76.940803527832 -162.164749145508 1.944835782051
-42.165046691895 -72.965095520020 -170.939544677734 1.193590164185
33.917633056641 -70.723815917969 -175.533065795898 5.993846416473
119.059799194336 -71.624328613281 -166.887771606445 4.886658191681
-31.726177215576 -72.745254516602 -172.495742797852 2.097019433975
105.957443237305 -71.132675170898 -173.168640136719 1.439249634743
-32.784919738770 -69.411582946777 -176.869949340820 2.225790500641
-38.711387634277 -74.656929016113 -177.846817016602 1.030178785324
18.036577224731 -76.243041992188 -175.173034667969 1.451760411263
102.794914245605 -71.403198242188 -181.409408569336 3.162523269653
-28.612813949585 -73.176513671875 -181.216171264648 3.101846694946
-29.716245651245 -66.113739013672 -173.109878540039 3.776815176010
-21.840484619141 -77.600082397461 -185.658493041992 1.330249071121
-145.326156616211 -78.945465087891 -182.038391113281 4.684641838074
12.617060661316 -77.699111938477 -182.170700073242 3.044320106506
106.402427673340 -73.851066589355 -198.362274169922 1.973433375359
-159.557006835938 -72.926330566406 -188.200698852539 7.205886840820
-25.657382965088 -74.792198181152 -188.907501220703 3.102023363113
-115.048149108887 -70.397125244141 -190.136734008789 2.992861986160
-130.335617065430 -74.159194946289 -192.636001586914 4.145194053650
-107.267120361328 -71.270652770996 -198.899841308594 2.776551008224
-110.191574096680 -68.380332946777 -195.475128173828 2.441771745682
-16.837478637695 -70.265670776367 -199.485351562500 1.902898192406
18.158880233765 -77.210174560547 -198.463989257813 2.214709043503
-23.348268508911 -65.316101074219 -199.743881225586 2.982445955276
-126.342460632324 -70.542274475098 -197.633041381836 3.179582595825
