-76.677604675293 -76.486419677734 -102.982963562012 1.971157670021
-21.528116226196 -86.257286071777 -176.808151245117 4.467603206635
-29.029994964600 -86.422279357910 -185.594924926758 2.352639913559
-31.727380752563 -92.657920837402 -186.098693847656 7.764072418213
-22.393733978271 -89.306991577148 -183.367706298828 5.405140876770
-30.183898925781 -85.589500427246 -184.047439575195 2.871419668198
-40.572418212891 -85.934608459473 -196.747650146484 0.406238943338
-145.696319580078 -85.944915771484 -193.326522827148 3.279669284821
-68.354965209961 -86.924957275391 -202.922622680664 5.740149021149
-152.377136230469 -88.719741821289 -213.924942016602 7.253134727478
-140.179916381836 -84.810188293457 -215.397125244141 5.957657337189
-155.904434204102 -89.240829467773 -218.525390625000 9.387748718262
-143.129302978516 -85.880233764648 -225.360687255859 2.486230134964
-138.884368896484 -86.599449157715 -226.215362548828 3.173037767410
-147.623886108398 -82.667778015137 -225.436096191406 1.287570714951
-157.022277832031 -91.998336791992 -236.179901123047 11.150980949402
9.845353126526 -90.535034179688 -245.319091796875 8.099494934082
-9.149665832520 -97.095779418945 -252.007797241211 15.212564468384
-136.769165039063 -89.534423828125 -256.439208984375 4.989272594452
-5.940209865570 -88.985931396484 -272.169525146484 7.201957702637
12.385342597961 -97.542808532715 -259.241516113281 13.095254898071
-11.288811683655 -94.037139892578 -262.563110351563 11.851885795593
-150.650741577148 -85.525886535645 -258.935577392578 0.611092329025
-149.017471313477 -85.469238281250 -276.943725585938 0.570444822311
-144.979507446289 -92.929260253906 -288.387908935547 7.300807952881
-152.022964477539 -86.990081787109 -282.502929687500 2.634038209915
-154.426773071289 -92.276222229004 -286.167999267578 6.712534904480
-66.568389892578 -80.663314819336 -69.937843322754 1.156943798065
-55.505558013916 -78.896171569824 -70.185592651367 2.734938383102
-40.219993591309 -84.794670104980 -71.745605468750 4.026479721069
-35.127227783203 -81.873344421387 -78.372192382813 0.700951099396
-64.830177307129 -80.071495056152 -74.371528625488 2.437889337540
-41.564437866211 -77.102912902832 -84.972579956055 1.487342834473
-48.934364318848 -81.073066711426 -88.360572814941 1.111130833626
-66.398094177246 -75.222297668457 -97.838340759277 0.981711149216
-7.994905948639 -84.789047241211 -174.307220458984 3.735525131226
-17.379589080811 -86.257850646973 -181.975738525391 2.949905872345
-50.581108093262 -85.512405395508 -184.333694458008 4.013164043427
-145.702163696289 -87.368721008301 -182.908508300781 6.586950302124
-44.512298583984 -84.959358215332 -189.284896850586 4.532458782196
-151.461227416992 -84.990043640137 -184.888046264648 5.256167411804
-137.806564331055 -90.001777648926 -187.742324829102 11.043079376221
-40.003097534180 -85.807769775391 -197.422653198242 1.156709909439
-147.074417114258 -84.298767089844 -191.514221191406 1.939380526543
-145.910339355469 -82.526802062988 -191.276763916016 0.669700562954
-55.294975280762 -87.695800781250 -198.500747680664 4.145031452179
-156.159912109375 -81.583663940430 -188.587249755859 6.917562007904
-56.902584075928 -89.602928161621 -201.425384521484 4.935463428497
-146.739059448242 -83.633346557617 -199.436401367188 2.315576791763
-63.730018615723 -84.641357421875 -209.809616088867 1.170083999634
13.642890930176 -90.685523986816 -237.186660766602 7.858350276947
8.169079780579 -93.441490173340 -235.442596435547 11.716648101807
-148.319076538086 -86.256546020508 -231.366470336914 2.707751035690
16.063356399536 -87.442924499512 -247.134216308594 4.147154808044
10.905994415283 -98.972084045410 -247.980850219727 16.057779312134
11.371839523315 -92.431419372559 -255.263626098633 8.240416526794
8.862136840820 -90.730323791504 -257.022857666016 5.662993907928
-157.177154541016 -88.082153320313 -248.491973876953 8.148345947266
-140.394332885742 -90.551559448242 -254.251556396484 6.525938510895
8.304338455200 -91.007087707520 -266.046417236328 5.620442867279
-156.026885986328 -92.899719238281 -271.716247558594 10.331426620483
-142.818878173828 -91.386291503906 -271.134582519531 7.461873531342
6.849597930908 -88.214256286621 -273.925933837891 4.357324123383
-148.638259887695 -90.417564392090 -265.302185058594 4.724083900452
-145.779266357422 -94.910537719727 -273.128997802734 10.057542800903
-155.132904052734 -91.561798095703 -285.039489746094 6.393385887146
-155.593704223633 -89.762603759766 -278.263122558594 7.053010463715
-157.687469482422 -88.467643737793 -284.556762695313 5.718825340271
-145.578964233398 -86.502716064453 -284.831085205078 1.249312520027
-163.641159057617 -93.093353271484 -278.981353759766 15.051733016968
-55.806495666504 -78.300918579102 -71.944664001465 4.011168003082
-47.904479980469 -72.568679809570 -71.245529174805 8.090597152710
-33.661956787109 -77.186515808105 -76.482345581055 3.552141189575
-71.778076171875 -76.323928833008 -79.946891784668 6.713526725769
-32.552429199219 -75.436752319336 -80.912277221680 2.527381181717
-35.355407714844 -81.332595825195 -79.048881530762 1.040280938148
-78.884643554688 -82.906654357910 -96.539337158203 3.062887907028
-64.944366455078 -73.705291748047 -98.974624633789 2.039049386978
34.705852508545 -85.064346313477 -122.774620056152 4.647054195404
34.507976531982 -82.783775329590 -145.560440063477 3.592187166214
-13.160622596741 -88.678253173828 -177.207931518555 5.717723369598
-17.678833007813 -83.884956359863 -179.236877441406 0.807602405548
-25.550119400024 -78.148948669434 -183.830856323242 1.873577713966
-34.048267364502 -86.118103027344 -184.257125854492 4.259172916412
-54.949440002441 -85.366195678711 -181.655975341797 4.261260032654
-26.427402496338 -80.431205749512 -191.454421997070 2.208479166031
-140.962356567383 -84.850273132324 -177.679733276367 10.664845466614
-149.069213867188 -83.869796752930 -187.854217529297 2.178739070892
-152.504608154297 -83.233497619629 -190.094345092773 4.502483367920
-149.935089111328 -80.788139343262 -193.168212890625 1.229206681252
-70.253898620605 -90.713546752930 -206.875778198242 7.866210460663
-61.380481719971 -86.889678955078 -207.462142944336 3.146834135056
-147.448257446289 -84.678916931152 -204.877914428711 1.966407418251
-71.475059509277 -86.999580383301 -208.440917968750 4.572978973389
-66.917251586914 -92.451255798340 -211.027236938477 8.934751510620
-77.789268493652 -90.723335266113 -211.989654541016 9.381179809570
-144.585159301758 -90.841384887695 -218.407333374023 7.693376064301
-141.666488647461 -86.483871459961 -221.696884155273 5.744928359985
-151.698440551758 -86.398307800293 -238.182464599609 3.692500829697
9.329712867737 -87.593040466309 -251.183441162109 4.548646926880
7.677721977234 -93.329025268555 -245.372772216797 11.517399787903
-137.929779052734 -95.326263427734 -246.897750854492 13.967391014099
12.001402854919 -89.874626159668 -260.453582763672 5.561404228210
10.094054222107 -93.682334899902 -263.271789550781 8.039055824280
-152.642761230469 -89.647857666016 -252.921676635742 5.694086074829
-158.074752807617 -91.318374633789 -267.087829589844 10.742514610291
-4.924290180206 -93.520393371582 -272.226531982422 10.363963127136
5.293716907501 -84.900024414063 -276.708923339844 2.256335020065
-159.254928588867 -92.226524353027 -269.921691894531 11.902721405029
-144.627349853516 -89.110527038574 -274.709716796875 4.892476558685
-157.147659301758 -100.347343444824 -293.369995117188 15.250345230103
-41.977050781250 -82.649291992188 -76.420639038086 1.308794617653
-63.638874053955 -78.381126403809 -60.238304138184 1.792986750603
-38.559509277344 -75.484405517578 -63.658370971680 2.794265985489
-27.628971099854 -76.759742736816 -73.262939453125 2.195480585098
-68.603164672852 -66.708847045898 -63.602485656738 11.178211212158
-19.593235015869 -83.452659606934 -74.561203002930 7.635180473328
-41.099994659424 -80.859527587891 -76.596572875977 2.643285036087
-53.257171630859 -77.305091857910 -90.039894104004 1.866868019104
-51.028087615967 -84.296394348145 -90.529113769531 2.566759824753
-55.682258605957 -82.058906555176 -97.955436706543 4.148263454437
-82.809822082520 -75.660995483398 -102.211303710938 2.149729251862
43.394050598145 -82.689353942871 -122.400306701660 4.396726131439
40.492034912109 -81.427345275879 -132.917327880859 3.590702056885
-40.687641143799 -81.358634948730 -160.425949096680 0.976552248001
-35.816799163818 -87.733551025391 -155.774810791016 9.065202713013
-6.622242927551 -81.761047363281 -170.517318725586 0.838987469673
-58.358745574951 -83.244491577148 -171.430953979492 3.311832427979
-55.076148986816 -85.337257385254 -174.219421386719 5.108239173889
-60.348674774170 -83.477210998535 -171.872451782227 3.881299734116
-32.832962036133 -81.399650573730 -167.082305908203 2.902908325195
-53.641246795654 -80.534942626953 -183.267562866211 2.165292978287
-26.179653167725 -83.284729003906 -181.503585815430 3.019540786743
-146.951263427734 -88.561096191406 -176.565628051758 11.797059059143
-48.546894073486 -80.889900207520 -174.540695190430 5.640647888184
-51.637016296387 -86.209953308105 -188.145645141602 5.275255680084
-32.193599700928 -77.886772155762 -181.419311523438 1.249261260033
-29.030364990234 -81.414443969727 -186.196365356445 1.804631352425
-34.077743530273 -81.811897277832 -190.588333129883 2.944017410278
-21.379854202271 -85.782691955566 -189.566421508789 4.690466403961
-44.302616119385 -88.017440795898 -193.113311767578 4.383604526520
-143.801071166992 -84.863929748535 -187.218673706055 3.272161960602
-38.397071838379 -88.323059082031 -194.486618041992 3.046276807785
-45.385631561279 -88.595581054688 -203.996215820313 4.697300434113
-42.990806579590 -81.324913024902 -198.311416625977 1.451375722885
-39.795635223389 -85.779838562012 -196.783935546875 0.792064964771
-133.108810424805 -83.279296875000 -197.857192993164 2.226481914520
-135.637237548828 -78.005790710449 -194.642868041992 2.678893327713
-49.446723937988 -87.945777893066 -197.302139282227 3.189982175827
-59.651515960693 -85.919876098633 -202.525878906250 2.591234683990
-36.955184936523 -83.280036926270 -201.227539062500 3.033124923706
-143.130981445313 -83.161918640137 -197.975616455078 1.242713451385
-70.200698852539 -82.442451477051 -205.793426513672 2.779899120331
-34.942947387695 -87.174942016602 -207.615997314453 6.292565345764
20.886812210083 -86.226516723633 -200.586395263672 8.207384109497
-81.265975952148 -79.207992553711 -201.454376220703 8.768702507019
-23.274894714355 -78.606842041016 -209.700729370117 3.598198413849
12.155191421509 -87.734085083008 -222.753524780273 6.755766868591
-147.618148803711 -87.011390686035 -210.713180541992 3.924850940704
4.572813987732 -88.723411560059 -226.059005737305 9.647505760193
10.973273277283 -89.660469055176 -221.404388427734 8.804712295532
13.086433410645 -90.430473327637 -231.683288574219 8.422738075256
-134.929702758789 -92.755722045898 -220.448455810547 11.952338218689
-152.902816772461 -88.958084106445 -222.476135253906 6.843863010406
9.879934310913 -89.139816284180 -230.533706665039 7.448330879211
10.493791580200 -89.454071044922 -236.679534912109 7.015239715576
10.916115760803 -83.781936645508 -236.693893432617 1.923502206802
-149.927093505859 -92.537399291992 -229.053939819336 8.735543251038
-146.044784545898 -90.500808715820 -231.855300903320 6.570453643799
16.722347259521 -86.815132141113 -237.195388793945 5.025121212006
-34.113033294678 -85.586906433105 -244.744491577148 5.632196903229
13.856855392456 -90.383903503418 -245.755950927734 7.368623733521
-42.010967254639 -90.721008300781 -245.414306640625 10.714696884155
-151.574813842773 -95.767639160156 -244.905609130859 11.944208145142
7.683557987213 -90.916610717773 -255.601486206055 6.061359405518
-143.487762451172 -87.172096252441 -256.269744873047 3.175951004028
-153.339309692383 -87.988395690918 -245.655639648438 5.630166530609
14.867151260376 -93.483207702637 -262.184234619141 9.981513977051
-8.047604560852 -84.057151794434 -248.955673217773 5.415498256683
-9.291618347168 -88.828117370605 -266.247070312500 6.978529930115
-147.914672851563 -88.271530151367 -246.188995361328 3.948922395706
-153.605682373047 -83.921737670898 -251.901397705078 3.451306104660
-145.842849731445 -88.833618164063 -254.412521362305 4.169344425201
-153.386138916016 -83.797103881836 -252.703033447266 2.902266502380
-156.433807373047 -86.376075744629 -257.771514892578 3.724862813950
-14.940282821655 -90.658088684082 -268.050903320313 11.658125877380
-2.184667110443 -85.693511962891 -267.956878662109 2.285404920578
4.268671035767 -95.970710754395 -264.232360839844 9.964950561523
4.299919128418 -91.204711914063 -283.596466064453 10.894741058350
-4.998680114746 -93.249511718750 -279.752166748047 12.656054496765
-138.369445800781 -88.463020324707 -285.082214355469 4.056499004364
-145.227249145508 -94.214721679688 -280.032043457031 8.459588050842
-53.542560577393 -71.623115539551 -62.103340148926 6.759149074554
-34.639636993408 -74.413352966309 -62.770824432373 2.388283729553
-52.616100311279 -75.907356262207 -63.398002624512 2.988373994827
-37.825164794922 -74.941040039063 -68.539924621582 4.877315521240
-68.762474060059 -76.724266052246 -59.255844116211 1.022022962570
-80.225959777832 -76.322433471680 -68.506362915039 2.460098028183
-24.614736557007 -73.327812194824 -81.534355163574 4.681401729584
-37.368167877197 -77.240180969238 -86.066780090332 3.686701774597
-40.674571990967 -75.556724548340 -78.999710083008 2.932261705399
-78.095588684082 -73.721221923828 -81.755874633789 8.127549171448
-69.637634277344 -74.738975524902 -98.264038085938 2.729843139648
45.510551452637 -82.248550415039 -110.872932434082 3.026324748993
-78.958709716797 -80.591941833496 -107.314971923828 1.387874245644
44.921928405762 -80.941421508789 -121.572235107422 2.839552402496
46.923229217529 -85.260131835938 -131.646057128906 10.077638626099
40.851894378662 -77.292755126953 -124.055480957031 1.104759573936
38.888271331787 -84.755889892578 -128.196701049805 4.899144649506
38.340682983398 -78.901290893555 -142.039382934570 2.782892465591
28.005556106567 -76.003105163574 -147.957244873047 2.273041009903
-40.304359436035 -85.170585632324 -144.641845703125 8.467370986938
27.968334197998 -78.781967163086 -148.881866455078 1.532102465630
25.586540222168 -81.014289855957 -154.161941528320 1.232379674911
-47.202907562256 -81.123809814453 -155.954223632813 2.503124713898
29.879392623901 -83.858970642090 -150.130416870117 3.938709497452
-40.133510589600 -80.851425170898 -159.694152832031 0.541131377220
30.463264465332 -80.927108764648 -168.287445068359 4.373406887054
-60.585700988770 -84.028160095215 -165.808319091797 4.496335506439
-8.971715927124 -87.406494140625 -179.260314941406 6.813734054565
-33.456542968750 -72.489562988281 -172.176971435547 2.203385353088
-15.445615768433 -79.614669799805 -172.476028442383 2.193745613098
-52.262264251709 -78.807357788086 -173.969528198242 2.642941951752
25.221206665039 -80.330299377441 -170.269882202148 2.323547601700
-16.792655944824 -83.925498962402 -181.509017944336 1.320788145065
-22.318460464478 -89.520355224609 -185.148818969727 5.503428459167
-60.894496917725 -82.870040893555 -181.016296386719 5.040287971497
-23.988721847534 -81.227027893066 -180.991607666016 1.863956093788
18.504930496216 -81.358032226563 -185.239608764648 3.202497243881
-152.030975341797 -75.973587036133 -173.682022094727 5.341198921204
-27.214702606201 -79.759925842285 -186.175949096680 2.099817037582
-51.484409332275 -81.052627563477 -189.960830688477 2.983039140701
-149.635925292969 -85.378623962402 -184.966888427734 4.620319366455
-144.010437011719 -84.887130737305 -194.585449218750 3.109401464462
-14.390433311462 -82.818367004395 -192.552871704102 5.489887237549
-15.134482383728 -86.694419860840 -202.390625000000 6.734344482422
-54.286785125732 -84.904479980469 -191.830535888672 6.698363304138
-20.942943572998 -78.776977539063 -198.080810546875 1.034435272217
-53.789527893066 -84.478485107422 -203.782119750977 1.884499430656
-45.281688690186 -89.013183593750 -201.710205078125 4.361010551453
-55.773937225342 -90.536026000977 -196.467575073242 7.643358230591
-16.637207031250 -83.001617431641 -207.061691284180 5.009926795959
-150.462112426758 -85.773094177246 -198.591476440430 3.257093667984
-54.201042175293 -83.750526428223 -197.325073242188 3.273683071136
-57.384468078613 -84.407836914063 -205.157684326172 2.289226531982
-30.369524002075 -83.304519653320 -197.414047241211 4.639572143555
-13.563937187195 -87.943000793457 -196.480010986328 9.369268417358
-37.948673248291 -84.736740112305 -204.000228881836 3.622877597809
-76.460540771484 -91.888290405273 -211.060943603516 10.204071998596
-144.060577392578 -87.632469177246 -206.797149658203 5.011914253235
-34.717407226563 -86.269744873047 -199.603652954102 4.833367347717
3.516135931015 -84.487159729004 -210.167633056641 8.088183403015
-56.952781677246 -84.224098205566 -209.823913574219 3.141496658325
-72.197273254395 -81.040542602539 -212.117492675781 1.505249381065
-26.495079040527 -79.822715759277 -219.070358276367 2.558833360672
-10.230321884155 -84.416954040527 -215.457565307617 4.381132125854
-25.135877609253 -87.532936096191 -221.021575927734 8.657301902771
12.021841049194 -84.344139099121 -213.213989257813 4.338745117188
-152.689727783203 -80.746147155762 -216.353485107422 3.152446746826
-10.140916824341 -82.130424499512 -213.544418334961 2.787721395493
-149.421188354492 -85.413787841797 -223.939498901367 2.024439334869
4.305148124695 -93.050674438477 -234.674453735352 12.873424530029
14.456507682800 -90.806373596191 -221.367156982422 9.815075874329
-4.875164031982 -88.210372924805 -225.795684814453 8.151905059814
15.459506034851 -84.349395751953 -226.331588745117 3.749911069870
-139.997192382813 -87.267555236816 -221.726562500000 6.877542972565
7.940732955933 -90.798667907715 -222.085632324219 10.176291465759
-154.668838500977 -80.695014953613 -226.956970214844 1.328029036522
-151.768035888672 -88.016029357910 -226.223037719727 4.264957427979
-3.199805021286 -83.425392150879 -222.105133056641 3.317365646362
14.475897789001 -85.336334228516 -237.077438354492 2.646191358566
-34.571121215820 -91.515228271484 -241.224060058594 11.189293861389
-145.572906494141 -82.519432067871 -229.890518188477 0.672925770283
-44.302658081055 -84.395103454590 -236.054458618164 7.189476490021
-48.545196533203 -88.811004638672 -241.674758911133 9.246987342834
-29.645273208618 -89.669486999512 -244.914291381836 10.232191085815
11.533714294434 -87.587036132813 -246.398696899414 4.675257682800
-47.772296905518 -89.890235900879 -240.992584228516 10.266935348511
18.284919738770 -91.002632141113 -242.352996826172 8.901638984680
10.074289321899 -82.640480041504 -233.813827514648 2.025021076202
7.416975021362 -90.765754699707 -243.436004638672 9.588491439819
-45.328285217285 -84.936019897461 -246.997451782227 5.592764854431
15.871036529541 -90.414855957031 -246.081069946289 7.113422393799
-141.526153564453 -89.258728027344 -241.729278564453 7.064516544342
21.049554824829 -89.214729309082 -248.981796264648 7.250517368317
1.913985013962 -91.798149108887 -242.775329589844 12.330837249756
5.834884166718 -87.637229919434 -253.218215942383 3.273203372955
-153.010360717773 -85.523574829102 -251.654907226563 3.894396781921
-152.757217407227 -84.955108642578 -252.371749877930 3.049644947052
-147.035125732422 -92.691543579102 -256.350585937500 8.160007476807
-158.197158813477 -83.436965942383 -252.107925415039 6.492480278015
11.300342559814 -90.550483703613 -269.676757812500 6.493867397308
-157.954620361328 -82.326469421387 -269.243194580078 6.934184551239
-9.888996124268 -89.753692626953 -279.019317626953 11.249746322632
-158.425613403320 -78.933303833008 -265.009338378906 5.310339927673
-147.558944702148 -87.176132202148 -265.199829101563 1.633121609688
-155.599884033203 -86.739486694336 -268.943176269531 5.753272533417
-157.020172119141 -84.956146240234 -277.074493408203 5.906967163086
-138.799774169922 -83.475570678711 -280.665496826172 6.365502357483
-153.710189819336 -92.253059387207 -283.564880371094 6.823726177216
-157.305709838867 -99.550941467285 -281.501098632813 15.138686180115
-155.047637939453 -89.380218505859 -291.749542236328 4.284517765045
-158.254302978516 -86.322715759277 -286.140686035156 4.572919845581
-151.816223144531 -80.908226013184 -286.952484130859 1.391120195389
-153.710845947266 -88.560981750488 -294.275054931641 4.166809082031
-152.905410766602 -87.901550292969 -293.817199707031 3.122750043869
-150.720092773438 -85.496612548828 -293.195709228516 1.271595597267
-46.449382781982 -75.090042114258 -51.572639465332 2.925135135651
-50.332950592041 -77.038597106934 -54.638858795166 1.981855511665
-40.366474151611 -74.920089721680 -61.404129028320 2.882371664047
-24.020669937134 -81.675971984863 -72.301872253418 4.309823989868
-51.142440795898 -75.586860656738 -84.258033752441 3.845788478851
-81.094871520996 -82.638442993164 -97.003074645996 3.223709583282
55.866996765137 -85.216232299805 -109.953475952148 9.572401046753
-75.587547302246 -79.485877990723 -98.066261291504 3.496044397354
42.722217559814 -79.049369812012 -111.866271972656 1.728803515434
41.842609405518 -81.136512756348 -124.907043457031 1.924886465073
38.787494659424 -78.364257812500 -121.970947265625 2.761913537979
40.119396209717 -78.036865234375 -138.366729736328 2.767904281616
34.215133666992 -79.028457641602 -140.749633789063 2.831090927124
37.881927490234 -81.498153686523 -132.449829101563 2.514252185822
31.703893661499 -80.773765563965 -150.414993286133 0.999065876007
-39.175945281982 -81.718223571777 -142.562332153320 7.902627944946
31.240221023560 -77.430618286133 -143.684478759766 1.852025628090
-58.121681213379 -80.754722595215 -149.571365356445 6.708844184875
-36.462562561035 -85.087379455566 -148.018753051758 9.030239105225
-55.142383575439 -83.501060485840 -163.802871704102 6.791215896606
-41.857219696045 -82.667190551758 -158.490814208984 3.075856447220
33.555835723877 -85.565177917480 -155.129028320313 6.965670108795
-34.259552001953 -86.581100463867 -163.324859619141 6.884526729584
-0.361254990101 -77.689231872559 -164.418533325195 1.180151939392
34.402313232422 -82.199386596680 -158.038955688477 5.019369602203
-13.896928787231 -85.159210205078 -163.953125000000 9.287071228027
-63.169776916504 -76.971809387207 -161.080459594727 1.687948346138
-37.781166076660 -83.843315124512 -164.686553955078 3.975817918777
-26.178461074829 -76.865890502930 -177.044067382813 2.058622360229
31.815624237061 -84.560913085938 -175.103057861328 8.395092964172
-55.069629669189 -83.737998962402 -176.608963012695 2.705773830414
-27.627832412720 -77.396652221680 -176.595489501953 1.323410868645
25.575325012207 -85.862945556641 -181.991546630859 7.552933216095
-52.406311035156 -81.688377380371 -182.513305664063 1.586981177330
-24.154745101929 -79.838989257813 -188.912338256836 1.349366307259
-54.366413116455 -80.342254638672 -176.342376708984 1.251752972603
-35.502288818359 -86.314727783203 -197.360687255859 2.805605411530
-29.552900314331 -89.530059814453 -188.145431518555 4.486644744873
-37.880371093750 -85.260185241699 -190.249343872070 2.853225708008
-24.988546371460 -80.727439880371 -192.992797851563 2.657185792923
-133.004028320313 -79.721366882324 -194.176544189453 4.274889945984
16.847160339355 -84.263069152832 -204.735549926758 5.099056243896
-139.885787963867 -75.273422241211 -190.323455810547 4.823144435883
-25.825994491577 -81.477333068848 -200.120681762695 4.949193000793
-16.668651580811 -77.731445312500 -197.221054077148 1.283174037933
-40.326999664307 -77.572311401367 -190.320693969727 2.528126716614
13.679691314697 -85.812973022461 -189.707794189453 8.171220779419
-17.531152725220 -83.670364379883 -200.033554077148 4.299221515656
-61.100627899170 -81.618202209473 -207.395736694336 2.193612813950
-38.523586273193 -78.597068786621 -199.327301025391 0.809767961502
-63.926315307617 -81.240417480469 -203.749862670898 1.581403374672
-71.724891662598 -82.280899047852 -203.737625122070 4.383367538452
22.448318481445 -85.486900329590 -215.949478149414 8.835729598999
-88.391998291016 -87.172843933105 -206.308303833008 11.678575515747
-30.301183700562 -86.138076782227 -218.404876708984 7.867107868195
-85.141319274902 -86.434303283691 -208.161514282227 8.657987594604
-148.284088134766 -84.661346435547 -212.043106079102 2.232938051224
-10.512013435364 -84.529708862305 -211.057998657227 5.229404449463
-11.705341339111 -81.425964355469 -222.100479125977 4.163944721222
15.289113998413 -83.955917358398 -208.515716552734 4.073924541473
13.141594886780 -89.509651184082 -222.003906250000 8.558408737183
-5.813769817352 -84.628265380859 -231.875747680664 6.328770160675
-132.778686523438 -84.420097351074 -217.833953857422 9.698139190674
-146.872268676758 -85.138404846191 -219.589706420898 1.811823487282
-148.346710205078 -74.670448303223 -225.711135864258 2.746322393417
9.771372795105 -87.229469299316 -230.552749633789 5.733183383942
0.472683012486 -85.786010742188 -235.032608032227 6.642177104950
-28.269889831543 -81.628288269043 -228.831649780273 9.739935874939
-149.427642822266 -85.052230834961 -225.419647216797 1.310504078865
6.687841892242 -82.506141662598 -245.416595458984 3.602931261063
-28.414937973022 -87.114601135254 -244.392913818359 7.585652828217
17.440340042114 -82.381820678711 -234.663681030273 3.118468046188
-58.528400421143 -86.961891174316 -243.425170898438 8.876216888428
-53.748001098633 -79.863128662109 -245.944732666016 0.735129177570
-146.013488769531 -83.596153259277 -236.623840332031 1.806053042412
-62.795543670654 -86.473121643066 -243.379653930664 8.971970558167
-7.555024147034 -78.835456848145 -254.191070556641 1.634365081787
-11.836533546448 -88.579513549805 -252.525238037109 9.126036643982
-151.588180541992 -85.495925903320 -250.170944213867 2.386063575745
-136.860046386719 -83.850067138672 -251.570556640625 5.232315540314
-138.016326904297 -83.399375915527 -255.122970581055 1.924157857895
14.369208335876 -81.535659790039 -262.687988281250 1.820544958115
-148.553558349609 -91.090324401855 -263.753173828125 5.785596370697
15.715080261230 -94.841468811035 -269.329467773438 11.346880912781
-152.431228637695 -81.321525573730 -258.430969238281 2.159243822098
3.539005041122 -98.667915344238 -275.284851074219 14.798006057739
-152.245315551758 -84.132759094238 -275.526184082031 1.856122493744
-2.454391956329 -84.566390991211 -284.444335937500 7.365794658661
-161.628051757813 -91.210578918457 -275.371398925781 12.793354988098
-144.277740478516 -86.235466003418 -286.163452148438 1.169236898422
-139.384307861328 -87.199798583984 -273.683410644531 7.997809410095
-153.653961181641 -89.260780334473 -284.626892089844 3.801460504532
-20.888906478882 -90.388641357422 -288.684936523438 12.323730468750
-158.442413330078 -84.876983642578 -283.790313720703 5.644545555115
-154.083358764648 -88.322898864746 -284.573455810547 3.308136701584
-154.233886718750 -83.220726013184 -302.987518310547 3.854252338409
-48.444976806641 -71.551139831543 -57.575824737549 4.654750347137
-31.487737655640 -77.401145935059 -61.004985809326 3.070729732513
-59.644950866699 -76.524948120117 -55.169807434082 0.868932127953
-24.179580688477 -73.942787170410 -70.369041442871 3.214038848877
-24.600465774536 -81.533401489258 -72.437751770020 3.840050220490
-82.065818786621 -72.897644042969 -83.880218505859 7.448908329010
91.293075561523 -72.774887084961 -86.230285644531 3.931767463684
-32.279445648193 -72.729942321777 -78.725265502930 1.999923467636
87.298027038574 -81.801246643066 -83.752357482910 4.727860927582
81.302032470703 -76.414642333984 -91.632957458496 1.465189337730
92.808082580566 -70.937438964844 -98.778999328613 2.851546049118
87.919662475586 -74.164199829102 -95.136543273926 2.683839082718
100.202827453613 -76.382690429688 -95.145385742188 4.501698493958
-80.192687988281 -70.034652709961 -90.774215698242 9.274801254272
60.465583801270 -74.150054931641 -108.149131774902 7.279061794281
-89.917358398438 -73.687873840332 -114.096443176270 2.513089418411
38.264522552490 -79.072113037109 -113.774887084961 1.869989633560
56.346946716309 -79.023330688477 -114.718940734863 7.715910434723
41.502658843994 -79.183784484863 -119.890876770020 2.112343072891
34.664299011230 -80.327293395996 -130.063201904297 2.113425493240
29.419055938721 -83.316780090332 -143.112670898438 2.676576614380
33.793487548828 -80.421218872070 -145.768951416016 1.608569860458
34.943214416504 -78.935691833496 -153.945632934570 2.738251686096
-48.147861480713 -81.549552917480 -148.671875000000 3.406774282455
-42.268001556396 -82.358596801758 -150.024139404297 3.336887121201
-38.527683258057 -84.060813903809 -152.549621582031 5.549106121063
29.983049392700 -85.491424560547 -147.786972045898 4.833154678345
23.616041183472 -79.544128417969 -171.548309326172 0.784155547619
-36.246330261230 -80.783546447754 -156.524703979492 2.912032842636
-31.179731369019 -77.704811096191 -152.267227172852 6.673974037170
-46.957485198975 -75.089942932129 -150.340545654297 3.186098575592
1.402269005775 -81.957801818848 -168.534332275391 4.536229610443
30.050174713135 -79.659294128418 -160.451217651367 1.971453428268
32.193939208984 -71.420623779297 -159.559768676758 2.083038091660
28.339782714844 -82.246055603027 -168.984771728516 4.140791893005
-5.751357078552 -79.541366577148 -167.521087646484 1.995486378670
0.279192000628 -81.450454711914 -170.104064941406 3.892575979233
-51.889572143555 -77.296226501465 -174.196838378906 2.315527200699
-59.718994140625 -80.659538269043 -162.811004638672 3.098681926727
-34.867454528809 -83.061843872070 -175.479568481445 3.177308559418
-35.193714141846 -77.912620544434 -163.920089721680 1.951414465904
24.244098663330 -81.862518310547 -172.986862182617 2.788305521011
-21.639276504517 -85.485641479492 -177.859848022461 3.190299272537
-36.754329681396 -89.170814514160 -179.554458618164 10.194773674011
-59.505828857422 -85.514137268066 -176.074005126953 5.320288658142
105.132057189941 -85.639511108398 -181.812454223633 8.142815589905
20.874816894531 -79.943450927734 -169.920211791992 2.288821220398
-22.208440780640 -78.930625915527 -176.197448730469 2.702035427094
-49.043746948242 -77.852165222168 -177.483428955078 2.443121433258
-12.631496429443 -77.430290222168 -176.449264526367 1.687711954117
108.206871032715 -84.846366882324 -184.574050903320 7.676605224609
-45.158618927002 -81.043113708496 -182.462265014648 4.070499420166
16.341463088989 -83.075004577637 -184.499237060547 4.881702423096
27.225698471069 -81.072120666504 -183.403137207031 4.694343566895
-51.479053497314 -81.261337280273 -179.648376464844 1.500956058502
-22.570091247559 -77.800354003906 -180.983886718750 0.546435296535
-55.830177307129 -85.202850341797 -171.362991333008 5.359626770020
-26.980291366577 -71.396087646484 -179.180679321289 2.049124002457
-24.300020217896 -82.146080017090 -181.283233642578 2.837328910828
22.068325042725 -86.988128662109 -186.747497558594 8.269554138184
-48.147041320801 -84.612426757813 -184.734863281250 3.532075405121
104.051033020020 -84.887779235840 -194.345169067383 7.558672904968
-49.076866149902 -75.901939392090 -188.558837890625 1.504891514778
15.852036476135 -86.885932922363 -201.105804443359 8.240763664246
13.930118560791 -82.253684997559 -202.998825073242 3.070407390594
-43.051368713379 -83.076591491699 -185.791854858398 4.818895816803
-15.888865470886 -79.069961547852 -188.891693115234 3.288764238358
103.627624511719 -86.622634887695 -201.887145996094 9.888790130615
107.398368835449 -87.941398620605 -200.760009765625 12.415712356567
-44.973178863525 -73.851951599121 -188.715179443359 3.320677518845
-150.415130615234 -81.206054687500 -183.116806030273 4.208094120026
-52.953960418701 -77.549545288086 -197.692291259766 3.543047904968
-146.064697265625 -78.151985168457 -192.859893798828 2.515962839127
-134.206207275391 -78.439384460449 -194.938308715820 2.747226715088
-41.408069610596 -76.883049011230 -195.346359252930 1.822401523590
12.701802253723 -84.195549011230 -207.932510375977 4.143563747406
-18.562606811523 -80.565368652344 -197.314208984375 1.229139924049
15.631119728088 -88.617988586426 -206.592544555664 9.061323165894
86.322334289551 -89.325653076172 -214.921295166016 12.526296615601
-39.877510070801 -79.051017761230 -195.090347290039 1.522462010384
-12.755124092102 -84.963272094727 -202.281661987305 5.670981884003
-9.913895606995 -84.769279479980 -208.562591552734 5.382311344147
-38.200031280518 -82.165512084961 -208.481430053711 2.984943389893
6.813434123993 -91.513282775879 -207.983718872070 12.710661888123
-75.557464599609 -80.867225646973 -207.538467407227 1.948474526405
12.001215934753 -87.634674072266 -215.133026123047 7.088626861572
-38.183856964111 -81.141479492188 -211.008331298828 3.351212978363
-141.462142944336 -79.641319274902 -197.063446044922 1.581795573235
-145.715698242188 -82.973007202148 -205.673385620117 0.603560030460
-85.366851806641 -81.999259948730 -208.456176757813 5.959318161011
-32.920986175537 -82.532943725586 -207.111404418945 1.692946076393
-24.701253890991 -82.504943847656 -214.116333007813 3.394711732864
-27.861288070679 -84.995201110840 -210.930252075195 5.130765438080
-90.665695190430 -85.409988403320 -215.918807983398 8.107453346252
-85.027458190918 -81.732208251953 -208.319107055664 5.850768566132
10.224979400635 -82.670288085938 -218.361404418945 2.441966295242
-146.121871948242 -78.987915039063 -210.331176757813 1.726126909256
-12.486677169800 -81.166053771973 -209.966171264648 1.523117542267
7.083642005920 -88.955039978027 -218.083892822266 9.217365264893
-139.940704345703 -83.180946350098 -208.916412353516 4.975064277649
-22.740900039673 -86.804061889648 -221.988998413086 8.145586013794
-4.677206993103 -82.827255249023 -223.366485595703 2.711580038071
-0.969663977623 -84.200309753418 -217.133377075195 6.015174865723
-152.824325561523 -79.785224914551 -214.446258544922 4.010624408722
-133.600402832031 -77.387382507324 -218.503631591797 8.426993370056
-4.931538105011 -82.698646545410 -229.763931274414 4.450890064240
-149.579421997070 -85.913421630859 -219.923385620117 2.383866548538
-2.354121923447 -83.500984191895 -229.875656127930 4.400598526001
16.992752075195 -78.266059875488 -232.855285644531 0.896580815315
-6.779695034027 -79.868461608887 -238.345687866211 6.425909996033
0.554482996464 -85.403503417969 -230.584197998047 6.294927120209
7.932441234589 -92.796203613281 -235.414672851563 11.200386047363
-151.217742919922 -82.684333801270 -224.748382568359 0.516768157482
-18.391529083252 -83.981407165527 -236.328643798828 6.888268947601
-30.541868209839 -92.213806152344 -239.449218750000 12.311453819275
7.850650787354 -79.131904602051 -229.372863769531 1.676132321358
-1.612712025642 -80.714782714844 -238.386123657227 3.211988210678
4.471107006073 -85.841239929199 -235.006332397461 6.810667514801
-54.224407196045 -84.254463195801 -235.232666015625 10.119326591492
-155.688354492188 -79.519134521484 -238.439025878906 5.688503265381
-154.808029174805 -81.236976623535 -241.913436889648 5.333319664001
10.713392257690 -87.562622070313 -248.887329101563 5.525016784668
18.633438110352 -87.940948486328 -247.142120361328 5.013669967651
-60.271575927734 -83.469726562500 -245.295806884766 5.157508850098
-151.220184326172 -77.877052307129 -247.289947509766 0.937522530556
-155.681854248047 -88.976478576660 -247.539199829102 7.589869022369
-150.360122680664 -82.515800476074 -248.511535644531 1.010419726372
-149.247085571289 -88.398178100586 -248.297775268555 3.680647373199
-138.612411499023 -85.419143676758 -250.176284790039 7.180637836456
-15.707249641418 -84.259819030762 -257.095306396484 7.241403579712
-150.168975830078 -81.230133056641 -260.820526123047 2.252609252930
-14.654373168945 -90.008544921875 -257.003021240234 10.679383277893
-157.311386108398 -84.642845153809 -267.118927001953 6.775222301483
-158.408111572266 -87.665924072266 -275.322326660156 8.390580177307
-158.709136962891 -89.785514831543 -273.103759765625 10.248390197754
-11.309167861938 -82.356513977051 -291.002655029297 4.910255908966
-150.569900512695 -83.320899963379 -277.422485351563 1.251924157143
-41.456161499023 -86.003562927246 -276.872833251953 13.464974403381
-35.902584075928 -80.520195007324 -289.015655517578 3.433474779129
-27.139200210571 -86.112876892090 -282.415771484375 10.345462799072
-14.032966613770 -87.933204650879 -291.391845703125 10.481146812439
12.598231315613 -87.308998107910 -293.571502685547 9.233829498291
-129.865036010742 -83.890899658203 -281.144744873047 9.432920455933
-60.448585510254 -90.081375122070 -282.151641845703 14.490798950195
-44.567913055420 -85.078231811523 -292.910705566406 9.307971954346
-41.250415802002 -87.823707580566 -288.405487060547 10.532641410828
-14.343413352966 -88.061027526855 -287.408325195313 10.824258804321
3.518059968948 -85.373504638672 -286.809783935547 7.399701595306
-142.555465698242 -87.022750854492 -284.507202148438 3.269956350327
2.126106977463 -90.713943481445 -294.751831054688 13.897061347961
-162.234832763672 -89.651237487793 -298.258300781250 11.578152656555
-153.635452270508 -84.026275634766 -293.140411376953 1.506644368172
-156.719375610352 -83.672683715820 -304.005676269531 6.314062595367
-152.907073974609 -85.487297058105 -304.131347656250 3.869704723358
-45.360271453857 -70.593147277832 -48.123619079590 1.388500213623
-42.131893157959 -72.276222229004 -54.694602966309 2.917202949524
-63.301895141602 -71.470954895020 -51.368549346924 1.678805232048
-37.088897705078 -73.193099975586 -55.317733764648 1.618516206741
-33.991004943848 -67.146827697754 -57.353885650635 6.196910381317
-16.640426635742 -68.160194396973 -57.272739410400 1.550191760063
-74.288406372070 -73.240653991699 -61.771514892578 3.812234878540
88.684616088867 -74.654487609863 -85.631774902344 2.876103639603
-85.056549072266 -74.653640747070 -78.257659912109 4.233935356140
92.535499572754 -80.221519470215 -84.937660217285 3.834442615509
93.736763000488 -77.731727600098 -87.083625793457 1.739185333252
101.380493164063 -76.043594360352 -87.481086730957 4.210915565491
-54.174678802490 -80.161056518555 -89.300735473633 3.267038345337
92.893989562988 -81.519042968750 -96.952133178711 5.755514144897
87.470932006836 -74.832122802734 -97.084785461426 1.927382469177
101.436470031738 -80.479888916016 -97.291030883789 7.413601398468
-54.050628662109 -77.837837219238 -94.296173095703 2.060104131699
62.900367736816 -75.231315612793 -100.148971557617 5.590729713440
51.476604461670 -77.859512329102 -106.480262756348 1.148709893227
42.664127349854 -78.038192749023 -110.530540466309 1.820744276047
42.441902160645 -76.578567504883 -111.827270507813 1.673896908760
-88.358375549316 -73.180702209473 -109.920616149902 3.658213138580
39.229431152344 -80.506492614746 -120.051231384277 1.142003655434
-77.736213684082 -74.946189880371 -109.501190185547 5.488200187683
45.500453948975 -78.623802185059 -130.030288696289 4.638895988464
36.193614959717 -77.878242492676 -123.035537719727 1.257485747337
36.474380493164 -82.488136291504 -125.536430358887 1.456923604012
46.550830841064 -75.467758178711 -125.030479431152 3.782624483109
44.772327423096 -83.123161315918 -128.755340576172 5.996413707733
-53.081108093262 -68.969261169434 -139.925354003906 2.604582786560
40.910224914551 -81.707412719727 -134.505355834961 4.360556125641
40.192878723145 -79.923538208008 -142.241104125977 4.781334400177
-43.326969146729 -71.450454711914 -137.676773071289 2.945450067520
-45.343914031982 -81.896827697754 -138.354309082031 6.548771381378
37.658561706543 -79.473999023438 -145.075759887695 3.049093246460
111.108520507813 -78.378486633301 -146.792266845703 2.177762985229
112.515106201172 -79.376197814941 -150.303512573242 4.133321285248
30.986696243286 -82.506851196289 -145.857208251953 2.966515064240
-39.581912994385 -76.812004089355 -143.979583740234 4.715054512024
115.559829711914 -85.974983215332 -166.365066528320 9.574687957764
-41.186019897461 -77.296737670898 -154.797256469727 0.967307269573
-59.312751770020 -81.300476074219 -159.478012084961 4.753403663635
113.369995117188 -82.390472412109 -168.175827026367 5.332050323486
28.315382003784 -83.442031860352 -170.306976318359 4.963615417480
1.464578032494 -80.138748168945 -166.299041748047 3.149191141129
115.200531005859 -83.889625549316 -157.177780151367 7.313337326050
-59.282047271729 -80.972595214844 -156.467529296875 6.240889549255
-32.587409973145 -85.445030212402 -159.872482299805 7.093152523041
111.823722839355 -80.435668945313 -170.132583618164 3.655556678772
27.340213775635 -74.397567749023 -159.945709228516 3.538810968399
-65.379722595215 -79.312705993652 -166.960205078125 1.230728387833
108.068740844727 -78.887344360352 -178.853363037109 3.069070816040
-62.392375946045 -81.178703308105 -166.238189697266 1.515270948410
-51.764644622803 -83.156013488770 -175.287857055664 4.327104568481
106.572952270508 -82.129791259766 -185.235382080078 5.431733131409
-62.404911041260 -79.024948120117 -165.735229492188 0.756152689457
115.289230346680 -81.153434753418 -178.809921264648 6.727582454681
-56.245925903320 -82.592041015625 -168.480590820313 3.836872577667
-12.079003334045 -79.703094482422 -174.432174682617 2.237016677856
-8.059950828552 -80.948944091797 -178.565399169922 2.698042392731
106.968338012695 -82.864082336426 -175.406448364258 6.062721729279
24.246313095093 -79.666366577148 -167.588943481445 1.594863057137
31.469974517822 -82.691787719727 -168.513793945313 5.977495670319
-53.018268585205 -84.044235229492 -175.044067382813 4.153877258301
18.335420608521 -80.669784545898 -187.101684570313 2.249944448471
-55.279151916504 -82.072662353516 -178.040939331055 1.444017052650
-51.588787078857 -76.406517028809 -191.209625244141 1.347363352776
13.601079940796 -81.877540588379 -179.901138305664 6.276113986969
-61.324970245361 -77.113014221191 -182.912902832031 3.396477937698
112.491935729980 -78.434059143066 -191.264099121094 5.888817787170
21.636394500732 -82.389083862305 -180.274185180664 3.558308839798
-30.995790481567 -82.156768798828 -185.559249877930 1.838292479515
-45.285560607910 -76.612892150879 -193.509994506836 1.903867006302
10.784956932068 -80.396827697754 -197.555618286133 3.019149303436
-27.372167587280 -81.319290161133 -184.272338867188 1.380020141602
-53.504642486572 -80.860618591309 -193.933609008789 4.406510353088
100.012474060059 -86.690383911133 -193.132019042969 9.311762809753
14.085053443909 -78.325012207031 -191.297897338867 1.646286725998
-134.995361328125 -79.943916320801 -186.786544799805 9.209977149963
-41.433765411377 -78.046272277832 -188.310424804688 4.188085556030
104.504089355469 -86.374427795410 -200.479171752930 9.812594413757
-148.642166137695 -78.259727478027 -193.374114990234 2.020874500275
18.361965179443 -81.136833190918 -193.523330688477 4.006265640259
-46.700736999512 -91.148178100586 -200.709671020508 5.838449478149
-33.728214263916 -82.871162414551 -202.568435668945 2.771901845932
-41.119689941406 -76.867683410645 -202.767730712891 1.462741136551
-41.951145172119 -81.334648132324 -188.660888671875 4.816415309906
102.627769470215 -87.345939636230 -204.828094482422 11.182036399841
-17.615873336792 -80.170600891113 -200.539627075195 2.564551830292
-151.690841674805 -73.828887939453 -191.781173706055 3.359051465988
10.866022109985 -80.280273437500 -209.991622924805 2.084704637527
-70.615036010742 -82.787277221680 -197.734680175781 9.316327095032
-143.464828491211 -77.833137512207 -203.484329223633 1.466752052307
97.024627685547 -82.249534606934 -213.827636718750 6.761903285980
-35.636699676514 -81.879714965820 -204.243011474609 2.140833854675
-25.229276657104 -80.986106872559 -215.711746215820 1.485272645950
5.369202136993 -84.054046630859 -210.693588256836 6.685669898987
-72.562294006348 -79.456871032715 -208.306304931641 0.652391970158
-26.477890014648 -80.296745300293 -206.347183227539 3.861421108246
-9.704752922058 -87.466857910156 -217.372985839844 7.649668693542
-82.020912170410 -85.131835937500 -213.207748413086 5.498608589172
-13.924298286438 -87.136787414551 -218.561767578125 8.333420753479
9.284278869629 -82.091270446777 -216.355468750000 2.634946107864
16.678451538086 -92.239555358887 -222.125549316406 11.532903671265
-146.208343505859 -80.131164550781 -210.353775024414 2.181018352509
-3.871792078018 -79.280685424805 -216.281143188477 1.546021103859
-91.657035827637 -77.271072387695 -218.060516357422 1.879975080490
-23.803899765015 -77.204269409180 -216.954025268555 0.951135456562
94.453445434570 -85.717277526855 -216.849487304688 9.778764724731
5.303367137909 -86.177932739258 -229.420394897461 6.584299087524
13.868129730225 -88.414176940918 -214.917434692383 7.911339759827
77.422851562500 -76.020462036133 -226.345291137695 1.874910354614
2.237068891525 -82.051010131836 -226.112228393555 3.640987634659
84.485809326172 -82.012779235840 -226.603210449219 6.422285079956
-17.048385620117 -81.581130981445 -222.576370239258 4.184386253357
11.337436676025 -85.988510131836 -224.460159301758 4.858070850372
-151.215606689453 -82.368186950684 -217.431060791016 1.271993875504
-19.445714950562 -92.762687683105 -225.980926513672 14.881079673767
0.222071006894 -88.772644042969 -226.258911132813 9.066992759705
-151.575256347656 -83.439704895020 -220.237350463867 3.140363693237
-134.175704956055 -81.633834838867 -219.041259765625 8.031795501709
10.629412651062 -81.740318298340 -228.325225830078 1.824923276901
-8.465874671936 -83.428451538086 -242.489654541016 8.530282974243
-139.952774047852 -81.879859924316 -224.244567871094 2.646756887436
-150.922225952148 -85.711547851563 -226.450607299805 1.965481758118
-146.163284301758 -78.015296936035 -231.495941162109 2.006800651550
-25.141853332520 -83.971923828125 -232.070938110352 8.689428329468
-145.871536254883 -79.719070434570 -237.898941040039 2.734142065048
16.633775711060 -83.323570251465 -240.037399291992 0.730228781700
5.475749969482 -85.638336181641 -244.866058349609 6.312047004700
-154.879791259766 -77.639770507813 -228.460159301758 1.196682810783
-155.074844360352 -80.850402832031 -234.107635498047 3.357157707214
-46.823249816895 -83.530364990234 -236.572280883789 6.941157817841
-35.902446746826 -88.571601867676 -242.998336791992 8.481405258179
4.221642017365 -87.352302551270 -250.399139404297 4.539279460907
-36.441505432129 -81.309341430664 -245.821380615234 2.727597951889
21.919319152832 -87.961212158203 -253.245117187500 8.892355918884
-3.721544027328 -85.528373718262 -243.733535766602 7.821805953979
-157.792297363281 -79.344123840332 -244.215530395508 6.016250133514
-6.869358062744 -75.526359558105 -246.622650146484 2.528899431229
-141.898406982422 -84.567008972168 -244.750244140625 4.614161014557
-68.375457763672 -84.543952941895 -247.291503906250 7.372809410095
-157.703063964844 -89.249183654785 -248.581451416016 9.213437080383
-129.339324951172 -87.191467285156 -256.207702636719 7.368891716003
-153.103958129883 -78.273361206055 -251.443237304688 2.472898483276
-15.109157562256 -83.487007141113 -266.812072753906 5.995442390442
-147.942825317383 -85.124931335449 -255.881774902344 1.768426179886
-151.808898925781 -82.886772155762 -254.760772705078 1.396553754807
-14.368249893188 -88.200798034668 -266.424285888672 9.302800178528
-152.177032470703 -84.197387695313 -258.170928955078 1.640546560287
-9.775913238525 -90.783416748047 -283.818908691406 13.882308959961
-47.482879638672 -88.335357666016 -276.114166259766 15.922021865845
-143.981567382813 -86.898078918457 -276.246276855469 3.571586608887
-137.153961181641 -80.236518859863 -272.303588867188 8.894943237305
-129.455932617188 -83.635559082031 -275.452972412109 13.261581420898
-59.364288330078 -83.849655151367 -274.292449951172 14.668513298035
-118.220077514648 -84.751358032227 -284.217773437500 9.586282730103
10.592989921570 -95.291938781738 -289.642517089844 17.450378417969
-67.549987792969 -85.217445373535 -281.881530761719 10.584457397461
-145.414703369141 -80.795227050781 -278.290313720703 1.189614653587
