# This PCD file was generated using the MATLAB® pcwrite function
# from Computer Vision Toolbox®.
# .PCD v.7 - Point Cloud Data file format
VERSION .7
FIELDS x y z
SIZE 4 4 4
TYPE F F F
COUNT 1 1 1
WIDTH 1413
HEIGHT 1
VIEWPOINT 0 0 0 1 0 0 0
POINTS 1413
DATA ascii
-153.564758 -88.910728 -189.841766
99.846916 -78.932236 -208.576157
-30.520000 -75.593880 -194.417984
99.865028 -69.735558 -201.242447
-125.402718 -78.431221 -184.994583
-28.700129 -78.027016 -189.612122
-139.603195 -78.858444 -195.795792
92.397820 -71.777504 -204.075638
11.160376 -73.329742 -202.346695
26.374113 -77.246597 -197.903641
-147.542664 -80.640030 -191.033691
-135.340637 -75.155899 -200.548325
-14.314163 -76.938919 -206.089462
-123.435539 -85.516167 -197.764191
-145.518021 -80.874588 -193.273956
9.005315 -72.350471 -199.567963
-24.116060 -74.504684 -203.637436
19.803722 -73.457230 -209.182541
7.548292 -74.867172 -210.436066
87.001587 -72.930984 -218.438721
-24.770048 -67.394135 -210.141388
95.731911 -71.593040 -216.574402
103.696533 -72.878113 -212.870758
-141.564880 -72.770744 -212.055283
95.781670 -68.161690 -215.779358
7.724554 -69.717308 -209.763916
5.419176 -72.917900 -209.805359
-32.641163 -73.345078 -208.350632
-91.044823 -71.625046 -209.154175
-33.184963 -75.409470 -212.574249
85.512032 -74.060806 -221.258972
84.235680 -74.716011 -221.857620
-37.708996 -69.696327 -213.665741
-76.753571 -67.616852 -221.203049
-2.085740 -72.861977 -215.468887
89.781807 -73.856636 -223.708893
-145.560699 -81.281441 -213.241470
-168.677063 -80.797516 -202.482819
-156.869080 -77.168221 -211.143173
-18.622166 -78.256844 -227.946732
-151.015869 -82.258369 -215.746216
-6.461263 -81.567726 -228.371216
7.056627 -72.168304 -218.176071
-159.967407 -84.498047 -212.292328
-163.414093 -76.845253 -216.803513
77.793640 -71.921951 -234.433151
5.903830 -75.844635 -230.534851
-147.722168 -80.226997 -214.038391
-141.962250 -78.955826 -212.855789
-20.719700 -77.697243 -225.003876
4.557511 -74.765640 -223.222351
84.923088 -72.604782 -226.827499
-157.531845 -80.347290 -221.638596
-145.466019 -75.557068 -220.389160
-125.417923 -73.495743 -223.681259
82.590263 -77.126335 -236.301514
-115.014420 -72.106117 -226.400284
-144.575562 -80.975807 -221.597504
-153.104980 -83.598976 -220.868668
-146.105530 -77.561394 -218.745651
-150.866013 -73.397209 -222.199463
-166.699982 -73.553123 -228.942291
-136.899750 -77.129776 -229.144867
-135.871048 -75.837067 -226.184113
-155.007065 -77.689255 -220.018387
-145.048813 -76.399918 -223.478165
-151.569656 -73.348518 -225.018478
72.042465 -71.671959 -222.353378
67.863899 -68.347542 -243.136063
-161.358521 -75.868454 -231.185059
69.131775 -73.495583 -237.890762
-21.025002 -73.374916 -235.026230
8.836367 -74.134277 -240.523117
18.014303 -78.586548 -236.082199
-140.917892 -76.495140 -235.598434
16.306019 -73.416847 -244.975189
66.538551 -74.438736 -240.906830
9.814754 -72.839951 -236.045273
4.457328 -77.803001 -245.388901
-8.322619 -68.425888 -239.634995
-18.414656 -79.469749 -247.059357
1.218644 -78.789749 -242.245392
2.729263 -71.484840 -241.461960
56.338257 -75.219925 -243.861618
-59.731216 -77.095688 -242.955597
17.931263 -74.943611 -251.804398
-57.953579 -73.483192 -242.736465
-7.700276 -73.490486 -249.929932
-64.781410 -72.399986 -250.757172
-84.519096 -83.223373 -246.990936
-81.435806 -81.221802 -248.600845
-18.430452 -73.210411 -250.989288
-125.269875 -82.209053 -255.868591
-16.598726 -68.849976 -255.463989
-124.487297 -76.044502 -249.000336
-119.818230 -72.019760 -252.332855
-104.803345 -81.886566 -251.653748
-142.959305 -75.451988 -251.718872
-147.733932 -74.676697 -259.108185
-168.207138 -73.680206 -256.279633
11.159252 -75.758492 -282.906158
-63.882702 -79.091331 -280.018494
-67.604576 -76.798042 -280.023895
-47.545284 -77.269989 -282.209930
-28.244938 -76.506042 -280.631592
-94.355530 -75.935196 -291.093231
-33.362843 -72.274986 -287.168671
-3.516900 -67.221260 -285.024780
-166.779434 -79.551094 -281.456329
-19.028975 -76.655479 -290.298309
4.756075 -68.052467 -290.921326
12.147191 -66.036339 -292.803131
-57.866295 -76.775352 -289.772583
-30.242914 -79.389946 -284.372314
13.382480 -70.281006 -290.374451
-70.345436 -77.267822 -291.328125
-40.750648 -73.982262 -288.411072
-19.111998 -72.900490 -291.145508
5.769618 -72.932091 -292.650452
-17.140522 -77.959023 -287.973450
4.118445 -71.148560 -293.286957
8.813245 -74.045685 -292.937714
-136.221405 -80.510719 -282.607971
-142.858398 -78.437927 -295.036957
-153.729248 -81.911148 -302.134766
49.819965 -65.192230 -14.017509
42.186092 -74.984367 -10.016798
52.186897 -75.222687 -17.080154
32.268784 -75.753098 -23.204798
52.709255 -75.083862 -29.311018
31.672754 -72.000008 -20.336958
34.793140 -80.410782 -32.289188
32.859707 -78.439369 -38.003738
52.675388 -70.918983 -37.071156
37.289810 -74.002892 -40.910881
49.972210 -75.412498 -33.773918
44.598080 -70.770134 -39.551029
39.994968 -75.504196 -43.282566
42.945877 -72.253220 -44.051785
54.452091 -74.451698 -47.593208
43.618073 -69.006989 -47.795601
-28.736616 -71.001808 -55.907303
-19.072613 -71.156403 -41.748028
-79.533173 -76.326515 -51.334045
-77.312683 -80.082741 -59.422920
90.289314 -73.364494 -70.297478
90.426491 -73.958618 -75.220413
-5.692225 -79.106224 -75.967613
-75.269615 -79.200989 -67.304611
-15.358105 -75.297989 -79.283081
-41.345795 -82.489700 -88.847694
70.446953 -74.179222 -88.767136
63.518917 -69.136681 -94.160156
103.884201 -74.207550 -92.335922
83.575294 -76.730789 -99.582649
-55.223576 -80.890694 -88.716553
-56.972813 -73.882484 -92.643204
51.795612 -74.414169 -99.216217
77.987190 -80.888504 -104.443283
57.195385 -78.558205 -103.674026
109.618607 -77.588806 -102.956429
-80.381096 -78.445465 -102.695404
47.201397 -81.942581 -112.055885
114.460732 -69.909737 -114.444252
52.519653 -69.895477 -112.999298
110.642944 -69.379128 -112.598625
-76.357758 -74.958549 -111.278465
42.103794 -71.557632 -120.224609
118.382820 -75.299500 -125.903854
107.264778 -72.817177 -122.782539
113.606339 -76.938583 -120.970490
116.565308 -78.907265 -122.083611
38.374783 -76.247307 -117.242760
40.238293 -79.922478 -120.171669
50.913521 -73.605644 -114.356201
115.926704 -73.158257 -130.533386
47.513039 -72.000175 -126.034813
117.285538 -75.206146 -138.826141
121.101563 -70.213638 -134.388519
38.523293 -73.131935 -121.633232
-70.803314 -80.914284 -120.633171
122.926163 -78.323013 -142.623932
-55.222759 -84.022667 -140.080093
38.764442 -76.585281 -138.453003
-68.709038 -76.639069 -136.137924
34.993710 -72.136337 -136.748444
-66.125870 -79.562126 -138.505600
-37.532314 -79.052185 -147.901321
-67.265724 -82.286774 -131.369019
114.883011 -65.494194 -143.906174
123.398483 -73.942841 -146.432129
130.496674 -71.773781 -153.657104
-66.575989 -79.594398 -141.647873
13.196575 -73.923813 -150.644485
-54.298580 -73.465088 -151.404602
-41.044956 -79.956802 -150.537964
113.332169 -69.634811 -165.490799
-33.755791 -79.599915 -149.822647
14.144813 -71.906128 -162.735748
27.027922 -72.400696 -161.483994
116.806366 -73.240707 -170.170609
37.338013 -68.241890 -160.914032
1.556684 -80.497925 -158.364120
35.310261 -72.689384 -165.602173
-64.904510 -68.619682 -154.241150
-56.900574 -73.994637 -155.438980
-61.950153 -74.240471 -158.484772
115.676865 -71.028427 -167.719131
-42.408745 -72.197029 -161.474960
20.285172 -80.402107 -173.443069
-58.796371 -79.885048 -172.341476
-55.873047 -79.533409 -171.835815
-39.807522 -78.714981 -161.035049
-34.338627 -66.922997 -164.321976
116.659698 -66.079071 -181.440872
-30.615530 -76.829033 -171.936356
20.179911 -73.284668 -170.262512
108.279869 -78.169914 -198.080063
-149.848145 -81.298317 -169.146408
-138.529770 -79.381607 -166.486816
-148.334946 -76.466248 -169.485916
-140.994034 -72.946449 -173.145523
-22.828329 -72.621872 -178.529739
-22.426853 -74.141525 -182.785339
25.598326 -69.198616 -192.346100
-138.165710 -77.577042 -179.744736
-140.307144 -75.390038 -175.044693
-20.328331 -65.376884 -185.452026
17.922272 -79.111214 -183.138733
-136.009079 -78.586563 -185.361389
-33.224056 -80.236893 -178.676193
104.712624 -76.400658 -195.149414
109.243958 -69.014381 -200.961212
22.907627 -73.870323 -189.594543
-18.279581 -81.099594 -189.335846
-22.312449 -79.312653 -197.876022
-143.600708 -73.306297 -189.406708
-132.484451 -75.480637 -191.931610
-119.914925 -75.777092 -187.741989
-121.692413 -80.741867 -190.968445
-14.311264 -73.927116 -193.525269
14.712006 -77.247879 -193.680588
95.890503 -66.645790 -204.493286
-143.264145 -78.612846 -187.507080
-144.207932 -73.820328 -195.663269
-143.462296 -70.305321 -190.581192
-153.504410 -72.088882 -193.078461
-27.667542 -73.395943 -199.513428
-10.864637 -81.162079 -192.593704
-140.906906 -69.028862 -187.024399
-17.236872 -78.573174 -193.849274
-160.923340 -79.312080 -191.089890
-128.122818 -77.167900 -192.047318
11.952323 -70.041321 -210.683182
-159.624878 -76.145752 -193.966110
-140.825928 -79.733498 -194.294327
13.355914 -76.589493 -201.753540
-154.133682 -81.621956 -198.835358
-21.095884 -76.333534 -200.355057
104.912323 -72.011543 -205.275604
-151.295517 -77.352684 -206.062210
-160.845108 -78.673409 -205.586044
-78.370918 -73.179176 -210.109360
94.878601 -71.608757 -214.604370
-2.394135 -74.397911 -211.852036
-152.160553 -77.654411 -201.985870
-88.476044 -69.176071 -211.274521
-3.797184 -74.101715 -208.391937
16.302023 -70.119720 -222.662216
-141.826065 -78.764183 -210.809143
-1.564506 -76.406723 -219.097549
-13.056913 -67.873901 -218.588501
-19.254665 -69.986832 -217.423904
88.067673 -73.478157 -219.226746
-20.984724 -68.998444 -212.737122
-27.373905 -74.891228 -217.144608
-101.213142 -75.824791 -215.135071
-14.057289 -73.380066 -225.309845
90.484268 -70.665092 -223.332306
82.470192 -70.511230 -222.529617
8.515147 -78.859749 -225.800766
-12.289904 -72.760185 -225.782913
80.383926 -81.127289 -226.287003
-128.044388 -76.409279 -215.456833
-22.671831 -77.115479 -219.991516
-102.074631 -73.430664 -220.185577
-106.756630 -79.231224 -223.724014
-133.198257 -74.519157 -220.818909
78.625465 -73.218956 -227.521179
-126.482384 -79.193672 -221.672852
0.908578 -72.863472 -230.667267
73.362099 -72.348625 -227.127548
-14.527741 -75.673813 -230.144302
-7.758326 -75.772301 -229.594818
-5.317857 -71.555862 -232.874664
7.863564 -74.821686 -231.004120
82.967560 -72.229660 -229.837570
16.683994 -74.424866 -233.127319
2.854899 -75.097816 -232.490036
-3.812142 -76.570335 -224.336151
-5.430777 -71.289795 -233.661484
15.960900 -71.359657 -233.150482
-8.601177 -70.544678 -235.018509
74.592316 -71.131386 -239.611481
-8.255574 -71.087799 -232.900345
23.364820 -73.417747 -228.733215
-160.650894 -72.354645 -234.980331
-5.395652 -73.432503 -242.880554
-10.442854 -73.289925 -240.306168
-167.654129 -75.104561 -250.704315
-9.563579 -75.056610 -243.011826
19.292410 -76.546371 -243.684311
-147.947891 -80.133537 -243.778000
-67.051826 -74.925575 -244.998749
-57.798157 -72.284569 -246.132080
53.893887 -70.415581 -250.570007
-77.131660 -75.685829 -241.689682
13.703517 -73.159111 -245.193634
-78.083641 -76.497910 -246.461746
-19.869728 -74.476326 -245.764236
-150.739441 -78.202614 -247.531693
47.491119 -69.632019 -251.216324
-84.503265 -71.058975 -243.332169
-95.364616 -76.316559 -251.010406
-95.722130 -82.981987 -247.217560
-125.456978 -76.714775 -253.514343
-110.226112 -72.539093 -251.381729
-108.579094 -72.613350 -254.476471
15.529323 -72.206390 -259.059540
-130.597778 -71.874893 -259.842255
-9.818972 -76.883965 -276.709015
-148.586731 -80.260948 -274.866211
-171.241852 -75.332115 -273.462067
-130.879333 -76.511971 -281.491669
-118.257462 -78.198006 -272.808044
-82.812866 -69.829605 -283.613464
-58.790699 -67.922050 -287.354950
-47.370617 -72.547607 -283.897675
-15.484265 -71.552567 -289.225128
-12.804864 -71.314171 -286.824615
-37.109566 -74.751152 -287.973389
-37.194145 -72.528214 -285.320709
-23.483042 -69.217125 -292.091034
-76.521347 -77.323318 -288.824707
-57.143562 -70.076881 -292.494080
-15.583817 -67.480072 -290.336090
-17.815418 -73.045334 -290.315155
-7.774678 -71.852585 -291.700317
0.688157 -67.114197 -296.396729
-89.404083 -73.275131 -279.385376
-149.889236 -73.483879 -279.325531
-120.347855 -76.239388 -290.531036
-156.728897 -80.318779 -295.275726
-158.335129 -77.395042 -290.656555
-146.465210 -75.374512 -296.552948
56.901215 -77.441673 -29.183752
28.716393 -75.012444 -25.674997
61.491669 -76.772614 -28.608191
60.054329 -78.852585 -35.704872
94.998596 -67.409363 -71.839096
106.293343 -69.988754 -81.292770
104.241661 -71.472809 -85.683029
102.717323 -70.017029 -94.556404
56.324780 -73.750031 -90.111000
58.279919 -73.482414 -94.564552
67.648247 -70.646606 -96.139091
-57.484592 -71.812668 -89.419029
80.442818 -74.146126 -94.674171
110.341339 -71.002480 -96.758507
80.768036 -76.837822 -103.703011
100.664940 -68.117126 -100.436607
-73.995750 -78.091537 -97.453064
53.204502 -73.824081 -107.257881
-81.864861 -80.453194 -105.492798
56.811211 -74.648735 -116.473953
49.353729 -68.420876 -108.874809
108.678741 -75.333107 -111.896675
47.325657 -69.994202 -110.837868
48.063622 -76.967667 -117.414337
46.840393 -69.936005 -119.105438
108.882446 -65.869957 -123.614883
-74.544067 -75.071861 -115.301773
120.005692 -74.552635 -127.002075
45.618626 -66.869278 -118.671402
50.657352 -74.943108 -118.302917
38.521915 -75.012398 -121.512337
-49.226677 -74.333084 -128.869659
35.248341 -71.906052 -123.372490
-72.736839 -77.608139 -132.668686
-55.506245 -74.519623 -131.345261
-69.974998 -73.518036 -126.540741
40.042416 -72.899536 -128.216568
-49.929199 -73.312897 -128.936096
45.547539 -73.416626 -134.128204
-71.580299 -76.526146 -134.458389
-51.711395 -78.364288 -138.180191
34.149124 -72.282639 -139.901779
116.983147 -75.772514 -152.523087
124.691917 -72.050400 -144.556870
39.118458 -72.362244 -142.361893
-43.228058 -72.348557 -142.250320
113.165237 -70.940483 -165.059341
-68.373657 -75.071350 -145.653885
-42.798065 -77.224388 -135.341797
40.030674 -78.197533 -154.108383
-63.349819 -77.286774 -139.276947
-64.725876 -77.997078 -141.151031
121.767792 -66.222244 -152.812210
-58.099289 -72.938812 -143.986572
-36.156258 -72.843407 -147.812668
36.091000 -67.315842 -155.114822
-70.814056 -74.809418 -144.286469
11.755333 -76.050049 -161.364441
38.760502 -68.929214 -158.171127
29.614468 -74.476433 -152.868164
9.994687 -78.149872 -155.480515
-43.149105 -72.033333 -150.757431
28.894140 -73.278397 -152.485672
-43.150837 -77.526611 -147.181808
11.060412 -76.223625 -149.762405
25.350628 -74.830727 -148.836884
-67.861557 -80.159760 -148.753845
-40.235413 -75.429176 -152.804672
-67.521843 -71.949692 -158.530090
14.001744 -65.199074 -166.401428
23.033152 -74.531197 -145.810394
5.030936 -71.017418 -162.936600
26.728691 -68.350624 -155.639435
32.402573 -73.619247 -162.965088
-41.871262 -77.267036 -160.187973
-28.123272 -73.849518 -158.403229
-32.241535 -72.856796 -159.068695
35.030193 -74.687561 -165.479416
-42.296497 -74.519455 -162.589493
-39.567791 -75.539688 -160.023102
24.651386 -76.421593 -162.538239
-39.137371 -73.912460 -170.071457
36.754471 -69.141098 -175.759933
122.025391 -67.922798 -168.540268
-28.738407 -73.297050 -171.781097
108.805794 -67.499756 -174.575668
-29.971090 -69.773308 -175.956238
-35.757706 -75.136948 -177.112686
21.050611 -75.148056 -175.436325
105.508057 -67.435532 -182.767487
-25.767647 -73.178993 -180.560928
-26.934614 -66.584930 -172.077484
-18.947903 -77.158669 -185.337936
-142.258423 -82.414696 -179.814224
15.553787 -76.400108 -182.413132
108.886902 -68.886322 -199.881348
-156.765610 -76.514420 -185.422211
-22.901941 -74.301613 -188.373047
-112.390839 -72.546478 -187.935822
-127.603195 -76.632492 -190.384216
-104.742935 -72.726875 -196.856384
-107.690063 -70.108559 -193.237839
-14.405801 -68.965820 -198.838028
20.791424 -74.895470 -198.744858
-21.062256 -64.208122 -198.731262
-123.806183 -72.641182 -195.247314
-25.553905 -71.369392 -205.660721
-126.751411 -80.541298 -196.085861
-8.772640 -68.002716 -199.700424
-142.053925 -76.155930 -195.018814
91.575165 -70.102684 -214.478790
-162.944290 -76.616447 -195.234940
2.203232 -74.239120 -213.100647
15.441319 -64.424545 -213.029755
9.652273 -66.911270 -216.258881
84.290260 -70.230354 -222.502686
3.696349 -67.292641 -217.165268
17.018415 -72.991615 -213.772171
-12.166861 -78.946442 -209.783859
-86.525162 -75.182442 -208.657364
-101.306793 -77.186356 -212.216843
-1.759113 -71.715584 -220.469925
-169.001831 -76.753571 -223.618011
12.546438 -69.164154 -218.592438
-141.075089 -77.817795 -215.112198
12.913394 -68.391457 -226.235199
-133.282959 -76.709381 -213.174332
-114.581200 -73.944260 -222.881058
21.376032 -64.862862 -226.043442
74.217331 -69.721817 -234.234650
3.284688 -69.232910 -225.988510
-114.672523 -78.023376 -212.248276
73.854202 -69.564766 -229.639801
78.916588 -72.892303 -235.490723
-121.101433 -76.010033 -223.132355
-120.859856 -78.132416 -226.063843
-10.586941 -71.955475 -230.474884
69.384834 -74.262230 -231.232864
67.952972 -68.171394 -239.221802
71.981964 -69.177574 -237.421249
-133.367050 -78.942665 -231.591675
68.630013 -77.314201 -236.689224
64.366150 -75.354721 -238.103058
-166.796722 -80.006386 -217.794479
-1.063586 -74.604385 -242.085403
14.369360 -70.591377 -246.800705
-2.770125 -75.568115 -243.120819
14.700317 -76.752251 -245.221451
70.125031 -72.663521 -244.094055
10.012425 -77.593079 -239.572617
-7.156165 -69.502861 -244.165436
-6.377122 -74.623329 -246.796341
66.233658 -69.747498 -248.888184
6.143527 -75.512466 -246.847397
-10.346207 -72.698479 -237.933548
14.999729 -75.009048 -247.926239
-164.904938 -69.803680 -231.928268
61.159004 -68.794067 -253.230927
52.082268 -70.415100 -255.107422
57.036785 -75.851051 -243.913834
-15.614665 -71.476860 -252.604172
52.937038 -75.389267 -247.356003
-74.556137 -77.107307 -244.650803
51.061577 -73.376938 -254.058487
-88.890160 -77.303230 -250.989670
-129.270493 -78.515633 -246.555771
-135.981110 -69.240685 -243.851440
52.210453 -68.835678 -260.770111
-139.283798 -71.673096 -249.639069
-104.906181 -84.189606 -245.350494
-111.890862 -74.086990 -252.120392
-85.509697 -75.299339 -245.203857
-113.835785 -77.036903 -257.740417
-126.595627 -70.698029 -260.054443
-145.393723 -75.626587 -257.834869
-12.473464 -74.888863 -258.865936
-175.196808 -74.727089 -258.662567
-9.515379 -76.868378 -270.238403
-158.971375 -69.094795 -256.314026
-156.714249 -71.054611 -262.761200
-171.030411 -68.167931 -263.247284
-14.345974 -69.037231 -275.607178
-135.552994 -75.120506 -275.709839
-159.002350 -70.907913 -280.302704
-144.521790 -74.337982 -274.067719
-138.946655 -77.541962 -276.873352
-11.480666 -73.308784 -279.226105
-125.611771 -80.030434 -275.416290
-144.121155 -75.857376 -278.067657
-115.699097 -72.062897 -278.708923
-81.403587 -70.390724 -286.601715
-63.728142 -74.281235 -278.251160
-7.777087 -73.223511 -287.646545
-51.485706 -75.148140 -287.400024
-65.578148 -76.256226 -283.164703
-72.369316 -71.108429 -287.279510
-90.041328 -75.061050 -292.465088
-109.296501 -67.312820 -281.745117
-161.167892 -75.244484 -281.668793
-156.271255 -73.349930 -279.178528
-129.966171 -77.313049 -290.538177
-147.602783 -74.518593 -284.299896
-160.938919 -72.474449 -289.613983
-150.876114 -75.282639 -310.104980
57.519642 -72.156471 -23.661049
31.129097 -84.193542 -26.418943
57.253590 -75.067169 -40.595001
-10.517594 -76.492371 -64.318649
89.207817 -71.297058 -70.916428
93.896759 -64.888214 -77.473679
84.674866 -70.482300 -78.662743
87.616280 -72.011665 -71.835304
106.995338 -72.835907 -79.205772
-87.999588 -79.677284 -69.072937
76.910446 -75.141197 -82.493469
-26.568115 -71.552826 -74.654404
106.696991 -72.910645 -92.218018
74.396576 -80.291374 -92.092331
119.252815 -70.193527 -95.266785
114.026505 -75.644623 -103.827438
79.760185 -75.502159 -99.996681
-71.047989 -76.619255 -94.775543
63.331280 -74.402969 -113.628151
115.796364 -73.297234 -111.677094
55.800362 -79.641304 -118.220016
93.895027 -73.121780 -105.774567
50.954922 -79.581474 -113.869377
113.620506 -69.014862 -104.383362
55.751389 -71.513550 -110.021950
119.409958 -75.269608 -119.072044
113.868530 -70.979912 -122.311218
-72.184990 -65.327332 -109.468742
-67.866447 -74.529602 -110.141899
48.884830 -72.526222 -119.592064
123.240837 -65.503670 -123.115669
122.793625 -67.761955 -127.414513
-73.104225 -74.958977 -121.543327
115.087982 -70.026031 -126.949013
-61.714787 -74.938896 -132.413651
-83.157822 -71.632950 -122.540840
-68.048271 -72.934174 -125.154358
-50.881432 -67.905418 -121.047592
43.029804 -71.620773 -132.508438
49.359459 -70.696701 -136.769943
-68.695740 -76.343605 -130.421173
34.400677 -69.575401 -130.804535
109.940674 -74.117416 -139.695068
-32.507545 -74.665878 -147.474701
30.756233 -71.791687 -146.250977
114.346252 -62.999210 -152.186157
40.975586 -74.989487 -146.166519
116.384293 -73.026176 -149.811508
-50.486408 -74.536980 -144.072388
-61.365028 -78.012390 -145.986267
-49.167210 -77.883972 -151.492203
-42.252125 -72.241455 -167.153214
5.010196 -70.489136 -152.646835
114.192917 -64.310478 -160.160782
111.406067 -68.237068 -167.662766
13.775291 -65.996788 -160.740677
4.339221 -71.199043 -159.383682
19.064655 -68.004112 -160.880417
24.580948 -71.043327 -148.168213
120.711098 -75.428772 -171.471283
110.056641 -72.669502 -179.683823
30.964539 -70.901161 -175.179443
31.499222 -70.508667 -166.304871
120.051392 -70.231934 -168.373611
-28.503220 -70.921967 -171.639038
116.886360 -67.916763 -177.431198
24.518778 -65.700012 -181.051071
18.831165 -75.755661 -165.797333
111.539749 -68.614784 -184.679855
26.769547 -72.408905 -170.903046
113.035461 -65.693367 -186.608337
-37.575188 -70.534233 -175.009079
31.018787 -67.782501 -172.690384
111.212486 -69.077461 -192.090927
27.715122 -68.805237 -177.086838
-150.109528 -70.578918 -170.760651
-30.521360 -73.564781 -186.221649
28.015793 -74.044464 -187.291931
-110.599434 -74.249977 -189.449707
-110.952362 -76.557343 -183.480591
23.683352 -67.082573 -194.387955
14.891809 -73.130547 -187.463867
-23.700838 -76.204720 -190.935959
-24.833591 -73.223244 -184.588806
-21.953989 -75.038490 -184.204300
25.211393 -76.003670 -179.425003
-151.049805 -74.478645 -184.591507
-144.703735 -77.657135 -193.659439
-138.921051 -74.475136 -184.279541
-14.993238 -67.811028 -190.657730
18.552517 -71.242905 -199.463852
100.927734 -71.640694 -201.819031
-114.329544 -73.597649 -198.035522
17.773615 -68.610031 -203.508972
-13.618655 -70.517998 -193.944641
-16.380445 -71.031479 -193.539719
97.535667 -69.221558 -207.075668
10.042616 -74.718369 -198.516327
-25.649422 -71.749428 -192.448654
-119.292984 -76.221001 -196.246460
-132.312775 -72.607155 -191.149124
-106.908455 -70.943466 -202.593964
-144.906479 -75.106812 -196.210129
23.830397 -73.452728 -198.335663
97.334160 -73.270119 -213.483017
-164.829697 -74.092781 -197.384491
103.531868 -70.188660 -208.583679
-13.821051 -71.616997 -210.452087
91.782852 -77.762741 -219.461334
92.599632 -66.414383 -223.911499
11.519011 -69.810715 -212.138123
15.701922 -71.996101 -211.051468
10.657914 -71.983032 -213.906998
-7.752744 -70.172844 -217.635315
-98.271286 -72.640022 -213.699097
-5.937101 -74.282700 -220.810654
92.973198 -68.366714 -218.660843
-91.016861 -76.890823 -216.955338
-100.588371 -76.964333 -215.706100
-94.912651 -71.144356 -214.066055
90.476669 -74.694008 -226.681290
-133.644348 -78.266441 -220.074814
-132.236465 -64.630173 -225.684052
-119.983528 -73.241516 -221.596756
-112.171883 -71.247223 -219.140976
-130.735901 -70.706017 -212.410004
-105.337952 -82.412888 -221.735916
-113.872299 -69.243889 -222.284241
-12.509120 -68.395439 -222.829239
-20.613426 -75.268250 -225.865372
-0.725133 -72.108749 -233.164124
-7.896390 -69.282532 -229.163803
16.286335 -73.689949 -232.403778
-18.381260 -73.645546 -225.739395
-158.733551 -76.005569 -214.720840
-1.912412 -70.398552 -229.484955
83.199425 -71.001961 -232.952286
7.380484 -69.334007 -237.586548
-10.380814 -70.638588 -226.095261
-154.233261 -69.205116 -223.228088
-137.210358 -76.803551 -226.246445
70.541214 -64.883095 -240.264801
-7.818375 -70.401306 -232.449600
0.613110 -69.692802 -235.495926
73.901695 -69.397095 -243.795792
77.426262 -70.892448 -240.967712
65.872749 -74.431694 -238.724579
-3.349638 -67.714928 -235.011444
53.865623 -70.427513 -240.673462
-15.183539 -70.694397 -237.440125
-15.438682 -69.150726 -238.684235
9.146217 -71.765884 -238.952347
65.708794 -69.384720 -250.489227
58.754658 -70.842216 -242.117310
53.193565 -65.320099 -249.738541
61.644203 -73.448799 -247.979355
-17.821859 -67.538185 -244.374878
-84.739265 -69.426552 -242.037613
-78.516258 -67.148659 -249.305466
40.303425 -69.670380 -253.071472
-143.273758 -69.297623 -240.384521
40.001835 -70.697395 -261.498657
-84.452652 -73.450867 -247.382904
-154.348877 -75.266479 -248.012375
-145.239319 -72.568428 -247.954102
47.489220 -71.880112 -254.016556
-128.591019 -71.902534 -243.891754
-119.026993 -73.224541 -249.840118
-97.022568 -72.464478 -247.567474
-18.783613 -78.515877 -253.382309
30.935215 -70.953522 -261.674896
19.310097 -75.235893 -262.717834
-156.145081 -73.278618 -246.252716
-114.241592 -72.770721 -257.910614
-12.835734 -72.854271 -257.403595
-136.199432 -72.068245 -258.373932
-13.984794 -68.743584 -272.170837
-163.594559 -73.630058 -271.220642
-11.975972 -65.676994 -274.192352
-166.316986 -71.049187 -282.045868
-158.898712 -73.394081 -268.507172
-154.633560 -71.371864 -277.023590
-172.184586 -72.816559 -273.854279
17.829025 -64.172768 -289.035034
-107.889023 -77.864502 -280.532227
-91.530434 -70.025795 -280.247650
-173.448105 -73.067719 -274.431915
-91.606720 -74.396744 -285.197510
-160.595047 -79.390457 -280.838715
-79.107414 -74.334274 -288.446503
-69.834076 -72.012192 -286.570160
-84.776276 -70.212669 -285.730133
-5.582185 -65.016022 -286.875397
-87.593292 -73.471031 -287.715729
-99.878677 -73.069328 -285.776245
-121.656487 -71.433899 -286.815887
-119.483345 -70.197037 -289.331696
-143.116333 -67.484032 -284.611664
-144.740387 -81.334969 -292.001129
-149.242279 -79.102333 -302.740112
37.707012 -73.386337 -19.456013
40.601944 -69.298988 -26.686775
41.983810 -77.152672 -18.620073
58.239529 -74.581787 -30.287659
31.322641 -75.793472 -32.967880
-71.138527 -73.515068 -47.121651
92.983597 -70.914024 -69.688934
-3.132085 -72.164452 -66.834442
110.355721 -73.682404 -77.436035
103.045731 -66.073486 -84.782997
82.298805 -77.639503 -87.120796
75.858559 -68.812355 -91.215981
-42.068573 -72.373894 -79.334061
66.830681 -71.713524 -84.030632
-92.425133 -75.077797 -83.784142
-40.449425 -74.326416 -86.460266
-48.742775 -77.669701 -80.642258
102.082077 -71.248672 -102.157913
63.016426 -72.267387 -105.886078
68.441559 -67.790337 -94.792564
-86.939026 -73.305527 -89.724129
116.517700 -66.162964 -99.517799
55.143410 -71.178261 -95.851082
108.708725 -67.802750 -102.546844
112.800011 -69.442749 -112.974220
106.669060 -68.551109 -108.929146
81.953659 -69.655281 -108.982323
91.741333 -69.540878 -112.585464
52.489521 -74.465195 -112.654816
113.658607 -67.076347 -113.937584
53.633358 -71.975319 -112.429199
53.926083 -68.369385 -104.064903
111.943291 -73.025543 -123.359688
-72.689072 -69.785263 -102.878151
53.951633 -68.525726 -117.344688
41.595242 -72.330544 -113.186264
113.813278 -71.507538 -113.620796
49.554485 -70.407753 -116.029869
-83.684486 -72.439209 -114.862144
-91.686859 -72.815529 -111.384148
114.926041 -66.496155 -129.055710
-85.204483 -78.453110 -110.924385
45.535728 -70.088860 -125.896294
42.918129 -70.839920 -119.010384
-71.915924 -75.264244 -118.653748
33.495121 -67.490303 -129.147614
114.408546 -69.150719 -140.354050
-41.979561 -73.495178 -136.829117
-83.774025 -75.307152 -126.856689
39.544819 -71.576065 -140.790802
-80.623009 -74.127136 -130.989151
-85.417465 -76.894157 -129.375931
-42.046165 -75.628334 -132.800522
-67.997780 -74.649300 -134.439468
-44.654228 -72.727173 -136.585556
119.145615 -66.551987 -144.291687
-70.286629 -67.609329 -136.857239
41.646748 -72.815506 -130.688156
-69.845947 -68.018120 -134.544739
-74.010994 -72.183136 -127.277740
-81.507286 -74.964897 -130.797562
-54.190845 -71.560875 -149.138458
35.597839 -68.460304 -153.600906
38.504677 -70.851601 -154.556900
25.235239 -69.412148 -146.280182
117.591080 -73.255859 -157.142212
-93.706772 -81.583519 -151.565720
22.386263 -71.487495 -145.919556
-63.931004 -76.541306 -141.832458
27.517956 -69.249786 -149.869110
-39.172085 -70.141899 -150.726395
10.873484 -67.203232 -147.908173
9.976458 -69.778435 -156.029968
20.129313 -69.624977 -162.384735
-42.998562 -73.769043 -162.894333
-37.165215 -65.181320 -150.160187
-43.489147 -70.709579 -152.952301
-96.376938 -71.880898 -163.948227
19.264015 -65.935356 -171.929077
-34.764072 -74.590179 -172.226303
14.722722 -61.223324 -178.612885
-143.347427 -79.823952 -162.536530
-32.585533 -66.126930 -173.770935
-148.312439 -70.049690 -167.818253
20.701033 -72.322754 -181.693085
-30.489906 -77.857201 -169.043762
-105.743561 -76.920776 -177.469940
-100.982468 -73.175728 -176.698166
-32.559895 -69.261848 -177.706268
-14.439069 -71.072762 -188.882660
15.475170 -71.637848 -189.822800
22.324575 -70.057793 -197.382736
20.373379 -63.201397 -188.885590
-136.168854 -73.793457 -176.662338
18.025814 -70.263222 -195.801315
11.991689 -71.293274 -198.651901
-138.690369 -70.477859 -188.877487
-116.897362 -74.786263 -193.876831
17.280046 -67.164818 -199.302292
-109.532112 -76.626793 -185.047592
-106.899345 -75.675873 -185.979538
-160.925476 -78.068924 -192.924408
-13.723105 -77.434486 -203.961838
17.277380 -65.189240 -203.308807
-135.825150 -69.409019 -190.477081
-133.135941 -75.081032 -201.509964
-18.238646 -68.937401 -205.545547
-11.011353 -67.553085 -203.703033
-13.262169 -73.011909 -210.067841
-145.119003 -77.502647 -200.398102
-19.918484 -73.802719 -199.800934
-11.265194 -67.271027 -207.998596
16.409344 -68.860390 -209.228760
-9.485376 -70.992661 -206.596237
11.828952 -65.207825 -213.004166
-6.097775 -73.897163 -216.862732
-13.353971 -74.457535 -209.918976
9.845659 -69.889610 -226.370163
-4.750429 -70.853485 -218.265457
13.342120 -68.216011 -222.347610
-3.857319 -73.319099 -222.785004
-158.689865 -74.857796 -211.583496
85.735947 -69.504242 -226.450638
-133.702316 -72.701622 -213.210938
-133.682556 -72.766418 -216.870987
-8.016751 -70.077789 -228.231720
13.671135 -72.728264 -235.623535
-149.027496 -71.578392 -212.266006
85.196762 -64.567909 -226.624237
-8.437090 -70.920204 -223.200439
4.054056 -72.065826 -227.683884
70.949883 -67.488113 -232.150101
5.293025 -72.613571 -232.505295
-18.164551 -66.915627 -229.795975
-120.035889 -77.363731 -230.725433
-5.871573 -70.222069 -237.921066
-1.464917 -71.950897 -232.497360
68.756943 -70.484367 -238.706848
-163.195969 -73.441696 -229.345779
-9.924430 -68.417175 -246.828751
-165.995453 -75.707153 -230.493378
7.594692 -71.242638 -245.376160
-167.268784 -73.538925 -228.622940
-155.338791 -69.433922 -233.490997
53.023682 -74.184784 -256.502045
62.602203 -66.088181 -247.268234
53.155712 -68.077950 -246.161804
48.587616 -73.444710 -250.879898
-161.370605 -72.775108 -237.054642
-151.909912 -74.203156 -241.695786
-16.628038 -69.753975 -245.508347
-155.293198 -71.623886 -238.920853
19.026764 -72.053635 -258.020355
-165.996078 -72.189445 -242.063736
-170.585510 -67.225975 -233.513840
-81.013443 -69.196388 -247.401718
-173.680069 -74.719749 -256.406494
-87.646645 -73.610153 -256.170319
34.627102 -62.783566 -250.500885
23.490988 -73.158783 -257.377411
-158.701202 -69.582878 -249.716446
-104.128883 -67.863586 -255.378952
37.833977 -67.697372 -260.673431
-102.416161 -72.031418 -252.866028
-152.287903 -70.659218 -249.090973
-107.937561 -68.608429 -251.274216
-163.368912 -73.437668 -249.035049
-114.851234 -73.408157 -255.472092
-156.758408 -74.317337 -260.447418
-158.851456 -75.896538 -254.152725
-168.719559 -77.525055 -255.788239
-160.848862 -73.645248 -256.658203
-167.642227 -69.208603 -259.129639
-166.064209 -66.757759 -257.897858
22.151712 -70.243477 -264.699432
-150.232559 -70.833611 -259.850983
-151.601273 -70.500648 -279.971252
15.200294 -76.901024 -280.946960
-9.852448 -68.473709 -275.346344
-128.959900 -76.577026 -277.825836
-140.296249 -79.898689 -281.600067
-141.029816 -73.672180 -278.480682
-132.804382 -67.942741 -277.187653
-118.975533 -71.306999 -282.445129
-111.096062 -74.765457 -280.971436
9.081253 -67.417938 -292.992401
-93.761810 -69.757820 -279.078217
-148.593430 -74.388023 -287.491852
-102.165031 -68.891533 -282.474915
-133.051987 -71.649719 -284.741760
9.376525 -76.051918 -288.951111
-118.871140 -75.558243 -288.118256
-1.490533 -70.028114 -287.956757
-145.365646 -75.466255 -280.644836
-160.481918 -75.806404 -294.004578
-169.568817 -73.940010 -298.046875
-156.628494 -73.677063 -302.147522
60.377781 -77.864044 -28.163277
30.319540 -73.235817 -32.329285
45.824635 -74.053627 -40.116383
-40.914795 -72.259834 -49.615013
-3.658466 -70.052826 -61.178982
102.600182 -76.411201 -81.106041
74.859703 -68.319817 -70.338394
-10.936037 -74.089729 -73.281952
-84.592476 -72.624054 -75.841202
-29.434212 -73.603844 -78.210617
71.611435 -72.190262 -83.369827
63.790871 -78.315842 -85.807579
65.243187 -73.414452 -90.016258
-47.563408 -76.613731 -80.935593
76.417267 -69.018448 -90.984215
52.423443 -76.581940 -98.317390
74.372314 -74.914467 -93.041817
-55.250004 -71.763641 -94.003639
62.285446 -65.716095 -100.053452
54.474117 -73.392006 -100.062950
111.257286 -74.412682 -99.544464
-62.855339 -81.451775 -95.463829
117.773827 -71.800034 -107.660431
-72.930016 -71.488670 -88.880943
63.218700 -72.548218 -110.663338
57.347626 -69.113708 -104.759773
103.422203 -69.502029 -103.355530
94.306885 -60.585003 -119.583191
63.868572 -75.070648 -107.128365
-61.878307 -75.097733 -100.824753
-73.984734 -74.990669 -104.649040
-78.846336 -77.131157 -115.632904
-88.222435 -84.024895 -110.202255
107.384933 -72.030670 -119.670403
-80.245972 -69.887253 -115.009445
-73.692024 -70.149902 -114.992416
117.339149 -67.024254 -122.457664
-56.906406 -67.152115 -113.629539
117.419647 -73.101044 -137.243332
112.878914 -68.845772 -136.137024
119.018700 -68.919800 -122.239861
-88.647629 -70.872543 -127.650955
-48.699539 -67.173965 -135.288025
-71.129227 -76.038330 -142.247391
-64.123421 -69.175652 -146.928284
-69.003410 -71.055115 -139.230270
-48.575691 -67.286781 -144.981567
-43.327099 -69.104027 -149.967590
24.627518 -73.381561 -145.750992
-90.682274 -66.728745 -151.419067
-38.298901 -76.246506 -145.399109
-50.815487 -70.955208 -149.634964
-40.927593 -66.196281 -153.331314
32.112839 -75.406685 -160.214584
-43.947060 -71.468315 -153.796906
-91.012489 -74.296707 -142.549881
-38.174862 -70.529625 -157.790405
28.830891 -67.231865 -159.837753
-96.419685 -73.977539 -158.727631
25.823534 -68.645721 -159.886566
-100.756111 -65.797401 -165.369797
-96.738495 -67.646751 -158.513687
25.701836 -63.023300 -170.655014
28.803185 -66.978638 -168.676682
-104.239700 -75.436226 -168.004181
-141.229294 -73.217026 -167.186462
-22.961262 -68.424767 -184.901260
-18.482786 -66.836342 -182.165451
-110.901009 -70.163040 -183.304794
-138.156815 -72.378929 -181.291611
-101.885460 -76.666603 -174.238144
-147.069092 -78.199043 -190.764160
-125.862068 -76.192360 -185.159134
-135.519531 -71.720276 -187.482025
-19.654409 -64.244011 -191.892120
-117.039612 -73.336563 -184.085785
-111.333855 -68.892944 -187.482407
-14.462652 -74.162720 -192.323059
-152.159058 -68.448807 -184.260330
-135.254532 -75.129799 -204.521240
-121.738991 -68.356857 -196.691422
15.716631 -66.369209 -205.887787
-159.236343 -73.825279 -196.668121
13.153607 -73.570518 -210.643372
15.335890 -76.625366 -214.765564
-17.175898 -69.687050 -207.628876
-4.777763 -70.722336 -212.003403
-165.599808 -74.318504 -204.527710
-158.081741 -70.187500 -209.404495
-102.834404 -72.820633 -211.946075
-99.865738 -69.367546 -221.718857
-156.796753 -69.631165 -210.108017
-106.420509 -71.509338 -216.252151
-16.936869 -72.387207 -217.053299
-123.794327 -70.986252 -222.864090
-144.838562 -75.600792 -214.900192
-8.429346 -73.758141 -228.084015
-131.371796 -69.185211 -218.939301
-125.813919 -65.560432 -219.885406
-110.029152 -74.061737 -225.551407
-1.029747 -69.251709 -230.500778
-108.382355 -68.631897 -220.277740
-156.740219 -79.367699 -212.242401
-145.546814 -78.465981 -217.026443
-164.140289 -73.703613 -218.951660
-6.651961 -68.074409 -228.187836
-9.857399 -57.753536 -229.122772
76.369362 -56.712719 -231.022842
3.178677 -65.710220 -234.441422
-143.677429 -70.408737 -225.090546
-12.147480 -71.991508 -229.540680
78.453232 -73.516724 -225.948105
67.935936 -68.156990 -234.958435
-128.526581 -71.795860 -223.034927
-160.732620 -72.003395 -217.720505
-110.255547 -66.993561 -224.754486
-118.420494 -70.683304 -226.616669
-170.087173 -67.378105 -223.659866
-158.421799 -69.996651 -229.949036
-133.507385 -70.354362 -234.110031
-9.932775 -76.134720 -231.585846
-3.244326 -67.316261 -244.108765
-160.621536 -69.456429 -233.527679
8.967162 -72.542953 -241.258255
9.095659 -67.122086 -240.567871
-165.008087 -71.471611 -233.163635
12.250278 -68.303864 -242.451721
50.637894 -66.486702 -251.124283
51.227863 -63.532955 -256.294678
-6.326163 -70.066460 -244.051849
50.010555 -65.117020 -248.026260
-163.505798 -72.806915 -247.182343
-166.177856 -69.320107 -239.813614
-164.378174 -74.912987 -236.807709
54.114372 -64.987846 -258.176117
-91.460762 -75.116997 -247.785034
-124.703651 -69.858597 -244.765198
-109.105370 -73.111710 -247.698364
30.639458 -68.172966 -257.632904
36.168335 -69.141777 -256.208466
-97.075554 -70.832237 -246.634186
-93.070282 -69.018761 -252.053345
43.760616 -65.399719 -259.124878
38.699718 -64.976379 -255.714157
-158.688904 -73.076210 -251.569260
32.420982 -63.940308 -254.603790
-139.608902 -73.380623 -258.324249
-119.727509 -66.876579 -251.881546
-132.940918 -67.524246 -259.051514
35.996868 -72.897255 -266.506531
-129.482315 -74.945068 -256.608002
-10.993461 -64.976997 -255.357086
18.683941 -70.585503 -276.804077
-16.352936 -67.203712 -267.069794
22.307539 -63.488827 -286.301392
-151.912659 -73.904968 -274.563202
-14.112764 -73.062347 -274.046722
-156.839462 -74.305847 -281.402710
-129.815125 -69.930275 -277.339905
-164.010818 -73.217537 -281.009460
-127.004768 -70.325233 -278.359802
-109.323059 -75.361130 -284.984192
-12.030667 -68.895348 -289.130646
-114.834343 -71.577202 -288.087189
-121.812172 -77.884544 -283.742706
-125.870224 -74.840431 -284.528412
-140.811356 -68.061409 -282.400238
-127.688560 -76.220871 -286.813446
-163.047455 -73.043358 -279.628815
-148.277878 -79.012131 -289.133789
-156.399384 -70.946236 -288.099274
-158.178574 -68.205780 -296.670166
-163.790283 -69.283287 -292.695404
-152.274063 -73.785301 -304.034241
-153.896179 -73.251160 -305.026031
45.261566 -71.031609 -20.217924
56.679955 -73.534294 -22.395657
42.880783 -67.338470 -34.437271
63.568161 -68.331673 -33.737743
43.468189 -67.965584 -40.100025
54.020309 -76.580704 -37.813663
-43.254402 -73.424545 -42.085152
95.210129 -68.946381 -63.142757
94.629463 -68.110733 -71.002357
-84.679398 -68.664742 -59.194607
-4.493481 -69.126076 -60.082317
-75.829247 -77.233040 -62.273540
106.779655 -66.473007 -74.449951
-6.939775 -68.093506 -65.737122
78.033669 -71.478065 -82.223473
-30.385067 -73.852287 -74.822174
-20.760941 -75.842033 -79.490608
63.880905 -64.780304 -90.263031
-38.774082 -82.310440 -86.451523
70.081642 -64.081772 -82.379379
62.036831 -67.655090 -87.282188
57.235733 -73.977257 -94.948334
74.590271 -67.289330 -96.363411
66.233704 -67.911163 -103.242874
112.098640 -62.983154 -100.673164
111.639084 -72.612740 -101.040535
65.867195 -74.182480 -101.229507
117.241653 -66.126472 -106.584389
-62.629051 -80.896805 -96.606033
-63.766781 -76.202240 -100.128654
113.843925 -73.685020 -102.413498
62.154678 -67.291435 -105.181099
79.329826 -71.721725 -106.415634
-59.351418 -62.413883 -95.631485
-71.736145 -69.238136 -102.348206
102.438011 -66.127266 -117.517242
50.926830 -69.717712 -105.214531
108.562675 -68.388786 -107.131798
50.593822 -67.210785 -112.420227
121.721764 -63.406872 -116.113945
-79.625244 -66.482452 -102.465378
111.401077 -62.068939 -116.727219
-79.749321 -67.891220 -109.935173
-52.050053 -73.261368 -119.883369
-54.187748 -70.197655 -126.222565
-66.530029 -74.538101 -126.879204
-43.371880 -72.835289 -128.635559
-81.687881 -72.023018 -129.214432
-72.488419 -76.317383 -130.768997
-80.634430 -72.599327 -123.710106
-47.647659 -75.076851 -134.322830
-66.436920 -70.245865 -135.261993
-54.444347 -71.526863 -131.042221
-58.404408 -73.806602 -133.700485
28.217979 -73.033020 -141.057083
-79.742538 -75.280182 -140.127960
-40.695618 -75.406876 -146.099655
-93.328583 -69.397896 -145.004486
-98.944229 -70.460663 -147.250320
22.535971 -76.008926 -155.134262
19.476835 -74.091637 -161.822769
-97.319168 -72.895523 -154.437698
-94.526825 -69.386795 -152.625549
-89.568069 -70.670021 -162.716385
20.819315 -65.495819 -171.908188
-111.192604 -76.517464 -159.572693
22.682606 -71.983902 -170.145599
-141.343201 -76.960205 -171.136902
20.073843 -69.151054 -177.139343
24.711796 -71.394661 -188.833801
-150.645340 -69.882935 -179.469696
21.197496 -73.501625 -181.722168
16.414299 -67.842827 -178.179977
-133.455307 -81.199982 -185.990845
-148.300034 -75.977715 -181.824692
18.268536 -68.096535 -190.723953
24.152729 -66.265144 -186.371246
-145.078629 -72.040779 -184.112534
-106.235970 -77.916367 -187.096497
24.708138 -67.620880 -197.352707
-124.451912 -67.996384 -183.803070
13.009423 -71.394554 -198.622696
-130.235916 -68.040306 -188.198975
-146.292679 -73.289963 -184.307190
-159.791077 -76.751686 -194.008591
-161.566010 -71.016502 -193.827637
-17.886196 -66.030060 -204.011459
-164.776184 -72.370979 -193.296555
-18.005257 -68.291451 -193.828735
-14.210787 -68.023582 -196.369492
13.756863 -69.007103 -196.235733
-156.489685 -69.219406 -187.398758
-109.120667 -69.416985 -196.149536
-14.846768 -73.472626 -208.004868
-153.102158 -75.041275 -190.672989
20.813942 -64.428001 -200.562347
-161.090973 -73.074760 -189.688705
-118.580780 -75.401833 -199.065933
-106.826225 -70.758957 -202.949677
-126.030365 -66.961708 -202.047867
-12.622375 -73.528214 -201.146790
-18.872404 -65.883812 -202.552521
-160.256088 -69.092010 -200.213959
-159.365891 -70.416664 -203.831268
-165.014374 -74.494019 -209.067642
-148.529587 -76.412590 -198.472000
-142.869247 -70.480568 -216.694153
-6.324862 -66.586349 -220.430435
-14.672553 -67.857224 -218.287903
-101.824211 -70.784065 -216.936371
-7.432311 -67.343163 -217.108215
-164.586914 -70.984169 -216.594284
-115.383430 -65.903732 -226.035721
-0.750621 -65.551132 -230.294693
6.068105 -66.492325 -229.947449
-112.987411 -69.337044 -227.507904
-4.003242 -61.584385 -231.794952
-115.599991 -69.692062 -231.679932
-4.242534 -64.375412 -241.967239
-4.561520 -71.593079 -231.609039
-2.450354 -65.214462 -242.596497
65.028633 -68.461624 -240.412415
-16.219713 -71.547386 -234.077911
4.588009 -66.092323 -236.843185
9.831279 -68.582451 -242.291611
8.054782 -74.538361 -240.151093
1.643359 -74.963623 -241.879913
66.497818 -70.852501 -243.408752
70.958954 -65.430862 -244.635223
15.645905 -70.300415 -241.695206
58.959404 -67.159340 -242.567337
57.032124 -71.469551 -241.901611
45.877815 -60.622421 -247.100128
34.208443 -68.964172 -253.865570
37.550293 -69.472717 -255.987808
-134.786011 -71.101784 -246.716187
-17.539440 -74.329254 -249.636551
24.974134 -70.074005 -259.278351
46.860981 -67.064392 -256.668732
22.810892 -61.056896 -256.511292
-101.678467 -68.893837 -256.755554
31.778862 -66.022949 -255.713333
-151.946350 -70.276520 -252.197021
-117.786674 -66.146011 -255.754852
-103.671547 -71.816704 -248.520279
-8.500190 -66.388481 -258.809082
-157.718170 -78.581863 -245.312103
29.110981 -64.451279 -258.452576
-113.111694 -73.922066 -247.413513
28.418274 -67.593056 -258.529999
-132.438660 -68.997078 -253.828049
-120.866890 -72.429749 -253.092316
-106.361885 -65.295174 -255.579590
-117.843842 -70.932472 -259.304657
-139.719635 -73.468201 -256.053680
25.750998 -64.924103 -266.258301
-120.258995 -66.478966 -260.022522
-145.386185 -71.949814 -263.629272
-7.001853 -70.975311 -273.495911
-157.113235 -69.607674 -269.464600
-14.015302 -70.323410 -282.188324
-5.186813 -73.065392 -287.776123
-138.123703 -74.649033 -280.953766
-123.409706 -65.482010 -283.808472
-142.506332 -65.288620 -283.036804
-131.896149 -71.698990 -287.953156
-152.044083 -72.516396 -287.940735
-152.480408 -76.864487 -293.548645
-154.455154 -78.173401 -298.732727
-153.651001 -67.232811 -287.534454
-144.890457 -72.438820 -296.218597
-147.148346 -72.491600 -297.620911
-156.016403 -72.535660 -301.998566
36.530529 -75.727272 -33.633980
60.702965 -73.054329 -37.867367
38.998165 -77.973778 -38.443550
43.223476 -72.917679 -43.206120
-37.031319 -70.110138 -50.210648
-68.723511 -71.443146 -45.815521
89.197083 -68.636848 -68.760529
93.046570 -63.195110 -64.652237
79.884460 -69.617088 -69.963661
-88.312836 -70.762512 -65.320015
109.336403 -70.025162 -77.627251
-27.682571 -64.341736 -73.633354
81.027679 -70.185371 -80.255531
-34.195374 -67.240273 -77.391350
-42.067314 -70.702492 -76.667740
61.257877 -67.709335 -92.183746
109.877884 -65.912331 -93.702026
72.917519 -67.147751 -97.007561
63.439541 -68.957840 -97.836365
54.718906 -70.371300 -107.519508
69.884796 -67.175751 -101.625549
113.687103 -67.526894 -106.009697
78.113686 -73.724960 -113.725479
59.814842 -68.571198 -111.068726
84.857620 -68.303474 -111.243332
98.041100 -68.060410 -117.711311
-75.114662 -73.901550 -109.073410
-78.530159 -75.274017 -104.299545
-80.922806 -73.047028 -112.243332
-56.310623 -71.806580 -112.429993
-47.453445 -77.003899 -118.635551
-87.069000 -66.817413 -115.091415
-73.519470 -72.441689 -115.988068
-71.562218 -71.364258 -120.855301
-54.496593 -74.923897 -121.009964
-83.110420 -62.834183 -125.134827
-89.720001 -72.182755 -125.968674
-46.468151 -70.109459 -135.812424
-53.329990 -66.822098 -133.823486
-71.653717 -69.529900 -134.197891
-53.667870 -69.630157 -140.649063
-68.600754 -72.453033 -146.447571
25.025288 -66.819672 -145.781616
-55.586529 -69.206223 -142.493591
-43.226471 -70.807640 -147.054794
21.155022 -71.039612 -154.125305
17.166611 -67.829155 -153.787460
-140.535995 -68.860741 -168.206665
-101.163445 -75.112526 -175.793121
-106.302795 -73.543755 -178.994370
-143.774109 -73.394798 -187.689774
-107.250160 -71.367256 -179.724747
-150.904282 -68.688324 -188.280960
-113.115105 -65.876717 -188.052368
-141.406311 -74.959053 -190.144592
-147.430679 -79.314499 -192.516937
-152.166397 -78.271042 -201.133621
-143.600769 -75.108849 -211.780975
-154.051208 -77.545334 -214.118591
-103.580635 -70.798363 -217.460999
-99.320572 -71.145683 -222.529419
-121.657883 -63.988312 -217.503647
-111.853363 -66.579842 -221.953476
-154.014099 -73.631424 -225.800873
-4.673697 -71.747955 -231.307404
-127.847862 -69.121918 -219.689392
-159.140259 -72.588112 -228.333099
-136.212006 -69.510483 -226.503876
-10.533243 -69.791115 -243.278732
5.230529 -71.544113 -244.958786
62.155663 -60.340446 -243.861298
20.057316 -69.201347 -249.342072
61.837173 -65.251205 -251.033478
38.464573 -63.708981 -243.338974
52.751080 -66.557785 -250.975250
-153.536407 -73.680389 -242.872192
-154.159744 -68.492935 -241.560135
41.574066 -75.031601 -252.488052
27.946413 -64.012886 -262.360779
47.979912 -61.545795 -251.707947
-143.900848 -73.327530 -250.643082
-136.968185 -69.855034 -245.886063
-126.691002 -71.242958 -252.195831
-133.338821 -63.405430 -251.314896
-140.381348 -65.119766 -251.808731
-123.605896 -70.118065 -248.586411
-143.795349 -71.145737 -252.130386
-128.143707 -72.910179 -253.233261
-126.764557 -63.876129 -253.112045
-128.132751 -76.501259 -255.633133
-120.090385 -72.064453 -251.899277
-4.201643 -68.961151 -264.554413
28.840422 -70.753387 -264.372498
-146.574402 -75.623253 -255.428055
30.704847 -62.314869 -269.844147
-10.310470 -67.032478 -267.398682
13.506966 -71.418610 -284.337738
-145.302094 -71.612190 -282.592834
-124.394417 -68.869041 -281.637329
-135.561615 -72.366699 -274.430328
-160.838943 -69.398888 -279.156464
-126.216812 -71.237328 -280.965790
-119.283463 -65.234467 -281.319519
-129.735931 -67.749817 -281.144012
-158.833069 -72.740356 -287.557098
42.510666 -72.907326 -15.682790
35.036854 -77.038399 -23.004875
51.229538 -76.093361 -21.044987
55.149441 -67.563705 -29.292467
