-102.909873962402 -70.874816894531 -92.998916625977 6.901947021484
-50.893470764160 -72.727478027344 -92.749893188477 4.054988384247
-59.651493072510 -75.464637756348 -87.308250427246 6.319790840149
92.260414123535 -77.079292297363 -100.440475463867 3.490835189819
53.457107543945 -76.336891174316 -106.340827941895 3.215093612671
58.481536865234 -71.749191284180 -95.104721069336 0.391306549311
-97.023384094238 -69.574478149414 -98.671676635742 1.632442474365
106.765830993652 -72.609313964844 -97.148948669434 0.834072291851
45.108592987061 -74.525054931641 -96.807136535645 1.621185421944
99.062896728516 -73.972892761230 -100.562080383301 3.392754793167
103.634124755859 -76.165412902832 -110.684089660645 3.545552492142
97.342407226563 -74.840370178223 -107.022842407227 6.427190303802
72.643112182617 -74.750450134277 -108.440620422363 7.375340938568
82.607559204102 -75.232696533203 -111.485549926758 9.270630836487
43.221488952637 -78.254516601563 -113.622085571289 1.488153100014
104.662002563477 -73.877700805664 -111.671478271484 2.015359640121
44.474609375000 -75.816528320313 -113.410743713379 2.023550271988
44.487297058105 -71.944114685059 -105.161254882813 2.242620468140
103.171333312988 -80.056831359863 -120.983161926270 7.663369655609
-81.912902832031 -67.200103759766 -111.102180480957 2.255671501160
45.235366821289 -72.557022094727 -118.406723022461 0.920235574245
32.493713378906 -75.615554809570 -114.836685180664 2.552260398865
104.576591491699 -78.297698974609 -111.206764221191 5.027773380280
40.683715820313 -74.178207397461 -117.284278869629 4.249195098877
-92.351753234863 -69.729362487793 -123.599853515625 3.204872369766
-100.542106628418 -69.599105834961 -120.570449829102 5.336445331573
106.786560058594 -73.878433227539 -126.704345703125 2.093868970871
-94.385726928711 -75.524169921875 -119.566680908203 3.529631614685
37.234786987305 -74.004234313965 -127.367584228516 2.592555284500
34.208034515381 -74.391273498535 -120.620681762695 1.301867246628
-80.548957824707 -73.248046875000 -126.627914428711 3.705154895782
25.536731719971 -70.940116882324 -131.375900268555 3.554779052734
106.758827209473 -76.890953063965 -137.924438476563 4.574090957642
-49.607219696045 -73.551864624023 -143.125671386719 2.837887287140
-91.925132751465 -72.999450683594 -135.483734130859 4.137803077698
32.005157470703 -75.710418701172 -142.523071289063 3.048825502396
-88.496383666992 -72.115509033203 -139.466308593750 3.386971235275
-93.505035400391 -74.590705871582 -138.040664672852 5.875356197357
-50.002208709717 -75.539833068848 -139.041992187500 1.476077437401
-75.742584228516 -73.365051269531 -142.177963256836 1.824552178383
-52.249347686768 -72.647636413574 -143.058303833008 2.804627895355
111.829658508301 -74.660736083984 -141.667572021484 2.039829254150
-77.539039611816 -66.309822082520 -144.942413330078 2.948569774628
33.483417510986 -76.702621459961 -132.283538818359 2.549327373505
-77.247276306152 -66.659851074219 -142.596923828125 1.988988280296
-82.009353637695 -70.367012023926 -135.449630737305 3.077411890030
-89.430763244629 -72.902503967285 -139.298767089844 3.756517171860
-61.010570526123 -71.453353881836 -156.161636352539 3.184161186218
28.929981231689 -72.848945617676 -155.628067016602 2.070556879044
31.761413574219 -75.409271240234 -156.341979980469 1.093069672585
18.145727157593 -73.047348022461 -148.879501342773 3.007321834564
110.650047302246 -81.718605041504 -154.367538452148 4.918033123016
-100.786010742188 -79.632675170898 -160.505203247070 10.936157226563
15.180740356445 -74.969047546387 -148.615478515625 3.983680963516
-71.375335693359 -75.703834533691 -149.265396118164 0.820137798786
20.627658843994 -73.118675231934 -152.336746215820 1.203135609627
-45.874969482422 -70.816894531250 -156.940551757813 2.008586168289
4.024137020111 -70.204360961914 -151.387054443359 4.339576721191
3.447175979614 -73.010353088379 -159.461288452148 1.757880210876
13.929095268250 -73.565666198730 -165.232604980469 4.817253589630
-49.203456878662 -74.670272827148 -169.185104370117 5.517442703247
-43.656032562256 -65.942558288574 -156.418411254883 2.447001934052
-50.086090087891 -71.251388549805 -159.388320922852 1.712110042572
-102.281097412109 -70.242935180664 -173.319030761719 2.703607559204
13.776206016541 -70.168174743652 -174.922302246094 2.826483011246
-40.519699096680 -76.207931518555 -178.005249023438 2.870283842087
9.851452827454 -65.474349975586 -181.997909545898 6.386996746063
-149.597274780273 -75.854484558105 -174.319473266602 3.401841402054
-37.837806701660 -67.917793273926 -179.690338134766 3.683259248734
-153.767822265625 -66.038749694824 -180.179672241211 0.709318816662
15.425958633423 -76.948760986328 -184.382827758789 0.933496713638
-36.596282958984 -79.566505432129 -174.484268188477 1.898633003235
-111.130752563477 -75.285377502441 -187.183670043945 5.428502559662
-106.237503051758 -71.750434875488 -186.262084960938 4.020708560944
-37.753002166748 -71.183456420898 -183.516998291016 3.592375993729
-19.158525466919 -74.250038146973 -193.586608886719 1.851394295692
10.696103096008 -76.291519165039 -192.812988281250 2.089838743210
18.021570205688 -75.304496765137 -200.019012451172 0.957973062992
15.952265739441 -68.074363708496 -191.866592407227 2.178009986877
-141.359237670898 -70.666015625000 -188.199356079102 1.645542979240
13.637447357178 -75.247642517090 -198.677856445313 1.203672051430
7.725193977356 -76.082176208496 -201.831634521484 2.124800682068
-143.035598754883 -67.653518676758 -200.636215209961 3.256542921066
-121.244132995605 -73.178672790527 -204.255020141602 2.555337190628
13.241700172424 -72.238769531250 -202.311477661133 2.468165874481
-114.477256774902 -75.068862915039 -194.969192504883 3.941171169281
-111.752845764160 -74.278778076172 -195.780105590820 4.069331169128
-165.367126464844 -74.295928955078 -205.694213867188 3.677358865738
-17.934186935425 -81.152511596680 -208.392776489258 4.193562984467
13.558488845825 -70.403991699219 -206.372055053711 1.889073133469
-140.036743164063 -66.779853820801 -202.103927612305 1.518775105476
-137.032592773438 -72.950332641602 -212.782333374023 8.701005935669
-21.923957824707 -72.506553649902 -210.496978759766 2.442090511322
-14.748634338379 -71.410598754883 -208.292785644531 3.347219228745
-16.916883468628 -76.969459533691 -214.599395751953 1.481488227844
-149.165023803711 -74.750656127930 -212.274978637695 1.093969583511
-24.159107208252 -77.085083007813 -204.706054687500 2.575160980225
-14.751355171204 -71.264144897461 -212.602584838867 1.383280992508
12.834367752075 -74.229858398438 -212.212860107422 4.075876235962
-13.240251541138 -75.017105102539 -210.984939575195 2.519714355469
8.657519340515 -70.491966247559 -216.354965209961 2.497503757477
-9.443017959595 -78.432388305664 -220.946350097656 2.186417102814
-17.089118957520 -78.403007507324 -214.410415649414 1.812664389610
7.180109024048 -75.528274536133 -229.657424926758 1.579956650734
-7.869614124298 -75.507270812988 -222.365875244141 2.295693635941
10.529548645020 -73.888526916504 -225.498138427734 2.959860324860
-6.854043006897 -78.166763305664 -226.747528076172 1.505579113960
-161.950363159180 -71.838600158691 -224.288772583008 1.642771124840
82.883628845215 -78.812545776367 -225.452423095703 3.516711950302
-136.834472656250 -70.949188232422 -224.565856933594 2.662518739700
-136.616714477539 -71.140396118164 -228.215042114258 3.197002172470
-10.539795875549 -74.917076110840 -232.520629882813 0.484312891960
11.361577987671 -78.864219665527 -238.585113525391 2.727553606033
-152.112792968750 -69.055160522461 -224.526184082031 0.843567132950
82.603042602539 -73.864799499512 -225.811965942383 1.210023283958
-11.277954101563 -75.565086364746 -227.497131347656 1.479279756546
1.367691993713 -77.465950012207 -231.227661132813 1.070092320442
68.553176879883 -76.281204223633 -232.040817260742 3.478575468063
2.840948104858 -78.238006591797 -235.951477050781 1.572283267975
-20.414823532104 -71.323905944824 -234.756011962891 3.515334844589
-122.476417541504 -76.864212036133 -241.122497558594 8.536802291870
-7.874858856201 -75.497154235840 -242.063552856445 2.611117362976
-3.865449905396 -77.249755859375 -236.347167968750 2.830696821213
66.576705932617 -79.391204833984 -238.613403320313 5.138347148895
-165.395965576172 -70.816703796387 -242.313552856445 2.080586194992
-11.336004257202 -73.805252075195 -251.238967895508 1.275349736214
-168.238174438477 -72.982315063477 -243.545776367188 2.971860647202
5.912923812866 -77.422248840332 -248.708206176758 3.070895195007
-169.502120971680 -70.692207336426 -241.819793701172 2.405159711838
-157.131591796875 -67.337760925293 -246.131591796875 1.999490976334
51.680305480957 -82.935585021973 -257.145324707031 13.164699554443
61.130409240723 -74.999137878418 -247.644042968750 3.612569332123
51.549476623535 -76.491096496582 -247.012054443359 4.201606750488
46.984420776367 -81.789611816406 -251.809555053711 10.162433624268
-163.118225097656 -70.503952026367 -249.923873901367 2.952428579330
-153.500122070313 -72.545753479004 -253.974456787109 1.074653625488
-18.160684585571 -74.770553588867 -250.258758544922 4.460208415985
-156.897293090820 -69.712371826172 -251.478332519531 0.574544250965
17.968084335327 -79.217903137207 -260.652862548828 1.839919328690
-167.425979614258 -69.867713928223 -255.202835083008 2.049586534500
-172.224044799805 -64.397918701172 -247.087448120117 8.069684028625
-82.235382080078 -71.168502807617 -255.811706542969 1.565409660339
-174.426635742188 -72.514442443848 -269.870697021484 6.584505558014
-88.589225769043 -75.554908752441 -264.798187255859 8.581616401672
33.576446533203 -70.459777832031 -252.558319091797 2.516702413559
22.329135894775 -80.514709472656 -259.723602294922 3.516969919205
-159.599700927734 -67.880691528320 -262.508605957031 2.210238933563
-104.781074523926 -68.995033264160 -265.123168945313 4.322444438934
37.087520599365 -75.868881225586 -262.372833251953 6.960536479950
-103.420349121094 -73.152069091797 -262.387023925781 2.874862194061
-153.292572021484 -69.243507385254 -261.487335205078 1.788429260254
-108.842323303223 -69.413749694824 -261.219238281250 0.521530032158
-164.485260009766 -71.479835510254 -261.971313476563 2.937894582748
-115.746627807617 -74.015068054199 -265.648345947266 3.547773361206
-157.309478759766 -73.068855285645 -272.957611083984 2.872229337692
-159.822158813477 -74.328201293945 -266.744842529297 2.652611494064
-169.654586791992 -75.533248901367 -268.884307861328 3.413012027740
-161.563308715820 -72.070335388184 -269.429199218750 3.627388238907
-167.979385375977 -67.398094177246 -272.420135498047 3.193663835526
-166.350601196289 -64.985527038574 -271.178924560547 5.747511863708
21.542512893677 -77.791038513184 -267.198028564453 1.695711016655
-150.659835815430 -69.886039733887 -272.102813720703 3.904076576233
-150.901382446289 -70.177841186523 -292.268737792969 2.340173959732
15.170168876648 -84.658500671387 -283.594940185547 7.683785438538
-9.698495864868 -74.843559265137 -279.690704345703 1.846436381340
-128.745544433594 -77.263717651367 -288.653991699219 2.191931247711
-140.009429931641 -80.161376953125 -292.957397460938 2.176594257355
-140.600280761719 -73.803352355957 -290.082611083984 2.467145442963
-132.181442260742 -68.436988830566 -288.507324218750 2.487904787064
-118.270500183105 -72.643768310547 -292.864501953125 2.087029933929
-110.667396545410 -76.426239013672 -290.838562011719 2.549537420273
10.206222534180 -75.309722900391 -296.260803222656 3.934315443039
-93.234222412109 -72.199859619141 -288.125762939453 2.688742637634
-147.683166503906 -74.461708068848 -299.480560302734 1.605332255363
-101.383865356445 -71.045669555664 -292.018524169922 2.423732995987
-132.198776245117 -72.384658813477 -295.942596435547 2.537661552429
9.845392227173 -83.804153442383 -291.938842773438 6.255748748779
-118.067558288574 -77.087219238281 -298.385620117188 7.532998561859
-0.744116008282 -77.231834411621 -291.752044677734 1.605575084686
-144.895019531250 -75.459068298340 -292.431121826172 1.978113770485
-159.251586914063 -75.526710510254 -306.608032226563 4.159165382385
-167.997344970703 -73.363304138184 -311.215301513672 11.903244018555
-154.854171752930 -73.866645812988 -314.582824707031 3.307321786880
46.270099639893 -79.129692077637 -28.754327774048 7.435282707214
16.756490707397 -73.200439453125 -34.759738922119 5.500446319580
32.605876922607 -75.033012390137 -41.626636505127 3.069849967957
-53.280521392822 -69.377944946289 -56.073707580566 6.096850872040
-15.380802154541 -69.371383666992 -65.573272705078 2.077453851700
91.360260009766 -81.535522460938 -79.240638732910 5.373044967651
63.510261535645 -71.748809814453 -70.321838378906 6.786099910736
-22.174934387207 -73.464851379395 -77.935501098633 3.013620138168
-95.412773132324 -68.531272888184 -84.706573486328 1.906417250633
-40.326332092285 -72.255279541016 -83.916633605957 3.420485019684
60.793674468994 -75.902626037598 -83.387664794922 6.051412582397
52.821689605713 -81.723266601563 -86.069847106934 9.699288368225
54.747276306152 -77.045051574707 -90.342094421387 3.375057697296
-58.406303405762 -74.477561950684 -87.567497253418 4.948648452759
66.164054870605 -73.229789733887 -90.813980102539 3.258173704147
42.260833740234 -79.872459411621 -99.251762390137 5.134875297546
63.942268371582 -79.087249755859 -92.797004699707 7.399981021881
-65.109558105469 -69.713005065918 -101.196380615234 3.589936256409
52.735893249512 -69.561691284180 -100.768600463867 1.496461749077
44.561801910400 -76.847084045410 -100.978187561035 1.939799070358
101.107749938965 -80.591331481934 -97.213111877441 7.601130485535
-73.099342346191 -79.066802978516 -102.778442382813 1.014525413513
108.183647155762 -78.576522827148 -105.025436401367 4.254266262054
-83.008499145508 -68.408653259277 -97.094306945801 5.189987182617
53.907505035400 -76.790901184082 -111.087715148926 4.472417354584
47.900241851807 -72.876258850098 -105.637413024902 3.485144853592
93.750289916992 -75.441551208496 -101.614799499512 3.470739364624
86.000030517578 -66.656585693359 -118.605888366699 10.638542175293
54.234634399414 -79.219017028809 -107.443786621094 3.952578067780
-71.511497497559 -72.955055236816 -108.273277282715 5.045207977295
-83.368621826172 -72.394523620605 -112.778450012207 3.203206539154
-87.719932556152 -74.673233032227 -123.946960449219 4.581838607788
-97.714447021484 -80.915596008301 -118.841140747070 9.071727752686
98.472587585449 -78.716918945313 -117.591163635254 10.008411407471
-88.786689758301 -67.353050231934 -123.632667541504 2.776472330093
-82.265037536621 -67.931274414063 -123.236251831055 2.480426788330
108.803581237793 -74.295806884766 -119.966865539551 1.068001747131
-65.450607299805 -65.702896118164 -121.020317077637 1.501702070236
109.392364501953 -80.873085021973 -134.525115966797 6.006023406982
105.016769409180 -76.367965698242 -133.812545776367 5.146203041077
110.371421813965 -76.261688232422 -119.594589233398 1.571242094040
-96.519134521484 -68.364448547363 -136.692245483398 3.289214611053
-56.076313018799 -66.864242553711 -142.167831420898 1.553793549538
-78.505546569824 -74.868240356445 -150.102951049805 4.621717453003
-70.917541503906 -68.516654968262 -154.593841552734 1.691713929176
-76.301658630371 -69.892959594727 -147.129058837891 1.457940340042
-55.425285339355 -67.315414428711 -151.830413818359 3.352082252502
-50.008140563965 -69.554084777832 -156.451385498047 2.594016313553
17.311517715454 -76.962272644043 -148.260589599609 5.728259563446
-97.032997131348 -64.945083618164 -160.656356811523 1.066210746765
-45.603374481201 -76.770179748535 -151.382385253906 1.377491474152
-57.586891174316 -71.028846740723 -156.485092163086 6.350916862488
-47.284454345703 -66.882774353027 -159.763900756836 3.437534332275
25.470058441162 -79.841674804688 -162.205978393555 1.446439862251
-50.534328460693 -72.015647888184 -160.233139038086 2.658479213715
-98.229667663574 -72.179504394531 -151.585693359375 3.669121026993
-44.511409759521 -71.494468688965 -163.920989990234 1.450184464455
22.586458206177 -71.509742736816 -162.273742675781 2.320591449738
-102.716026306152 -72.154716491699 -168.045684814453 4.166266441345
19.519224166870 -72.777503967285 -162.448135375977 1.357044696808
-106.264839172363 -64.007347106934 -175.177566528320 1.536982774734
-102.728225708008 -65.812316894531 -168.050018310547 2.327422618866
20.272130966187 -67.528533935547 -173.378250122070 1.716514468193
23.057699203491 -71.558876037598 -171.103652954102 2.778230428696
-110.077262878418 -73.551322937012 -177.699523925781 4.602147102356
-146.897933959961 -69.521026611328 -179.048171997070 2.304930210114
-27.743267059326 -71.058395385742 -190.179748535156 1.205086708069
-23.348035812378 -69.595252990723 -187.246200561523 1.577832341194
-115.614051818848 -68.490547180176 -193.511566162109 2.437638521194
-143.016113281250 -69.316764831543 -192.976104736328 1.437733411789
-107.448364257813 -75.107147216797 -183.748229980469 5.638759613037
-151.674514770508 -75.021095275879 -202.749740600586 1.870659470558
-130.733993530273 -73.850128173828 -196.018936157227 1.668488502502
-140.012619018555 -68.999053955078 -199.024948120117 3.239647150040
-23.851402282715 -67.284591674805 -197.100555419922 1.452639818192
-121.851821899414 -71.388732910156 -194.538375854492 1.327875494957
-115.752220153809 -67.345092773438 -197.744979858398 1.874309539795
-19.147771835327 -77.451461791992 -196.923599243164 0.524991989136
-156.619125366211 -64.818954467773 -196.855499267578 2.409647226334
-138.982131958008 -72.999977111816 -215.905715942383 6.872571945190
-125.595077514648 -66.623237609863 -207.540756225586 2.730284929276
12.084745407104 -71.594970703125 -208.996765136719 2.222906112671
-163.263946533203 -70.269783020020 -209.468307495117 2.308007240295
9.429256439209 -78.822959899902 -213.660232543945 1.439716696739
11.679017066956 -82.119293212891 -217.553771972656 1.559196233749
-20.787164688110 -73.377700805664 -212.492095947266 2.831194877625
-8.234728813171 -75.160194396973 -216.122680664063 2.765246391296
-169.202194213867 -70.724372863770 -217.656143188477 3.117024898529
-161.229568481445 -67.131134033203 -222.227310180664 1.735426306725
-106.127738952637 -72.515800476074 -221.551940917969 1.230855345726
-102.456604003906 -69.547485351563 -231.245010375977 4.377759456635
-159.881546020508 -66.661987304688 -222.874130249023 1.940795540810
-109.401290893555 -71.181297302246 -226.093399047852 1.936225533485
-20.165838241577 -76.407997131348 -221.797958374023 0.552041172981
-126.336997985840 -70.046661376953 -233.691772460938 1.699022173882
-147.992324829102 -73.363235473633 -226.790695190430 1.140751957893
-11.143942832947 -78.565963745117 -232.280441284180 3.120492935181
-134.018997192383 -67.748069763184 -230.261169433594 2.532811403275
-128.242721557617 -64.430618286133 -231.004943847656 2.704097270966
-112.616432189941 -73.873924255371 -235.496902465820 4.696947574615
-3.405941009521 -74.507827758789 -234.415313720703 0.361916095018
-110.991958618164 -68.352249145508 -230.312423706055 1.016483664513
-160.196060180664 -76.457374572754 -224.693572998047 3.240629673004
-148.725341796875 -76.262123107910 -228.862152099609 0.952645599842
-166.922515869141 -70.675933837891 -231.986511230469 2.236252069473
-9.080735206604 -72.981643676758 -232.462768554688 1.837271809578
-11.708260536194 -62.556125640869 -233.902923583984 5.595843791962
74.436012268066 -65.747879028320 -230.949066162109 3.461556434631
1.185165047646 -71.311065673828 -238.221115112305 2.222642421722
-146.013519287109 -68.586006164551 -237.057693481445 1.959655880928
-14.683042526245 -76.672790527344 -234.000350952148 4.062677383423
75.392242431641 -82.448921203613 -225.236724853516 7.460638523102
65.668518066406 -76.899650573730 -234.992813110352 3.471518039703
-131.087341308594 -70.632102966309 -234.104690551758 1.273018240929
-163.506759643555 -69.101089477539 -230.618621826172 2.228026390076
-112.531562805176 -66.779884338379 -234.937530517578 3.561177015305
-120.756469726563 -70.132598876953 -237.141708374023 4.689784049988
-172.276702880859 -64.235786437988 -237.221176147461 7.490313053131
-160.429077148438 -67.629051208496 -242.753906250000 1.530404567719
-135.372863769531 -69.332481384277 -245.484024047852 9.102221488953
-12.569775581360 -80.985870361328 -235.785049438477 6.418643474579
-4.768827915192 -72.935668945313 -248.181167602539 2.395741939545
-162.398803710938 -67.106285095215 -246.466629028320 1.496024370193
6.989877223969 -78.645309448242 -244.480209350586 1.206995725632
7.351902008057 -73.216491699219 -243.955062866211 1.638676404953
-166.894271850586 -68.893524169922 -246.288162231445 2.651236534119
10.542120933533 -74.613212585449 -245.619018554688 1.394232273102
49.391399383545 -74.951263427734 -252.156890869141 3.837389707565
50.412254333496 -72.208595275879 -257.376220703125 5.172941207886
-7.983170986176 -75.530204772949 -248.212097167969 2.321567058563
48.664093017578 -73.447395324707 -249.144134521484 1.482138872147
-164.692031860352 -70.780021667480 -260.150177001953 2.233425378799
-167.587127685547 -66.917442321777 -253.058273315430 2.442963123322
-166.238250732422 -72.484306335449 -249.780303955078 1.381964564323
53.321277618408 -73.864929199219 -259.044342041016 8.535903930664
-92.929557800293 -76.587158203125 -256.598999023438 3.073281049728
-125.982612609863 -69.628456115723 -255.633895874023 1.601475477219
-110.429412841797 -73.730018615723 -257.574951171875 1.533195734024
29.721868515015 -75.891761779785 -259.731079101563 5.818815231323
35.108470916748 -77.077095031738 -257.965972900391 6.817583084106
-98.377182006836 -71.999198913574 -255.903717041016 1.910131931305
-93.994003295898 -70.568321228027 -261.141906738281 3.197152137756
43.027774810791 -73.808441162109 -260.564392089844 5.597789764404
37.814544677734 -73.024345397949 -257.460815429688 2.733708620071
-159.660720825195 -71.432044982910 -264.246582031250 2.571572542191
31.544109344482 -71.648681640625 -256.740997314453 1.947422862053
-140.277359008789 -72.889411926270 -269.897338867188 6.408330917358
-120.479309082031 -67.136215209961 -262.547576904297 2.550549983978
-133.294174194336 -67.390403747559 -270.430297851563 6.406359195709
35.315574645996 -81.170997619629 -268.133575439453 13.904635429382
-130.351730346680 -74.881439208984 -267.561889648438 4.113307476044
-11.760456085205 -70.612075805664 -259.918457031250 3.543923854828
18.733005523682 -78.380226135254 -279.462768554688 3.341055631638
-16.572496414185 -72.977806091309 -271.839752197266 2.941684007645
23.224838256836 -71.796913146973 -288.958892822266 6.992766380310
-151.680084228516 -73.375587463379 -286.782287597656 1.871907591820
-14.248598098755 -79.173736572266 -278.490264892578 6.826567649841
-156.237136840820 -73.772407531738 -293.873748779297 1.008891105652
-129.291793823242 -70.570655822754 -288.427246093750 5.027441024780
-163.355636596680 -72.326072692871 -293.921752929688 2.082457065582
-126.452941894531 -71.135681152344 -289.273406982422 3.735650539398
-108.708465576172 -77.244186401367 -294.723693847656 5.088114261627
-11.133634567261 -75.632148742676 -293.556060791016 1.861066222191
-113.844024658203 -73.307128906250 -298.251647949219 6.295123577118
-121.357765197754 -79.117240905762 -294.112426757813 5.514952182770
-125.208686828613 -75.909393310547 -295.222290039063 2.417457580566
-139.885452270508 -68.347473144531 -294.158630371094 3.874531984329
-126.965515136719 -77.277954101563 -297.561950683594 4.385096549988
-162.462158203125 -72.151374816895 -292.494995117188 0.914934694767
-147.510070800781 -79.149261474609 -300.955230712891 1.478923439980
-155.261444091797 -70.669708251953 -300.637329101563 1.068111777306
-156.426834106445 -68.142173767090 -309.377410888672 2.428074836731
-162.295654296875 -68.810317993164 -305.694793701172 7.055880546570
-150.413467407227 -74.249778747559 -316.215606689453 3.750764846802
-151.949752807617 -73.672241210938 -317.314025878906 5.085927009583
31.101446151733 -71.306419372559 -21.897285461426 3.356364965439
42.482429504395 -74.431030273438 -23.344869613647 4.266258716583
29.694587707520 -67.992607116699 -36.338077545166 1.459240436554
50.236293792725 -69.959449768066 -34.437213897705 1.863981962204
30.560386657715 -68.841270446777 -41.935867309570 1.490496754646
40.525424957275 -77.872581481934 -38.784919738770 5.924693584442
-56.086212158203 -70.169242858887 -48.655418395996 1.153530478477
83.377029418945 -73.110519409180 -61.969177246094 4.626509189606
83.272193908691 -72.517944335938 -69.871498107910 1.333628058434
-96.216514587402 -64.003593444824 -68.224868774414 0.856550037861
-16.227344512939 -68.368293762207 -64.555442810059 3.342523813248
-87.651260375977 -73.090011596680 -70.525779724121 2.248725175858
95.660438537598 -71.588340759277 -72.675483703613 0.487101674080
-18.304035186768 -67.413368225098 -70.369468688965 1.982450008392
67.170753479004 -75.462600708008 -81.902519226074 4.014850616455
-41.473384857178 -72.341102600098 -80.581321716309 2.513729333878
-31.718963623047 -74.952445983887 -84.632156372070 5.405917167664
53.835350036621 -68.368728637695 -90.937957763672 1.019846439362
-49.623657226563 -80.778106689453 -92.394348144531 3.097212791443
59.620292663574 -67.700500488281 -82.741798400879 2.018285751343
51.688262939453 -71.047111511230 -87.977096557617 2.986197710037
47.005088806152 -77.389236450195 -95.699478149414 3.585462808609
64.724723815918 -71.599998474121 -96.339889526367 3.910254001617
56.738540649414 -72.053062438965 -103.658462524414 1.960384488106
102.582046508789 -69.261253356934 -98.652465820313 0.920491814613
101.661048889160 -78.864318847656 -98.741210937500 5.875790119171
55.947799682617 -78.226577758789 -101.472190856934 3.349416971207
107.878295898438 -72.850303649902 -104.160827636719 2.045091152191
-72.783027648926 -78.562927246094 -103.922943115234 2.226423025131
-73.488410949707 -73.942504882813 -107.650726318359 5.150863647461
103.881507873535 -80.088333129883 -99.952598571777 6.764347553253
52.808521270752 -71.303871154785 -105.843154907227 1.157415747643
69.781745910645 -76.598442077637 -105.962707519531 8.493033409119
-68.641159057617 -60.237388610840 -103.348098754883 2.313976049423
-80.964332580566 -66.681793212891 -110.536659240723 1.241928577423
93.717018127441 -72.511032104492 -115.908950805664 10.575675010681
41.491981506348 -73.184616088867 -106.435752868652 2.199621438980
99.140045166016 -74.708152770996 -105.127159118652 5.274364948273
41.681957244873 -70.913230895996 -113.724258422852 1.578771233559
113.006523132324 -70.678863525391 -113.502464294434 1.092775821686
-88.686904907227 -63.553852081299 -111.187278747559 2.247406244278
102.815292358398 -68.865730285645 -114.741096496582 3.190294027328
-88.470420837402 -65.210433959961 -118.603927612305 2.006407737732
-60.570125579834 -72.250579833984 -126.793197631836 2.881208181381
-62.199565887451 -69.306465148926 -133.336791992188 1.756928324699
-74.689163208008 -73.065567016602 -134.554000854492 2.224351882935
-51.413257598877 -72.544761657715 -135.048995971680 0.916424095631
-89.550392150879 -69.902755737305 -137.822021484375 1.519093990326
-80.506309509277 -74.687332153320 -138.716857910156 4.109254837036
-88.831520080566 -70.340103149414 -132.251434326172 0.760047376156
-55.476768493652 -74.770950317383 -140.895706176758 0.860200643539
-73.919982910156 -69.072975158691 -143.049331665039 1.032016992569
-62.257015228271 -70.786300659180 -138.118896484375 2.433277130127
-66.174209594727 -72.961921691895 -140.923873901367 4.310860157013
20.651317596436 -76.626754760742 -143.384231567383 4.259921550751
-87.173515319824 -73.622604370117 -148.499664306641 8.034391403198
-47.912799835205 -75.840286254883 -152.243667602539 2.022847175598
-100.158645629883 -67.261627197266 -154.320877075195 2.134688615799
-105.688484191895 -68.128288269043 -156.846450805664 3.488279342651
15.610120773315 -79.805908203125 -157.659637451172 6.773736000061
13.023512840271 -77.973670959473 -164.567810058594 6.838295936584
-103.794715881348 -70.883964538574 -163.849853515625 2.421404600143
-100.933822631836 -67.454132080078 -161.994125366211 2.144113063812
-95.498153686523 -69.320854187012 -171.742431640625 6.667268276215
15.348084449768 -69.803825378418 -174.827255249023 1.423939824104
-117.528861999512 -74.005500793457 -169.645370483398 11.550375938416
16.783878326416 -76.310050964355 -172.758117675781 1.880310773849
-146.981964111328 -73.387664794922 -182.878631591797 1.096625089645
14.709100723267 -73.596099853516 -179.974258422852 1.323530435562
19.864902496338 -76.461044311523 -191.310699462891 1.542846083641
-155.445022583008 -66.159332275391 -191.943984985352 1.690888285637
15.863522529602 -78.150543212891 -184.346542358398 1.353617548943
11.182554244995 -72.149085998535 -181.261230468750 3.127835988998
-138.511550903320 -78.510665893555 -197.120864868164 2.492453336716
-153.282348632813 -72.437500000000 -193.968872070313 1.901546597481
13.708884239197 -72.922294616699 -193.665802001953 2.501851081848
19.429187774658 -71.229042053223 -189.046844482422 3.102891683578
-149.746597290039 -68.741607666016 -196.193725585938 3.540113449097
-111.142234802246 -76.585693359375 -196.786453247070 5.722844600677
20.519079208374 -72.985984802246 -199.930969238281 2.022433757782
-128.991302490234 -65.690155029297 -194.844497680664 2.502513408661
8.733420372009 -76.231445312500 -201.741683959961 1.398775696754
-134.519668579102 -65.605400085449 -199.557312011719 1.895226597786
-151.009231567383 -69.936614990234 -196.417297363281 2.960225105286
-164.110183715820 -73.073005676270 -206.753433227539 3.291115283966
-165.602508544922 -67.255943298340 -206.854339599609 1.232501983643
-21.511062622070 -69.568710327148 -209.037918090820 1.782206416130
-168.900924682617 -68.434738159180 -206.463424682617 2.933426380157
-22.303285598755 -71.471023559570 -198.811996459961 1.234838604927
-18.366157531738 -71.474098205566 -201.140991210938 3.053895235062
9.467226982117 -73.802398681641 -199.392745971680 1.378839373589
-160.803771972656 -65.486671447754 -200.208251953125 1.975135445595
-113.094734191895 -68.272491455078 -206.252014160156 3.326382637024
-18.633663177490 -77.282035827637 -212.615951538086 2.407018661499
-157.537506103516 -71.574295043945 -203.100051879883 3.588387012482
16.972351074219 -69.720710754395 -203.455123901367 0.424547672272
-165.459686279297 -69.191528320313 -202.632278442383 1.299224495888
-122.668334960938 -73.889862060547 -209.509109497070 5.666822433472
-110.499931335449 -69.956253051758 -212.865554809570 9.956632614136
-129.509963989258 -65.206993103027 -213.172958374023 8.349355697632
-16.795444488525 -77.209701538086 -205.644592285156 1.787207126617
-22.567445755005 -69.325019836426 -207.642517089844 2.078299045563
-163.848449707031 -65.617218017578 -213.213790893555 2.652812480927
-162.828186035156 -67.106658935547 -216.731277465820 1.219459176064
-168.377456665039 -71.083625793457 -222.147827148438 2.665576457977
-152.617416381836 -73.431671142578 -210.580444335938 3.207171201706
-145.673019409180 -68.408691406250 -228.630935668945 1.742440104485
-9.106599807739 -71.245857238770 -224.750122070313 1.816825985909
-17.612714767456 -72.037719726563 -223.044692993164 1.391838312149
-104.743736267090 -70.702819824219 -226.538803100586 1.091323971748
-10.431664466858 -71.833854675293 -221.473709106445 1.626057505608
-167.361175537109 -67.858818054199 -229.745193481445 2.249192953110
-117.520088195801 -65.488204956055 -236.540832519531 2.512923479080
-2.953337907791 -70.820167541504 -234.310638427734 0.707741320133
3.780172109604 -72.077201843262 -233.548294067383 3.130074024200
-115.221923828125 -69.081748962402 -237.765899658203 4.149876117706
-5.915482997894 -66.754730224609 -236.117095947266 0.744458973408
-117.615585327148 -69.453063964844 -242.065887451172 7.999355792999
-5.734572887421 -69.878288269043 -246.193481445313 2.996098041534
-6.984377861023 -76.712493896484 -235.647354125977 3.189078092575
-3.954832077026 -70.824035644531 -246.693435668945 2.443189859390
63.053989410400 -77.250411987305 -240.590332031250 3.178596258163
-18.472143173218 -76.188385009766 -238.772644042969 1.742083549500
2.703530073166 -71.842987060547 -240.525970458984 1.917209744453
8.107054710388 -74.768959045410 -245.587432861328 2.156429529190
5.919058799744 -80.555145263672 -243.364074707031 3.274410724640
-0.400813996792 -80.729248046875 -245.438903808594 3.224055528641
64.564002990723 -79.810867309570 -243.421722412109 6.440031528473
69.352119445801 -74.656341552734 -244.564086914063 4.525605201721
13.786589622498 -76.744346618652 -244.608810424805 2.703291893005
57.185432434082 -75.731147766113 -243.125503540039 2.868132114410
55.010719299316 -79.917846679688 -242.434295654297 7.369217872620
44.717281341553 -68.729270935059 -248.595809936523 1.655834794044
33.034057617188 -76.724739074707 -255.744583129883 7.089870452881
36.457862854004 -77.466644287109 -257.657073974609 6.989010810852
-135.992050170898 -70.449317932129 -258.112487792969 2.738142490387
-19.071945190430 -79.435401916504 -254.285507202148 7.457104682922
24.067428588867 -77.572227478027 -261.633880615234 2.655770301819
45.900955200195 -75.535705566406 -257.885314941406 6.485996246338
22.210201263428 -68.371520996094 -259.279663085938 2.888575553894
-102.313415527344 -70.189079284668 -266.325622558594 5.968807220459
30.860353469849 -73.734703063965 -257.818847656250 3.557623147964
-152.761917114258 -68.984542846680 -264.579559326172 0.698335826397
-118.294174194336 -66.633583068848 -266.325897216797 2.634592056274
-104.900512695313 -72.727996826172 -258.128295898438 0.804790794849
-9.155017852783 -72.259948730469 -263.177429199219 4.400200366974
-159.312942504883 -76.760246276855 -257.773895263672 3.357785940170
28.429361343384 -72.130897521973 -260.753021240234 3.389742136002
-114.480926513672 -74.335639953613 -257.491973876953 1.464686989784
27.585273742676 -75.236343383789 -260.770355224609 4.950341224670
-133.154479980469 -68.705703735352 -265.142883300781 1.718657493591
-121.827423095703 -72.666130065918 -263.645080566406 2.672967433929
-106.868041992188 -66.330146789551 -265.530914306641 4.895287036896
-118.395973205566 -71.530654907227 -269.720428466797 6.871937274933
-140.517059326172 -72.893592834473 -267.635040283203 4.928279876709
25.484327316284 -72.708366394043 -268.717681884766 3.106530904770
-120.541595458984 -66.992927551270 -270.714080810547 7.314758300781
-145.675064086914 -71.364036560059 -275.563476562500 1.204340815544
-7.083044052124 -77.414993286133 -277.603790283203 1.956940412521
-156.931152343750 -68.659683227539 -282.124511718750 3.858587026596
-13.566233634949 -76.723640441895 -286.695648193359 1.343028306961
-4.592399120331 -80.079010009766 -291.685241699219 3.035830497742
-137.615188598633 -75.003730773926 -292.355102539063 1.888300895691
-122.325256347656 -66.661575317383 -294.659881591797 4.026211738586
-141.401657104492 -65.519515991211 -294.977325439453 3.541698217392
-130.871978759766 -72.599861145020 -299.080200195313 5.721181869507
-151.005691528320 -72.442070007324 -300.182952880859 3.300906419754
-151.350418090820 -76.953842163086 -305.666564941406 1.765163540840
-153.100189208984 -78.342918395996 -310.910278320313 0.442872196436
-152.365524291992 -67.076202392578 -300.035247802734 1.338371515274
-143.412704467773 -72.994216918945 -308.040771484375 2.283362865448
-145.589859008789 -72.985939025879 -309.566314697266 2.576306104660
-154.194747924805 -72.751701354980 -314.435546875000 2.564728498459
22.897064208984 -76.032325744629 -35.631355285645 3.649255990982
47.369346618652 -74.677078247070 -38.571365356445 4.434693813324
25.509735107422 -78.559104919434 -40.220184326172 7.072914600372
30.238847732544 -73.879409790039 -44.893016815186 4.994576931000
-49.267246246338 -67.440063476563 -56.516014099121 8.005017280579
-81.180122375488 -67.088920593262 -53.882709503174 1.934539437294
77.705184936523 -72.703781127930 -67.925399780273 3.032313585281
81.590934753418 -67.316619873047 -63.779483795166 1.526026129723
68.435409545898 -73.273689270020 -69.622421264648 4.919604778290
-99.608161926270 -66.132301330566 -74.476936340332 3.250919342041
98.206710815430 -75.366775512695 -75.589233398438 3.467112779617
-38.366817474365 -62.937030792236 -79.542083740234 1.162640810013
70.113044738770 -74.249305725098 -79.809967041016 1.701541185379
-44.800216674805 -65.644775390625 -83.569511413574 1.789152979851
-52.863750457764 -68.695800781250 -83.183937072754 3.836555004120
51.178352355957 -71.231796264648 -92.910736083984 0.219636499882
99.837120056152 -71.838829040527 -91.729309082031 1.382527470589
63.099140167236 -71.399955749512 -97.081871032715 3.036344766617
53.602264404297 -72.777427673340 -98.388526916504 2.059309244156
45.367538452148 -74.099334716797 -108.500526428223 3.714461088181
60.327426910400 -71.439834594727 -101.860992431641 3.558245420456
104.231758117676 -74.056831359863 -103.744438171387 0.793976366520
68.870582580566 -78.790199279785 -113.262825012207 14.439878463745
50.734832763672 -72.670341491699 -111.810508728027 2.055040836334
75.731170654297 -73.618873596191 -110.575088500977 7.253800868988
89.246032714844 -74.235023498535 -116.290596008301 11.412579536438
-84.197441101074 -71.404533386230 -117.291870117188 1.768111228943
-87.934875488281 -72.445800781250 -112.678138732910 2.213632583618
-89.772254943848 -70.379676818848 -120.810981750488 2.324497938156
-65.155876159668 -70.336807250977 -119.642677307129 5.812522411346
-56.242591857910 -76.165786743164 -125.169616699219 5.813605308533
-95.432334899902 -63.961807250977 -124.197700500488 1.663447499275
-82.153129577637 -70.261528015137 -124.147720336914 0.776401758194
-79.879562377930 -69.447532653809 -128.927871704102 1.335082530975
-63.031288146973 -73.830650329590 -128.003509521484 4.578570365906
-90.732551574707 -60.521381378174 -134.121520996094 3.814720392227
-97.746765136719 -69.562835693359 -135.032882690430 5.528182029724
-53.969486236572 -69.920372009277 -142.472122192383 2.151521921158
-60.756824493408 -66.239059448242 -140.979675292969 3.195112466812
-79.144920349121 -68.069740295410 -142.305465698242 2.545765161514
-60.859165191650 -69.260032653809 -147.721420288086 4.984044075012
-75.573249816895 -71.555488586426 -154.264251708984 3.208977699280
18.038949966431 -70.432182312012 -148.475677490234 1.006021499634
-62.649784088135 -68.807441711426 -149.684097290039 4.882108688354
-50.153446197510 -71.159629821777 -153.485244750977 1.997558712959
14.426719665527 -74.743995666504 -156.887832641602 2.561576128006
10.591795921326 -71.334907531738 -156.877853393555 2.108933925629
-145.931961059570 -65.240898132324 -180.164428710938 2.519486188889
-106.564888000488 -73.644035339355 -185.308090209961 5.016736507416
-111.435226440430 -71.939567565918 -188.843124389648 2.707071065903
-148.316848754883 -70.278991699219 -199.646835327148 1.481715559959
-112.230636596680 -69.746192932129 -189.694290161133 1.961362004280
-155.158691406250 -65.256614685059 -200.789077758789 2.858812570572
-117.345909118652 -64.267669677734 -198.509780883789 1.996777057648
-145.899047851563 -72.039108276367 -201.913055419922 1.393791317940
-151.994628906250 -76.177253723145 -204.484100341797 1.160587668419
-156.190948486328 -75.202476501465 -213.383773803711 3.386229276657
-146.904846191406 -72.824935913086 -223.623458862305 2.110181570053
-157.319915771484 -74.832481384277 -226.471054077148 2.665970087051
-106.467147827148 -70.650238037109 -227.161331176758 1.489477396011
-101.957534790039 -71.376640319824 -231.966888427734 5.311618804932
-124.150367736816 -62.980319976807 -228.442459106445 1.428030729294
-114.258262634277 -66.193611145020 -232.245941162109 1.483501791954
-156.444061279297 -71.328048706055 -238.250167846680 2.226672887802
-7.120602130890 -76.851325988770 -235.347824096680 3.136054515839
-130.460418701172 -67.880859375000 -230.812118530273 4.186692237854
-161.364410400391 -70.125801086426 -241.100280761719 2.005153894424
-138.446014404297 -68.098472595215 -238.073654174805 5.486668109894
-12.207294464111 -75.025573730469 -247.687530517578 3.290999889374
3.517242908478 -77.594665527344 -248.416076660156 2.621748924255
60.785968780518 -69.123046875000 -244.450912475586 1.980633974075
18.661485671997 -76.122673034668 -252.024459838867 1.685309052467
60.616577148438 -74.255851745605 -251.471084594727 5.469936847687
36.962932586670 -71.323242187500 -245.164962768555 7.023503780365
51.486961364746 -75.119194030762 -251.886276245117 4.093556880951
-155.031173706055 -71.985694885254 -255.256988525391 1.896549940109
-155.464797973633 -66.732223510742 -254.146682739258 3.213900089264
39.999195098877 -83.090072631836 -253.761413574219 11.631706237793
27.504972457886 -71.771095275879 -264.732788085938 3.200581789017
47.020683288574 -69.910659790039 -253.045761108398 1.441326618195
-144.977233886719 -72.365554809570 -262.477020263672 2.190350055695
-138.151290893555 -69.070861816406 -257.447021484375 3.553013324738
-127.625167846680 -71.169303894043 -263.117736816406 1.990709185600
-133.909942626953 -62.994174957275 -262.862426757813 3.072306156158
-140.991744995117 -64.382225036621 -263.699920654297 2.660119056702
-124.690742492676 -70.071594238281 -259.376708984375 3.214595556259
-144.680786132813 -70.243705749512 -264.024078369141 1.445320963860
-129.100402832031 -72.799011230469 -264.182647705078 2.047208547592
-127.278671264648 -63.843303680420 -264.268676757813 2.146595954895
-129.137573242188 -76.466644287109 -266.463531494141 4.196033954620
-121.100372314453 -72.298049926758 -262.422119140625 2.309437751770
-4.681403160095 -75.232879638672 -268.586090087891 6.355574607849
28.169113159180 -78.611961364746 -266.476928710938 7.343623161316
-147.495300292969 -74.692245483398 -267.330902099609 2.051304817200
30.752523422241 -70.466064453125 -272.097808837891 6.948093414307
-10.520116806030 -73.110061645508 -271.831176757813 3.139393091202
13.942985534668 -79.220245361328 -287.247467041016 3.604337930679
-144.531204223633 -71.681671142578 -294.493041992188 1.089280486107
-123.596519470215 -69.920600891113 -292.442199707031 1.223188161850
-135.304550170898 -72.625366210938 -285.772338867188 1.250159502029
-160.102981567383 -68.603797912598 -292.013549804688 1.794887900352
-125.569572448730 -72.173645019531 -291.800506591797 1.035447001457
-118.334953308105 -66.528411865234 -291.950286865234 2.005670785904
-128.894226074219 -68.528373718262 -292.287689208984 2.720962762833
-157.808181762695 -72.324508666992 -300.177490234375 2.231306314468
28.014661788940 -72.890357971191 -17.468275070190 1.373727202415
20.757144927979 -76.904319763184 -25.067819595337 5.222474098206
36.844501495361 -76.675964355469 -22.224927902222 7.520308017731
41.634933471680 -68.633621215820 -30.502248764038 2.727024555206
21.871894836426 -73.567024230957 -31.320293426514 1.135402798653
25.007555007935 -74.196411132813 -33.772686004639 2.536096572876
-39.371585845947 -73.785705566406 -46.582920074463 4.863442420959
-80.312454223633 -70.672584533691 -53.771175384521 2.758851289749
-14.945054054260 -70.488525390625 -59.859317779541 2.626988887787
67.545249938965 -71.566291809082 -70.986633300781 3.487716674805
93.140098571777 -73.357139587402 -69.643272399902 2.295763731003
61.044532775879 -70.116333007813 -83.483642578125 1.789381384850
60.867992401123 -64.950805664063 -86.372016906738 2.308499813080
93.798759460449 -67.477500915527 -86.249298095703 6.742262840271
-63.560119628906 -65.570190429688 -89.674476623535 0.692429602146
-65.483573913574 -63.979454040527 -95.861137390137 0.784841775894
47.985019683838 -67.175735473633 -97.331298828125 1.539087295532
-61.471874237061 -65.201744079590 -102.345260620117 6.303848743439
-72.353507995605 -61.543464660645 -104.077400207520 1.807541012764
-104.648880004883 -65.481491088867 -102.041885375977 6.537683486938
-73.373893737793 -66.379562377930 -103.773574829102 1.866809725761
47.419479370117 -72.419380187988 -111.742584228516 1.968157172203
-73.273277282715 -70.807601928711 -107.627471923828 2.518741607666
47.556690216064 -73.429069519043 -101.992568969727 2.239472627640
95.661071777344 -75.830474853516 -103.736778259277 4.843997478485
86.375816345215 -75.738044738770 -111.701538085938 8.646770477295
-76.920433044434 -69.210365295410 -115.231575012207 1.859733462334
-85.635894775391 -69.662727355957 -112.435241699219 2.955904722214
-66.684936523438 -63.519638061523 -122.003875732422 1.313285708427
-95.925888061523 -65.562469482422 -118.745330810547 1.082566738129
-79.769149780273 -75.101264953613 -133.447860717773 3.978654861450
-90.169845581055 -61.872123718262 -133.794860839844 2.913316965103
-68.001800537109 -68.251983642578 -126.051239013672 4.735237121582
-61.751350402832 -70.781990051270 -121.478263854980 3.377940654755
-92.366683959961 -64.649040222168 -136.763977050781 1.453310608864
-62.721748352051 -67.455955505371 -133.778976440430 1.583836317062
-82.422958374023 -66.405883789063 -127.545555114746 0.585269927979
-72.312927246094 -68.165649414063 -135.822021484375 1.715835452080
-73.094558715820 -71.177284240723 -135.302734375000 1.958937883377
-61.684642791748 -66.435920715332 -141.465713500977 3.760124206543
-56.263454437256 -68.867416381836 -141.573440551758 1.721736788750
-93.179298400879 -68.312164306641 -142.187820434570 2.420538425446
-100.426055908203 -66.457733154297 -142.732330322266 4.869758605957
-92.664749145508 -71.255607604980 -145.193206787109 2.920607566833
23.302265167236 -73.288070678711 -153.675216674805 0.845208823681
-53.426563262939 -70.959518432617 -147.185623168945 1.728463888168
11.971718788147 -68.061355590820 -153.156036376953 1.623101234436
-100.017051696777 -64.060783386230 -164.076538085938 2.640361309052
-95.961502075195 -63.237495422363 -173.279724121094 6.705604076385
-96.791572570801 -60.297920227051 -175.862945556641 7.905058383942
-113.711891174316 -71.453514099121 -174.284820556641 6.351898193359
-109.145187377930 -71.611701965332 -187.955535888672 1.796890258789
-109.354743957520 -61.669479370117 -188.573242187500 2.225215673447
-150.670074462891 -66.832176208496 -190.858535766602 2.679156303406
-110.578086853027 -69.377937316895 -190.811477661133 2.171725511551
-136.152664184570 -61.200069427490 -191.433547973633 6.406416416168
-144.669143676758 -73.486366271973 -201.224212646484 2.406023740768
-128.135757446289 -69.739601135254 -201.893966674805 3.087347030640
-159.961425781250 -71.303070068359 -202.352462768555 3.728108167648
-141.607818603516 -65.040519714355 -203.336044311523 1.239976525307
-122.868057250977 -60.447677612305 -201.255157470703 2.546041965485
-137.372619628906 -66.612976074219 -206.584671020508 4.488047122955
-149.968322753906 -64.000740051270 -217.655364990234 4.122635364532
-132.360809326172 -65.597648620605 -225.561523437500 1.737844228745
-114.133659362793 -66.460922241211 -232.032211303711 1.724052190781
-156.698669433594 -70.931365966797 -229.942977905273 2.430899143219
-121.558685302734 -64.823753356934 -237.327896118164 4.497657299042
-106.296630859375 -67.816261291504 -237.989303588867 8.344441413879
-126.977561950684 -72.314384460449 -238.902603149414 4.778953075409
-135.673812866211 -71.610763549805 -239.006469726563 5.124597549438
-121.677398681641 -63.210647583008 -242.617584228516 9.367715835571
-0.774782001972 -75.638267517090 -240.316726684570 1.856428742409
-150.903579711914 -68.309516906738 -239.855773925781 4.340992927551
4.484486103058 -76.727973937988 -236.784469604492 1.212355256081
6.022687911987 -69.712867736816 -247.575393676758 5.224254131317
-1.198843955994 -75.800338745117 -244.774993896484 1.500085473061
10.034799575806 -74.091995239258 -244.912933349609 0.973737061024
-144.427886962891 -68.965850830078 -241.899429321289 1.382298111916
-7.077086925507 -73.895156860352 -248.529418945313 1.725839614868
15.963158607483 -67.497520446777 -244.622634887695 1.142051219940
45.458343505859 -71.069656372070 -253.321151733398 1.131144642830
