-54.101535797119 -79.139633178711 -79.663513183594 5.314067363739
-39.672534942627 -83.270149230957 -84.795883178711 1.947395801544
-77.677871704102 -82.413246154785 -89.317756652832 1.756472706795
-38.450061798096 -81.196273803711 -89.052833557129 4.642295360565
-41.253997802734 -87.230361938477 -87.704589843750 6.090561389923
-84.240432739258 -87.822372436523 -106.546211242676 4.219668865204
-70.316833496094 -78.375640869141 -107.895294189453 6.789708137512
30.079885482788 -87.312179565430 -129.488830566406 7.534354686737
30.524894714355 -83.386123657227 -152.045913696289 3.534416913986
-16.149049758911 -87.287803649902 -185.436431884766 5.763407230377
-20.648391723633 -82.390251159668 -187.246551513672 2.146394729614
-28.432947158813 -76.388832092285 -191.645126342773 1.944412112236
-36.844539642334 -84.362686157227 -192.898345947266 2.016730785370
-57.818363189697 -83.941131591797 -190.870590209961 7.088420867920
-29.067922592163 -78.117881774902 -199.436416625977 4.463897705078
-143.911788940430 -84.289787292480 -189.419860839844 2.695095300674
-151.727554321289 -82.628044128418 -199.732727050781 1.139787673950
-155.101791381836 -81.853889465332 -202.021865844727 3.471551895142
-152.465591430664 -79.174888610840 -204.833312988281 2.917187452316
-72.334930419922 -87.547126770020 -216.853790283203 7.266702175140
-63.482246398926 -83.631584167480 -216.898712158203 6.550664424896
-149.604949951172 -82.189292907715 -216.714797973633 1.322916865349
-73.542716979980 -83.737648010254 -218.181777954102 5.368071079254
-68.863731384277 -88.956779479980 -221.019256591797 11.583095550537
-79.717956542969 -87.236282348633 -222.176177978516 10.429359436035
-146.295257568359 -87.334846496582 -230.563552856445 3.684025764465
-143.320632934570 -82.730781555176 -233.441390991211 2.149660587311
-152.869110107422 -81.516632080078 -250.167861938477 3.019984722137
8.473455429077 -80.689048767090 -258.440277099609 4.303630352020
6.703732967377 -86.842338562012 -253.111145019531 2.759212017059
-138.774581909180 -89.696662902832 -259.093780517578 5.009968280792
11.433711051941 -82.274269104004 -267.767852783203 1.975468754768
9.642787933350 -85.880180358887 -270.909332275391 3.410569190979
-153.355560302734 -83.694686889648 -265.124969482422 3.159335851669
-158.358184814453 -84.369468688965 -279.529663085938 7.299071311951
-5.109535217285 -85.169464111328 -280.270324707031 6.926621437073
5.158185958862 -76.178550720215 -283.812652587891 2.712572574615
-159.447372436523 -85.077514648438 -282.455566406250 7.019944667816
-144.714721679688 -81.524734497070 -286.569824218750 2.239150047302
-156.587341308594 -91.461769104004 -306.356872558594 10.350740432739
-47.937442779541 -88.778457641602 -85.375961303711 4.059627056122
-70.097663879395 -85.840232849121 -69.576850891113 5.065749645233
-44.955909729004 -82.535530090332 -72.033279418945 2.877532243729
-33.739757537842 -83.037727355957 -81.376556396484 2.267699718475
-75.064659118652 -73.988098144531 -72.233917236328 6.370216369629
-25.610975265503 -89.564994812012 -82.916526794434 11.782423019409
-47.071445465088 -86.974822998047 -85.395927429199 2.896104335785
-58.863239288330 -82.535896301270 -98.901618957520 4.798642635345
-56.559337615967 -89.458244323730 -99.828796386719 8.332737922668
-61.015033721924 -86.719100952148 -107.208625793457 9.799491882324
-88.062637329102 -80.210754394531 -111.793289184570 1.796554803848
38.732250213623 -84.912590026855 -128.686279296875 5.211477279663
36.126419067383 -82.910430908203 -139.165924072266 3.171842098236
-44.216094970703 -81.388923645020 -168.992782592773 4.582349777222
-39.426631927490 -88.051750183105 -164.672409057617 8.231827735901
-9.869297027588 -80.830612182617 -178.072204589844 1.959547400475
-61.542259216309 -82.589561462402 -180.624511718750 4.899737834930
-58.161613464355 -84.452560424805 -183.458450317383 5.131069183350
-63.516376495361 -82.802932739258 -181.140502929688 6.323698520660
-36.171035766602 -80.894500732422 -175.398818969727 1.940149426460
-56.506465911865 -78.997070312500 -192.089096069336 4.753094196320
-29.084632873535 -81.683990478516 -189.715011596680 1.281177043915
-149.897644042969 -88.111595153809 -188.755096435547 5.704253673553
-51.665218353271 -79.950080871582 -183.263519287109 1.653053045273
-54.311229705811 -84.289756774902 -197.303192138672 3.481757640839
-35.145828247070 -76.346679687500 -189.418991088867 3.995705366135
-31.813989639282 -79.497322082520 -194.342727661133 3.168110609055
-36.727760314941 -79.608856201172 -198.899673461914 1.502197384834
-24.030467987061 -83.558380126953 -197.791473388672 4.497797489166
-46.819763183594 -85.683082580566 -202.168884277344 1.183350205421
-146.471557617188 -83.630432128906 -199.014801025391 2.350208520889
-40.874301910400 -85.848808288574 -203.384963989258 4.792259693146
-47.580577850342 -85.477485656738 -213.092422485352 9.452832221985
-45.416320800781 -78.622497558594 -206.828231811523 4.726587772369
-42.227798461914 -83.155044555664 -205.532821655273 5.062093257904
-135.488708496094 -81.206840515137 -209.189117431641 7.960641384125
-138.155960083008 -76.197410583496 -205.678268432617 4.222636699677
-51.840270996094 -85.342132568359 -206.492248535156 2.400962591171
-61.906234741211 -83.010871887207 -211.856140136719 2.958931207657
-39.281414031982 -80.320564270020 -209.697845458984 3.066303968430
-145.503845214844 -81.148162841797 -209.595901489258 1.101850867271
-72.386131286621 -79.376159667969 -215.175064086914 2.474524974823
-37.049926757813 -83.728256225586 -216.288726806641 7.601484775543
18.541193008423 -82.919197082520 -207.556457519531 4.472627162933
-83.601043701172 -76.538986206055 -210.943527221680 1.200917840004
-25.402122497559 -74.953727722168 -217.401519775391 1.660608649254
10.471781730652 -82.873123168945 -230.023727416992 2.621582269669
-149.584442138672 -84.093421936035 -222.705932617188 1.877190113068
2.997788906097 -83.670715332031 -233.615493774414 5.263634681702
9.268136978149 -84.900161743164 -228.853057861328 4.117521762848
11.686144828796 -84.908363342285 -239.093536376953 2.395264387131
-136.568023681641 -89.031517028809 -232.450531005859 5.968151569366
-154.507308959961 -85.216987609863 -234.730392456055 5.068210601807
8.436306953430 -83.725959777832 -237.949234008789 2.656090974808
9.231447219849 -83.589462280273 -244.080795288086 2.316288709641
9.604004859924 -77.928527832031 -243.672424316406 1.517707705498
-151.310043334961 -88.289756774902 -241.458663940430 5.555885314941
-147.365982055664 -86.029426574707 -243.989044189453 2.713003873825
15.448877334595 -80.878486633301 -244.219528198242 2.588641881943
-35.154235839844 -79.445625305176 -253.164230346680 8.783948898315
12.865206718445 -83.835952758789 -253.096954345703 1.654759645462
-42.983791351318 -84.570281982422 -254.437454223633 10.259215354919
-152.467391967773 -90.372558593750 -257.544281005859 5.752321243286
6.985883235931 -83.694305419922 -263.133972167969 2.447322130203
-144.129211425781 -80.921455383301 -268.012298583984 3.061390161514
-154.277801513672 -82.571365356445 -257.781799316406 1.926847338676
14.380287170410 -85.728576660156 -269.669158935547 2.959480285645
-8.991811752319 -77.440277099609 -256.478973388672 2.918846845627
-9.690157890320 -80.952575683594 -274.099365234375 3.054692983627
-148.837661743164 -82.778808593750 -258.173156738281 1.101474285126
-154.398178100586 -78.064224243164 -263.722320556641 2.212228775024
-146.522598266602 -82.729026794434 -266.350738525391 2.658623933792
-154.156524658203 -77.880302429199 -264.505981445313 2.676203250885
-157.032608032227 -80.105133056641 -269.835815429688 5.808286190033
-15.267608642578 -82.684577941895 -276.197509765625 8.741567611694
-2.564369916916 -77.654769897461 -275.366516113281 3.291797876358
3.868206977844 -88.131729125977 -272.205169677734 3.921489238739
4.420783996582 -81.973518371582 -291.164489746094 4.830968379974
-4.967339992523 -84.353889465332 -287.755554199219 6.998916149139
-138.163650512695 -80.084716796875 -296.678192138672 5.413338661194
-145.114517211914 -86.233299255371 -292.262756347656 1.903617739677
-60.011310577393 -78.897422790527 -70.648101806641 2.764460563660
-41.073104858398 -81.505516052246 -70.954757690430 0.696050703526
-59.009857177734 -83.070175170898 -72.221130371094 1.956941246986
-44.084674835205 -81.634597778320 -76.838836669922 1.421067357063
-75.262084960938 -84.293281555176 -68.629524230957 4.764825820923
-86.454696655273 -83.298088073730 -78.162635803223 5.768332958221
-30.516527175903 -78.994766235352 -89.285118103027 8.822571754456
-43.097728729248 -82.653190612793 -94.464782714844 8.874664306641
-46.623039245605 -81.508941650391 -87.395652770996 2.205451965332
-83.962776184082 -79.728446960449 -91.120346069336 2.048873424530
-75.019493103027 -79.489486694336 -107.400802612305 4.524477481842
40.508533477783 -85.295005798340 -117.099517822266 4.909299850464
-84.021369934082 -84.732643127441 -117.123703002930 8.615983009338
40.219932556152 -83.219161987305 -127.689033508301 3.724140167236
42.551441192627 -86.782272338867 -137.984985351563 9.661665916443
36.191864013672 -79.427246093750 -130.021530151367 0.827203750610
34.415397644043 -86.583282470703 -134.747985839844 6.002879142761
34.219181060791 -79.743759155273 -148.141220092773 1.683086752892
24.035446166992 -76.493057250977 -154.137893676758 1.074965476990
-44.258590698242 -86.333160400391 -153.521224975586 6.513003349304
24.049633026123 -79.197715759277 -155.261734008789 1.616336822510
21.842220306396 -81.057006835938 -160.757705688477 3.143482685089
-50.860515594482 -81.522636413574 -164.710952758789 7.270350456238
26.040876388550 -84.157890319824 -156.816925048828 4.415756225586
-43.687976837158 -80.932441711426 -168.210113525391 4.060519218445
27.126869201660 -79.912811279297 -174.689102172852 1.961099028587
-63.924854278564 -83.793899536133 -175.141784667969 5.985747337341
-11.913577079773 -85.842552185059 -187.266357421875 8.262165069580
-36.724636077881 -71.642684936523 -179.852096557617 1.085918188095
-18.650527954102 -78.606811523438 -180.131362915039 1.538479447365
-55.413845062256 -77.939331054688 -182.653701782227 2.053455591202
21.939643859863 -79.208816528320 -176.777755737305 1.450913071632
-19.696165084839 -82.259941101074 -189.488388061523 4.196134567261
-25.064218521118 -87.612831115723 -193.685501098633 6.551451206207
-63.801280975342 -81.537742614746 -190.228652954102 10.728522300720
-26.927742004395 -79.654266357422 -188.990829467773 0.533112764359
15.671030998230 -79.192810058594 -191.975189208984 3.378624439240
-155.169830322266 -75.800636291504 -185.120727539063 5.769214153290
-30.014339447021 -77.836547851563 -194.148880004883 2.650740623474
-54.151336669922 -79.013442993164 -198.735382080078 2.606813907623
-152.364700317383 -84.346092224121 -196.980133056641 2.400026798248
-146.466323852539 -83.120590209961 -206.366912841797 0.985362052917
-16.983516693115 -80.338584899902 -200.347183227539 2.347875595093
-17.406860351563 -83.495689392090 -210.457183837891 5.188537120819
-56.864082336426 -82.738159179688 -200.960998535156 1.102394461632
-23.407798767090 -75.950729370117 -205.760269165039 2.990950345993
-56.023105621338 -81.443016052246 -212.830474853516 5.408531188965
-47.539508819580 -86.059104919434 -210.840515136719 7.885339260101
-58.166011810303 -88.028320312500 -206.035186767578 3.305335998535
-18.805543899536 -79.483901977539 -214.891494750977 3.400043487549
-152.790664672852 -83.756713867188 -210.616088867188 4.107103824615
-56.628696441650 -81.188125610352 -206.352737426758 1.273906469345
-59.576992034912 -81.296798706055 -214.303329467773 4.983017444611
-32.809524536133 -80.577606201172 -205.702484130859 1.682543277740
-15.997989654541 -85.159210205078 -204.608352661133 5.578347206116
-40.180946350098 -81.578910827637 -212.596847534180 5.643145561218
-78.406593322754 -88.456634521484 -221.295150756836 10.696642875671
-146.136962890625 -84.973144531250 -218.741287231445 2.400951147079
-37.065567016602 -83.405174255371 -208.228744506836 3.942945241928
1.441946029663 -80.605522155762 -217.497726440430 4.932322978973
-59.011371612549 -80.772171020508 -218.929199218750 9.613729476929
-74.210159301758 -77.532569885254 -221.437637329102 6.969142913818
-28.337520599365 -75.508216857910 -226.925903320313 5.765167713165
-12.144887924194 -80.243637084961 -223.174041748047 4.095417499542
-26.854228973389 -83.047340393066 -229.388366699219 10.033288955688
10.031089782715 -80.185066223145 -220.272186279297 1.979317069054
-154.544799804688 -77.469566345215 -228.026321411133 1.422385215759
-12.131333351135 -78.101364135742 -221.098754882813 2.777985334396
-151.015945434570 -81.552688598633 -235.829742431641 2.988932132721
3.019025087357 -87.363311767578 -242.525436401367 8.634855270386
12.758779525757 -86.022438049316 -228.795516967773 4.831954479218
-6.458011150360 -83.241271972656 -233.596054077148 6.008102893829
13.848835945129 -79.215789794922 -233.248107910156 1.225425720215
-141.644348144531 -83.499076843262 -233.478149414063 2.793442249298
6.266847133636 -86.006172180176 -229.704467773438 5.946672439575
-156.214981079102 -76.662620544434 -238.652374267578 4.233572959900
-153.272338867188 -83.998046875000 -238.364044189453 3.467134714127
-4.932961940765 -78.725517272949 -229.521087646484 1.681620001793
13.187001228333 -79.427185058594 -244.061630249023 2.391940355301
-35.662288665771 -85.616630554199 -250.096832275391 8.750702857971
-147.021820068359 -78.208618164063 -241.439132690430 1.071782708168
-45.602474212646 -78.955444335938 -244.716751098633 1.318366765976
-49.640628814697 -82.980278015137 -250.764984130859 6.029375553131
-30.647621154785 -83.475189208984 -253.496246337891 11.005363464355
10.537187576294 -81.015411376953 -253.604370117188 2.481093406677
-48.878421783447 -84.100959777832 -250.140029907227 6.665749073029
17.197679519653 -84.670295715332 -249.617843627930 3.091982364655
8.668719291687 -77.004646301270 -240.743591308594 1.387322545052
6.364171981812 -84.428108215332 -251.002685546875 2.827136039734
-46.304504394531 -78.707984924316 -255.695800781250 9.089509010315
14.888189315796 -83.829780578613 -253.363586425781 2.754068374634
-142.573135375977 -84.044189453125 -253.609008789063 2.519540071487
20.138128280640 -82.387817382813 -256.015106201172 3.453580617905
0.853600025177 -85.542457580566 -250.581863403320 2.891920804977
5.039826869965 -80.608871459961 -260.575683593750 4.711758136749
-153.796203613281 -79.675704956055 -263.574768066406 0.804668009281
-153.527313232422 -79.055061340332 -264.240783691406 1.604439616203
-147.623931884766 -86.444084167480 -268.597198486328 1.237157106400
-158.985809326172 -77.596443176270 -264.029296875000 3.809888124466
11.007253646851 -82.283973693848 -277.032440185547 1.568250775337
-158.254653930664 -75.244285583496 -281.024688720703 4.506160736084
-9.907527923584 -80.953193664551 -286.917175292969 3.598137617111
-158.878524780273 -72.170402526855 -276.572387695313 1.762246966362
-147.938674926758 -80.304908752441 -277.036071777344 1.730897903442
-155.870849609375 -79.651611328125 -280.974853515625 3.806552171707
-157.069641113281 -77.292663574219 -288.994476318359 2.578479051590
-138.766235351563 -75.433776855469 -291.927093505859 3.117106437683
-153.508056640625 -84.077262878418 -295.894500732422 2.859913587570
-157.097640991211 -91.529495239258 -294.471374511719 8.159296989441
-154.632095336914 -80.627288818359 -303.886047363281 4.107909679413
-158.027404785156 -78.006195068359 -298.168365478516 5.210302352905
-151.616394042969 -72.504180908203 -298.395202636719 2.737688779831
-153.229675292969 -79.618095397949 -306.304962158203 1.933123946190
-152.443725585938 -78.988243103027 -305.776947021484 1.245936393738
-150.298706054688 -76.620170593262 -304.918640136719 2.528621912003
-53.197219848633 -83.071624755859 -60.189964294434 4.905434608459
-56.972614288330 -84.818534851074 -63.502872467041 6.145574569702
-46.832592010498 -82.148307800293 -69.798706054688 1.968890428543
-30.117753982544 -87.986503601074 -80.666923522949 7.774614810944
-56.932834625244 -81.227508544922 -92.950485229492 1.504054546356
-86.438507080078 -87.536003112793 -107.054679870605 5.195384979248
50.859603881836 -88.252288818359 -116.090362548828 10.345436096191
-80.930580139160 -84.277885437012 -107.723327636719 2.372328758240
37.722190856934 -82.050895690918 -117.941169738770 2.255059719086
37.240768432617 -83.192405700684 -131.119064331055 3.424373626709
34.077213287354 -80.660911560059 -128.082077026367 3.129996538162
35.882606506348 -79.136146545410 -144.364547729492 1.418903350830
30.059133529663 -79.991706848145 -146.986938476563 1.464202046394
33.504539489746 -83.032409667969 -138.782379150391 2.676181554794
27.845621109009 -81.048049926758 -156.823425292969 1.442222595215
-43.221622467041 -83.033271789551 -151.164978027344 3.658074378967
27.156894683838 -78.205101013184 -149.885498046875 1.573278427124
-61.963195800781 -81.690498352051 -158.644714355469 3.939311981201
-40.321060180664 -85.979545593262 -156.767868041992 6.140327453613
-58.547039031982 -83.377288818359 -172.942947387695 2.805270671844
-45.429901123047 -82.842193603516 -167.192871093750 5.652018070221
29.876079559326 -85.472404479980 -161.814590454102 6.632099151611
-37.660610198975 -86.344276428223 -172.069839477539 6.989999294281
-3.824512004852 -77.170173645020 -171.511962890625 2.126061201096
30.777160644531 -81.898811340332 -164.447143554688 3.382179021835
-17.301643371582 -84.744522094727 -171.989517211914 4.695428848267
-66.707473754883 -77.116508483887 -169.994750976563 2.398594141006
-41.165111541748 -83.538520812988 -173.333847045898 5.520679950714
-29.269748687744 -75.605690002441 -184.804946899414 1.682459712029
28.708909988403 -83.033531188965 -181.706527709961 6.270474910736
-58.099674224854 -82.684165954590 -185.724853515625 5.040840148926
-30.726823806763 -76.177261352539 -184.439086914063 1.505780577660
22.683368682861 -83.874122619629 -188.853149414063 5.857749462128
-55.283878326416 -80.193893432617 -191.383926391602 3.847235918045
-26.875490188599 -77.696449279785 -196.791885375977 1.648320078850
-57.434463500977 -79.312088012695 -185.192672729492 3.004492521286
-37.914939880371 -83.617980957031 -206.019180297852 2.920324087143
-32.208057403564 -87.453483581543 -196.888183593750 5.248944759369
-40.508106231689 -83.097976684570 -198.923843383789 1.655295014381
-27.582366943359 -78.292121887207 -200.948837280273 4.198775291443
-135.522399902344 -77.924659729004 -205.259338378906 3.775653123856
14.606809616089 -80.686988830566 -211.670730590820 2.542671203613
-142.552291870117 -73.814018249512 -201.300476074219 2.621944904327
-28.205451965332 -78.528572082520 -208.133972167969 1.557786107063
-19.169706344604 -74.941780090332 -204.700805664063 0.947593271732
-43.019283294678 -75.441703796387 -198.511596679688 1.384810209274
11.017271041870 -83.344039916992 -196.894943237305 5.541512012482
-19.897647857666 -80.666664123535 -207.959732055664 3.949491024017
-63.250911712646 -78.377052307129 -216.443008422852 5.978833675385
-40.945648193359 -75.798355102539 -207.511291503906 1.860169172287
-66.184692382813 -78.283630371094 -212.864776611328 2.311036109924
-73.970855712891 -79.374351501465 -213.159072875977 1.219265580177
20.542407989502 -81.056686401367 -222.772766113281 4.224337577820
-90.512367248535 -84.178199768066 -216.569885253906 6.864395618439
-32.105571746826 -81.880516052246 -226.831985473633 10.053730964661
-87.215782165527 -83.285469055176 -218.267623901367 6.022107124329
-150.232101440430 -81.657600402832 -223.881607055664 0.511256039143
-12.553448677063 -80.677116394043 -218.804443359375 2.003431320190
-13.452328681946 -76.788581848145 -229.624099731445 1.909887194633
13.156749725342 -80.116851806641 -215.463333129883 0.649200499058
11.451571464539 -84.691764831543 -229.375549316406 3.900771617889
-7.250868797302 -79.233909606934 -239.426330566406 6.194617748260
-134.567520141602 -80.893310546875 -229.177490234375 1.750686645508
-148.597183227539 -81.576530456543 -231.397750854492 1.409000515938
-149.985107421875 -70.702186584473 -236.787231445313 3.021250486374
8.311513900757 -81.820030212402 -237.833312988281 1.801104784012
-0.865275025368 -80.117576599121 -242.470825195313 4.596199035645
-29.811620712280 -76.612777709961 -236.840530395508 2.132885932922
-150.982528686523 -81.084762573242 -237.279403686523 2.676992893219
5.620203018188 -76.051643371582 -252.401580810547 6.252490520477
-29.455537796021 -80.956687927246 -252.755218505859 9.585813522339
16.053813934326 -76.635803222656 -241.353713989258 2.965791225433
-59.584598541260 -81.075813293457 -252.672378540039 5.358892917633
-54.795669555664 -73.781196594238 -254.529174804688 6.354943275452
-147.256835937500 -78.796989440918 -248.242797851563 1.989714384079
-63.855403900146 -80.620162963867 -252.718200683594 4.533061027527
-8.393166542053 -71.849388122559 -261.306152343750 3.830866813660
-12.635288238525 -81.717010498047 -260.476989746094 3.192000865936
-152.418090820313 -79.746269226074 -262.051147460938 1.341055035591
-137.670547485352 -77.904838562012 -262.890716552734 1.725481748581
-138.726898193359 -77.205383300781 -266.433959960938 5.471249103546
13.791934967041 -73.779548645020 -269.322204589844 6.553851127625
-148.940414428711 -84.320289611816 -275.906372070313 1.478353261948
15.447666168213 -86.559257507324 -276.865600585938 7.174392223358
-153.057235717773 -74.989425659180 -270.009033203125 2.437407255173
3.484189987183 -90.024902343750 -283.440521240234 9.779198646545
-152.349288940430 -76.551864624023 -287.249755859375 2.599936008453
-2.364247083664 -75.336463928223 -291.730010986328 0.725275635719
-161.669815063477 -83.684814453125 -287.885498046875 7.019690513611
-144.057403564453 -77.824127197266 -297.770263671875 3.684014320374
-139.520797729492 -79.658485412598 -285.253021240234 1.536704182625
-153.447341918945 -81.015525817871 -296.735198974609 2.036192417145
-20.615570068359 -80.958824157715 -296.925354003906 7.531291961670
-158.296554565430 -76.736053466797 -295.726196289063 3.244769096375
-153.886352539063 -80.086875915527 -296.626831054688 2.279929637909
-153.546066284180 -73.663520812988 -314.620117187500 3.463916063309
-55.048431396484 -79.119995117188 -65.978065490723 2.343567848206
-37.947700500488 -84.592391967773 -69.316902160645 4.799563407898
-66.269401550293 -84.329963684082 -64.271194458008 5.216816902161
-30.400974273682 -80.415122985840 -78.185523986816 0.605879187584
-30.694585800171 -87.838325500488 -80.809272766113 7.392516136169
-87.876632690430 -78.779487609863 -93.296379089355 0.971684634686
85.469520568848 -77.328132629395 -90.489532470703 0.247762471437
-38.264686584473 -78.653472900391 -86.668678283691 2.990459442139
81.483779907227 -86.536956787109 -88.790359497070 8.995093345642
75.672340393066 -80.633071899414 -96.435157775879 5.834818840027
87.332710266113 -74.575164794922 -102.822074890137 2.210052251816
82.369010925293 -78.090232849121 -99.569053649902 3.263664007187
94.666313171387 -80.220115661621 -99.374038696289 5.797317981720
-85.829032897949 -75.411499023438 -99.906723022461 5.434723377228
55.306049346924 -77.315666198730 -113.354957580566 5.933279514313
-94.838516235352 -77.428222656250 -123.710159301758 7.662943840027
33.322280883789 -81.964920043945 -119.977783203125 3.014287471771
51.423393249512 -81.726943969727 -120.379196166992 7.247809410095
36.737834930420 -81.611007690430 -125.987113952637 0.615350902081
30.208646774292 -82.059280395508 -136.413803100586 3.105289459229
25.371810913086 -84.129272460938 -149.795089721680 4.277200698853
29.795982360840 -81.019493103027 -152.104125976563 2.022214174271
31.169961929321 -78.937103271484 -160.114288330078 1.629256486893
-52.013141632080 -82.481819152832 -157.509689331055 6.156388759613
-46.089527130127 -83.151336669922 -158.741958618164 5.077790260315
-42.262462615967 -84.640830993652 -161.271896362305 4.605975627899
26.090694427490 -85.955307006836 -154.595611572266 5.859824657440
20.365484237671 -78.342727661133 -178.043029785156 1.329106450081
-39.895397186279 -81.068679809570 -164.930191040039 3.069629907608
-34.982131958008 -78.273094177246 -160.312835693359 0.176672503352
-50.831699371338 -75.910369873047 -158.670852661133 2.603141546249
-1.904445052147 -81.117057800293 -175.871551513672 4.764899253845
26.474821090698 -79.219566345215 -166.797393798828 1.018168330193
28.519056320190 -71.053115844727 -165.249359130859 2.906799077988
25.036277770996 -81.191864013672 -175.542633056641 2.132981061935
-9.105541229248 -78.828346252441 -174.898803710938 1.277420401573
-2.985806941986 -80.504699707031 -177.433090209961 5.388853073120
-55.048030853271 -76.413230895996 -182.759979248047 2.108275890350
-63.175434112549 -80.645851135254 -171.884353637695 1.965691089630
-37.945640563965 -81.956741333008 -183.950927734375 5.514538764954
-38.653423309326 -77.661888122559 -172.064132690430 1.125746250153
21.055534362793 -80.546401977539 -179.626205444336 2.406042098999
-24.632959365845 -84.113037109375 -186.106918334961 0.543019533157
-39.659259796143 -87.766502380371 -188.511062622070 5.399543762207
-62.533733367920 -84.524047851563 -185.451507568359 8.282770156860
102.196197509766 -83.132637023926 -186.299240112305 6.604878425598
17.581680297852 -78.877403259277 -176.530090332031 2.718936204910
-25.307994842529 -77.699821472168 -183.992477416992 1.850165605545
-52.103004455566 -76.710266113281 -185.992324829102 1.031857371330
-15.741368293762 -76.121215820313 -183.851043701172 3.526428699493
105.342941284180 -82.120727539063 -188.903854370117 4.607674598694
-48.046703338623 -79.505622863770 -191.071456909180 2.208264827728
13.502154350281 -80.973381042480 -191.425384521484 4.122964859009
24.331825256348 -78.982597351074 -189.865051269531 3.492278099060
-54.444156646729 -79.969619750977 -188.469390869141 1.568824052811
-25.540191650391 -76.227767944336 -188.693267822266 2.953806638718
-58.999576568604 -84.530754089355 -180.623397827148 5.145400524139
-30.057256698608 -70.000793457031 -186.563262939453 0.647756576538
-27.222312927246 -80.551803588867 -189.357254028320 0.587147891521
19.326265335083 -84.674751281738 -193.779922485352 6.840459346771
-50.936176300049 -82.920570373535 -193.683837890625 3.701938867569
101.473648071289 -81.481010437012 -198.771316528320 4.175214290619
-51.831089019775 -73.962043762207 -196.893829345703 5.029468059540
13.529662132263 -83.572830200195 -208.271255493164 3.574753284454
11.622880935669 -78.828414916992 -209.880523681641 1.319975018501
-45.825637817383 -81.278091430664 -194.475433349609 0.747479915619
-18.620805740356 -76.875732421875 -196.470565795898 1.290904998779
101.285140991211 -82.666999816895 -206.428237915039 6.542199611664
105.032981872559 -84.038825988770 -205.288101196289 9.275175094604
-47.742813110352 -71.878738403320 -196.779754638672 3.771527528763
-153.234146118164 -80.324020385742 -194.857101440430 2.305857658386
-55.426158905029 -74.968650817871 -206.233459472656 4.311109542847
-148.629180908203 -76.542236328125 -204.220535278320 1.351714372635
-136.713180541992 -76.598861694336 -205.961730957031 4.214580059052
-43.959720611572 -74.396942138672 -203.504104614258 3.233857393265
10.555777549744 -80.415435791016 -214.975967407227 1.541690111160
-21.035102844238 -77.774063110352 -205.054748535156 0.966096460819
13.483735084534 -84.903762817383 -213.873016357422 4.589160442352
84.390853881836 -84.532989501953 -220.131164550781 8.009833335876
-42.418209075928 -76.567489624023 -203.360275268555 0.687815487385
-15.047026634216 -81.761146545410 -210.152816772461 3.115983486176
-12.026092529297 -81.093063354492 -216.316253662109 1.819398641586
-40.324478149414 -78.691123962402 -216.885864257813 8.139992713928
4.736108779907 -87.749366760254 -215.730789184570 9.241194725037
-77.703536987305 -77.714324951172 -216.959716796875 1.964504957199
10.095303535461 -83.327789306641 -222.423904418945 2.656079292297
-40.243824005127 -77.486404418945 -219.330505371094 9.080337524414
-143.893325805664 -77.691932678223 -208.382446289063 1.782995462418
-147.865081787109 -80.418640136719 -217.333114624023 2.073750019073
-87.471717834473 -78.842330932617 -218.247375488281 2.482063531876
-35.084487915039 -79.121688842773 -215.390060424805 3.235284090042
-26.665008544922 -78.530700683594 -222.127777099609 2.599541664124
-29.894327163696 -81.266578674316 -219.225234985352 4.110608100891
-92.520957946777 -81.738075256348 -226.090942382813 9.270099639893
-87.138832092285 -78.583671569824 -218.081344604492 2.211697578430
8.370056152344 -78.154281616211 -225.336105346680 1.529926419258
-148.170684814453 -76.108970642090 -221.700531005859 1.318719863892
-14.588608741760 -77.414787292480 -217.531280517578 1.823626041412
5.277483940125 -84.463455200195 -225.607055664063 6.390305995941
-141.996566772461 -80.352180480957 -220.410003662109 4.538335800171
-24.438638687134 -82.234222412109 -230.229110717773 8.542816162109
-6.378258228302 -78.047340393066 -230.779144287109 1.443956851959
-2.841660976410 -79.844123840332 -224.554443359375 1.651760101318
-154.743301391602 -76.650444030762 -226.059432983398 1.709880113602
-135.431350708008 -73.836196899414 -229.360931396484 1.537903547287
-6.447487831116 -77.456710815430 -237.155273437500 3.835718154907
-151.286560058594 -82.343376159668 -231.866729736328 1.670416593552
-3.860939979553 -78.231590270996 -237.248245239258 3.115382194519
15.517550468445 -72.665145874023 -239.266494750977 1.406503319740
-8.070071220398 -74.023880004883 -245.560943603516 1.819551348686
-0.916298985481 -80.058227539063 -238.005935668945 2.332698106766
6.663936138153 -87.031578063965 -243.137420654297 6.550277233124
-152.812210083008 -78.783805847168 -236.492034912109 2.800357580185
-19.698978424072 -78.349807739258 -244.191802978516 2.383222341537
-31.680370330811 -86.415176391602 -248.258453369141 8.171967506409
6.285987854004 -73.842391967773 -236.128433227539 2.525352954865
-2.896837949753 -74.830490112305 -245.509231567383 1.661841273308
3.131026029587 -80.147850036621 -242.330062866211 3.246216773987
-55.544792175293 -78.941093444824 -244.181533813477 1.106988191605
-156.910354614258 -74.663780212402 -250.044509887695 1.856919765472
-155.914215087891 -76.119148254395 -253.606414794922 3.643401622772
9.789429664612 -80.816017150879 -256.107971191406 3.587745666504
17.658382415771 -81.267013549805 -254.160583496094 2.166832923889
-61.303325653076 -77.468879699707 -254.336471557617 5.161507129669
-152.201232910156 -72.354164123535 -258.617126464844 2.664812326431
-156.555755615234 -83.435836791992 -259.800537109375 3.107092857361
-151.265136718750 -76.886230468750 -260.144897460938 3.580045700073
-150.106979370117 -82.761047363281 -260.324157714844 0.806982278824
-139.448837280273 -79.582595825195 -261.666137695313 2.381736040115
-16.409334182739 -77.103149414063 -264.835479736328 3.680420637131
-150.727310180664 -74.709815979004 -272.317596435547 2.099620819092
-15.308963775635 -82.836257934570 -265.127960205078 5.601751327515
-157.653106689453 -77.704315185547 -279.055328369141 5.892576694489
-158.484024047852 -80.131622314453 -287.484771728516 3.208830356598
-158.830780029297 -82.408515930176 -285.435180664063 4.279578685760
-11.043611526489 -72.715896606445 -298.371093750000 6.686872005463
-150.626632690430 -75.593414306641 -289.031860351563 1.279425978661
-41.555618286133 -77.579673767090 -285.442169189453 1.789359688759
-35.699665069580 -71.192932128906 -296.986694335938 6.355964183807
-27.083045959473 -77.190940856934 -290.551544189453 1.621509790421
-13.705683708191 -78.267738342285 -299.243103027344 7.995599746704
12.971128463745 -77.309120178223 -300.581237792969 6.902252197266
-129.818023681641 -75.753532409668 -292.169982910156 3.226202487946
-60.349761962891 -81.390655517578 -291.562927246094 5.426964282990
-44.207508087158 -75.514221191406 -301.456390380859 10.565779685974
-40.998413085938 -78.557044982910 -297.065093994141 6.786005973816
-14.130750656128 -78.686256408691 -295.290222167969 4.990106105804
3.681377887726 -75.929939270020 -293.969512939453 1.477455019951
-142.377166748047 -78.717948913574 -296.124938964844 4.200108528137
2.568185091019 -80.689376831055 -302.314697265625 11.125802993774
-161.624237060547 -80.473472595215 -310.607635498047 8.205597877502
-153.227279663086 -75.177230834961 -304.843627929688 2.225675821304
-155.996810913086 -74.057029724121 -315.741546630859 4.423346996307
-152.166625976563 -75.832229614258 -315.885009765625 3.770377874374
-52.248577117920 -78.829589843750 -56.394020080566 2.223817348480
-48.815696716309 -80.009963989258 -62.970874786377 2.680587291718
-70.079780578613 -79.589569091797 -60.224544525146 2.636458635330
-43.748817443848 -80.845504760742 -63.508850097656 2.120775222778
-40.646404266357 -74.646896362305 -65.009696960449 4.210026264191
-23.297266006470 -75.547508239746 -64.487556457520 1.231399774551
-80.742980957031 -80.673362731934 -71.049461364746 2.130613327026
82.861419677734 -79.263580322266 -90.106124877930 1.620335698128
-91.014076232910 -80.958663940430 -87.906677246094 4.652476787567
86.739395141602 -84.840446472168 -89.702491760254 7.117571830750
87.980583190918 -82.193572998047 -91.626235961914 4.910397052765
95.617477416992 -80.430007934570 -91.673736572266 4.486837387085
-59.776657104492 -85.444023132324 -98.398452758789 3.906784296036
87.458679199219 -85.260597229004 -101.763420104980 10.344974517822
81.983047485352 -78.618057250977 -101.572937011719 4.995390415192
95.997917175293 -84.142539978027 -101.772811889648 10.551174163818
-59.527809143066 -82.763786315918 -103.206932067871 6.509589195251
57.516494750977 -78.958106994629 -105.385246276855 5.276023387909
46.305358886719 -81.196395874023 -112.225990295410 2.920335292816
37.616355895996 -81.139686584473 -116.538124084473 2.092479944229
37.419094085693 -79.591354370117 -117.731933593750 1.886748433113
-93.406211853027 -77.214889526367 -119.464202880859 4.158897876740
34.481979370117 -82.933753967285 -126.310043334961 2.645374059677
-82.785598754883 -78.935134887695 -118.858726501465 7.638874053955
41.023830413818 -80.290290832520 -135.936477661133 4.347043991089
31.511222839355 -80.116302490234 -129.185180664063 1.532101988792
31.905241012573 -84.530654907227 -132.003463745117 4.273113250732
41.900451660156 -77.498291015625 -130.692596435547 2.399732828140
40.298603057861 -84.875045776367 -135.012374877930 6.055197238922
-57.309440612793 -70.602378845215 -148.026504516602 2.852741479874
36.593086242676 -83.071769714355 -140.756942749023 4.276448726654
36.085395812988 -80.736282348633 -148.361312866211 3.517370700836
-47.603351593018 -73.174903869629 -145.674972534180 2.842554569244
-49.507591247559 -83.557868957520 -147.165634155273 5.149546623230
33.630756378174 -80.099243164063 -151.229965209961 2.435503244400
107.087089538574 -78.391304016113 -150.683883666992 4.313154697418
108.603965759277 -79.122261047363 -154.214828491211 4.029956340790
27.011434555054 -83.111938476563 -152.426177978516 3.677763223648
-43.629409790039 -78.039993286133 -152.235153198242 2.192146301270
112.172706604004 -84.518074035645 -170.614135742188 7.578749656677
-44.913791656494 -77.749450683594 -163.102355957031 1.021941065788
-62.860698699951 -81.524147033691 -168.595855712891 2.477631807327
110.004974365234 -80.826370239258 -172.225097656250 3.925508022308
25.060894012451 -82.288917541504 -176.947998046875 3.780427694321
-1.923225998878 -79.464569091797 -173.509704589844 2.850870370865
111.527915954590 -83.107101440430 -161.314804077148 5.960820674896
-62.920478820801 -81.415306091309 -165.569961547852 1.873772501945
-36.099693298340 -85.450485229492 -168.496292114258 5.206521511078
108.499114990234 -78.745147705078 -174.080368041992 1.807308077812
23.705032348633 -74.026588439941 -165.993331909180 2.974155664444
-68.724716186523 -79.039443969727 -176.091323852539 6.676219940186
104.985931396484 -76.593437194824 -182.773864746094 0.845941543579
-65.743309020996 -80.932899475098 -175.417877197266 5.058393955231
-54.839775085449 -82.177474975586 -184.267684936523 3.477261781693
103.705070495605 -79.374313354492 -189.415176391602 2.061793565750
-65.789451599121 -78.821434020996 -174.761077880859 3.559899568558
112.221794128418 -78.808403015137 -182.680297851563 3.585498571396
-59.521999359131 -82.138740539551 -177.573348999023 2.538687705994
-15.227782249451 -78.530609130859 -181.988082885742 1.683630228043
-11.079360961914 -79.446464538574 -186.079574584961 6.604611396790
103.820800781250 -80.816993713379 -179.657684326172 4.322480201721
20.881355285645 -78.747642517090 -174.085922241211 1.650534152985
28.155250549316 -81.649665832520 -175.012496948242 3.759652376175
-56.092086791992 -83.089401245117 -184.126037597656 3.835813999176
15.549706459045 -78.372451782227 -193.786819458008 3.107950687408
-58.282115936279 -80.920783996582 -187.038223266602 5.197462081909
-54.260284423828 -74.289787292480 -199.647476196289 5.894933223724
10.618714332581 -80.130950927734 -186.836029052734 5.404429912567
-64.227119445801 -75.661300659180 -191.715942382813 11.933552742004
109.764144897461 -75.211532592773 -194.982696533203 3.982764720917
18.665679931641 -80.560386657715 -187.006652832031 1.956435680389
-33.790500640869 -80.297019958496 -193.819534301758 1.716132402420
-47.891223907471 -74.286621093750 -201.768814086914 4.512577056885
8.304450988770 -77.392349243164 -204.412948608398 2.442146301270
-30.213369369507 -79.530906677246 -192.368530273438 1.826227426529
-56.056755065918 -78.547256469727 -202.742019653320 1.468850612640
97.417541503906 -83.393821716309 -197.811996459961 6.220646858215
11.402713775635 -75.757919311523 -197.926696777344 1.231263875961
-137.725860595703 -78.695991516113 -197.967086791992 2.571101427078
-44.179843902588 -76.067626953125 -196.574569702148 1.403445839882
102.118049621582 -82.515724182129 -204.980636596680 6.872689723969
-151.189559936523 -76.629615783691 -204.817413330078 0.536376655102
15.767173767090 -78.372261047363 -200.221817016602 1.141457438469
-48.968193054199 -88.270492553711 -210.039505004883 7.424521446228
-36.020530700684 -79.793937683105 -210.909362792969 2.125887155533
-43.455703735352 -73.841346740723 -210.893127441406 6.436474323273
-44.657806396484 -79.325302124023 -197.177108764648 1.649236083031
100.377677917480 -83.181732177734 -209.442138671875 7.606402873993
-19.998449325562 -77.140052795410 -208.213684082031 3.064281940460
-154.322219848633 -72.346466064453 -202.999343872070 1.913305163383
8.746242523193 -76.373458862305 -216.800094604492 1.774090528488
-73.031684875488 -80.307411193848 -207.178192138672 1.509631395340
-145.724243164063 -75.436172485352 -214.712326049805 2.294366121292
94.994026184082 -77.483482360840 -218.211791992188 4.194857120514
-37.888153076172 -78.696411132813 -212.563720703125 3.606998682022
-27.159759521484 -76.903694152832 -223.624130249023 2.889273166656
3.305641889572 -80.123031616211 -217.935791015625 4.825228691101
-74.699844360352 -76.232002258301 -217.534393310547 3.794226408005
-28.686307907104 -76.903808593750 -214.275390625000 1.255157828331
-11.536958694458 -83.142982482910 -225.288558959961 6.426296710968
-83.961486816406 -81.599555969238 -223.111709594727 7.826552867889
-15.722880363464 -82.755760192871 -226.574966430664 5.592291355133
7.366330146790 -77.728591918945 -223.322341918945 1.931498289108
15.014392852783 -87.381950378418 -229.589340209961 6.093138217926
-148.246383666992 -77.248115539551 -221.808288574219 1.820659279823
-5.810598850250 -75.018783569336 -223.435134887695 2.196235179901
-93.521263122559 -73.472045898438 -227.666961669922 6.294383049011
-25.732229232788 -73.032264709473 -224.546890258789 2.690197944641
92.542503356934 -80.739990234375 -221.551406860352 6.092238426208
3.803360939026 -80.883277893066 -236.760864257813 3.711176156998
11.961953163147 -84.108390808105 -222.209976196289 3.519104719162
75.710571289063 -70.493927001953 -230.822006225586 0.606176078320
0.605865001678 -77.027786254883 -233.255325317383 2.419203996658
82.830581665039 -76.404418945313 -231.303009033203 4.413976192474
-18.777692794800 -76.944511413574 -230.268203735352 2.953026294708
9.688671112061 -81.013854980469 -231.623168945313 2.153527021408
-153.025726318359 -78.999282836914 -229.174179077148 1.458278298378
-20.976325988770 -87.865425109863 -234.541992187500 10.337003707886
-1.344696998596 -83.734382629395 -233.947357177734 5.238306045532
-153.294128417969 -79.866790771484 -232.060028076172 0.734946548939
-135.953308105469 -78.036209106445 -230.221038818359 1.207151770592
9.055977821350 -76.501304626465 -235.190216064453 1.564011573792
-9.603540420532 -77.285079956055 -249.999664306641 1.553366541862
-141.574172973633 -77.942741394043 -235.597549438477 2.954190015793
-152.440612792969 -81.677528381348 -238.399215698242 2.530281782150
-147.604919433594 -73.603935241699 -242.731460571289 1.615835666656
-26.570135116577 -78.694313049316 -240.146621704102 1.931819081306
-147.112014770508 -74.836761474609 -249.229431152344 2.936279058456
15.412255287170 -77.190643310547 -246.802993774414 1.563431501389
4.420258998871 -79.223548889160 -252.115173339844 3.587038516998
-156.409027099609 -73.507865905762 -239.936279296875 2.308079242706
-156.411392211914 -76.301605224609 -245.804443359375 3.123017311096
-48.114459991455 -78.072280883789 -245.245208740234 1.684274315834
-36.967319488525 -82.561019897461 -251.692306518555 7.853443145752
3.342804908752 -80.539978027344 -257.792449951172 4.471203327179
-37.488002777100 -75.116867065430 -253.997558593750 9.337885856628
21.120473861694 -80.822555541992 -260.148925781250 2.674822092056
-4.806705951691 -79.257492065430 -251.250885009766 1.782532930374
-158.846801757813 -74.084274291992 -255.853073120117 3.623606204987
-7.957163810730 -69.093505859375 -253.501266479492 3.290786027908
-142.898681640625 -79.148292541504 -256.292510986328 0.666504979134
-69.335937500000 -78.449638366699 -256.644073486328 6.140967845917
-158.543304443359 -83.645729064941 -260.919250488281 5.166345119476
-129.988937377930 -80.850730895996 -267.532287597656 7.768432617188
-153.959808349609 -72.460731506348 -262.842224121094 1.791918635368
-15.535644531250 -75.623542785645 -274.448913574219 4.281627178192
-148.611541748047 -78.937644958496 -267.609588623047 3.235645294189
-152.528167724609 -76.812583923340 -266.444824218750 2.739420175552
-14.764818191528 -80.347991943359 -274.381225585938 6.392268180847
-152.785369873047 -77.874809265137 -269.950225830078 2.377297639847
-9.645791053772 -81.631271362305 -291.773223876953 4.496263980865
-47.581073760986 -80.000587463379 -285.033172607422 3.987490415573
-144.044036865234 -79.202384948730 -287.922576904297 2.044899225235
-137.392990112305 -72.798896789551 -283.307739257813 2.824309587479
-129.576934814453 -75.909004211426 -286.465026855469 3.222617387772
-59.549530029297 -75.738334655762 -283.244995117188 2.745538473129
-118.081451416016 -76.310974121094 -294.950500488281 4.621991634369
10.922863960266 -85.569259643555 -297.300994873047 9.310497283936
-67.498603820801 -76.606697082520 -291.152496337891 1.815259695053
-145.470825195313 -72.977043151855 -289.561523437500 3.717048645020
-66.983360290527 -72.591430664063 -291.247436523438 2.282562732697
-148.313888549805 -83.438980102539 -293.754730224609 2.502026319504
-124.081596374512 -74.945793151855 -287.453308105469 1.087174177170
-51.536758422852 -76.212356567383 -297.939788818359 7.697751998901
-45.846183776855 -77.575698852539 -296.690887451172 6.515738010406
-139.126129150391 -76.400634765625 -293.608123779297 3.597891330719
-16.733371734619 -71.454658508301 -300.030212402344 8.487360954285
-6.689767837524 -82.019104003906 -299.672546386719 10.631241798401
4.221570014954 -77.584609985352 -298.229675292969 6.025225162506
8.165610313416 -77.031463623047 -301.096954345703 8.037266731262
-152.303588867188 -82.260078430176 -298.901214599609 1.853771686554
-149.340301513672 -73.924697875977 -301.284759521484 3.323884248734
-68.929115295410 -75.189254760742 -69.075607299805 5.110745429993
89.008110046387 -81.150711059570 -88.462318420410 3.777312278748
81.727912902832 -81.822906494141 -85.497596740723 3.946764230728
-25.573377609253 -85.020690917969 -80.231124877930 7.265169143677
87.625984191895 -79.121551513672 -82.269493103027 2.272957086563
-38.518005371094 -75.971984863281 -87.425125122070 4.291748046875
92.621055603027 -86.031250000000 -87.192977905273 9.140812873840
90.241844177246 -85.718368530273 -88.971740722656 8.366252899170
-70.676574707031 -75.563461303711 -98.920898437500 2.176194906235
81.027740478516 -80.216773986816 -98.674972534180 4.964936256409
81.122268676758 -76.832092285156 -107.205871582031 7.056447029114
93.909202575684 -79.102661132813 -98.201011657715 4.243620872498
54.631893157959 -80.490409851074 -98.736007690430 4.082853317261
-79.209396362305 -84.371452331543 -106.238716125488 2.448211431503
-84.792961120605 -74.104080200195 -103.636474609375 3.194839715958
51.143280029297 -78.907463073730 -119.263275146484 5.286634922028
-92.003570556641 -82.241302490234 -115.168876647949 5.992736816406
44.133155822754 -79.640235900879 -123.179039001465 2.121938228607
111.980941772461 -79.271186828613 -124.743362426758 4.271312236786
107.036804199219 -76.342788696289 -141.159652709961 3.467514038086
24.361261367798 -73.894760131836 -145.457946777344 1.391654014587
113.748298645020 -86.520942687988 -141.329864501953 10.018676757813
28.324552536011 -76.416770935059 -141.487182617188 1.928845763206
109.200698852539 -82.100318908691 -142.905471801758 6.767672538757
30.825586318970 -84.452407836914 -146.814620971680 4.213564395905
-53.671657562256 -81.886642456055 -158.434997558594 7.451822280884
34.923179626465 -79.679367065430 -148.429748535156 2.028764247894
112.503356933594 -78.442016601563 -146.770294189453 1.813039660454
-51.117237091064 -79.227134704590 -156.458999633789 3.593806743622
27.737520217896 -84.570243835449 -153.406967163086 4.883679389954
-55.247577667236 -78.849319458008 -139.061721801758 3.631999015808
-57.490753173828 -85.832229614258 -154.148300170898 10.761517524719
-54.131130218506 -73.487869262695 -157.166564941406 3.487822771072
-68.031745910645 -81.070747375488 -160.855102539063 3.977535009384
110.354919433594 -78.180107116699 -157.630142211914 1.744680047035
-52.170738220215 -76.621810913086 -156.822631835938 2.894582033157
17.511367797852 -81.791786193848 -168.144546508789 4.642827510834
108.060081481934 -85.618232727051 -167.468551635742 8.616827011108
-69.398376464844 -82.270454406738 -160.612930297852 5.216464042664
-50.041240692139 -76.164512634277 -163.230987548828 3.327162265778
5.549713134766 -77.750801086426 -165.368041992188 2.850886583328
-63.745983123779 -73.607933044434 -162.196441650391 1.872476339340
-60.031394958496 -79.564369201660 -168.296630859375 0.667077720165
-2.270699977875 -88.797790527344 -167.874679565430 8.727002143860
-47.441585540771 -82.142776489258 -178.865921020508 4.316005706787
24.574159622192 -75.428779602051 -172.503967285156 2.271903514862
-69.436035156250 -77.381652832031 -167.340759277344 3.637021541595
-49.785526275635 -71.971626281738 -174.185195922852 5.398371219635
22.170711517334 -78.028068542480 -170.591934204102 1.708853960037
-31.928050994873 -84.698715209961 -183.207550048828 4.076730728149
-34.789646148682 -71.127479553223 -173.936004638672 1.452008008957
11.955958366394 -75.421669006348 -184.067504882813 2.072226762772
-39.766517639160 -83.666046142578 -183.309936523438 6.827852725983
-8.213196754456 -77.567382812500 -181.920303344727 5.139425754547
-66.713745117188 -77.233482360840 -175.497787475586 4.415547847748
-7.830510139465 -79.709434509277 -177.713577270508 2.181310176849
-25.054162979126 -85.063522338867 -184.224746704102 0.480225831270
15.689941406250 -81.652389526367 -191.012222290039 4.189711570740
-37.562496185303 -76.535285949707 -183.592514038086 4.411213397980
15.334248542786 -79.997322082520 -186.087677001953 2.916862964630
-18.151817321777 -78.983558654785 -193.427993774414 1.506072163582
