-28.731019973755 -73.701110839844 -210.562164306641 0.621319591999
-13.505775451660 -82.337600708008 -207.455459594727 3.163198471069
-152.990158081055 -76.082412719727 -209.919830322266 3.153664827347
-45.686676025391 -78.925521850586 -211.830093383789 8.205610275269
-86.767364501953 -72.040756225586 -212.343643188477 1.355615258217
-34.448657989502 -76.601448059082 -218.121109008789 3.957047462463
14.613597869873 -70.879676818848 -214.586471557617 0.373290508986
-148.874374389648 -73.279930114746 -207.167297363281 1.608794212341
-89.041786193848 -73.426429748535 -215.990951538086 2.412891149521
-27.043382644653 -76.005439758301 -220.241592407227 1.172365427017
-29.014429092407 -70.382484436035 -226.553146362305 7.343945026398
-18.557477951050 -73.081054687500 -223.231979370117 0.497703403234
-27.829177856445 -74.921493530273 -221.143188476563 2.126173257828
-82.517715454102 -75.504470825195 -223.313308715820 6.574771404266
-86.960166931152 -75.855911254883 -227.237854003906 8.653820037842
-24.864292144775 -77.440444946289 -229.300079345703 5.981690883636
-10.371965408325 -74.136894226074 -227.382354736328 2.025485277176
-150.429870605469 -68.150367736816 -216.745162963867 2.295180559158
-5.702805995941 -72.364311218262 -222.982101440430 3.082778930664
78.356636047363 -76.172767639160 -233.869979858398 3.322167634964
-148.530776977539 -77.090652465820 -230.482315063477 1.939637660980
-8.758401870728 -74.291152954102 -228.623413085938 1.113873004913
-147.833297729492 -72.327980041504 -233.180740356445 2.427987575531
-154.745635986328 -80.236740112305 -226.039382934570 1.834098458290
-9.686925888062 -76.003303527832 -233.965484619141 2.143446445465
19.256282806396 -77.557281494141 -227.128021240234 2.299421072006
-144.401626586914 -71.972717285156 -228.772933959961 2.505084753036
-17.909484863281 -75.517562866211 -237.602798461914 0.832551538944
71.639808654785 -79.706466674805 -234.950714111328 4.714447021484
78.725067138672 -80.207756042480 -245.480270385742 12.460876464844
4.991786956787 -72.884796142578 -237.326736450195 2.518310070038
-28.690826416016 -72.336502075195 -249.192382812500 7.082558155060
-25.080646514893 -75.581840515137 -237.121917724609 1.181586503983
4.803466796875 -75.584022521973 -250.299148559570 5.244261741638
-50.402584075928 -69.722457885742 -247.065429687500 4.161381244659
-31.428117752075 -77.093872070313 -254.273147583008 10.555433273315
4.010921001434 -77.916030883789 -250.594635009766 3.948107481003
-69.212615966797 -74.285881042480 -255.053863525391 3.347748756409
-34.478313446045 -72.019851684570 -254.713897705078 11.360891342163
-47.896656036377 -73.853027343750 -247.330368041992 1.301593065262
-154.653533935547 -70.139572143555 -243.515518188477 2.001171588898
-54.676750183105 -76.106147766113 -253.985702514648 5.520203113556
-58.757965087891 -74.453269958496 -249.709732055664 0.449651688337
-68.732833862305 -81.511543273926 -254.050964355469 5.924843788147
-9.084130287170 -71.619384765625 -254.797698974609 4.042406558990
-89.199325561523 -69.930419921875 -255.904037475586 1.482009768486
-151.426315307617 -78.191215515137 -260.083892822266 3.794123172760
-141.613433837891 -81.773750305176 -260.899871826172 1.775230765343
-129.258514404297 -66.816421508789 -263.831390380859 2.348489999771
-158.768096923828 -68.903953552246 -262.191680908203 1.327548623085
14.458607673645 -74.865875244141 -266.522521972656 5.890421867371
-14.340309143066 -74.935394287109 -274.440917968750 3.369734764099
-157.269180297852 -71.746627807617 -265.112243652344 1.487547159195
-156.864486694336 -69.827682495117 -274.660156250000 2.169774055481
-146.131973266602 -74.067176818848 -280.800262451172 1.523992896080
-61.470275878906 -78.962707519531 -288.774841308594 2.869542837143
-40.531166076660 -72.903060913086 -292.699676513672 2.701238393784
-29.343925476074 -75.080062866211 -299.392242431641 7.764842987061
-19.254125595093 -75.373031616211 -292.083343505859 0.525027632713
-72.145492553711 -73.648101806641 -287.418334960938 1.839676737785
-81.452621459961 -71.830268859863 -289.028564453125 2.533937931061
-11.516117095947 -78.547126770020 -294.784515380859 3.754544019699
6.890360832214 -78.619209289551 -297.580291748047 5.370841026306
-138.325057983398 -75.290855407715 -290.638580322266 2.765593290329
-81.886734008789 -70.061035156250 -292.444519042969 2.106892347336
-152.813735961914 -71.442176818848 -294.065155029297 2.221591472626
-97.935409545898 -71.096199035645 -292.515899658203 1.597097277641
-71.623710632324 -70.370582580566 -293.467102050781 3.730394840240
-89.286323547363 -76.440177917480 -292.928253173828 3.944984197617
-70.335205078125 -77.598457336426 -293.082183837891 3.603544950485
-25.193532943726 -75.298324584961 -300.400604248047 9.173008918762
-6.778696060181 -73.538162231445 -296.071624755859 4.028348445892
-161.211791992188 -72.845718383789 -295.332733154297 2.145666837692
-148.588775634766 -74.164932250977 -297.843353271484 2.857815265656
-149.773056030273 -70.959541320801 -304.566192626953 4.683840751648
-159.468841552734 -70.268470764160 -309.275604248047 3.807642698288
-58.390235900879 -73.551467895508 -60.290065765381 4.272897243500
-46.911014556885 -71.995986938477 -57.389110565186 4.460597991943
-42.719829559326 -71.480323791504 -57.561885833740 4.545214176178
-75.604309082031 -80.571510314941 -61.901298522949 3.520926713943
-30.431264877319 -75.490943908691 -62.562320709229 2.983881950378
-27.208572387695 -75.307174682617 -82.865203857422 4.689847469330
75.129203796387 -85.549591064453 -95.575653076172 9.744955062866
82.084609985352 -80.927627563477 -95.578674316406 4.649374008179
81.025665283203 -77.029273986816 -95.177841186523 1.349139571190
96.982063293457 -84.814193725586 -99.636169433594 10.592582702637
72.960968017578 -79.969940185547 -100.277282714844 6.956370353699
57.873027801514 -80.466690063477 -101.706863403320 6.033674240112
43.899368286133 -77.779571533203 -109.322311401367 1.492057323456
-65.176940917969 -79.165542602539 -107.408134460449 8.141807556152
-73.559165954590 -72.854408264160 -101.498977661133 1.688074588776
44.063411712646 -74.692939758301 -109.701461791992 3.336746931076
-84.615005493164 -75.273582458496 -111.491218566895 0.807034969330
-91.532402038574 -68.383140563965 -113.598678588867 3.144002437592
48.482509613037 -75.140579223633 -109.196708679199 1.423502802849
103.911598205566 -77.409408569336 -122.747406005859 5.828195095062
33.701679229736 -78.925285339355 -128.520889282227 2.782089233398
44.127029418945 -82.959136962891 -122.820907592773 4.649143695831
43.445102691650 -79.629829406738 -129.307968139648 3.958510875702
27.901689529419 -77.664283752441 -133.411010742188 2.336011409760
109.440948486328 -78.480377197266 -125.272850036621 3.344472169876
30.348201751709 -81.035591125488 -130.817657470703 1.343184113503
30.865638732910 -76.529251098633 -136.185089111328 2.199665546417
-41.611110687256 -70.137214660645 -146.152877807617 1.532470464706
-70.132514953613 -76.082130432129 -152.495391845703 1.343603134155
-52.944602966309 -73.306221008301 -155.634735107422 2.041078090668
-72.195411682129 -73.497154235840 -143.993911743164 1.720046877861
-42.460391998291 -76.779762268066 -154.097061157227 1.445867657661
108.533584594727 -76.868484497070 -160.300659179688 3.070091724396
-72.754158020020 -73.880760192871 -155.598556518555 1.255104064941
19.866334915161 -84.880065917969 -159.188934326172 6.831306934357
31.217445373535 -71.093414306641 -156.796859741211 1.451763749123
113.075820922852 -76.002395629883 -161.338455200195 1.851147532463
5.985445976257 -72.178565979004 -161.291580200195 1.719521641731
32.732532501221 -74.474617004395 -163.860916137695 1.353052020073
-58.256492614746 -75.097091674805 -164.130966186523 1.580808877945
-50.252223968506 -79.196929931641 -175.785797119141 3.339177370071
17.418010711670 -76.981460571289 -171.112823486328 1.022356867790
-70.113937377930 -71.599548339844 -171.886260986328 6.445622920990
-64.842414855957 -68.641532897949 -161.976593017578 2.961033582687
110.289314270020 -83.536170959473 -173.828277587891 6.551452636719
-14.242085456848 -69.279029846191 -172.742172241211 7.251445770264
-57.058639526367 -78.709724426270 -180.537200927734 1.667755723000
-33.402389526367 -72.676612854004 -178.997146606445 1.778431773186
-56.646442413330 -73.987152099609 -175.702835083008 1.096456408501
29.346065521240 -84.244422912598 -176.100952148438 6.591203689575
108.869331359863 -71.378364562988 -175.179412841797 1.827598452568
108.225646972656 -84.332122802734 -189.321853637695 7.348681926727
113.958244323730 -82.967651367188 -201.342666625977 12.940621376038
105.931716918945 -80.985992431641 -181.098098754883 3.404933214188
-62.561027526855 -75.667816162109 -196.001403808594 9.333844184875
-54.938087463379 -72.793029785156 -184.736572265625 1.827503323555
20.457872390747 -77.055313110352 -190.815139770508 1.698906302452
-54.619628906250 -66.238487243652 -188.983078002930 9.157777786255
-25.884695053101 -71.656990051270 -192.220306396484 0.617561101913
-52.705123901367 -71.442680358887 -195.680770874023 6.290075778961
-145.423095703125 -74.184326171875 -198.985336303711 1.044122457504
96.943496704102 -75.547935485840 -200.088348388672 1.575947403908
-48.492832183838 -74.346214294434 -194.305007934570 1.639588117599
-15.975152969360 -77.886810302734 -199.818054199219 2.295096874237
-139.447418212891 -71.678810119629 -205.202270507813 2.805417060852
-46.665699005127 -77.664726257324 -199.171585083008 1.000035285950
104.098770141602 -88.288078308105 -201.215332031250 11.539867401123
106.271408081055 -80.802284240723 -198.598358154297 5.301284790039
-50.411281585693 -77.665374755859 -201.886642456055 2.376914024353
-25.289701461792 -73.916481018066 -199.696060180664 1.143559217453
-152.895462036133 -77.534988403320 -202.241821289063 0.241404637694
-30.558574676514 -72.093887329102 -206.543441772461 3.648989677429
-154.480957031250 -74.790496826172 -198.506042480469 2.582529067993
-155.253631591797 -71.734680175781 -203.774703979492 2.736656427383
-144.230087280273 -71.654823303223 -202.225723266602 2.728695154190
-39.790740966797 -73.857879638672 -200.727584838867 2.777330398560
100.752647399902 -82.333496093750 -209.546890258789 7.200631141663
-40.671394348145 -73.596717834473 -206.248229980469 2.310186147690
-146.596527099609 -74.767257690430 -201.858108520508 2.016492605209
-40.533370971680 -75.635078430176 -214.426849365234 6.043535709381
-21.567359924316 -77.798759460449 -215.401245117188 0.574671685696
90.407844543457 -80.369308471680 -211.871292114258 3.630384445190
92.479347229004 -79.807571411133 -214.054870605469 3.086268663406
-29.069459915161 -77.749259948730 -220.940292358398 3.263576030731
-91.205993652344 -77.558319091797 -215.069427490234 1.560551524162
-72.196655273438 -75.736618041992 -215.605285644531 3.252877950668
-21.544172286987 -76.701766967773 -222.747451782227 1.807477355003
-153.265289306641 -66.938591003418 -215.806167602539 2.493082284927
81.807884216309 -81.638366699219 -225.977722167969 6.151266574860
83.642173767090 -74.478538513184 -230.782196044922 2.877382278442
84.099136352539 -82.516029357910 -226.390365600586 6.794894695282
-103.414489746094 -64.872787475586 -226.337997436523 2.315644741058
-148.732742309570 -73.074348449707 -226.204727172852 1.329283356667
-21.266347885132 -82.970664978027 -223.773803710938 5.455232143402
78.247383117676 -76.217544555664 -231.854736328125 1.686128258705
-147.790344238281 -80.870407104492 -226.623046875000 1.435045838356
-37.985168457031 -74.134803771973 -226.264724731445 12.203565597534
-136.229598999023 -63.675636291504 -235.956970214844 4.398247241974
-15.066263198853 -77.528793334961 -232.174530029297 3.215167045593
17.083866119385 -75.399803161621 -225.372924804688 1.442234277725
10.889472961426 -74.889533996582 -242.225143432617 0.437749028206
-160.893814086914 -75.307563781738 -236.494186401367 1.658839225769
-125.621849060059 -68.050697326660 -233.094116210938 2.218058347702
-12.108498573303 -75.926322937012 -237.404525756836 2.040117740631
-1.993893980980 -72.865875244141 -246.696090698242 1.855424046516
62.242275238037 -81.111160278320 -242.966995239258 7.616711139679
63.441329956055 -76.928100585938 -244.205764770508 3.703404426575
-1.928375005722 -77.393402099609 -246.985641479492 1.569451808929
17.140317916870 -77.846939086914 -243.128738403320 3.845729827881
-26.820858001709 -73.650917053223 -247.776473999023 4.924765110016
-44.873172760010 -79.272232055664 -252.501861572266 6.332615852356
-52.312122344971 -78.584098815918 -238.466293334961 4.649384021759
-46.361221313477 -78.274276733398 -247.463439941406 1.229370832443
-23.243562698364 -78.919952392578 -250.435028076172 8.006748199463
-58.977802276611 -70.493873596191 -244.357055664063 2.969424724579
2.490636110306 -75.575851440430 -250.702789306641 5.336980819702
-76.492553710938 -67.319335937500 -250.130828857422 2.961929082870
9.770481109619 -72.719512939453 -250.713058471680 6.499708652496
-150.140304565430 -74.089477539063 -250.496017456055 1.887704372406
-72.450233459473 -79.397857666016 -256.402221679688 5.931153774261
6.788339138031 -78.242477416992 -254.406433105469 5.723707199097
-169.947952270508 -70.897834777832 -251.727813720703 2.594133853912
13.464637756348 -73.401741027832 -255.353805541992 6.969467639923
-89.058937072754 -75.729507446289 -257.427947998047 2.780996799469
-78.162628173828 -68.852355957031 -254.498687744141 2.056610822678
19.737619400024 -75.920211791992 -263.851806640625 2.594970226288
-92.195343017578 -70.669891357422 -261.091003417969 3.495241641998
-136.151443481445 -73.540092468262 -256.896911621094 1.246668815613
-141.460433959961 -73.914741516113 -259.106719970703 1.227737545967
-138.687164306641 -72.491874694824 -260.192474365234 3.421813249588
-145.660400390625 -69.331100463867 -260.658599853516 2.270795106888
-142.949874877930 -75.819969177246 -256.684936523438 2.009220361710
-140.411956787109 -69.674186706543 -265.099273681641 2.579794168472
-161.475982666016 -72.708221435547 -257.750518798828 2.289009094238
-133.298599243164 -67.842033386230 -265.392303466797 1.433657526970
-139.040237426758 -68.239799499512 -259.061828613281 3.021415472031
-165.686416625977 -75.725624084473 -268.685607910156 1.510272622108
-157.908599853516 -71.739448547363 -265.037628173828 1.588539004326
-153.366531372070 -70.766677856445 -268.185455322266 3.271526098251
-149.942062377930 -77.976959228516 -266.208557128906 1.170622110367
8.377716064453 -86.799789428711 -288.946411132813 9.137022972107
-167.853805541992 -75.240592956543 -268.761901855469 2.483514070511
-160.075302124023 -66.468223571777 -278.509277343750 4.469105720520
-9.826428413391 -74.164932250977 -282.778442382813 2.102069616318
-164.360473632813 -71.661544799805 -267.959320068359 3.023052692413
11.077593803406 -80.804161071777 -286.974975585938 4.097696304321
-158.004852294922 -69.583801269531 -284.139648437500 3.266460657120
-165.316925048828 -67.047988891602 -294.521392822266 5.301703929901
-156.242446899414 -67.002326965332 -281.799896240234 3.897764205933
-173.690475463867 -61.413230895996 -281.088256835938 11.103777885437
-2.146759033203 -74.026031494141 -294.427185058594 2.474582910538
7.397206783295 -81.678443908691 -287.781250000000 4.652244091034
-101.606338500977 -63.996929168701 -288.702697753906 4.828262805939
-156.894256591797 -73.247451782227 -290.011810302734 2.196660518646
-152.294082641602 -72.390731811523 -284.322753906250 2.396810054779
-115.594268798828 -67.977912902832 -294.682159423828 2.581412076950
-154.444351196289 -69.362770080566 -292.809234619141 0.615366578102
-154.563903808594 -69.689537048340 -296.550048828125 1.154651045799
-73.079597473145 -72.772766113281 -293.586578369141 2.372773170471
-166.445648193359 -74.515388488770 -294.519287109375 4.743740558624
-124.819831848145 -74.976448059082 -289.708129882813 1.183090925217
-47.792465209961 -80.114616394043 -296.220581054688 6.783851146698
-156.299865722656 -67.567810058594 -294.823242187500 2.761193752289
-147.989761352539 -71.551986694336 -292.453155517578 2.823823690414
-23.544393539429 -79.530197143555 -297.429290771484 6.911789894104
-131.076553344727 -69.538635253906 -301.419921875000 7.997281074524
-3.112946987152 -76.342613220215 -295.965820312500 3.811089038849
5.846162796021 -79.527153015137 -294.638549804688 3.538145303726
-137.398132324219 -70.336250305176 -298.108764648438 4.889382839203
-149.332977294922 -68.827949523926 -296.325408935547 1.111590266228
-160.774597167969 -67.274215698242 -309.043151855469 5.919325351715
-69.621208190918 -73.664398193359 -52.363651275635 0.457163006067
-24.616453170776 -74.764457702637 -66.553520202637 2.403119564056
-21.999393463135 -76.753738403320 -70.799072265625 2.069761753082
75.344619750977 -77.245979309082 -80.806129455566 1.828127861023
90.557533264160 -77.881195068359 -84.144638061523 2.095348119736
-36.089878082275 -68.511009216309 -83.816085815430 6.481719970703
82.639808654785 -81.185363769531 -82.617538452148 4.117235660553
87.343147277832 -83.146621704102 -87.851303100586 5.616958141327
73.356773376465 -78.443588256836 -87.233909606934 2.824926137924
68.764587402344 -74.824691772461 -97.488281250000 4.243422031403
-44.302196502686 -78.370025634766 -88.278549194336 3.187232017517
-94.598518371582 -70.594604492188 -94.940994262695 3.318400621414
58.663455963135 -80.255630493164 -98.707862854004 5.293830394745
47.644927978516 -80.163993835449 -103.913299560547 1.498028516769
97.155326843262 -73.469940185547 -106.894760131836 5.614146232605
-94.136070251465 -69.078308105469 -107.312492370605 3.516267538071
84.745597839355 -77.562690734863 -103.896240234375 5.967351913452
85.054069519043 -78.459175109863 -108.627510070801 8.864945411682
90.324623107910 -80.700180053711 -102.509460449219 6.664097309113
82.319557189941 -73.387268066406 -112.533760070801 9.032295227051
95.701545715332 -76.989616394043 -109.607780456543 8.941921234131
-84.571952819824 -80.367546081543 -105.444694519043 2.962293624878
41.428581237793 -82.395645141602 -117.645332336426 2.320358753204
102.363815307617 -80.315353393555 -122.163429260254 8.584195137024
113.361045837402 -74.405006408691 -118.230529785156 1.527567386627
46.218589782715 -76.265769958496 -124.746406555176 3.341554164886
109.701843261719 -74.661323547363 -134.080093383789 0.451798081398
113.492469787598 -81.757003784180 -144.408615112305 5.759498596191
-52.425964355469 -72.272987365723 -133.669998168945 0.887851357460
30.794940948486 -78.518653869629 -139.115859985352 0.886840164661
31.403778076172 -83.063385009766 -133.032211303711 2.616207361221
19.504045486450 -73.487655639648 -148.638702392578 3.780249595642
113.659347534180 -78.903472900391 -146.476654052734 2.413589954376
109.133010864258 -80.986602783203 -142.464385986328 5.791115760803
-75.895744323730 -75.476776123047 -153.017990112305 3.482764720917
-50.834766387939 -76.929252624512 -153.600112915039 1.317842483521
-75.128540039063 -70.512718200684 -152.398513793945 2.952105998993
18.648975372314 -79.894416809082 -158.421905517578 3.978328704834
109.453353881836 -77.101303100586 -163.511672973633 1.894628405571
-57.097965240479 -74.715980529785 -157.451583862305 5.206472396851
-72.122642517090 -72.790061950684 -153.443283081055 1.369168400764
-43.111591339111 -79.580337524414 -161.512649536133 1.276551365852
36.635787963867 -77.426551818848 -156.272125244141 3.887211084366
107.113647460938 -80.934982299805 -166.332931518555 4.674212455750
117.570884704590 -81.887680053711 -165.155761718750 7.152202606201
-70.664459228516 -73.820365905762 -154.669052124023 1.385651588440
-75.583778381348 -75.048103332520 -168.052886962891 8.685974121094
17.577497482300 -81.687522888184 -168.917495727539 4.573462486267
-58.272594451904 -78.658004760742 -165.265167236328 1.679902553558
-31.760086059570 -85.583854675293 -169.377685546875 5.600980281830
5.705504894257 -73.774742126465 -170.530517578125 5.916648387909
110.042488098145 -82.437263488770 -176.225112915039 4.929475307465
4.906562805176 -75.240882873535 -171.473403930664 5.983376979828
-40.110877990723 -75.894622802734 -172.230850219727 1.740119814873
-2.980235099792 -72.355354309082 -169.069183349609 2.288332700729
101.000068664551 -77.077781677246 -184.769821166992 2.829803466797
-44.007431030273 -67.062095642090 -181.038696289063 9.217669487000
28.887977600098 -73.429222106934 -175.357803344727 1.129505395889
111.245651245117 -76.757133483887 -178.926239013672 2.348084926605
-51.762123107910 -73.640914916992 -184.687652587891 2.341840982437
-30.034616470337 -77.922210693359 -174.123321533203 1.730173945427
95.726531982422 -83.299331665039 -182.533920288086 10.683155059814
32.395565032959 -80.824562072754 -178.784362792969 7.559154033661
114.822998046875 -74.643836975098 -185.694351196289 4.811713695526
-40.789115905762 -78.190177917480 -174.421585083008 2.373577594757
104.864700317383 -76.627540588379 -189.517623901367 1.041010856628
-58.982891082764 -73.221549987793 -182.633193969727 2.928588151932
-25.689598083496 -74.088890075684 -179.600524902344 1.589967370033
-144.373458862305 -70.744087219238 -183.397094726563 2.933785915375
-56.928424835205 -74.011634826660 -189.721511840820 5.056103229523
-148.706008911133 -68.528831481934 -184.270202636719 4.488058090210
-34.498680114746 -74.344711303711 -191.298339843750 4.141996860504
18.457008361816 -75.148239135742 -193.395263671875 2.927846908569
110.363723754883 -73.654953002930 -189.895202636719 2.436155557632
-32.538440704346 -73.871772766113 -197.044113159180 5.467525005341
11.621188163757 -78.307983398438 -199.211318969727 1.130149364471
13.733813285828 -76.419723510742 -204.653945922852 2.298167467117
-152.115402221680 -66.175292968750 -195.174072265625 0.818046927452
99.570327758789 -83.952011108398 -207.290039062500 7.122255802155
-21.209875106812 -71.430023193359 -199.688171386719 2.108840703964
104.289459228516 -73.023063659668 -200.562011718750 2.728433132172
14.166147232056 -74.919776916504 -196.157852172852 1.622253417969
-132.596481323242 -69.720130920410 -205.143722534180 1.397298693657
-147.661453247070 -68.025138854980 -197.995590209961 1.878634333611
91.487724304199 -70.050140380859 -206.943222045898 2.747050046921
-13.891713142395 -73.318794250488 -205.414520263672 2.398661613464
-18.516147613525 -77.935966491699 -200.740356445313 2.693989753723
10.891324043274 -76.293495178223 -208.560119628906 1.679944634438
-148.256744384766 -70.124748229980 -208.414382934570 3.692073822021
-150.434295654297 -71.587501525879 -208.706542968750 3.081319332123
98.366989135742 -86.069679260254 -214.666305541992 10.811181068420
-76.452476501465 -75.518943786621 -214.258743286133 1.209774732590
-38.697570800781 -71.440643310547 -205.621658325195 3.005908727646
19.359014511108 -74.554580688477 -216.758117675781 2.299189567566
-25.558696746826 -78.945320129395 -214.326034545898 1.422438859940
-81.087631225586 -70.140243530273 -217.770660400391 4.154056549072
91.183319091797 -77.203659057617 -214.082626342773 1.822051644325
-84.481506347656 -67.903274536133 -219.093551635742 5.282430648804
-150.665023803711 -70.882911682129 -221.115737915039 2.497957229614
-81.237495422363 -75.699157714844 -220.656692504883 4.007520675659
-18.501682281494 -76.162429809570 -216.960174560547 1.231258273125
-25.282239913940 -77.319160461426 -222.832214355469 2.311124563217
21.831775665283 -73.785057067871 -217.443161010742 3.949110269547
-8.018215179443 -72.815414428711 -216.090698242188 2.527624130249
-81.903610229492 -72.487190246582 -223.501602172852 7.456923007965
87.919754028320 -78.636604309082 -223.080886840820 3.915320634842
-96.718498229980 -74.301017761230 -216.823348999023 1.288934946060
-147.801910400391 -79.117683410645 -228.204360961914 1.385694265366
-13.149464607239 -77.838462829590 -221.850646972656 3.076759815216
13.906716346741 -76.160346984863 -221.401092529297 2.044023036957
-107.305320739746 -69.653877258301 -221.584152221680 1.848075985909
7.032111167908 -78.469062805176 -224.685470581055 2.608659267426
-30.786758422852 -78.599060058594 -219.968185424805 3.349112272263
79.263534545898 -81.032882690430 -232.881622314453 6.229773044586
-148.556564331055 -68.685867309570 -220.887207031250 3.232383966446
6.111691951752 -72.391235351563 -231.917205810547 2.181284904480
-7.856750965118 -75.720046997070 -226.491271972656 1.206033349037
14.053618431091 -71.161170959473 -226.680862426758 1.752625346184
82.926979064941 -74.571983337402 -236.170288085938 5.998322486877
-16.643175125122 -76.178520202637 -231.027038574219 2.238539457321
-131.924743652344 -76.032272338867 -231.095611572266 1.871742963791
-9.080191612244 -80.574958801270 -230.680725097656 4.823700904846
13.879276275635 -73.945419311523 -240.370239257813 1.074234127998
-129.089553833008 -69.580718994141 -223.444595336914 2.369626283646
-153.809158325195 -72.795448303223 -232.274353027344 0.723460197449
-142.151794433594 -71.282852172852 -231.011688232422 2.050063133240
-133.425765991211 -70.227546691895 -231.020294189453 2.486022233963
-11.955966949463 -74.340187072754 -232.530334472656 1.279310226440
68.479812622070 -77.013732910156 -237.205581665039 2.663319826126
-144.475402832031 -72.097427368164 -239.464096069336 1.293038010597
68.783432006836 -74.681106567383 -233.658050537109 2.087752819061
-17.272443771362 -77.513366699219 -230.671356201172 2.980996847153
-145.613403320313 -76.889877319336 -233.956222534180 1.627891898155
73.152153015137 -83.177162170410 -242.373565673828 10.604701042175
12.458408355713 -80.791145324707 -242.838043212891 1.538488388062
-144.598480224609 -65.347724914551 -239.448654174805 2.197866439819
-151.944686889648 -71.184753417969 -239.269210815430 4.505941390991
8.781448364258 -69.300666809082 -241.226684570313 0.575925767422
-5.378769874573 -76.261238098145 -245.443649291992 1.877056002617
-26.696615219116 -70.880073547363 -250.607070922852 8.730973243713
-9.215648651123 -74.637321472168 -245.811004638672 2.098189115524
-165.459091186523 -71.671615600586 -237.774765014648 1.800305962563
6.021557807922 -74.945419311523 -251.517776489258 6.361731052399
-166.174240112305 -68.154899597168 -235.722686767578 1.159625530243
-20.937824249268 -72.949630737305 -235.566497802734 2.336530447006
65.584083557129 -79.042373657227 -246.571136474609 7.153764247894
-10.083551406860 -72.949996948242 -246.691741943359 1.421998143196
-29.424728393555 -74.928596496582 -243.709609985352 2.924870014191
-29.657527923584 -70.673042297363 -246.141967773438 5.921983718872
-18.071025848389 -71.059074401855 -251.746047973633 2.337303876877
-145.599914550781 -68.564147949219 -237.392425537109 1.855367898941
6.232161045074 -78.927108764648 -249.687377929688 2.404806852341
61.831172943115 -81.759140014648 -247.414520263672 9.459737777710
7.725059032440 -76.794937133789 -249.272537231445 3.483381748199
-165.752639770508 -68.233482360840 -240.632431030273 1.369548916817
-50.694183349609 -77.549713134766 -248.834167480469 2.200303316116
3.755321979523 -78.681465148926 -254.180160522461 5.067004680634
14.560005187988 -69.295394897461 -257.518798828125 9.273234367371
-62.889324188232 -73.048034667969 -255.528991699219 5.349017143250
-6.477848052979 -74.147567749023 -247.151809692383 1.479755759239
16.845809936523 -79.205825805664 -258.873046875000 2.566073894501
-169.419998168945 -69.138519287109 -246.130767822266 3.277748107910
-75.962356567383 -76.187278747559 -259.091705322266 5.917548656464
-57.040409088135 -69.777847290039 -251.875869750977 4.929799079895
-83.529525756836 -70.029991149902 -251.015365600586 1.053264856339
-165.761627197266 -68.026153564453 -242.370971679688 1.232757687569
-156.019302368164 -70.523254394531 -252.370422363281 1.039218425751
-62.876022338867 -67.943618774414 -258.652984619141 9.760875701904
-72.543502807617 -79.823646545410 -254.183105468750 4.981769084930
-158.152694702148 -67.791732788086 -253.592132568359 2.622185707092
-156.131851196289 -66.814224243164 -249.723831176758 2.929401636124
-81.431495666504 -71.990783691406 -253.242584228516 1.844887971878
-95.550338745117 -66.631233215332 -254.387496948242 1.888458371162
-165.807342529297 -71.398742675781 -252.734710693359 1.802653789520
-157.743576049805 -68.928245544434 -251.996643066406 1.656415700912
-138.757476806641 -65.510421752930 -259.525817871094 3.389134645462
-84.968925476074 -75.665718078613 -255.692214965820 2.195803642273
-167.485260009766 -64.631774902344 -255.820495605469 5.166584968567
-152.353881835938 -75.625434875488 -258.062957763672 2.892744541168
-97.967597961426 -71.751770019531 -257.018310546875 1.944417715073
-105.206840515137 -64.104362487793 -262.782379150391 4.693979740143
-152.877212524414 -67.721565246582 -260.553314208984 2.892281770706
-101.419639587402 -70.780097961426 -266.590576171875 6.446520328522
-155.842361450195 -68.327133178711 -254.307403564453 2.289856910706
-104.012413024902 -73.777946472168 -257.791687011719 1.786260724068
-171.356124877930 -74.138076782227 -256.334289550781 5.170344352722
-166.816162109375 -75.928024291992 -258.503784179688 2.879389286041
-126.011535644531 -68.184387207031 -258.065399169922 2.311450719833
-152.068817138672 -75.381828308105 -259.513488769531 2.670956134796
-110.884689331055 -69.289306640625 -261.881622314453 1.241527199745
-18.431312561035 -80.651115417480 -265.456451416016 7.081379413605
-146.726333618164 -67.919212341309 -262.773498535156 2.680685997009
-130.295913696289 -69.327125549316 -263.935089111328 1.245398640633
-160.360015869141 -68.485488891602 -266.866058349609 1.337336540222
17.041713714600 -76.810615539551 -273.780700683594 2.202259302139
-157.721740722656 -66.115821838379 -285.174224853516 1.940657258034
-172.763122558594 -66.075660705566 -280.988616943359 7.598518371582
-9.658017158508 -80.656219482422 -288.791809082031 3.390182495117
-153.821594238281 -72.272369384766 -280.612609863281 1.630150318146
-10.711052894592 -72.644355773926 -282.038085937500 2.148711681366
11.095205307007 -75.397605895996 -292.428039550781 3.416228771210
-137.119125366211 -67.114997863770 -289.473785400391 1.483737230301
-73.915443420410 -76.461868286133 -284.404266357422 4.267767906189
-45.705245971680 -71.676345825195 -285.800628662109 3.172776937485
-120.419471740723 -67.462440490723 -290.925384521484 1.686846375465
-94.719055175781 -70.846305847168 -297.423645019531 5.563190937042
-95.073318481445 -70.194114685059 -299.022888183594 7.263376235962
-53.241161346436 -77.992622375488 -292.182373046875 3.103907585144
-119.333473205566 -65.241500854492 -295.422882080078 4.748514652252
-112.102958679199 -71.474784851074 -295.199249267578 3.509845972061
-36.784240722656 -77.175025939941 -296.110870361328 5.129151821136
-120.901489257813 -72.627342224121 -290.814208984375 1.669931769371
-130.663513183594 -73.792335510254 -290.919555664063 4.133417606354
-149.557296752930 -72.760215759277 -296.508239746094 3.981695652008
5.457884788513 -71.757583618164 -293.064971923828 2.089928388596
10.320025444031 -77.071228027344 -299.265838623047 6.739528656006
-160.484344482422 -69.001998901367 -295.838989257813 3.636346101761
-159.658218383789 -68.227508544922 -305.717163085938 4.595953464508
-151.441757202148 -72.349731445313 -311.977020263672 1.444269776344
-155.401489257813 -65.214859008789 -308.791320800781 3.086751699448
-157.298614501953 -72.927589416504 -314.953491210938 3.833890676498
28.060295104980 -76.310363769531 -20.784284591675 4.039817333221
28.222080230713 -74.137008666992 -28.942064285278 3.529458761215
27.524673461914 -76.029190063477 -26.114484786987 4.641098976135
30.063575744629 -77.177589416504 -46.600563049316 8.352048873901
-49.641025543213 -65.748939514160 -60.127712249756 10.932751655579
-62.078723907471 -71.088623046875 -57.001556396484 5.413105964661
-37.884620666504 -72.791305541992 -57.128513336182 2.385523557663
-79.941688537598 -73.950729370117 -63.693645477295 2.562870502472
82.386192321777 -83.875129699707 -88.394744873047 6.329837322235
-17.195131301880 -71.432510375977 -80.516204833984 7.910816669464
92.417266845703 -82.062576293945 -75.277755737305 7.057740211487
97.295333862305 -77.121932983398 -88.118858337402 2.813721656799
-90.862289428711 -70.973075866699 -85.524307250977 3.678193807602
77.382263183594 -73.121200561523 -82.982536315918 3.880834102631
-39.018573760986 -77.351455688477 -89.564460754395 5.257274627686
103.374816894531 -78.684150695801 -92.461616516113 7.547880649567
-54.940448760986 -75.993202209473 -94.492012023926 2.749582290649
51.794017791748 -75.807533264160 -94.797004699707 1.747530221939
73.854454040527 -78.727874755859 -93.606147766113 3.389225006104
57.881603240967 -81.841972351074 -101.103958129883 6.873749256134
47.901638031006 -74.460227966309 -111.439117431641 1.102712869644
68.200035095215 -79.982788085938 -102.128532409668 9.836040496826
49.546173095703 -68.677986145020 -104.230102539063 2.157369613647
101.842468261719 -78.539863586426 -112.260208129883 6.683822154999
113.989433288574 -80.254646301270 -116.451377868652 5.997218608856
76.617431640625 -73.953170776367 -107.736358642578 5.624646186829
90.425918579102 -77.716377258301 -112.986671447754 10.613311767578
102.371742248535 -76.045021057129 -110.003952026367 4.005896091461
106.848892211914 -68.521652221680 -108.826019287109 1.423689842224
40.537010192871 -83.960868835449 -114.196899414063 4.391754150391
108.057090759277 -79.726089477539 -127.468330383301 4.998340606689
115.189712524414 -81.239570617676 -130.980270385742 5.807344913483
33.443386077881 -74.986343383789 -124.369949340820 1.743673801422
39.405094146729 -77.714248657227 -125.426429748535 0.647830426693
106.650680541992 -75.804428100586 -138.391525268555 3.745464086533
38.254859924316 -80.875038146973 -133.000106811523 1.992344498634
115.934577941895 -74.327102661133 -139.635665893555 2.474255084991
110.427124023438 -77.071868896484 -136.657272338867 2.203609466553
25.060382843018 -72.979042053223 -143.181838989258 1.939364194870
-47.724407196045 -77.394187927246 -136.152786254883 3.248244285583
-57.498546600342 -74.057540893555 -145.301895141602 2.292126417160
115.394416809082 -76.743896484375 -141.575942993164 1.413153648376
-75.338050842285 -75.534652709961 -146.897216796875 1.747219800949
-75.229957580566 -70.445030212402 -142.002563476563 1.403152823448
-59.064601898193 -75.763763427734 -143.080429077148 2.963925361633
33.672649383545 -77.105598449707 -144.961410522461 1.306155681610
104.284759521484 -75.948318481445 -156.969055175781 4.852835655212
-63.755630493164 -74.649459838867 -148.712814331055 2.855152606964
-44.586914062500 -68.603813171387 -148.666305541992 0.428995698690
40.090480804443 -81.938919067383 -156.738540649414 8.740099906921
-63.956531524658 -75.671768188477 -155.999160766602 0.567855298519
113.111610412598 -71.047538757324 -153.034927368164 1.590792775154
108.445663452148 -80.227920532227 -164.883972167969 3.488000631332
109.515281677246 -80.340499877930 -156.609863281250 4.170529842377
-38.950168609619 -72.998695373535 -160.727386474609 1.992566823959
-66.149208068848 -72.166419982910 -159.525665283203 1.907133698463
-69.453956604004 -62.987922668457 -156.156066894531 7.031636714935
28.168163299561 -71.463600158691 -158.790710449219 2.224781751633
-0.710523009300 -77.490806579590 -169.652374267578 0.860435068607
107.092269897461 -76.923912048340 -164.281753540039 1.781659841537
107.780639648438 -72.738349914551 -164.477783203125 2.133434534073
113.175636291504 -77.423408508301 -166.945022583008 1.331591248512
-65.419937133789 -78.419891357422 -163.202682495117 1.452391266823
-47.936565399170 -75.121932983398 -165.772094726563 2.543257474899
4.522573947906 -77.990760803223 -176.198837280273 8.650432586670
-25.693820953369 -70.904541015625 -178.033081054688 2.063211917877
104.965034484863 -78.335304260254 -170.165130615234 3.732803583145
-36.973869323730 -70.150756835938 -165.634643554688 1.562228083611
109.250015258789 -80.890480041504 -176.601165771484 3.372525215149
-42.351139068604 -70.163795471191 -175.884292602539 3.764133691788
109.757743835449 -81.282653808594 -176.654495239258 3.747672796249
-152.067718505859 -64.943084716797 -183.157882690430 1.775089263916
-32.846790313721 -71.540481567383 -179.196914672852 2.790881395340
-21.761238098145 -69.198524475098 -183.954437255859 1.602749466896
29.869192123413 -81.029548645020 -181.295104980469 5.464134693146
13.723125457764 -73.233390808105 -184.524154663086 1.377026557922
20.911474227905 -77.032203674316 -187.651550292969 1.712271094322
104.004943847656 -82.420883178711 -196.659271240234 5.291271209717
-154.207397460938 -64.839408874512 -188.945419311523 3.052804946899
-23.451354980469 -73.834762573242 -192.135147094727 3.139388084412
103.702178955078 -77.239166259766 -186.643981933594 2.991733074188
101.159446716309 -76.390045166016 -199.840423583984 0.991728901863
102.848823547363 -78.794029235840 -189.206039428711 1.494303822517
93.423446655273 -82.941322326660 -203.975494384766 6.002145290375
-158.783157348633 -79.556182861328 -199.184234619141 5.547272205353
95.197952270508 -83.903526306152 -211.129730224609 7.011387825012
-35.108020782471 -73.160842895508 -200.543319702148 2.713664293289
95.535736083984 -74.644660949707 -203.882537841797 2.327390432358
-130.217651367188 -70.610107421875 -193.671035766602 1.749818563461
-33.555450439453 -75.640289306641 -195.667846679688 4.842384338379
-144.127822875977 -70.360801696777 -204.849014282227 0.774938821793
88.043891906738 -76.297660827637 -206.898406982422 3.346295595169
6.829646110535 -73.305526733398 -207.359115600586 1.458864688873
21.676992416382 -78.015968322754 -202.469528198242 2.880003452301
-152.278228759766 -71.646789550781 -200.287902832031 2.007270812988
-139.540039062500 -66.952095031738 -209.517837524414 5.455628871918
-18.698472976685 -75.530220031738 -211.758239746094 1.697354674339
-128.311386108398 -77.929000854492 -206.317337036133 6.858536243439
-150.211090087891 -72.017532348633 -202.470214843750 2.686994552612
4.659687995911 -72.178276062012 -204.648910522461 3.261300086975
-28.410501480103 -72.528030395508 -209.595275878906 1.440106272697
15.630875587463 -73.986785888672 -213.956604003906 1.978227615356
3.353394031525 -74.725379943848 -215.529098510742 2.970444917679
82.975067138672 -77.301559448242 -221.391418457031 1.206420779228
-28.492622375488 -65.461669921875 -216.179260253906 7.195355892181
91.713958740234 -76.432060241699 -219.303314208984 2.066422700882
99.492996215820 -78.119171142578 -215.373458862305 5.946899414063
-145.313171386719 -64.346565246582 -221.210662841797 2.323335886002
91.934471130371 -73.000541687012 -218.538604736328 0.940665304661
3.799585103989 -69.586456298828 -214.899475097656 4.066948413849
1.320667982101 -72.653984069824 -214.974182128906 4.766740798950
-36.729145050049 -70.945716857910 -214.548324584961 5.196708679199
-94.903083801270 -65.984939575195 -216.951126098633 3.349751710892
-37.275184631348 -73.021415710449 -218.766113281250 7.099232196808
81.500083923340 -78.376609802246 -224.240600585938 3.173582553864
80.205429077148 -78.966056823730 -224.867630004883 3.742296934128
-41.441898345947 -67.077163696289 -220.032028198242 13.217790603638
-80.094917297363 -62.907096862793 -228.644119262695 16.091533660889
-6.016245841980 -72.240486145020 -220.839431762695 2.800678968430
85.838172912598 -78.436576843262 -226.575576782227 3.867370843887
-149.745956420898 -72.633697509766 -222.426986694336 0.656368672848
-173.076690673828 -70.748962402344 -212.304061889648 6.722915649414
-160.858245849609 -67.875099182129 -220.673797607422 0.694672942162
-22.491250991821 -76.838584899902 -233.711364746094 4.280805587769
-155.178756713867 -73.331939697266 -225.069732666016 1.567468643188
-10.527656555176 -80.825798034668 -233.775619506836 5.829400539398
3.219300031662 -72.085784912109 -223.303909301758 1.243603825569
-164.330184936523 -75.032836914063 -221.839553833008 3.479353189468
-167.222244262695 -67.248397827148 -226.512283325195 2.616920232773
74.266181945801 -75.951522827148 -237.638244628906 2.604528188705
2.191371917725 -75.823440551758 -235.655319213867 1.018461823463
-151.823120117188 -71.469062805176 -223.291839599609 0.947219610214
-146.034545898438 -70.508087158203 -221.965118408203 1.905284643173
-24.631633758545 -76.131790161133 -230.831695556641 6.795962810516
0.713732004166 -74.593452453613 -228.392181396484 2.080550193787
81.141677856445 -76.949348449707 -229.836120605469 3.089530706406
-161.418762207031 -71.123764038086 -231.153854370117 3.273998022079
-149.141296386719 -66.999816894531 -229.621475219727 1.054049968719
-128.928909301758 -66.093132019043 -232.387359619141 3.150808095932
78.812057495117 -81.434486389160 -239.328216552734 9.755296707153
-118.395393371582 -65.313957214355 -234.835830688477 1.250478148460
-148.523620605469 -72.472274780273 -230.755676269531 0.305376440287
-157.202789306641 -74.608528137207 -230.234481811523 2.949022531509
-149.935379028320 -68.947830200195 -227.977676391602 1.788059949875
-154.361999511719 -64.561996459961 -231.597213745117 0.953107774258
-169.995147705078 -63.907691955566 -238.765258789063 6.183527469635
-140.446853637695 -69.140090942383 -238.126922607422 3.862760782242
-139.426467895508 -67.875259399414 -235.151290893555 2.992537498474
-158.793167114258 -68.593360900879 -229.490127563477 1.186425685883
-148.689987182617 -67.897384643555 -232.690200805664 1.850115895271
-154.986663818359 -64.504180908203 -234.434600830078 2.474878311157
68.219108581543 -75.253219604492 -225.721664428711 5.814439296722
64.786705017090 -71.922492980957 -246.639526367188 2.994916439056
-164.733886718750 -66.540580749512 -240.841110229492 1.991848468781
65.624771118164 -77.077079772949 -241.314971923828 3.390647888184
-24.428256988525 -71.905998229980 -240.897720336914 1.402088642120
5.479329109192 -74.385345458984 -245.575592041016 2.297345638275
14.272565841675 -79.294281005859 -240.846908569336 2.398563623428
-144.250320434570 -68.351371765137 -244.692611694336 1.858623623848
13.093056678772 -74.132347106934 -249.829818725586 3.604896783829
63.063884735107 -77.906387329102 -244.391510009766 4.651938438416
6.409288883209 -73.099960327148 -241.084869384766 1.629292964935
1.032711029053 -77.856079101563 -250.524627685547 3.388800144196
-11.350934028625 -67.721244812012 -245.205322265625 1.274499893188
-21.844230651855 -78.264343261719 -252.799438476563 9.319854736328
-2.338474988937 -78.627471923828 -247.461212158203 2.820174217224
-0.442876011133 -71.410095214844 -246.703857421875 3.156045913696
52.917968750000 -78.149772644043 -247.614578247070 5.581695556641
-63.057662963867 -73.549858093262 -249.839538574219 1.223144412041
14.811195373535 -75.819770812988 -256.598205566406 5.406968116760
-61.087146759033 -70.039825439453 -249.605285644531 2.564325571060
-10.739630699158 -72.921829223633 -255.432907104492 3.373787164688
-67.628181457520 -68.663467407227 -257.817779541016 7.598505020142
-88.033569335938 -78.330352783203 -254.489486694336 3.905191183090
-84.801445007324 -76.520805358887 -256.033416748047 2.771990060806
-21.405389785767 -72.055984497070 -256.785369873047 6.658280849457
-128.413513183594 -75.142974853516 -264.477905273438 2.670557498932
-19.214344024658 -67.852149963379 -261.248382568359 4.915957450867
-127.470008850098 -68.958869934082 -257.647552490234 3.709157943726
-122.496192932129 -65.236030578613 -260.888854980469 2.517209291458
-108.080207824707 -75.915809631348 -259.712707519531 3.045389890671
-145.801162719727 -67.367652893066 -260.871337890625 2.266549110413
-150.326934814453 -66.406333923340 -268.394195556641 2.055429458618
-170.780242919922 -64.241371154785 -266.131134033203 6.809242248535
8.832882881165 -76.587013244629 -287.863433837891 0.647681355476
-66.328170776367 -75.705276489258 -286.981628417969 1.625045418739
-69.914451599121 -73.208488464355 -287.108886718750 1.585915446281
-49.861999511719 -74.819869995117 -288.745727539063 2.857322454453
-30.597902297974 -75.115058898926 -286.651611328125 1.431514263153
-96.271690368652 -70.975189208984 -298.907043457031 7.094720840454
-35.295589447021 -70.675346374512 -293.363464355469 3.427279472351
-5.281164169312 -67.268844604492 -290.457183837891 2.063622951508
-169.014862060547 -70.450050354004 -291.205169677734 3.748457193375
-21.151176452637 -75.880218505859 -296.063049316406 4.803846359253
3.086076974869 -68.622070312500 -296.119354248047 4.283096790314
10.625795364380 -67.040756225586 -297.818359375000 6.260560989380
-59.934600830078 -73.831756591797 -296.589721679688 6.385112285614
-32.654010772705 -77.922843933105 -290.418609619141 0.983970701694
11.556708335876 -71.321548461914 -295.318420410156 3.834612369537
-72.376007080078 -73.645103454590 -298.478515625000 7.299768924713
-42.731719970703 -71.981719970703 -294.790100097656 4.910032749176
-21.001447677612 -72.135658264160 -296.946472167969 5.660868167877
3.870608091354 -73.568672180176 -297.775726318359 5.182169437408
-19.401046752930 -77.262092590332 -293.676025390625 2.490001201630
2.339299917221 -71.702842712402 -298.473052978516 6.536787033081
6.853719234467 -74.853012084961 -297.970153808594 4.936596870422
-138.538604736328 -73.121925354004 -291.518829345703 2.756749391556
-144.716674804688 -70.815078735352 -304.141693115234 1.564781546593
-155.572402954102 -73.752883911133 -311.499664306641 0.616351246834
40.866901397705 -65.330970764160 -18.132942199707 1.082576274872
32.593547821045 -74.639739990234 -14.251446723938 3.270961761475
42.749469757080 -75.509658813477 -21.038516998291 4.048842430115
23.002639770508 -74.995269775391 -27.695978164673 3.522350788116
43.603534698486 -75.530212402344 -33.251476287842 3.687260627747
22.541542053223 -71.184532165527 -24.879758834839 2.673721313477
25.502908706665 -79.882629394531 -36.665645599365 7.438707828522
23.835304260254 -77.867500305176 -42.448295593262 8.036333084106
44.008911132813 -71.452674865723 -41.047401428223 2.254332542419
28.582345962524 -73.715751647949 -45.274631500244 5.933684825897
40.971920013428 -75.753379821777 -37.783775329590 4.251462459564
36.021324157715 -70.880676269531 -43.746673583984 2.437400102615
31.261327743530 -75.390495300293 -47.558269500732 7.691792964935
34.408889770508 -72.317237854004 -48.276844024658 7.351520061493
45.864097595215 -75.190536499023 -51.484691619873 12.866122245789
35.360877990723 -69.153472900391 -52.030551910400 10.879671096802
-36.750988006592 -67.202468872070 -62.082927703857 9.148221969604
-27.490362167358 -67.744354248047 -47.665954589844 3.968584775925
-87.869422912598 -69.641510009766 -58.840480804443 3.078860044479
-85.648445129395 -73.601356506348 -66.831512451172 2.387548446655
82.296524047852 -76.342033386230 -73.217712402344 1.925667047501
82.530990600586 -76.995193481445 -78.129478454590 0.647616684437
-13.671321868896 -76.790351867676 -81.436042785645 11.253956794739
-83.350578308105 -72.918601989746 -74.662620544434 5.513173103333
-23.017496109009 -72.485275268555 -85.047073364258 8.468809127808
-49.103546142578 -78.320075988770 -95.246849060059 4.930860042572
62.937366485596 -76.246994018555 -92.210472106934 4.372066020966
56.448036193848 -70.884147644043 -97.835243225098 2.339830160141
96.403648376465 -78.175094604492 -94.870742797852 3.561388015747
76.185089111328 -79.640495300293 -102.642219543457 6.979435920715
-62.868701934814 -75.949501037598 -95.506729125977 2.224697113037
-64.118171691895 -68.896919250488 -99.543228149414 3.071668148041
44.586299896240 -75.554130554199 -103.158950805664 1.033923387527
70.504234313965 -83.532051086426 -107.614433288574 13.792209625244
49.862285614014 -80.039581298828 -107.430641174316 2.052167415619
102.220024108887 -81.983154296875 -105.300498962402 9.005459785461
-87.469734191895 -72.256034851074 -110.184448242188 2.453310251236
39.920818328857 -82.951164245605 -116.049179077148 3.194790363312
107.787681579590 -74.708229064941 -116.722450256348 2.708411455154
45.927940368652 -71.229598999023 -116.958030700684 1.631315588951
103.957878112793 -73.946258544922 -114.985961914063 2.349079847336
