88.918975830078 -84.538269042969 -100.994865417480 9.455781936646
83.573219299316 -77.790077209473 -100.831138610840 4.026532649994
97.474220275879 -83.583457946777 -101.249488830566 10.250897407532
-57.984741210938 -79.281242370605 -98.759590148926 4.631680011749
59.013992309570 -77.757843017578 -104.009941101074 5.324381351471
47.590114593506 -79.949356079102 -110.505126953125 3.057615518570
38.794818878174 -79.833007812500 -114.594833374023 0.699021100998
38.595203399658 -78.310928344727 -115.821548461914 0.582733511925
-92.165191650391 -73.488777160645 -114.283073425293 2.488892793655
35.375843048096 -81.806030273438 -124.235954284668 1.015752077103
-81.565895080566 -75.395439147949 -113.905258178711 4.407615661621
41.713592529297 -79.524200439453 -134.088775634766 3.366777658463
32.383911132813 -79.003860473633 -127.104072570801 2.663030147552
32.623523712158 -83.492645263672 -129.820281982422 3.952193021774
42.776985168457 -76.621734619141 -128.940292358398 1.100775003433
40.928352355957 -84.070312500000 -133.032257080078 5.867788791656
-56.705070495605 -68.266181945801 -143.910949707031 1.607519507408
37.109031677246 -82.338157653809 -138.723937988281 3.250620603561
36.447532653809 -80.180480957031 -146.368896484375 3.593606233597
-46.990272521973 -70.964530944824 -141.743621826172 1.921847105026
-49.123134613037 -81.342781066895 -142.925476074219 3.727350234985
33.931522369385 -79.567337036133 -149.189178466797 1.000455975533
107.396308898926 -79.244529724121 -150.555313110352 4.668010234833
108.807495117188 -80.090522766113 -154.104339599609 4.484927654266
27.229141235352 -82.481941223145 -150.140930175781 2.692270278931
-43.277782440186 -76.063644409180 -148.279190063477 0.535614371300
111.850288391113 -85.953498840332 -170.449218750000 8.844977378845
-44.837738037109 -76.015090942383 -159.114059448242 1.368060112000
-62.987335205078 -79.581100463867 -164.053070068359 1.997786760330
109.709808349609 -82.261802673340 -172.096237182617 5.195401191711
24.659378051758 -82.223098754883 -174.618072509766 3.054807901382
-2.170082092285 -78.802413940430 -170.565887451172 1.898167371750
111.472717285156 -84.303062438965 -161.174652099609 7.154605865479
-62.966682434082 -79.397026062012 -161.030303955078 0.763213872910
-36.309478759766 -84.012306213379 -164.536453247070 3.979293823242
108.194923400879 -80.198394775391 -173.964004516602 3.068658351898
23.739990234375 -73.670516967773 -163.842315673828 2.679228544235
-68.996894836426 -77.169692993164 -171.456649780273 4.695290565491
104.497840881348 -78.193893432617 -182.616333007813 1.283393383026
-66.034362792969 -79.102462768555 -170.812179565430 3.641933917999
-55.388530731201 -80.770767211914 -179.902725219727 1.153566956520
102.994415283203 -81.111808776855 -189.151351928711 3.806081533432
-66.024635314941 -76.975036621094 -170.207382202148 2.386910200119
111.691734313965 -80.543182373047 -182.651611328125 4.331521987915
-59.894226074219 -80.478919982910 -173.094451904297 2.130912065506
-15.670410156250 -77.823509216309 -178.723663330078 2.399214029312
-11.646936416626 -78.918121337891 -182.895233154297 3.787586927414
103.336364746094 -82.316894531250 -179.366958618164 5.845271587372
20.621234893799 -78.533866882324 -171.739944458008 0.927469730377
27.814075469971 -81.595603942871 -172.778518676758 3.087737560272
-56.653308868408 -81.654953002930 -179.706512451172 2.035046100616
14.788740158081 -78.540168762207 -191.302017211914 2.147241830826
-58.877799987793 -79.517066955566 -182.615295410156 1.888355612755
-55.062740325928 -73.274772644043 -195.484542846680 6.554408073425
10.007987976074 -80.033676147461 -184.186233520508 6.123282432556
-64.844261169434 -74.261627197266 -187.270172119141 9.297254562378
108.982734680176 -77.202743530273 -194.973510742188 3.638503551483
18.038570404053 -80.620193481445 -184.550781250000 2.414795875549
-34.562782287598 -79.525787353516 -190.031097412109 2.506578445435
-48.751804351807 -73.444778442383 -197.766693115234 3.097396135330
7.289854049683 -77.683074951172 -201.761520385742 2.999661445618
-30.935775756836 -78.792556762695 -188.691177368164 1.331284284592
-57.016784667969 -77.571838378906 -198.425033569336 4.458387374878
96.418579101563 -85.215492248535 -197.282409667969 8.266673088074
10.584667205811 -75.949440002441 -195.399047851563 0.586660265923
-138.523651123047 -76.049530029297 -191.571243286133 5.205424308777
-44.940471649170 -75.168258666992 -192.625686645508 0.890142023563
100.947120666504 -84.602928161621 -204.588043212891 8.012735366821
-152.120040893555 -73.895835876465 -198.126235961914 3.178712606430
14.839374542236 -78.701805114746 -197.738464355469 0.758996546268
-50.299709320068 -87.604095458984 -205.655319213867 3.448602676392
-37.225223541260 -79.399299621582 -207.065887451172 1.248963356018
-44.546741485596 -73.307701110840 -207.009185791016 5.472600936890
-45.493721008301 -78.430038452148 -193.134277343750 1.305596709251
99.079788208008 -85.344825744629 -208.985778808594 8.861188888550
-21.092582702637 -76.985488891602 -204.845932006836 1.275576829910
-155.125228881836 -69.510597229004 -196.336624145508 2.495129108429
7.429218769073 -76.976615905762 -214.177474975586 1.753410816193
-74.130455017090 -79.116859436035 -202.382461547852 5.712843894958
-146.891891479492 -73.049430847168 -208.183746337891 2.632455348969
93.576446533203 -79.761779785156 -217.755233764648 5.253702163696
-39.114582061768 -78.307304382324 -208.699081420898 2.517692565918
-28.645204544067 -76.990615844727 -220.070251464844 2.548263549805
1.892977952957 -80.648689270020 -215.080322265625 6.158036708832
-75.991142272949 -75.265449523926 -212.791442871094 0.982258260250
-29.928762435913 -76.732597351074 -210.688613891602 1.162880539894
-13.188172340393 -83.564941406250 -221.975280761719 5.991555213928
-85.491325378418 -80.590858459473 -217.995422363281 3.252438545227
-17.398187637329 -83.129776000977 -223.164016723633 5.342975139618
5.856091022491 -78.464668273926 -220.626602172852 1.546218872070
13.160372734070 -88.412467956543 -226.843032836914 6.948803424835
-149.629943847656 -74.986396789551 -215.165756225586 1.828457236290
-7.267264842987 -75.508193969727 -220.471725463867 2.800041913986
-95.014816284180 -72.396987915039 -222.507583618164 0.975146472454
-27.171100616455 -73.170822143555 -221.125473022461 2.768923044205
90.979736328125 -83.051910400391 -220.948974609375 7.354931831360
1.888717055321 -81.879341125488 -233.887100219727 3.221355915070
10.360877037048 -84.901573181152 -219.472488403320 4.375694751740
74.104553222656 -72.717681884766 -230.041366577148 0.802400648594
-1.145426988602 -77.878959655762 -230.398742675781 0.755719661713
81.099800109863 -78.772583007813 -230.555572509766 4.262410640717
-20.440267562866 -77.353713989258 -226.922363281250 1.797471404076
7.901766777039 -81.995941162109 -228.899169921875 1.715802669525
-154.629928588867 -76.826271057129 -222.361572265625 3.282710075378
-22.949377059937 -88.332252502441 -230.864639282227 12.600677490234
-3.236280918121 -84.562171936035 -230.873138427734 5.476699829102
-154.988922119141 -77.758972167969 -225.217102050781 1.789530038834
-137.575546264648 -76.214157104492 -223.866271972656 2.953484058380
7.259966850281 -77.560928344727 -232.560592651367 1.531767964363
-11.788243293762 -78.352180480957 -246.866210937500 4.720441818237
-143.331161499023 -76.145538330078 -229.098663330078 2.431484699249
-154.333389282227 -79.740417480469 -231.528717041016 1.304582118988
-149.463882446289 -71.868888854980 -236.182983398438 2.165828227997
-28.516899108887 -79.196456909180 -236.552490234375 2.831201553345
-149.162261962891 -73.269721984863 -242.658554077148 1.498903870583
13.299475669861 -78.655441284180 -244.310501098633 2.386300086975
2.138006925583 -80.608390808105 -249.288787841797 1.542082309723
-158.189361572266 -71.536849975586 -233.167953491211 2.932364940643
-158.395156860352 -74.472991943359 -238.962524414063 1.304114341736
-50.171001434326 -78.289733886719 -241.115158081055 1.970623373985
-39.279090881348 -83.146385192871 -247.729644775391 4.531924247742
0.889792025089 -82.042808532715 -254.902160644531 2.132252216339
-39.722324371338 -75.752403259277 -250.206176757813 5.006208896637
18.592227935791 -82.721260070801 -257.702453613281 2.583467483521
-7.062528133392 -80.445579528809 -248.189422607422 3.040437698364
-161.048904418945 -72.456626892090 -248.998184204102 2.036778688431
-10.082765579224 -70.281684875488 -250.612152099609 2.669727325439
-145.213348388672 -77.832420349121 -249.716644287109 2.059030532837
-71.684036254883 -78.542442321777 -251.957321166992 3.413393735886
-161.052673339844 -82.143386840820 -253.829971313477 7.553072929382
-132.632659912109 -80.055107116699 -261.235229492188 3.296765089035
-156.315597534180 -71.098121643066 -256.147827148438 1.362846374512
-18.320259094238 -77.177688598633 -271.190490722656 6.214606761932
-151.212677001953 -77.790496826172 -260.886413574219 3.662389516830
-155.058074951172 -75.563392639160 -259.675811767578 2.053312063217
-17.634958267212 -81.912864685059 -271.024383544922 7.884629249573
-155.425491333008 -76.706108093262 -263.145904541016 3.162434816360
-12.992736816406 -83.719108581543 -288.503509521484 6.196656703949
-50.704235076904 -81.202232360840 -280.843200683594 7.814518928528
-147.178649902344 -78.639770507813 -281.296081542969 0.981819748878
-140.293624877930 -72.252838134766 -277.013427734375 5.040015697479
-132.620513916016 -75.587539672852 -280.289855957031 4.466647624969
-62.541919708252 -76.670494079590 -278.858123779297 7.881021499634
-121.358085632324 -76.415969848633 -289.052429199219 2.244877815247
7.349880218506 -88.182029724121 -294.452789306641 10.959938049316
-70.707832336426 -77.580947875977 -286.536621093750 2.694024801254
-148.532684326172 -72.430450439453 -283.053222656250 3.036701679230
-70.121459960938 -73.579750061035 -286.744934082031 1.051753401756
-151.675369262695 -82.935997009277 -286.910034179688 2.014949560165
-127.135848999023 -74.753570556641 -281.441436767578 3.399537324905
-54.922653198242 -77.656837463379 -293.735626220703 4.073476314545
-49.227664947510 -79.097190856934 -292.598236083984 3.777795553207
-142.359008789063 -76.072265625000 -287.173156738281 0.822524547577
-20.103506088257 -73.614875793457 -296.829193115234 5.122763156891
-10.250006675720 -84.356567382813 -296.463348388672 8.933973312378
0.774761974812 -80.096473693848 -295.409851074219 4.967398643494
4.652692794800 -79.688903808594 -298.389495849609 7.070717811584
-155.774703979492 -81.807861328125 -291.981170654297 1.554851531982
-152.721374511719 -73.591293334961 -294.646850585938 1.467252492905
-66.357658386230 -70.695106506348 -64.599990844727 8.309071540833
90.887832641602 -80.133911132813 -87.844345092773 3.636251211166
83.675765991211 -80.594604492188 -84.679458618164 3.454109430313
-23.493679046631 -81.620117187500 -76.606025695801 4.644705772400
89.704177856445 -77.927680969238 -81.670982360840 1.772887945175
-36.451736450195 -72.505752563477 -83.692131042480 4.869358062744
94.442077636719 -85.049736022949 -86.545806884766 8.445105552673
92.023742675781 -84.735321044922 -88.270713806152 7.961928844452
-68.884391784668 -71.767227172852 -94.372489929199 4.338382244110
82.664070129395 -79.298828125000 -97.870765686035 3.991700410843
82.599769592285 -76.126617431641 -106.483207702637 6.453980445862
95.571792602539 -78.418739318848 -97.752723693848 3.857367277145
56.274944305420 -79.071586608887 -97.253242492676 3.422554731369
-77.764503479004 -80.587928771973 -101.248451232910 2.621405839920
-83.088989257813 -70.155509948730 -98.762321472168 4.052515029907
52.285358428955 -77.926025390625 -117.718231201172 5.144134044647
-90.744415283203 -78.434204101563 -109.900588989258 2.333354949951
45.163841247559 -78.621017456055 -121.434814453125 1.436305046082
112.943603515625 -79.581451416016 -124.733840942383 4.832888603210
107.630485534668 -76.962661743164 -141.087036132813 3.308301210403
24.930372238159 -73.048027038574 -143.339981079102 1.812657713890
114.146987915039 -87.267784118652 -141.173629760742 10.749564170837
28.948156356812 -75.546936035156 -139.409576416016 1.681137800217
109.642166137695 -82.801368713379 -142.742965698242 7.389403820038
31.162105560303 -83.756835937500 -144.596496582031 4.053065776825
-53.546340942383 -79.869277954102 -154.123443603516 3.973685503006
35.303565979004 -79.103637695313 -146.434127807617 2.910342931747
112.910308837891 -79.302375793457 -146.780776977539 2.717383146286
-50.893100738525 -77.211242675781 -152.280166625977 1.126557350159
27.902627944946 -83.977401733398 -151.103134155273 4.323626518250
-54.563652038574 -76.328704833984 -134.798278808594 1.658402562141
-57.325004577637 -83.635253906250 -149.643722534180 8.234213829041
-53.818248748779 -71.434730529785 -153.053970336914 1.723031282425
-67.946868896484 -78.839843750000 -156.197006225586 1.979924440384
110.486396789551 -79.265823364258 -157.585586547852 2.830427885056
-51.907573699951 -74.596031188965 -152.681854248047 1.914954423904
17.350898742676 -81.366836547852 -165.640548706055 5.156914710999
107.801010131836 -86.897789001465 -167.173507690430 9.945366859436
-69.328598022461 -80.007034301758 -155.890228271484 3.317244768143
-49.936779022217 -74.336509704590 -159.151733398438 1.112014651299
5.541545867920 -77.032157897949 -162.662384033203 0.958594143391
-63.560771942139 -71.495048522949 -157.832992553711 1.202449679375
-60.115665435791 -77.668769836426 -163.875015258789 0.365075528622
-2.543035030365 -87.986442565918 -164.692413330078 8.419237136841
-47.853481292725 -80.744483947754 -174.693511962891 5.797790050507
24.414199829102 -75.248107910156 -170.335891723633 2.890132427216
-69.450637817383 -75.284736633301 -162.734954833984 1.209817647934
-49.887893676758 -70.418937683105 -170.210250854492 7.060381412506
22.013702392578 -77.753562927246 -168.298980712891 1.475792884827
-32.507282257080 -83.700759887695 -179.363281250000 3.548336505890
-34.877609252930 -69.854423522949 -170.363891601563 2.630788564682
11.502900123596 -75.284263610840 -181.571151733398 3.464941024780
-40.325447082520 -82.521957397461 -179.291946411133 6.373233318329
-8.639896392822 -76.992561340332 -178.858489990234 3.176087856293
-66.938346862793 -75.388313293457 -170.959762573242 2.898149967194
-8.187806129456 -79.037780761719 -174.610656738281 1.701679825783
-25.669929504395 -84.221115112305 -180.545623779297 3.912360906601
14.940468788147 -81.753204345703 -188.450805664063 4.175811767578
-37.998714447021 -75.443489074707 -179.808593750000 2.465729713440
14.742987632751 -79.971496582031 -183.561691284180 3.161967992783
-18.897701263428 -78.500938415527 -190.070571899414 2.049343585968
-35.707160949707 -77.502311706543 -182.418579101563 2.580224275589
-147.545028686523 -65.087806701660 -183.774169921875 3.994022607803
-28.222515106201 -77.182937622070 -188.806274414063 1.222522377968
-148.920776367188 -70.789169311523 -190.552062988281 2.180635452271
-155.754760742188 -73.938468933105 -184.914566040039 5.193616867065
-48.493335723877 -81.289085388184 -191.206039428711 2.849111080170
99.635452270508 -85.286506652832 -202.754608154297 8.563858032227
-148.821792602539 -71.785110473633 -188.146728515625 0.822505712509
-154.459442138672 -74.258377075195 -194.725738525391 2.953236103058
16.451078414917 -79.274269104004 -200.605102539063 2.286051034927
-137.552322387695 -69.683441162109 -191.167297363281 4.730327606201
20.330541610718 -71.696342468262 -202.705261230469 0.558857321739
-143.180023193359 -69.258270263672 -200.508300781250 3.530452489853
6.690522193909 -79.417579650879 -199.877563476563 4.564546585083
-141.078109741211 -71.783363342285 -199.516372680664 1.692685484886
3.909559965134 -75.963684082031 -209.759796142578 3.597934722900
-152.621704101563 -72.652626037598 -196.280944824219 1.191297650337
87.126152038574 -76.286209106445 -212.627090454102 1.087840557098
-17.467739105225 -74.818817138672 -211.545455932617 2.029782533646
-29.210229873657 -75.192550659180 -208.698120117188 0.631804108620
-13.927968978882 -83.785507202148 -205.754913330078 5.360452651978
-153.430374145508 -77.455192565918 -205.433868408203 2.788242101669
-46.191127777100 -80.424110412598 -209.520553588867 7.082747459412
-87.270248413086 -73.514244079590 -209.303588867188 3.865419149399
-35.085079193115 -78.221977233887 -216.083892822266 3.174032926559
14.042820930481 -72.480422973633 -213.671035766602 1.816770195961
-149.256927490234 -74.607727050781 -202.817703247070 3.114592552185
-89.620620727539 -74.962623596191 -212.877655029297 0.795948386192
-27.725156784058 -77.670150756836 -218.367935180664 2.270055532455
-29.824132919312 -72.158668518066 -224.736312866211 6.537562847137
-19.301771163940 -74.806724548340 -221.585449218750 1.002181768417
-28.528980255127 -76.601737976074 -219.272186279297 1.831830143929
-83.251083374023 -77.176193237305 -220.295715332031 3.887077093124
-87.774276733398 -77.593574523926 -224.120300292969 6.251327514648
-25.735414505005 -79.267936706543 -227.442733764648 6.332389831543
-11.204757690430 -75.943260192871 -225.885406494141 0.858810126781
-151.008544921875 -69.648017883301 -212.451019287109 2.268259048462
-6.444330215454 -74.096702575684 -221.615295410156 3.685881376266
77.368934631348 -78.170516967773 -234.176483154297 3.874231100082
-149.399597167969 -78.832893371582 -226.063293457031 1.288449168205
-9.617398262024 -76.120964050293 -227.156753540039 1.879115939140
-148.755996704102 -74.119567871094 -228.859985351563 1.584639549255
-155.522354125977 -81.894096374512 -221.436981201172 5.578392028809
-10.657533645630 -77.927070617676 -232.447067260742 2.687497138977
18.420701980591 -79.384063720703 -226.185394287109 1.166300773621
-145.233322143555 -73.688903808594 -224.531402587891 2.448413372040
-18.953638076782 -77.499038696289 -235.920974731445 2.398328065872
70.629371643066 -81.717102050781 -235.054443359375 6.580002307892
77.494125366211 -82.411712646484 -245.718231201172 13.365433692932
3.949717998505 -74.881469726563 -236.167327880859 1.174414992332
-29.971845626831 -74.515373229980 -247.339019775391 4.662812709808
-26.113294601440 -77.548583984375 -235.290237426758 3.094863653183
3.490638017654 -77.810874938965 -249.082931518555 3.010577678680
-51.633453369141 -71.845237731934 -244.808639526367 2.288695335388
-32.816421508789 -79.360015869141 -252.276367187500 8.632980346680
2.690980911255 -80.147079467773 -249.320343017578 1.465918898582
-70.607604980469 -76.533859252930 -252.322326660156 2.111801385880
-35.872627258301 -74.292015075684 -252.743957519531 8.428107261658
-49.135593414307 -75.982017517090 -245.051956176758 2.236192941666
-155.788360595703 -72.109489440918 -239.088256835938 3.040731906891
-56.053581237793 -78.347335815430 -251.523925781250 4.153401374817
-60.044281005859 -76.615158081055 -247.194259643555 2.122424840927
-70.110641479492 -83.740951538086 -251.201126098633 7.144714355469
-10.485467910767 -73.914947509766 -253.362060546875 2.089484691620
-90.605529785156 -72.177024841309 -252.834762573242 1.031022071838
-152.909973144531 -80.457359313965 -255.574081420898 1.570184826851
-143.117904663086 -84.062278747559 -256.529724121094 0.880724012852
-130.819229125977 -69.170097351074 -259.982910156250 4.809154510498
-160.289398193359 -71.202751159668 -257.694030761719 3.062427759171
12.807037353516 -77.389732360840 -265.513458251953 5.290356636047
-16.150188446045 -77.575340270996 -272.829772949219 5.286678314209
-158.852874755859 -74.098213195801 -260.593994140625 1.901673793793
-158.645660400391 -72.349769592285 -270.180908203125 3.156159162521
-148.045089721680 -76.707038879395 -276.466064453125 1.686472296715
-63.569717407227 -81.816459655762 -286.108184814453 5.671811103821
-42.713687896729 -75.845603942871 -290.574127197266 0.332790285349
-31.668952941895 -78.150924682617 -297.457702636719 7.153462409973
-21.429647445679 -78.322509765625 -290.355804443359 1.482526659966
-74.211853027344 -76.469383239746 -284.625152587891 3.974968194962
-83.549522399902 -74.672485351563 -286.073944091797 1.566785573959
-13.750976562500 -81.550804138184 -293.160095214844 5.265826225281
4.593418121338 -81.688438415527 -296.335693359375 6.464259147644
-140.444824218750 -78.112258911133 -286.441009521484 2.053766250610
-84.053634643555 -72.963920593262 -289.511077880859 2.329810857773
-154.999679565430 -74.312675476074 -289.634002685547 1.842454910278
-100.100837707520 -73.986396789551 -289.230804443359 1.243428349495
-73.814224243164 -73.300430297852 -290.740844726563 1.004123449326
-91.464813232422 -79.344291687012 -289.727447509766 4.623009681702
-72.521537780762 -80.521423339844 -290.254119873047 5.229126453400
-27.540512084961 -78.390663146973 -298.547943115234 7.458152770996
-9.038859367371 -76.569602966309 -294.634246826172 3.747912883759
-163.422943115234 -75.731323242188 -290.701751708984 1.228604555130
-150.855453491211 -77.105842590332 -293.450012207031 1.769477367401
-152.177566528320 -74.019531250000 -300.202819824219 1.419427633286
-161.968750000000 -73.404006958008 -304.721496582031 6.207689762115
-55.741355895996 -72.344284057617 -57.869129180908 4.616925239563
-44.203586578369 -70.747314453125 -55.235275268555 3.871567964554
-40.016643524170 -70.238410949707 -55.504180908203 3.880182981491
-72.988624572754 -79.377075195313 -58.997402191162 3.683134317398
-27.836570739746 -74.347915649414 -60.686470031738 1.297221779823
-25.036237716675 -74.528106689453 -81.051940917969 4.171026229858
77.010398864746 -85.083000183105 -95.699935913086 9.363169670105
83.966499328613 -80.467811584473 -95.929641723633 5.011141777039
82.918029785156 -76.562034606934 -95.576377868652 1.748984336853
98.774551391602 -84.438751220703 -100.225715637207 11.101707458496
74.747703552246 -79.586006164551 -100.454124450684 6.102348804474
59.633071899414 -80.095138549805 -101.561080932617 6.572721004486
45.505550384521 -77.531906127930 -108.931411743164 0.421204775572
-63.508132934570 -78.789794921875 -104.728729248047 5.862637996674
-71.762710571289 -72.367340087891 -98.760116577148 3.532927036285
45.663196563721 -74.452644348145 -109.368782043457 3.368658304214
-83.024909973145 -74.954368591309 -108.476020812988 2.939382314682
-89.981224060059 -68.096565246582 -110.561752319336 2.715885162354
50.091606140137 -74.895034790039 -108.947990417480 0.871598899364
105.226127624512 -77.452217102051 -123.603996276855 5.164654254913
34.910686492920 -79.010185241699 -127.890693664551 3.134783983231
45.450218200684 -82.950958251953 -122.337471008301 5.015393733978
44.635311126709 -79.736991882324 -128.867233276367 4.428503513336
29.010984420776 -77.831382751465 -132.681030273438 1.682428717613
110.701301574707 -78.572692871094 -126.224227905273 2.943222522736
31.509187698364 -81.158126831055 -130.079421997070 1.405632376671
31.917224884033 -76.748420715332 -135.535797119141 2.964221000671
-40.747814178467 -70.472381591797 -144.108963012695 3.131443500519
-69.397727966309 -76.504653930664 -149.751129150391 1.946716785431
-52.277381896973 -73.799812316895 -153.295562744141 1.787217020988
-71.282310485840 -73.767089843750 -141.256027221680 0.919982373714
-41.765193939209 -77.254463195801 -151.914291381836 2.233392238617
109.067291259766 -77.583374023438 -161.248779296875 2.365887880325
-72.082191467285 -74.356582641602 -152.837905883789 1.429659485817
20.438339233398 -85.497665405273 -158.154022216797 7.097813606262
31.843448638916 -71.680404663086 -156.243942260742 0.919980645180
113.587409973145 -76.739791870117 -162.395919799805 1.370567917824
6.522994041443 -72.823638916016 -160.193817138672 2.054801225662
33.209808349609 -75.188034057617 -163.276626586914 1.879654526711
-57.765495300293 -75.736976623535 -161.646453857422 2.900052309036
-50.007072448730 -80.050369262695 -173.390106201172 4.877553939819
17.746719360352 -77.810310363770 -170.163238525391 1.941647768021
-69.779769897461 -72.367736816406 -169.214935302734 5.202065944672
-64.302078247070 -69.238449096680 -159.471084594727 2.465243339539
110.538360595703 -84.492149353027 -174.689102172852 7.263114929199
-13.936614036560 -70.110862731934 -171.271804809570 6.695751667023
-56.910480499268 -79.641906738281 -178.007110595703 2.481115818024
-33.224388122559 -73.602691650391 -177.066162109375 2.664658069611
-56.395629882813 -74.834442138672 -173.267181396484 1.471707105637
29.565019607544 -85.171112060547 -175.267837524414 7.336351871490
109.096580505371 -72.359085083008 -176.226684570313 1.093135833740
108.152900695801 -85.561813354492 -190.119857788086 8.634942054749
113.635215759277 -84.416328430176 -202.279495239258 13.787512779236
106.031929016113 -82.067947387695 -181.911132812500 4.531499862671
-62.731430053711 -76.870834350586 -193.405441284180 10.875627517700
-54.874721527100 -73.802673339844 -182.354263305664 0.976187288761
20.376611709595 -78.237251281738 -189.919982910156 1.073283791542
-54.641330718994 -67.324981689453 -186.722473144531 7.363834857941
-25.982500076294 -72.824928283691 -190.458602905273 2.097180604935
-52.868923187256 -72.649147033691 -193.364776611328 4.210247993469
-145.636871337891 -75.369407653809 -194.694366455078 2.196769952774
96.653839111328 -76.960838317871 -200.804473876953 1.234609127045
-48.630382537842 -75.531364440918 -192.025283813477 1.881940841675
-16.235979080200 -79.197433471680 -198.148330688477 1.135892868042
-139.790405273438 -72.980010986328 -201.077636718750 0.571538448334
-46.906364440918 -78.937492370605 -196.868896484375 1.203523516655
103.777900695801 -89.725166320801 -201.852798461914 12.913211822510
106.008110046387 -82.195877075195 -199.415176391602 6.600759029388
-50.707538604736 -78.983215332031 -199.505157470703 1.934654116631
-25.544036865234 -75.217552185059 -197.903701782227 2.145606040955
-153.176925659180 -78.771034240723 -197.734832763672 1.757341861725
-30.953121185303 -73.512527465820 -204.671569824219 3.224366188049
-154.683120727539 -75.959159851074 -194.016403198242 3.131119251251
-155.563583374023 -72.996887207031 -199.321456909180 2.318624258041
-144.510192871094 -72.898971557617 -198.003341674805 1.904664158821
-40.063343048096 -75.164840698242 -198.634811401367 1.192571878433
100.262351989746 -83.916854858398 -210.217773437500 8.337448120117
-41.058361053467 -75.001167297363 -204.139755249023 1.993420600891
-146.870025634766 -76.002334594727 -197.531326293945 1.797999024391
-41.091262817383 -77.184814453125 -212.281890869141 4.809484958649
-22.150648117065 -79.381790161133 -213.611175537109 2.105889558792
89.872459411621 -81.985435485840 -212.361511230469 5.281460762024
91.898429870605 -81.464408874512 -214.597259521484 4.793520450592
-29.766166687012 -79.424385070801 -218.993270874023 2.699022293091
-91.767242431641 -79.075599670410 -211.837966918945 4.018449783325
-72.772239685059 -77.280067443848 -212.800720214844 2.018333435059
-22.279529571533 -78.415672302246 -220.974639892578 2.261306047440
-153.823242187500 -68.417297363281 -211.475082397461 3.998912811279
80.980705261230 -83.497833251953 -226.261505126953 7.538876533508
82.718299865723 -76.426177978516 -231.229736328125 4.346815109253
83.262458801270 -84.384658813477 -226.705947875977 8.721486091614
-104.200965881348 -66.582038879395 -223.074707031250 0.916598737240
-149.510696411133 -74.740959167480 -221.854614257813 1.233924388885
-22.026161193848 -84.702072143555 -221.894775390625 6.326234817505
77.301544189453 -78.179344177246 -232.158920288086 3.491514205933
-148.581008911133 -82.544029235840 -222.153549194336 2.152719974518
-38.788784027100 -75.897544860840 -224.194946289063 11.033031463623
-137.208221435547 -65.527961730957 -232.030120849609 2.467027664185
-15.999254226685 -79.415832519531 -230.517944335938 3.807715415955
16.286272048950 -77.193840026855 -224.424255371094 2.473600149155
9.743392944336 -76.978096008301 -241.150665283203 1.752534627914
-161.883972167969 -77.146392822266 -231.847991943359 4.539650917053
-126.545440673828 -69.860527038574 -229.310684204102 4.371273517609
-13.149985313416 -77.909194946289 -235.835922241211 3.784628391266
-3.229078054428 -75.023216247559 -245.388488769531 1.926179885864
61.066654205322 -83.256095886230 -242.847610473633 9.849345207214
62.241767883301 -79.096771240234 -244.185287475586 5.782506465912
-3.171807050705 -79.555229187012 -245.598693847656 3.359352588654
15.972667694092 -79.956481933594 -242.131042480469 2.905708789825
-28.073511123657 -75.805999755859 -245.939056396484 3.068273782730
-46.222846984863 -81.494956970215 -250.187820434570 4.757789134979
-53.368293762207 -80.550865173340 -236.015319824219 7.494603633881
-47.605422973633 -80.406257629395 -245.138153076172 0.966651558876
-24.554798126221 -81.124572753906 -248.577087402344 6.834564685822
-60.150939941406 -72.560974121094 -241.909500122070 3.093527793884
1.169924974442 -77.807891845703 -249.438552856445 3.112000942230
-77.780296325684 -69.474594116211 -247.374023437500 2.126110553741
8.449386596680 -74.958450317383 -249.650802612305 5.016386508942
-151.423049926758 -76.186820983887 -246.089538574219 1.379596590996
-73.875038146973 -81.666229248047 -253.511947631836 6.024822235107
5.388455867767 -80.543678283691 -253.182571411133 3.663461446762
-171.250457763672 -73.000564575195 -246.966461181641 4.400079727173
12.046008110046 -75.726295471191 -254.354370117188 5.843966960907
-90.499671936035 -78.002433776855 -254.257766723633 3.546189546585
-79.541496276855 -71.083625793457 -251.678283691406 1.976649999619
18.139869689941 -78.400932312012 -262.934600830078 1.491205453873
-93.709014892578 -73.006080627441 -257.944427490234 1.136448383331
-137.569900512695 -75.763412475586 -252.788253784180 4.474533557892
-142.923843383789 -76.172752380371 -254.880310058594 2.683328866959
-140.173034667969 -74.771804809570 -256.048583984375 1.645707726479
-147.152893066406 -71.613830566406 -256.426055908203 2.369684696198
-144.363586425781 -78.033309936523 -252.394607543945 1.930906653404
-141.998001098633 -72.040374755859 -260.967895507813 1.744165182114
-162.906311035156 -74.925086975098 -253.130584716797 1.713973283768
-134.891357421875 -70.219833374023 -261.441131591797 1.831523299217
-140.500457763672 -70.499992370605 -254.986709594727 1.170249342918
-167.344482421875 -78.132904052734 -263.920410156250 4.566627979279
-159.490585327148 -74.089164733887 -260.506256103516 1.459907770157
-155.014419555664 -73.176445007324 -263.764526367188 1.538568019867
-151.553161621094 -80.353363037109 -261.731109619141 2.280209541321
6.255793094635 -89.715415954590 -287.590270996094 11.338891029358
-169.512725830078 -77.647453308105 -263.960327148438 5.183562755585
-161.934082031250 -69.056549072266 -274.021728515625 0.882685720921
-11.810100555420 -76.957191467285 -281.271606445313 4.759822845459
-166.001739501953 -74.057693481445 -263.294311523438 1.164180159569
8.998981475830 -83.687995910645 -285.782379150391 6.452330589294
-159.982589721680 -72.273574829102 -279.637512207031 2.348855257034
-167.507492065430 -69.916549682617 -289.908721923828 2.583965301514
-158.170684814453 -69.652404785156 -277.381164550781 1.928488254547
-175.597427368164 -64.036529541016 -276.407073974609 10.455618858337
-4.374001026154 -77.032135009766 -293.077880859375 2.846854448318
5.302209854126 -84.573318481445 -286.496368408203 6.575892448425
-103.688285827637 -66.817253112793 -285.469207763672 4.239075660706
-158.996002197266 -76.042060852051 -285.465301513672 3.476660013199
-154.278213500977 -75.088226318359 -279.889160156250 3.480099916458
-117.799362182617 -70.891944885254 -291.085174560547 2.018455505371
-156.602844238281 -72.209854125977 -288.381713867188 1.344223976135
-156.800231933594 -72.603012084961 -292.112823486328 2.533050060272
-75.273452758789 -75.703109741211 -290.787292480469 2.303838491440
-168.639587402344 -77.381759643555 -289.750213623047 4.627908229828
-126.923034667969 -77.792961120605 -285.796875000000 1.729457378387
-50.050094604492 -83.112396240234 -293.814575195313 7.669618606567
-158.498916625977 -70.449409484863 -290.388397216797 2.206717729568
-150.143310546875 -74.397941589355 -288.120788574219 0.823012590408
-25.832078933716 -82.570426940918 -295.536651611328 7.138926506042
-133.419021606445 -72.558959960938 -297.471191406250 3.108349084854
-5.373076915741 -79.374877929688 -294.554656982422 4.969273090363
3.610109090805 -82.543006896973 -293.357208251953 6.117257595062
-139.670852661133 -73.292114257813 -294.015838623047 2.778746843338
-151.565338134766 -71.742073059082 -292.012207031250 2.973023176193
-163.267913818359 -70.404968261719 -304.515319824219 7.941766738892
-66.805305480957 -72.306533813477 -49.710502624512 1.756104826927
-22.105567932129 -73.697547912598 -64.809829711914 2.077995061874
-19.578241348267 -75.764282226563 -69.072715759277 1.233253240585
77.536643981934 -76.518165588379 -81.088241577148 1.645908713341
92.676620483398 -77.225753784180 -84.730026245117 1.602966904640
-33.932044982910 -67.742301940918 -81.939071655273 3.971852779388
84.790702819824 -80.495422363281 -82.980285644531 3.237935304642
89.383346557617 -82.553512573242 -88.274826049805 5.222164630890
75.415115356445 -77.828224182129 -87.451019287109 1.662608861923
70.612686157227 -74.388351440430 -97.670639038086 2.700642347336
-42.240127563477 -77.672065734863 -86.053848266602 2.329937934875
-92.660186767578 -69.973144531250 -91.808013916016 3.610330581665
60.485733032227 -79.831443786621 -98.583374023438 6.230977535248
49.361492156982 -79.822944641113 -103.559738159180 1.864661574364
98.802558898926 -73.225563049316 -107.687141418457 5.179744720459
-92.454086303711 -68.677566528320 -104.211479187012 4.071078300476
86.455787658691 -77.253662109375 -104.359245300293 5.157173156738
86.665466308594 -78.234428405762 -109.079193115234 8.606546401978
92.060882568359 -80.370773315430 -103.032951354980 7.190035820007
83.852890014648 -73.230461120605 -113.017501831055 9.573813438416
97.291007995605 -76.791694641113 -110.306304931641 8.549034118652
-82.858764648438 -79.940002441406 -102.341964721680 4.573238372803
42.860137939453 -82.293174743652 -117.117851257324 2.438878536224
103.689384460449 -80.345985412598 -122.936370849609 8.087167739868
114.768836975098 -74.376060485840 -119.338478088379 1.290937542915
47.504608154297 -76.294708251953 -124.424835205078 4.481658935547
110.781059265137 -74.911140441895 -135.101593017578 1.110690474510
114.352828979492 -82.192680358887 -145.378616333008 5.850517749786
-51.302074432373 -72.376464843750 -131.368209838867 1.699101090431
31.784685134888 -78.789581298828 -138.428588867188 0.570726573467
32.517539978027 -83.225898742676 -132.278961181641 3.067429780960
20.300874710083 -73.919075012207 -147.803024291992 3.371994256973
114.478111267090 -79.376533508301 -147.500152587891 2.667820215225
110.035079956055 -81.384071350098 -143.358322143555 5.881983280182
-75.170280456543 -75.903739929199 -150.164657592773 3.089850425720
-50.127510070801 -77.387893676758 -151.240997314453 1.770278453827
-74.387931823730 -70.930107116699 -149.649734497070 0.493600964546
19.239620208740 -80.498107910156 -157.450775146484 4.016389846802
109.920036315918 -77.874069213867 -164.473556518555 1.501651644707
-56.468280792236 -75.238098144531 -155.000396728516 4.964312553406
-71.405509948730 -73.228256225586 -150.715957641602 2.028192520142
-42.571670532227 -80.185951232910 -159.263732910156 2.371408462524
37.268417358398 -78.007865905762 -155.719161987305 4.464383125305
107.520355224609 -81.755317687988 -167.176925659180 5.405221462250
117.999320983887 -82.695907592773 -166.200347900391 7.877432823181
-69.973609924316 -74.281463623047 -151.953201293945 1.717711091042
-75.170486450195 -75.742851257324 -165.208038330078 7.045489311218
17.949468612671 -82.476715087891 -167.888259887695 4.915324211121
-57.806900024414 -79.317481994629 -162.716491699219 2.985058307648
-31.388938903809 -86.338188171387 -167.254608154297 6.966284751892
6.050408840179 -74.583671569824 -169.395080566406 4.961228847504
110.242340087891 -83.435844421387 -177.099472045898 5.953447818756
5.231334209442 -76.065666198730 -170.294921875000 5.709312915802
-39.792446136475 -76.694061279297 -170.105834960938 1.173601627350
-2.602404117584 -73.131042480469 -167.779235839844 1.448291659355
101.026992797852 -78.221435546875 -185.548675537109 3.836405515671
-43.866794586182 -68.016273498535 -178.986740112305 7.743515014648
29.127771377563 -74.344017028809 -174.707992553711 1.097749233246
111.391914367676 -77.805702209473 -179.925689697266 2.937853813171
-51.698837280273 -74.652290344238 -182.356201171875 1.768368721008
-29.758666992188 -78.763664245605 -172.170684814453 2.113854885101
95.797996520996 -84.397689819336 -183.093353271484 11.402916908264
32.559795379639 -81.802154541016 -178.074447631836 8.289070129395
114.828926086426 -75.816215515137 -186.803176879883 5.660264968872
-40.517173767090 -79.027641296387 -172.240798950195 1.611113786697
104.792388916016 -77.859046936035 -190.382949829102 0.660418868065
-58.875167846680 -74.190231323242 -180.160064697266 1.704172253609
-25.526485443115 -75.032112121582 -177.804290771484 1.840258121490
-144.261962890625 -71.653320312500 -179.194992065430 1.582728147507
-56.968776702881 -75.108055114746 -187.274322509766 4.587156772614
-148.610626220703 -69.450218200684 -180.017257690430 2.578017473221
-34.576793670654 -75.488410949707 -189.310287475586 3.564001321793
18.323514938354 -76.374649047852 -192.491546630859 2.769093513489
110.283836364746 -74.898368835449 -190.927474975586 3.010764360428
-32.736099243164 -75.119445800781 -195.103042602539 5.232139587402
11.366804122925 -79.631477355957 -198.107269287109 2.087221622467
13.366839408875 -77.842147827148 -203.625320434570 1.133259415627
-152.244644165039 -67.288085937500 -190.888153076172 2.684265375137
99.126380920410 -85.493949890137 -207.908401489258 8.631038665771
-21.463708877563 -72.734863281250 -198.024765014648 2.262725353241
103.989608764648 -74.451110839844 -201.475433349609 3.564177989960
13.976305007935 -76.191680908203 -195.168090820313 1.599346876144
-132.938766479492 -71.026496887207 -201.196212768555 1.462140679359
-147.851165771484 -69.191665649414 -193.768157958984 3.312581300735
91.059539794922 -71.581161499023 -207.641403198242 2.137971878052
-14.267004966736 -74.731483459473 -203.867279052734 1.623573064804
-18.795608520508 -79.260803222656 -199.016662597656 1.409031033516
10.443881988525 -77.782989501953 -207.473281860352 1.745726108551
-148.663787841797 -71.475769042969 -204.133316040039 2.036229372025
-150.847656250000 -72.941612243652 -204.354125976563 1.558216810226
97.769035339355 -87.741462707520 -215.219238281250 12.045761108398
-76.999069213867 -77.034812927246 -211.370208740234 1.920118689537
-39.070892333984 -72.835990905762 -203.592788696289 1.615918040276
18.740301132202 -76.197463989258 -215.874969482422 2.123018026352
-26.119350433350 -80.505607604980 -212.433090209961 1.563973069191
-81.703544616699 -71.715454101563 -214.880325317383 1.785047411919
90.603385925293 -78.860290527344 -214.644470214844 1.927435636520
-85.123069763184 -69.499458312988 -216.172088623047 3.309277296066
-151.335769653320 -72.457679748535 -216.766433715820 0.649846613407
-81.916046142578 -77.324699401855 -217.663208007813 1.233561277390
-19.117212295532 -77.776092529297 -215.262298583984 2.285084247589
-26.018854141235 -79.031257629395 -220.970764160156 1.838507890701
21.198673248291 -75.442375183105 -216.624786376953 3.455638885498
-8.616305351257 -74.423149108887 -214.670379638672 2.234190225601
-82.639541625977 -74.163276672363 -220.550415039063 4.109770774841
87.152900695801 -80.450263977051 -223.546096801758 4.854466915131
-97.313400268555 -75.845275878906 -213.534790039063 3.930471658707
-148.624557495117 -80.819702148438 -223.765243530273 1.955788493156
-13.868562698364 -79.543457031250 -220.232223510742 2.920755147934
13.191942214966 -77.880874633789 -220.374420166016 1.052178978920
-107.994552612305 -71.274459838867 -218.156738281250 4.778461456299
6.249461174011 -80.241737365723 -223.473739624023 3.196325302124
-31.463317871094 -80.255279541016 -217.970748901367 3.106167554855
78.293777465820 -83.013061523438 -233.120788574219 8.132297515869
-149.221939086914 -70.258728027344 -216.620864868164 2.875143051147
5.181994915009 -74.292724609375 -230.791870117188 1.676927924156
-8.672352790833 -77.512481689453 -225.018707275391 1.411981582642
13.231586456299 -72.976531982422 -225.744262695313 2.144391059875
81.891288757324 -76.614837646484 -236.599304199219 6.340905666351
-17.551326751709 -78.044006347656 -229.362182617188 3.256733655930
-132.809371948242 -77.799865722656 -227.039962768555 1.749886870384
-9.984936714172 -82.440093994141 -229.094757080078 5.879451751709
12.771545410156 -76.003707885742 -239.375335693359 3.253411293030
-129.812698364258 -71.215667724609 -219.565521240234 5.355464935303
-154.711959838867 -74.565704345703 -227.821548461914 2.328954219818
-143.030151367188 -73.040908813477 -226.828292846680 2.026172637939
-134.305648803711 -71.993431091309 -227.036849975586 1.445932865143
-12.895456314087 -76.236732482910 -230.994964599609 2.042321920395
67.424537658691 -79.062194824219 -237.290802001953 4.746430873871
-145.529220581055 -74.003715515137 -235.214813232422 0.539504885674
67.802925109863 -76.667091369629 -233.792434692383 3.228913307190
-18.173727035522 -79.371772766113 -228.969818115234 3.712549924850
-146.554931640625 -78.696449279785 -229.600036621094 1.115812540054
71.985496520996 -85.320602416992 -242.444122314453 12.054347991943
11.296363830566 -82.891029357910 -241.690841674805 2.420348882675
-145.648651123047 -67.254699707031 -235.316970825195 0.521630048752
-152.992416381836 -73.081298828125 -234.881164550781 1.276526689529
7.659304141998 -71.370544433594 -240.208312988281 1.697406172752
-6.588871002197 -78.392845153809 -244.005798339844 4.070682048798
-28.006736755371 -73.086059570313 -248.820510864258 6.260921955109
-10.431756019592 -76.772430419922 -244.322265625000 4.164494991302
-166.473098754883 -73.529876708984 -233.098037719727 2.380308389664
4.683465003967 -77.195091247559 -250.337753295898 4.547871112823
-167.143737792969 -69.976600646973 -231.094497680664 1.289575219154
-21.937765121460 -74.892684936523 -233.868270874023 4.585118293762
64.333885192871 -81.254623413086 -246.556625366211 8.683403015137
-11.316939353943 -75.100288391113 -245.214691162109 2.713247060776
-30.592964172363 -77.008888244629 -241.796905517578 2.250644207001
-30.874156951904 -72.797080993652 -244.299285888672 3.437936544418
-19.406757354736 -73.292709350586 -250.134948730469 4.590127944946
-146.608734130859 -70.433181762695 -233.183471679688 3.412717580795
4.930091857910 -81.143768310547 -248.441528320313 2.106874465942
60.562931060791 -83.982734680176 -247.273406982422 11.494332313538
6.432331085205 -79.005844116211 -248.095809936523 1.391456127167
-166.824249267578 -70.142868041992 -236.009750366211 0.408276736736
-51.965568542480 -79.702461242676 -246.431320190430 1.368554353714
2.360579013824 -80.975959777832 -252.885589599609 2.588129997253
13.098178863525 -71.660064697266 -256.614410400391 8.791833877563
-64.294944763184 -75.310104370117 -252.950592041016 2.567625045776
-7.722158908844 -76.308959960938 -245.728134155273 3.450822591782
15.350499153137 -81.594978332520 -257.839172363281 1.312708735466
-170.605484008789 -71.142417907715 -241.413787841797 3.660219430923
-77.440696716309 -78.500984191895 -256.184661865234 4.936445713043
-58.369800567627 -71.980476379395 -249.478469848633 1.721364736557
-84.835449218750 -72.194496154785 -248.063858032227 2.381495952606
-166.869262695313 -69.966499328613 -237.751144409180 1.039714574814
-157.337982177734 -72.649452209473 -247.904663085938 2.209895849228
-64.344039916992 -70.262084960938 -256.164581298828 6.233023166656
-73.922401428223 -82.052398681641 -251.284149169922 5.843812465668
-159.494949340820 -69.938255310059 -249.130264282227 1.629928350449
-157.393692016602 -68.893836975098 -245.322753906250 1.351226449013
-82.785102844238 -74.196403503418 -250.298904418945 1.836171627045
-96.922050476074 -68.845932006836 -251.245681762695 2.496280908585
-167.131896972656 -73.522865295410 -248.050018310547 1.434114933014
-159.053329467773 -71.046569824219 -247.523620605469 2.801056385040
-140.226058959961 -67.779548645020 -255.504989624023 2.049911022186
-86.374450683594 -77.911285400391 -252.608749389648 3.466971635818
-168.870239257813 -66.810417175293 -251.220291137695 3.551671504974
-153.794097900391 -77.855239868164 -253.580322265625 1.820229887962
-99.395950317383 -74.010375976563 -253.734146118164 1.826855063438
-106.749610900879 -66.460487365723 -259.481933593750 0.396844774485
-154.365158081055 -69.996475219727 -256.199584960938 0.841527342796
-103.045616149902 -73.206169128418 -263.248474121094 3.570120573044
-157.200225830078 -70.488288879395 -249.883682250977 1.447850108147
-105.456520080566 -76.044792175293 -254.345672607422 3.879224777222
-172.755599975586 -76.321022033691 -251.484283447266 7.045079231262
-168.262557983398 -78.153190612793 -253.715362548828 5.275575160980
-127.453834533691 -70.438072204590 -254.262145996094 1.546807527542
-153.539108276367 -77.637718200684 -255.040588378906 2.046191930771
-112.410072326660 -71.623710632324 -258.371337890625 1.651030659676
-20.056476593018 -83.126808166504 -263.661987304688 9.781161308289
-148.261840820313 -70.238876342773 -258.543151855469 1.923143506050
-131.859786987305 -71.681350708008 -260.020324707031 4.150753974915
-161.977859497070 -70.866142272949 -262.341033935547 2.644660949707
15.237855911255 -79.465499877930 -272.787963867188 2.121025562286
-159.719314575195 -68.824790954590 -280.739318847656 2.457785367966
-174.670486450195 -68.697242736816 -276.243713378906 7.121223926544
-11.769824981689 -83.554557800293 -287.170654296875 6.244143962860
-155.728271484375 -74.902572631836 -276.150787353516 4.030588150024
-12.678408622742 -75.422920227051 -280.540222167969 4.585855484009
8.905961990356 -78.379310607910 -291.330017089844 0.990857183933
-139.210952758789 -69.918006896973 -285.447204589844 3.166598558426
-75.920181274414 -79.227569580078 -281.525360107422 6.811470985413
-47.742736816406 -74.491905212402 -283.592071533203 2.811812877655
-122.545227050781 -70.305580139160 -287.238800048828 2.659132957458
-96.987007141113 -73.826606750488 -294.207946777344 3.329998016357
-97.374092102051 -73.202659606934 -295.810852050781 4.603556156158
-55.412689208984 -80.914222717285 -289.702545166016 4.012347698212
-121.551803588867 -68.165931701660 -291.796691894531 2.209127902985
-114.321258544922 -74.400466918945 -291.612304687500 1.255049109459
-39.040527343750 -80.180786132813 -293.985778808594 4.519812583923
-123.027366638184 -75.467269897461 -287.025695800781 1.897606968880
-132.790039062500 -76.625556945801 -286.907592773438 1.231472849846
-151.795333862305 -75.676765441895 -292.120300292969 2.692770004272
3.258411884308 -74.746345520020 -291.914459228516 1.019133806229
7.988086223602 -80.173645019531 -298.119384765625 6.690137863159
-162.704284667969 -71.897850036621 -291.291351318359 1.041966080666
-162.083145141602 -71.299911499023 -301.196777343750 6.593603134155
-154.000518798828 -75.539894104004 -307.551483154297 0.990181505680
-157.889724731445 -68.346076965332 -304.411773681641 3.279785633087
-159.918243408203 -76.165573120117 -310.394958496094 4.728517532349
31.509824752808 -74.474327087402 -20.123821258545 3.823057413101
31.503177642822 -72.446571350098 -28.320600509644 5.561188220978
30.863731384277 -74.287559509277 -25.445913314819 5.793448448181
32.975963592529 -75.802375793457 -45.956596374512 6.668470859528
-46.986835479736 -64.547622680664 -58.027393341064 10.548268318176
-59.359527587891 -69.820159912109 -54.549121856689 6.062810420990
-35.174118041992 -71.545639038086 -55.148014068604 2.859539270401
-77.359054565430 -72.785499572754 -60.816898345947 3.928873777390
84.415809631348 -83.287315368652 -88.702186584473 5.871529579163
-14.974262237549 -70.620887756348 -78.980682373047 7.595204353333
94.718086242676 -81.250343322754 -75.830627441406 6.694853305817
