# This PCD file was generated using the MATLAB® pcwrite function
# from Computer Vision Toolbox®.
# .PCD v.7 - Point Cloud Data file format
VERSION .7
FIELDS x y z
SIZE 8 8 8
TYPE F F F
COUNT 1 1 1
WIDTH 786
HEIGHT 1
VIEWPOINT 0 0 0 1 0 0 0
POINTS 786
DATA ascii
-32.457971095577697 -80.750175549520549 -171.652590844630566
-55.625104782584017 -80.404328233725451 -180.333897481848680
-29.231337341739110 -79.292348539019642 -180.507716042297062
-146.530536156181483 -80.446511107006458 -184.528798102620527
-51.149843183435166 -80.832551761242172 -181.787564734466116
-44.794723419878515 -79.827588356168562 -193.916590974580458
-30.703384225741335 -81.286518580725115 -183.314772204242018
-33.380929738389050 -82.403143881270282 -188.014590161014297
-32.825341881837893 -78.576050821680056 -191.509030631636676
-23.101703213391868 -82.069609192844126 -187.767688025944977
-46.993189106182712 -80.998610886553948 -198.049008917126400
-144.463409397959794 -77.078691678220636 -193.084921523398634
-39.822891697889432 -76.722888988968123 -194.113164650661219
-39.334968131911033 -79.110295546332651 -200.548360936888827
-40.751419065471595 -82.564396230585629 -201.049966233546911
-44.859890181668618 -78.342943512843490 -199.542666722863686
-133.058545787475310 -80.253991196887483 -196.195367998236549
-135.930102864229042 -79.832470303950032 -200.149560731600474
-48.538599805213408 -80.536929279798898 -202.950578799408873
-59.947297465913707 -83.785312431279365 -203.926448075857166
-40.012827000061932 -80.839009916058998 -203.325863382959028
-142.882882910448330 -82.008132778545004 -204.837884078372980
-69.158462650222134 -76.585301283526590 -207.004665662867836
-36.086129612723376 -82.882834909307945 -207.835629395311088
15.267322877312942 -81.340337741424733 -205.122968995893729
-73.308148913928449 -81.661019310382144 -212.931671483900971
-29.543543259096214 -78.497155226362324 -213.266435911687523
12.289399507548913 -79.884572309292622 -218.219411723008363
-152.172099882976767 -81.119273491603167 -217.134626896017181
8.566414849502340 -80.041061398728317 -226.793047883829360
13.132220275795879 -81.305738861116225 -223.127135569274316
17.046113064317215 -78.708296062026321 -225.722424944100254
-137.159839689153330 -84.104774804219886 -226.109406489922947
-145.221029633155439 -79.692181620058335 -228.724294952530784
11.123085821759492 -81.620104620180058 -236.233996223877625
16.911761429043569 -78.685203444746080 -236.381125220277397
14.218754469962562 -79.947684384528259 -236.130409157569176
-149.388307101381230 -83.155869908954827 -240.661085403092272
-145.510316331609204 -87.842091986114809 -238.677295335192667
12.722295034442920 -81.153446911386510 -235.651893055804607
-39.436903147136135 -80.467922064385647 -243.709541680187669
18.106184132660800 -80.203658507538947 -247.216900460073958
-42.655505589333870 -81.737191619668096 -242.757691896261832
-145.078812960555780 -84.207441268561169 -255.900991547800601
17.163005459270249 -81.445444975470323 -252.149992314173261
-143.965167289095973 -82.982746234479990 -255.653511777450575
-153.055432767557477 -82.289139246337157 -256.455122761222810
15.098024990215576 -79.404392587480999 -255.478968691852486
-8.889599419015775 -77.182967923659803 -251.732878078966422
-8.558524657459820 -80.311389831330303 -262.229841537416803
-145.155712149870794 -85.341242651433305 -258.959797864097823
-155.730894431233622 -76.589012471035559 -261.041794320111421
-144.741873244679624 -83.508421188343604 -263.361742154307706
-150.798556985590835 -78.097316134870525 -268.402830636968929
-148.847912771405134 -82.868142257543397 -268.691158848045291
-8.234180827721570 -81.946826854871361 -268.217076344299812
-4.961860410935577 -80.693911586757750 -271.817450682539800
13.469151356751274 -81.101807820460792 -267.037774411570979
5.178223008591575 -81.632637554435448 -278.205845094190920
3.795543317221433 -78.867093534080226 -284.076921387772416
-138.444451855379668 -78.051478988961236 -289.988045033674894
-145.347951858092358 -80.862067935990581 -292.183384766216307
-60.321528422006800 -78.747092862242255 -63.499783726844484
-43.747464546422655 -78.082304111247595 -64.117552520805972
-47.523047840239308 -76.047341621882822 -65.778071965430001
-45.484361930918496 -76.886032734689607 -64.813850619686633
-67.153786993669826 -82.367244515470588 -65.673054807916500
-77.189864756534107 -77.919202532869221 -71.215982340790987
-36.574459414897390 -78.723468145228907 -77.510583578926074
-41.063813770431452 -81.499585604094946 -85.279190975153796
-48.402229766995561 -83.363393059360973 -87.397207990584718
-85.533239946791781 -77.861826964655904 -87.144296683674725
-74.536453071726100 -82.055650822869438 -106.131010503773069
43.704233401014569 -78.385897906878995 -107.770065574002984
-85.040005894830358 -79.060853345683711 -109.059332140598457
42.665038838583058 -80.044744986076566 -119.456732908962707
40.976706672728177 -78.123821892632989 -124.371351417897884
34.420365466692012 -78.235938948054184 -120.785619194128898
30.307544127652758 -81.731907441192320 -126.092288263067857
32.399277200432252 -78.408924225343029 -134.264177495769530
24.443160535481166 -76.550150743351139 -145.030859954918213
-47.623503861018591 -81.643639642441741 -154.199616495778599
31.270506046239049 -79.092161102871742 -143.754943523783595
24.739997073809473 -81.295799353991271 -156.813135032609438
-43.344819968345014 -81.090109842210012 -152.216244588312094
27.168075413248143 -79.562432282375752 -155.005338375120516
-47.085942290339645 -76.869015421100315 -160.823112376595276
25.640382282074391 -79.402731830970481 -165.889919343240479
-60.481459516552221 -80.465523279461479 -169.477820055428538
-5.532317480149517 -82.200655024585515 -173.084545216783567
-33.804900266717048 -79.129435503055433 -172.957184594452684
-11.456765004182529 -81.198710422972624 -172.789921217471971
-56.517735366807507 -79.529435266257408 -174.933817557975118
23.194516827495193 -81.126427473462272 -172.205246002657532
-13.935335198274966 -78.412631743465710 -182.824398924997837
-23.494794827102780 -76.083291041036972 -186.224392368476288
-53.091581833569542 -77.121683491110090 -183.673634318890066
-29.367968457872955 -80.330749621327342 -185.697247518539655
17.906120516147826 -81.057044548094325 -190.071970994019210
-148.989424471705064 -82.096037387355651 -187.609013836630368
-28.866013957532193 -79.976096808085529 -188.726778656928900
-48.674800186649037 -77.246194353673701 -189.413539992515098
-150.512475196798079 -83.357090357028312 -191.372846483520306
-142.387238250654605 -81.347538755332721 -196.231388320965777
-23.578362426612895 -79.582630357617433 -196.809813716032750
-21.647252034763564 -79.966382260127475 -195.154721911405261
-45.802235361966410 -78.719990139599247 -195.465576633101847
-20.249385107915053 -80.663628953932033 -196.051051960353277
-48.484383748059273 -79.584511705576460 -199.228739493720894
-46.112304569010377 -79.784148334886083 -197.950873278250782
-54.839163095654712 -81.094728817504915 -200.596815853982548
-19.511947558648171 -76.549791759572571 -205.675104933496016
-146.768696496333774 -80.953180878172560 -213.669695023522934
-59.158148618222434 -77.822372086439756 -208.001851524544975
-58.125360232726436 -77.308315387511499 -208.217289477183812
-32.773106073703474 -74.854276039761984 -206.633636225790667
-13.510738195929317 -77.248008995276294 -205.751026573914345
-35.936658890691525 -78.160950029448443 -208.094781840523865
-79.840914921303380 -79.434623802073546 -209.762749984124781
-144.258426959293786 -84.641311947668470 -209.626884847095909
-32.948689961726117 -80.594680278040173 -207.914816959209276
7.339212914188256 -81.571795690810220 -208.883589147505035
-65.716971103103560 -81.456880641351106 -211.041013416165839
-66.278578203699013 -79.535964824535483 -213.576088361686402
-25.702763605667396 -76.259549145309620 -214.391312620482182
-10.348944556244838 -84.210004663790542 -211.819179569472482
-26.264697912114329 -80.663756822527162 -217.565330748762022
17.766643655778438 -79.012108336724978 -215.834707148437758
-150.818911545489499 -77.590882404878087 -220.401155777934804
-10.878426935986433 -83.621196627537472 -218.693260858768923
-155.919696742626002 -82.244353842237842 -226.571221690394225
7.942484604282712 -80.593795842448529 -229.866605508356287
12.820146061656471 -76.577758846308711 -226.720832178152619
-2.585259547724094 -79.444678045663423 -222.659525225019678
16.399050063500624 -79.708543100559780 -227.747423900699516
-137.923012472270614 -84.219556144858458 -232.813606469233463
11.013060630184400 -79.780461379349205 -226.269058715486153
-153.680465623483997 -79.138352232567783 -229.036516792929405
-145.358707874546894 -81.546486240354440 -233.457913640165799
-1.459338893086000 -80.546100916742191 -221.633478900055820
18.772373754283777 -81.556029946955960 -233.821161097212155
-31.426006875784626 -77.448861787597551 -238.672731091170647
-145.592402165774502 -79.553991255566544 -239.393137268124747
-37.784850244134091 -78.831476876553282 -242.998624586652966
-46.174737524170496 -78.380918045900401 -241.088517505943798
-33.748547711566736 -77.990390661772636 -240.386358835801190
19.764120334517486 -80.076310435115218 -242.877434085514693
-49.709382404978925 -75.738785912899701 -245.417584277492665
15.527744095849837 -80.004862335212962 -245.536130599949871
11.435950924290452 -77.638015179570786 -240.403677876773060
9.826797218552148 -81.193878474767359 -248.225250072908949
-41.454304038349861 -81.843830447787667 -246.162033476977143
23.374541587776001 -81.383135940935176 -246.780138708603687
-143.946729868681388 -79.915790565315206 -247.345447282996275
20.440901108856330 -77.588260385045885 -249.429332181714500
0.721482893499322 -83.351826638422153 -249.671030163116342
10.665461177413622 -79.297061337342868 -243.988920231786608
-150.648616539953736 -76.298096594275762 -253.546163291155580
-147.221016949893652 -83.882132131823781 -258.669377443478766
-142.231612141664357 -80.571363968727383 -258.460043233696581
-152.642342564476422 -79.673862304366864 -260.734637190149726
16.528533006205375 -75.988102210448133 -264.741723949667517
-153.522094227071335 -76.765242620882674 -271.186187181494518
-6.206675431111418 -79.965902251576082 -274.428354566637267
-151.004427445143392 -80.838649873307233 -270.177279332734827
-144.955319293907479 -78.502532102628635 -279.414918058199021
-153.119309291404647 -77.263320816528818 -275.827931628225485
-154.396660268977371 -81.722381980481970 -284.672159990154341
-132.610613802758280 -81.853892497389694 -288.419453750725495
-152.524828956177544 -80.846795904678970 -288.395196529310056
-146.779938130599078 -83.653680055307206 -290.229758443764865
-146.949968154077794 -80.732918303269486 -291.275354670523711
-152.941970873434599 -81.509077517335797 -295.467635452405034
-146.178114817561067 -77.682698576364373 -292.955534302720878
-152.594665638063049 -80.060993941900577 -300.400668410936134
-147.252780073482853 -81.086073119326201 -302.042999450976595
-148.424979589029817 -77.228511956141460 -304.032591373360617
-56.116739515631174 -73.071274951911107 -60.442899994133853
-63.279327778357306 -77.892942663907277 -62.952745192336735
-47.269716106437102 -78.104439819595427 -61.262714115620142
-25.816365690892841 -79.447231108857551 -74.306748744585647
-51.887326451437055 -81.331647077852722 -89.350095854227902
-87.552685980296644 -84.938574765139037 -98.863148126245918
44.416876489615774 -79.049670588874292 -106.419683223862307
-76.402104392982395 -81.505680491704027 -102.238973077891998
42.752656149701942 -80.795791949518573 -113.541096089897096
40.650427147294970 -78.534447075056832 -121.240141688171619
40.163645013353054 -79.031703916158065 -124.597222959244348
36.842785070776834 -78.807499968547845 -134.769172158305309
31.910124966486055 -77.590031040112819 -134.832487317411278
34.025771862360756 -83.312409577636970 -135.477796759144553
31.210840141338291 -76.713835448268654 -150.012038620977421
-44.896600185726953 -76.147497197318756 -149.361066626386076
28.911493195495144 -80.508779338214822 -140.441263213785419
-66.443359260409238 -75.553857224510281 -153.305311529177175
-37.356708928312905 -80.829964982413458 -153.697502409119522
-61.802603971707462 -80.293818852657992 -163.667757967548368
-39.944856793532949 -79.705448052455267 -158.419794046552710
30.874394999343455 -78.929122178023405 -156.636988601492959
-35.523968327547927 -83.168574385310080 -159.885472493110740
-2.247897705449032 -79.830216427066063 -172.001780438431041
32.917422477769122 -75.012315866583407 -163.142289946994708
-9.510089187635172 -79.309739124308393 -170.085957476162918
-59.324707580292589 -78.809517945835282 -163.373139442357456
-36.290646802174884 -76.375700072670483 -169.526114982146737
-30.894942268444378 -76.655045049679103 -173.069326087794678
24.647029955690076 -79.943980184600377 -175.916073438029429
-53.953081994903712 -79.530677845330388 -176.722133505180238
-29.128307214203051 -75.717248028007930 -175.201237779620357
22.660342432974019 -78.537486846212701 -182.936905212047748
-50.820967871980486 -79.476104498380067 -185.122121575089039
-25.274333898969733 -74.924814439949600 -182.514700434834623
-53.917604803138602 -76.701308067475139 -183.838062437433081
-40.905703967239326 -78.545756591360103 -194.610719968653910
-29.393049761655217 -77.597864257420440 -188.858057915226851
-42.142929610325474 -79.898753397324811 -195.887507225756792
-23.179397438278453 -78.292145308521981 -191.529804231956007
-136.783057562852747 -80.747280706438119 -196.752526846949507
19.585032244714114 -78.570565309507671 -199.884749014765362
-133.480362177000643 -77.113655855065232 -198.751168650518082
-21.394327530786228 -76.436789783093886 -195.991427067634334
-19.930249614488414 -76.514533884042635 -196.752945340949566
-41.502717009191009 -79.149247130462399 -195.287998409809546
13.933221942321905 -76.874919208997483 -195.639869604607583
-15.898810513423777 -80.593076889980409 -198.135288639351444
-57.745116081405392 -80.016221113378620 -204.681551380754826
-34.863887931935878 -78.717689546659145 -204.091368483868280
-63.046075334441952 -76.497620933980670 -206.945253361744136
-68.771364507613427 -77.006505297811273 -210.330745286436610
17.022487199257345 -77.282272560877701 -209.101486381913247
-85.463946160870336 -78.128923899988550 -212.538933332318123
-28.895249957511954 -78.815337030391035 -215.352268393534757
-79.943639546941057 -79.709995060402633 -211.642535896981457
-147.520388037776286 -81.237210549726555 -214.891115453616550
-7.367044871625636 -78.447035222617316 -215.200347469802836
-8.521148575130875 -77.587392824265109 -217.755744191897406
12.693613354085336 -78.994607831920575 -216.393870618786480
12.913386865841494 -74.672091061632145 -223.954276945180567
-1.777784060907454 -79.798354326483917 -229.250154592575257
-139.135647652245751 -77.807127963013315 -222.607099855338419
-149.045154274607739 -83.391976135803958 -232.840578583837186
-151.267243687912668 -77.393251161763331 -231.939052962601920
4.523955608645793 -80.164211075081070 -235.316916471971467
1.960545671253798 -77.658605520249552 -236.395542654840483
-23.725262654802158 -81.844495838308447 -241.266807118992944
-150.463160812773538 -77.400550760497779 -239.033051272583663
10.568167878000567 -79.420875774479725 -243.948945296910864
-23.344490538649776 -75.007992550789467 -241.645922940387720
18.925606397664140 -77.897433088104975 -237.159670328238718
-53.665027122946142 -77.885972951346503 -243.655493707126794
-50.601419326308296 -78.797967996093021 -248.414787092595219
-146.423916739711245 -84.298291160231386 -245.585278661431886
-62.721251726151806 -79.027104921063838 -247.601013264966554
-3.231471132935455 -77.548921067973893 -246.389764025025357
-10.212726967913573 -77.184231502637104 -255.717955379013887
-147.404722100219487 -83.591203333413731 -257.786981869264764
-133.013300875639089 -78.060119082898311 -256.618292364183560
-135.790323868475753 -77.363708257616324 -258.737234292412097
18.127106001820120 -77.964472297125340 -259.478662531698660
-145.752185780795969 -80.564474297124377 -271.342398675849950
17.794415754501685 -79.621770119714554 -267.616858826753514
-146.379561904898566 -77.829536952267958 -273.403861035185344
2.533722050267914 -81.059107936892175 -277.398402971200369
-143.602232159481787 -80.184032328875020 -281.916278274438525
1.140842726859187 -80.225544305591129 -283.305713753264570
-152.469714410387127 -78.128439410502239 -283.127383726486244
-143.362316535732816 -77.205749402025376 -284.049445609238944
-137.082915576600215 -81.605075827066784 -286.063159986118706
-149.161502263182086 -83.400595522458602 -292.462196105537714
-20.221044013462070 -76.998129472178420 -289.827020500665299
-152.546153361740238 -79.362817465756962 -291.705475614432942
-148.374445140075920 -81.358979796028279 -294.820564862539356
-150.715714134014831 -78.467843008953210 -308.725958761399795
-56.252126455415812 -75.965455079510335 -56.984709492109488
-38.927126321977923 -80.655965193843613 -62.170776255700659
-75.665433726791974 -79.549511236240392 -66.047984294105717
-29.100711274481966 -76.302545251833948 -67.326203128939937
-25.907058151212627 -78.473953654889826 -71.577303840117665
-85.498948998041271 -79.108385759245351 -79.984544198344949
86.837756844355610 -78.603288059308809 -84.686539172556607
-35.613190074900857 -76.241585137450741 -84.148926400377775
82.321354472141778 -80.031502994502844 -85.740987486904601
78.140400398130950 -77.480691511276277 -88.209503968259895
85.487353570568828 -77.187602298911543 -87.720288047867626
84.171686663936427 -75.985216882839310 -91.326575708241521
91.133440530828608 -76.551502017210197 -93.277793306471906
-91.078962791058572 -75.123395595621716 -94.124639851264760
54.423190961567165 -77.630389452340154 -105.278819747402679
-93.711799874556405 -70.745127724362888 -112.861182965398243
45.013212637839594 -79.233015482646422 -109.159545739955306
49.894021855319714 -77.705729259114065 -113.157134385086124
40.786279060245377 -77.201945510244386 -114.870195264250327
33.020003903192325 -77.806228037828902 -135.609126976421976
26.958842367087748 -77.287222318072196 -140.271627199761838
22.780156864862729 -71.967078496466343 -143.954240536335476
32.907071350735826 -75.037920854808974 -143.530619801050278
-47.189419335333838 -79.593666459465382 -153.422682526176573
-47.459027124363210 -78.486656438785900 -150.753097135700955
-40.916120107071549 -77.099190663961934 -156.319762128723340
24.998985722315343 -76.203026011140395 -152.496025605008697
27.874124205173874 -76.691266896593731 -167.574007289036814
-33.416688739490517 -75.395901132672137 -167.498140346781724
-34.903539319368676 -74.602117625259794 -159.182860912686095
-45.276342621802151 -79.128132144333279 -157.980585901727778
2.620376998177854 -75.673820086695741 -163.461091132416470
24.546228699725141 -78.201557499777394 -152.681747475753042
32.626810555277721 -74.945373951815029 -160.150215771051450
28.614481205938961 -75.858307268279276 -169.382340651564846
-7.600185109029439 -77.103709692075043 -171.410650254142411
-2.697287317279849 -77.653801309617180 -169.758614995850536
-57.410603588193702 -76.692124792649835 -167.506804788703590
-60.417086125546994 -77.197214847510452 -169.873251224741210
-41.904949882973099 -78.721668870762983 -169.774741289599689
-38.200874175563577 -76.391717185115354 -167.099592687098152
22.628914398507781 -74.253770469588446 -172.128128527136369
-21.524417676638954 -80.928928902956216 -177.548462768584102
-31.563368821687654 -75.965792896023530 -180.446001844553933
-61.207846587185614 -79.955163741117801 -178.594878397644067
101.188394872462766 -77.794128763215099 -181.762855631802296
21.196040241163061 -79.866299654983663 -173.448122374917915
-25.942849063624823 -77.376571604309063 -179.655624014905868
-50.438966011927285 -77.132323812158589 -179.248812600604850
-19.793069585185556 -75.124700326590485 -179.925947176274150
111.511441669064624 -76.974027427436440 -180.210582624501370
-52.938211415800623 -79.380289957433888 -183.268976024496340
14.570398110577321 -78.677996236655943 -187.829427798356903
21.050143638486301 -77.217571719660612 -179.015039029297355
-55.636945079864006 -80.885076482482560 -177.751742138595120
-23.453416205724608 -76.474629897126732 -181.854475186291324
-55.583780598750998 -79.573506414198775 -176.175980243877206
-35.632217312507223 -77.795662769445727 -178.759919550831086
-28.536743565204457 -77.344360458884125 -186.763328024802632
21.184259758240241 -77.600134038010324 -187.660700456740614
-49.050694779467875 -78.394296515066642 -187.512028559129902
104.267126739028726 -76.302621281991705 -189.981417833282279
-51.132027593387569 -74.919836334689023 -189.309301316338434
8.781463146920352 -77.012091731498288 -201.618477993268868
20.531269435841708 -76.569263283621353 -198.843468826397896
-48.361534491147872 -77.156781660593197 -190.676271169652068
-18.158319398132978 -78.032174587281190 -189.221892133096986
101.404970744103778 -76.588506061471818 -195.238255762010482
98.526537645358729 -79.409758019613889 -195.760970862342475
-48.263613825297163 -76.606227895347672 -187.629613788935870
-148.376708201306940 -83.136337570764567 -198.071559934439676
-45.453876858934130 -77.395221063211082 -196.802350856632188
-144.879901439218315 -79.315278761179670 -197.151193812385799
-135.600864990245157 -75.072363477551605 -198.619549755172130
-44.959503001492685 -79.121508625740219 -196.635366887425903
10.722626271692048 -78.410220271467665 -207.531969419511057
-16.141822882233534 -75.699709902440460 -204.241400581358107
16.024090950351297 -75.509463784631009 -201.413832004263668
92.139557488930038 -79.209081219743993 -211.147699316599869
-35.863796793247431 -76.256027121415158 -201.351592506142424
-12.394215671056260 -76.474426354477743 -205.180284477257516
-14.118959282735043 -75.917179750815649 -212.333532428994999
-36.040205466851930 -77.034539750312931 -205.464606719417390
8.317054017175440 -77.026249815499057 -205.663379409541392
-77.598397500768158 -77.447736426238251 -209.822038005176182
15.986249369177118 -77.781471957604325 -213.520699476653846
-35.100347240975189 -76.774143585719784 -205.854035103233173
-144.758066016651014 -80.345516125168359 -207.682785385759644
-143.093943631197732 -74.522965398786113 -210.225184119520719
-87.349107339697497 -78.005028577502614 -212.451081205893587
-35.075791063006740 -75.658677371016822 -209.687536302295683
-18.350554961799890 -80.799128931702469 -212.278101366525675
-31.588057294080123 -78.002983662247345 -208.180904829957683
-91.199768616416492 -78.753122801657966 -216.469966260687130
-87.426348988700781 -78.681466119001442 -214.126773065315717
7.647230376459915 -80.743265906325476 -220.381557906411899
-149.763408212910093 -74.383263234281955 -213.619100299107799
-13.569771840194656 -79.763448866368833 -212.614208942688720
8.887392917815555 -81.983226092419201 -218.154815407821985
-144.535272035351028 -76.895737723598756 -218.491049244876365
-21.762936210293336 -78.690467516170685 -217.059411167657998
-0.663454330014535 -74.916684488373704 -220.442274713896722
-6.253726894940134 -78.410491319810419 -218.982273247430101
-152.480288782577958 -75.501688471143780 -223.123363335691323
-138.943026179395218 -71.559479147452606 -225.784183917922803
-5.187542183460496 -77.610254794072631 -223.968133320117317
-148.628222406324369 -82.817453779302014 -226.720473051215492
1.314184990631031 -74.122370112191462 -229.594396318131260
17.259304412386786 -76.851539397160366 -234.043829506562787
-1.377731342970219 -78.719798689883291 -230.859681005486692
-0.644206373482440 -73.431531898478369 -233.742861440039917
8.069633017876518 -76.833143164330480 -231.487146852109930
-151.614835157969850 -78.287775975307014 -237.115351610328844
-19.622862309007104 -75.694666718720200 -235.057695750584912
-34.762482054701145 -79.082721109652823 -238.548668089745462
3.388560632997560 -75.775760795375717 -233.290834587294285
1.675483609117280 -80.505010798654070 -240.184849773504936
2.606122658081691 -76.438790395715912 -233.664204885758267
-56.603133500778242 -76.625191218370603 -242.034775070188431
-149.005659032180233 -75.493081799947490 -247.131818986564639
-152.425947005750032 -78.333862814659668 -246.989137069254156
10.779041636416592 -78.690809274008458 -246.542507562891643
23.723875337660054 -78.407017146680886 -246.769318279775092
-60.760066844976834 -75.470070123563659 -247.316543795264437
-143.517895222160121 -81.096984162804958 -251.807720304655533
-153.302829615377277 -80.466195516768039 -253.776190948906191
-152.362861231814264 -82.466067557761576 -256.572557536954548
-142.635244588962706 -75.667448119794486 -260.926589135844040
-139.895265717206854 -78.029687477483819 -255.922140510650394
-9.017840833751933 -78.346729692598814 -256.084439366960510
-144.870769211296079 -79.128997091393899 -262.027308766061537
-13.262529532756295 -78.213460224201910 -265.823591830602084
-147.536800881473994 -76.949879773360351 -272.979328052223252
-147.740817697647572 -77.597355945593932 -281.660824792936239
-149.268488950913053 -76.713555606737344 -282.648894975008375
-3.658870479127057 -73.462372797223495 -284.585131898197517
-146.185761857259223 -73.907921701062932 -283.717232743802469
-28.099356035976442 -77.868684738809520 -286.108355055621416
-28.693100529688650 -75.414026611250094 -285.912381865978034
-15.273268987193275 -75.383706594643883 -291.298847029488400
-12.536839499500216 -75.056644578816190 -290.555928406592102
12.971668835687554 -78.908453609361942 -291.028722809821431
-125.299956260946715 -78.463378176528863 -289.085108451396309
-59.672645930085125 -77.263715466056098 -287.318631991313168
-40.622347425068725 -75.230582232562668 -289.360537610289612
-32.703390332221261 -77.739967238122489 -288.009166724474198
-9.126309887886643 -75.685863840007983 -291.954163719503072
5.159450863520768 -77.562932689287308 -287.965947863725205
-142.633130921323556 -78.939943488195979 -295.201057599554758
9.840618560747176 -77.349086239630054 -293.502557393935376
-152.879023891465749 -75.939643292746510 -301.204180547683279
-152.272244926957654 -80.554343736163588 -300.522336479717012
-153.184086203809670 -75.109519390879512 -310.981942355520459
-144.479130908787084 -76.939437502427566 -309.466853852208260
-50.035076441285561 -76.373006912867922 -52.064230719589382
-54.604970514894227 -79.134627260735670 -55.818676702994750
-65.502620855712820 -75.465500792349317 -54.789718353091047
-41.058501413884585 -75.531730833068835 -60.481472382791253
-35.936909152649072 -76.686520317651301 -58.877146164932668
-20.040361827213577 -75.842172522994403 -68.801653953086074
-81.597421619256622 -75.120894066082926 -68.257918834019776
84.301841740124104 -76.873359999628022 -78.179548580536846
-89.787702341277779 -75.769451210929503 -76.622676789110315
82.065394336482782 -75.492322062973514 -78.928035109072724
87.456903002659615 -73.676259714234121 -83.761593657493151
96.276725577446115 -74.338019786929451 -88.042718310104618
-59.735758871537136 -80.172675567372949 -95.246378849842984
83.120643135295452 -76.886385787463212 -95.422256776371071
78.143223406966712 -79.193179186916907 -91.524087592289106
87.175918169026133 -76.779572425610027 -90.134528355982951
-60.353285634360518 -78.331694334577847 -96.915810882510925
50.952715385053665 -75.176335149583480 -97.390957313896621
46.243499466301046 -76.329143896357948 -106.297437620332573
40.923059706134879 -77.260624909958636 -103.877034802400104
37.458594607656167 -76.849980520451737 -104.216375476304179
-91.142581052259985 -74.342413993552114 -106.676035151110653
36.269776522676352 -75.596859090463070 -117.041273284311274
-84.368822875378385 -77.506011089155791 -108.053590994844399
41.868337159442682 -78.002003852328798 -125.159110777596780
33.882551782614875 -77.442112515103304 -121.153628856743083
34.321570692900657 -71.402521594425338 -121.361947514077272
44.187175362793198 -75.464585243753419 -118.194646954153669
41.018149404136771 -78.542487765666294 -127.349035655853058
-51.813093107375884 -72.094045975237748 -134.837854374555860
37.400907261242402 -79.293294628046809 -134.486315748549259
36.369751772636810 -76.093999927673337 -142.897015326688972
-53.738942177624970 -74.409020223068794 -141.526554922713501
-45.782787788468561 -76.733036473071252 -139.927847121626115
35.311584529703389 -76.023534002368635 -142.702533770587280
111.298460016036515 -73.024059788704946 -141.177128675772849
113.363574246227799 -73.730918305921534 -144.345165723898248
26.993841325256163 -77.548506813686885 -142.369753160792328
-40.541188856015175 -78.449709769547553 -148.764196830184716
115.185954164519686 -80.374047203065857 -153.286132359363620
-38.350452635000458 -75.182885483101288 -152.538558382363789
-67.560554737016901 -76.433761524415090 -159.957929131069648
111.057206202542076 -78.993324796378545 -158.201096541130681
23.119531887591002 -76.904158621150302 -164.442159776786099
0.972285082545022 -77.461689093763709 -162.486037833327146
112.287993103868814 -76.264193775704442 -154.317834092789411
-63.808771424724334 -76.224687043060655 -164.758060518214222
-37.574635231662036 -76.842884276436649 -162.819462881129937
112.598757047202199 -76.343791239886059 -164.593069814178904
28.846171799860304 -73.129513110509251 -158.214298279324396
-62.190177358648640 -72.062662992068795 -164.788088619048608
112.458297909624065 -76.510160500793390 -166.245315173370614
-64.760680570100206 -78.204274882080398 -168.098137211736685
-49.748962281417533 -78.629359692223090 -179.988269606950354
106.659832226605985 -75.226334889433900 -171.389808067886690
-59.375165114233440 -75.097956670846770 -170.432600025768551
112.299104678077157 -75.462580281254404 -176.250715822016900
-60.289962077758666 -76.190042809313923 -174.695880711424707
-14.592246003983227 -74.707834884262198 -177.005869038205617
-10.768731480077005 -80.102421524147573 -180.526378190687296
108.245235739203110 -77.388703116504558 -168.851940102266241
21.558591442987858 -77.065884481192469 -171.399906391499627
30.092823891674136 -73.430374902517627 -169.625743274349702
-56.742355553085332 -75.711720262421522 -176.576701769926757
18.663717314188133 -75.087419485520627 -181.637121122739472
-57.263628650317244 -76.616838839199886 -175.085890378658235
-51.416836528176127 -75.314169258284949 -190.194075216559469
12.921083760485651 -74.668425608263064 -183.638394766230192
-56.663997729502249 -73.578694953137600 -179.644981608677540
107.234042128098579 -74.497122186203924 -186.845574991988656
25.133092720527770 -77.932200098541045 -181.108399985458163
-33.335140277125852 -74.667457891105499 -187.916849511833789
-42.303712920570668 -77.739525236500839 -190.422890460356456
11.582125749849062 -77.309378143382261 -192.410943435152092
-18.612912131544679 -77.415693627316870 -189.036059774774174
-48.371876046176808 -77.581782480233599 -194.106017215789905
103.085611203394890 -78.674642997557569 -183.505929682470452
12.747357329680888 -78.403478618746888 -190.216146323352319
-133.223375001462472 -80.374661869975711 -198.245380375183601
-45.418077064143056 -78.272617040104805 -193.964595295619830
96.085604073205872 -75.597975730379517 -198.746273118890088
-148.379304130811789 -82.183094796215485 -201.303169353910562
18.695182837364680 -76.520136591535376 -197.318426829671040
-42.341855132443044 -74.266967178551070 -204.997187504030109
-30.700218485231080 -78.527765188045464 -205.256957006632263
-36.801754948275047 -76.947039545909746 -202.608052959191298
-44.268656120555384 -80.161046782492420 -196.917249819051193
100.576639879409711 -76.104258479630943 -203.227618417519921
-20.111410760671948 -78.774705211747346 -200.887222225335449
-149.886921029918653 -76.919086619548821 -201.945893449562135
16.364142809000739 -77.743095271475511 -203.068353683914239
-76.363914937640899 -80.293051750757286 -206.326762808121629
-146.197364898599432 -75.474397852407236 -211.399424990667285
95.335598520204456 -77.049430528492294 -211.829168573014869
-32.483618788615139 -75.337166855311281 -206.649907587671464
-28.553108480396951 -76.675389912394920 -212.022439140571691
9.269116828126121 -77.085057999379032 -210.154607097372406
-71.109080125751731 -79.404203015354952 -209.136744625266516
-27.764013224377582 -81.384564086692478 -207.225370966489720
-6.419508132541320 -77.140891476337572 -215.504082748268786
-71.809590411680915 -78.048357097896158 -213.599714745367692
-13.974828819113988 -76.688224194752365 -216.955269860650674
8.246776784433091 -70.929346559191643 -212.004055255156715
14.802116280946187 -78.370979635100284 -220.091768498676629
-149.663344712260084 -77.989228020122965 -216.260259280185693
-8.002170928695913 -76.232590901687956 -214.053189079733755
-98.501429102873772 -73.351551715410153 -219.622416770132190
-21.502145993842699 -75.854241716890385 -219.291349790509742
90.360961935558734 -79.734067916891661 -211.780343833956465
8.175299646230204 -75.259477324183123 -225.308070550847702
19.503608888235267 -75.650397634573778 -216.181848913088942
81.128999432171256 -76.831193880811952 -216.819996376086777
1.494291058188534 -78.650030232257748 -228.148144743881971
86.081714182177578 -76.388669523760072 -216.915830926499950
-18.958142999610679 -73.912006551359539 -222.965337598265137
16.144983814600618 -74.636839185605268 -218.741815302902438
-146.967733051574555 -78.269247866997262 -219.935573564225507
-22.822521891565170 -77.723381512968118 -224.942109752043365
2.072379658097675 -75.389811804683077 -228.857510315719196
-155.415555587499597 -80.911482177835808 -225.712019766510053
-136.640659573923870 -78.254697337763787 -227.357143834723360
5.415263340123431 -76.166066491640137 -224.141473201040384
-3.614540248832248 -74.365870044043845 -227.639210020365852
-136.352735838329664 -74.415352840723315 -229.342947394646785
-146.231941444405834 -77.532397951078224 -238.474071533206939
-147.659554845233544 -77.107850379903638 -235.175218556475812
-31.971176086265459 -77.292079742201039 -237.028492199297347
-143.651566233688868 -78.633857547195035 -241.966619415320196
17.866530309465730 -77.020746288139250 -241.193349340987112
5.578504532369896 -76.188390636473883 -243.528549155743576
-150.170768408136780 -73.260816879215412 -236.420588748428173
-149.013741671582864 -76.837191369695731 -243.216524477731070
-46.094619591313688 -77.856611968817873 -243.575337584742471
-31.177645753157122 -77.301912566106552 -245.228142829843961
4.932682172742755 -77.172352828686115 -243.729654691749687
-37.063695721631994 -77.792709214213957 -244.849310666837511
22.653935444454124 -76.729192714434873 -246.489877343586926
-5.254339723300977 -78.684694171245795 -250.690012966983574
-146.464156550047534 -77.499860828597406 -252.036840577371919
-8.576180072462019 -80.309823409279474 -251.761257830340384
-147.543176788225423 -75.597479601204213 -248.244425467991761
-66.072209342940027 -77.965585083689817 -249.240800638671516
-147.819158330620525 -83.694593587706422 -258.698814291105464
-126.571334032874503 -76.494577290891925 -257.834427053267575
-151.130908843023917 -75.448451360549612 -257.918909252987362
-11.344254082478278 -74.298969304983999 -266.117630473235238
-145.729972213185192 -81.251773625172376 -268.807122483194803
-149.437699280543256 -77.319851885743361 -267.089657092995083
-10.808048256648387 -77.447656236550870 -269.977698741631741
-145.187596383972050 -77.323231172624261 -269.800019837748607
-5.058111340388415 -75.901234782319293 -277.256972991824455
-45.739133543459765 -76.097975793773188 -284.594404324559946
-134.238993093917685 -75.228364170619557 -287.711278792406517
-134.301314045460572 -76.012702391936628 -285.222632402996965
-124.251208548398026 -74.491823246833775 -283.049055466319487
-52.234320763579071 -75.786744075136767 -285.903517753096253
-113.111119074096479 -74.879537581340045 -284.955972582796051
16.324179386073801 -75.917682328997657 -290.879386222595940
-57.981170725495794 -75.119869227861869 -288.127588503330571
-141.027461903291226 -76.244857800806656 -291.391503673524994
-62.562197797008565 -75.427220161465343 -289.738262140654740
-143.662243528985613 -80.588003798660651 -291.849541796592916
-116.698618393253241 -74.931340638139801 -289.919866458485956
-46.248410575059765 -77.854763329396036 -289.856455509737259
-33.960676141870813 -76.551129144334425 -290.733402926692463
-135.976002004392967 -74.019687260862568 -293.428658416057544
-12.541903510441291 -73.094013801885524 -285.247197854669139
3.495918090750081 -76.086665841457830 -288.389158473631369
6.830527327404090 -75.279605061891132 -290.542736983277223
15.452119939484461 -76.988298447427056 -294.288218926493926
-149.446544548244276 -79.429986207679860 -296.469211859062398
-145.949743788472745 -75.149789453413476 -295.000248357449777
-67.109936756975515 -75.506936089337003 -60.707092263278781
88.879743425058663 -76.352610517567882 -73.098449371670284
79.358762456321998 -76.370837880491763 -76.480025989152466
-26.660783516349426 -77.840077187085910 -76.126094238258474
84.690359875768834 -74.298326995375362 -75.088034675724856
-36.315862188964637 -77.735150821777950 -79.471436278007303
85.375807604509603 -73.591297121260553 -80.277004019410114
95.456663247515465 -73.299947187274242 -80.398662147098648
-64.237267107866657 -70.318290102973705 -94.197355956792435
74.489001808526353 -75.929895876624286 -93.548987992425083
80.879106508372104 -74.284761366695733 -96.976700476981293
95.366063676599609 -77.355812362944675 -94.367428763697504
55.867549065405228 -76.783405182041705 -97.100958196273282
-69.967186333331341 -75.794117221239503 -100.817376282523924
-73.839224630177966 -72.149098991112908 -100.748754301666267
50.534203563758481 -77.254715664894547 -103.910842862580310
-88.492743940453749 -77.662599703164730 -102.890663667006393
46.827326493002275 -74.005465322039541 -117.151386875217952
111.193843310294909 -74.746532901990705 -118.789199000481929
113.192004954490443 -76.833819566558091 -130.648869718941654
23.746506860909424 -74.324161992174552 -137.205354504028577
110.876766482018709 -76.402287064575233 -126.344928813871732
28.462271347261204 -74.324051632012015 -133.421203153497402
113.809914412247565 -71.620796815060430 -130.597243929214812
38.295225709227445 -74.459259744400811 -134.141893385095216
-53.694934113459247 -76.296264853124839 -141.289796985798432
36.210305368147694 -77.412474666909858 -143.399890327325636
109.740810411881483 -73.754282165047357 -135.782958593772918
-47.295394453766306 -74.908379405690653 -143.642592853792081
32.650943000682368 -75.066133730016801 -148.829002582828394
-55.882744837532847 -72.215377433204836 -139.875954313936603
-56.136798374852226 -76.241885934389572 -145.297938421785432
-51.133259769863898 -78.036992054045939 -149.312331981219330
-64.067000997917233 -78.038788452353103 -155.430173571543094
113.742569252532959 -77.986258799611363 -147.463565789700510
-49.554556672487713 -80.052492738729725 -154.778865614985961
23.038955641054951 -78.893884121608394 -155.252139068667816
109.196664303079032 -75.962056104218163 -159.736587537491260
-65.456434139886667 -75.560600916380039 -154.931878513058081
-44.650908042078520 -76.853457209743766 -156.160890720458553
9.216527026311898 -73.609825351846737 -154.204149931759446
-67.306135204363358 -75.860666899252223 -156.361890038083544
-62.325333271763320 -77.551111748290523 -159.203388514791897
0.228951197907714 -75.881372554740565 -161.752744317420422
-42.361394927359726 -73.757901004616741 -167.016867650834968
30.306256888619821 -73.852881127996810 -165.657874364968421
-62.179951644330210 -73.544472652249183 -166.596798425186961
-56.026650635435345 -77.208239792917468 -166.789307887630599
17.404099314271907 -77.673526098562348 -159.961188965449310
-30.148785463094470 -75.320197102429120 -168.344791996419985
-28.823372515543717 -77.885693742006964 -166.357858950331405
16.383366575320181 -76.627305929841356 -174.145851608735427
-41.694229156798023 -77.908324016957110 -172.369840104121579
-10.632823115083239 -76.543310594120598 -172.119397831105630
-62.859405121198073 -73.614063981468888 -171.416634663520142
-6.007118822435170 -73.635600353648613 -172.376244710697449
-21.805392597656834 -76.159131070101239 -179.200174585435093
23.482459557381254 -73.758684609741579 -182.303059313707678
-38.399860158141031 -76.628274554963298 -171.674382260611083
20.370372424654612 -72.940337067238332 -176.310765276371058
-22.366231250261148 -72.626173846712163 -184.053769304292018
-31.701857673304094 -77.585838327870590 -178.979947410124822
-147.294869608946897 -74.587606596532567 -189.083076476627468
-19.069524744827781 -78.682693419362593 -184.311333944757877
-141.689651227667810 -75.141520378945188 -188.248733642919291
-151.656781162278463 -75.957012562638980 -186.541107461952947
-48.207645674166336 -74.456615512446703 -187.269850210516523
98.833689166711139 -74.876183959801935 -194.330253523003989
-144.287255730926091 -76.984094098341231 -190.915866426511684
-148.528254188793170 -75.390478920136516 -195.421935530941880
22.449250308029143 -74.544455036870801 -196.524538135217426
-136.839083209278442 -75.837954744217441 -196.210539159302584
16.244588016980487 -73.071801146806678 -198.244857062802794
-138.735888188380500 -77.321551593090689 -198.168067642273058
13.590641951594451 -73.097230693996721 -196.658267262570831
-133.491819268628603 -73.611703140831239 -197.381436136039156
6.651934751835435 -73.692876651193274 -203.737657283513073
-150.350614737693689 -75.924324623333021 -203.315099180507701
94.958527055093597 -75.229295431662109 -204.970715316738705
-15.521340568278363 -77.611258269067136 -205.304902813876311
-29.919226737890686 -74.876403457965324 -207.415481791437713
-10.683060548073517 -72.874200068183399 -204.980785399091189
-146.562045564207551 -78.804652895865289 -210.486315123845316
-34.964708267929865 -75.722735795555352 -203.853691596516370
-82.506493931238722 -77.696947356092394 -205.751884713653595
-26.324090692308832 -76.854239488537630 -208.487295409435006
16.710710964725280 -75.788952886036355 -211.404247579354490
-146.553582767220178 -74.989720857984580 -213.466156093129655
-89.493745642547339 -76.970183891426444 -216.436147436659695
-29.085957652873162 -74.590393212854323 -216.233395880551086
-26.134326907103699 -75.066898444100502 -219.101263662318502
-10.372631110613595 -76.774663152515558 -210.532695260657249
-26.931997652325059 -74.974083274080144 -209.392476888702106
-82.346667198613133 -75.862339861242276 -218.877463866145121
-87.879354329392129 -79.307971404392589 -218.215406067132818
-22.905726426093057 -75.266637278666835 -220.073901579619644
-1.553806064528730 -80.483020062937399 -222.955378547037128
-152.939370743684577 -77.175965318842060 -216.448146596312114
-1.927484115240337 -77.026088524853492 -219.692815068114925
86.808412842700449 -78.050598876819535 -225.437555725286643
-140.245166243913530 -78.180152746059306 -223.159946953117498
-5.864991060992450 -76.405714666137897 -221.797196875677372
-139.808269533108273 -77.307432089540143 -225.400171309458585
-146.625016645515757 -83.425749679758070 -225.240474828369713
-5.773902772657734 -74.435100139263625 -228.432711546802153
19.750663084876575 -75.979954661821949 -216.997639699632060
-139.378482762374404 -74.796115492602439 -228.671476931120765
-16.388442320858051 -76.553389820924195 -227.891021862020153
75.084441939332621 -76.013071889807563 -225.860678466977760
76.182923770308534 -75.298553364822979 -232.366384401204414
9.999034985184432 -76.819490581442139 -230.041013290468101
-30.553874191319895 -77.000493603177887 -236.154096482916941
-21.088758815952335 -80.888663097571822 -240.900262563633561
4.445989040596215 -74.092638797772040 -242.652961645950370
-46.800911624183904 -72.728623307437374 -242.271886228247041
-21.469150667742010 -74.444253618959536 -242.339275811191357
9.771191708202833 -73.652002598268794 -240.311192774001455
-62.877280131208572 -76.076769765363807 -244.834699292985050
-33.569256081875601 -78.527285801448841 -243.203529784001233
-39.937279749720567 -74.190928219986020 -244.677109870439836
-148.409468902941086 -74.733191343649509 -245.309225860668448
-45.291441575482686 -77.885990012210229 -247.220263157907112
-52.587231825501142 -71.367702682338077 -247.101944210059600
-65.757449303798111 -75.786271852761388 -248.988338583179456
-10.210743530586662 -78.185103140073139 -247.483310472445254
-79.410481612063791 -76.467111117005700 -253.405946128471300
-155.434316281780866 -80.948267969687834 -254.000376175460673
-140.679691279313005 -75.791108078920104 -254.131923992604271
-122.640187310845192 -76.927529880864753 -258.978879600321932
-156.074413219587939 -72.965371841240938 -259.936798652393804
20.392257528938821 -79.845674449429850 -264.639224884960470
-13.266012549962875 -77.340211524908582 -267.979160013390640
-152.680591452735882 -78.385811089746880 -272.272357281008624
-151.437704589543131 -80.964264032950766 -277.359184203978543
-144.712168072386362 -79.037226807348915 -284.452188105131142
-57.820602076105963 -72.333333844806248 -281.608176490702135
-38.152295762129476 -72.459860270475843 -285.268906598719752
-20.920835895652470 -73.446778181261223 -287.675667450660796
-10.174643570859777 -73.183768513795059 -281.498232828204152
-65.366748618948932 -77.704226744442920 -285.337951599430596
-79.747716001742447 -77.992732479975857 -285.808498632657688
-2.300707697264176 -76.349912815632010 -284.044831440391988
5.661368943559117 -76.399408991270548 -289.993455846465963
-137.699286732405966 -74.919578807299175 -287.060431913246930
-78.993223432621377 -73.675364467621165 -286.574003525645480
-146.778668558828457 -75.357607361919477 -287.239140922746856
-93.855291971901408 -80.765326862548719 -286.099463307786039
-78.085904837697882 -75.225801822177743 -286.540252762502973
-84.555273231634231 -73.616922237842829 -293.073224328055232
-61.262033204589621 -75.219164112784682 -290.666197449998208
-28.358084331065065 -71.262380719701071 -293.249997403243583
-6.023156424405825 -75.023763126725953 -290.630457938757502
-151.632930315815059 -71.240782338687467 -296.526696432934955
-149.540350712621375 -74.514971276742628 -299.656195847819788
-144.278658509217280 -75.557111273477545 -302.798292235052600
-156.137329197526952 -75.692469035556641 -305.045802704909363
-56.208957134799491 -73.119469364508262 -54.985384958948629
-46.404546216129567 -74.254433556825532 -52.383549747271864
-38.546846579743388 -75.781889366892088 -53.840145270228575
-75.967622019513740 -76.948658164811349 -60.271705052481067
-28.327431663062786 -74.152116864424656 -63.093797224792326
-32.311407181477918 -74.813052890514385 -78.898897313776843
75.603706741939135 -77.425539511968523 -81.253799640876309
75.967647741340556 -75.636432618901992 -79.913026707798196
74.243665731718565 -73.704498824563402 -83.238392316757327
99.200878640427220 -72.435156695342314 -89.532215173394647
71.048270540234384 -76.593262913697586 -88.809651737251031
50.913347543107093 -76.559878867023528 -89.975014907206926
50.794481296585793 -79.051552422316618 -99.973900711471202
-66.270322711975467 -74.439673919535508 -100.463479450154381
-72.594954693407217 -70.038761517616521 -101.380878610013127
45.606462788364830 -75.979439453153361 -102.661016820701448
-81.594284850289228 -79.677534388199362 -108.754795914875771
-92.598549612626528 -73.708705654673693 -110.600029075096955
51.683102633779853 -74.644035948832354 -106.733993235712362
108.088785626564288 -73.724015192958646 -112.860736132838028
33.403886108694110 -76.702968902416217 -122.631003737404384
44.580806260059767 -75.946603808347547 -118.158554498867304
41.713955951572423 -74.559025379309531 -123.575483955249823
30.493943180998478 -76.197093986619706 -122.912541207009028
109.685067287050728 -74.637043463226846 -119.651769608636315
39.948465938711685 -76.742445016242286 -129.647177309510198
33.348135917272245 -71.993738154095198 -131.064986878407183
-44.903125355273723 -74.522358791914797 -142.405339547654251
-70.490570175971655 -77.054071334238401 -143.687374782052103
-53.148654768196636 -73.935630771514553 -146.261154887577732
-72.449165312885668 -77.837637123588692 -145.352352500869017
