-102.082801818848 -72.218315124512 -220.003814697266 1.450614929199
-14.476537704468 -71.779495239258 -225.534973144531 1.230996847153
89.846183776855 -71.228065490723 -218.006195068359 1.104850530624
81.806045532227 -70.892166137695 -217.636322021484 1.559224247932
7.964677810669 -77.739799499512 -224.729080200195 1.861782073975
-12.673345565796 -71.205062866211 -225.922531127930 1.478369235992
79.690696716309 -81.524742126465 -221.330230712891 5.806507110596
-128.865295410156 -72.244377136230 -221.752410888672 3.224957466125
-23.441471099854 -75.241645812988 -220.626632690430 0.840095996857
-102.621818542480 -69.893295288086 -225.130722045898 1.760149955750
-107.234832763672 -75.653854370117 -228.821823120117 4.251192569733
-133.684036254883 -70.338325500488 -227.412200927734 1.748330831528
78.173912048340 -73.603454589844 -222.782760620117 0.892727673054
-127.036201477051 -75.166824340820 -227.830657958984 1.166772127151
0.760817170143 -71.669097900391 -230.090911865234 3.082230567932
72.917381286621 -72.616134643555 -222.685455322266 4.481324672699
-14.739283561707 -74.145164489746 -230.350479125977 2.006381988525
-8.012458801270 -74.376441955566 -229.437820434570 1.606706023216
-5.309273242950 -70.268890380859 -232.649093627930 0.549689054489
7.679337024689 -73.778480529785 -230.023620605469 1.895465135574
82.653686523438 -72.745346069336 -224.878814697266 0.349614620209
16.606779098511 -73.603408813477 -231.677536010742 1.778911590576
2.751954317093 -73.974678039551 -231.770980834961 2.192356824875
-4.369983673096 -75.167198181152 -223.963333129883 3.104472637177
-5.374330520630 -70.013999938965 -233.444976806641 0.292961388826
15.953221321106 -70.524520874023 -231.788269042969 0.888083398342
-8.450989723206 -69.225746154785 -234.981536865234 2.030680418015
74.836212158203 -71.638595581055 -235.103408813477 1.558486700058
-8.230512619019 -69.739715576172 -232.839508056641 1.878268003464
23.064872741699 -72.661903381348 -226.948638916016 5.544030189514
-160.290603637695 -67.839927673340 -243.055969238281 1.447864532471
-4.895815849304 -72.314254760742 -242.613601684570 1.952726483345
-10.068468093872 -72.021682739258 -240.315765380859 1.642191767693
-166.506118774414 -70.710494995117 -259.086547851563 1.363757252693
-9.085412979126 -73.852447509766 -242.941940307617 2.104481697083
19.725954055786 -75.959396362305 -242.044525146484 2.026676416397
-147.310989379883 -76.033241271973 -251.035659790039 1.717957019806
-66.369926452637 -72.547630310059 -248.006027221680 1.967804431915
-57.013481140137 -70.121383666992 -248.684249877930 2.732493400574
54.770603179932 -70.675521850586 -247.164535522461 1.761514306068
-76.625717163086 -73.039268493652 -245.229721069336 2.903141736984
14.300748825073 -72.481765747070 -243.904769897461 1.843988180161
-77.340080261230 -73.912628173828 -250.032363891602 1.648419141769
-19.215396881104 -73.102897644043 -246.251144409180 3.632450819016
-149.856002807617 -74.108551025391 -254.963760375977 2.588343858719
48.429969787598 -69.768768310547 -248.165176391602 0.580671608448
-83.796470642090 -68.287315368652 -247.338150024414 4.216227531433
-94.346534729004 -73.446044921875 -255.502090454102 0.957949697971
-95.051109313965 -80.036674499512 -251.628036499023 7.030293464661
-124.264610290527 -73.254692077637 -259.607055664063 1.107925653458
-109.080978393555 -69.364074707031 -256.728851318359 1.746226429939
-107.273712158203 -69.525810241699 -259.729370117188 2.006449699402
16.881906509399 -71.804779052734 -257.666473388672 6.066050529480
-128.954376220703 -68.416755676270 -266.277557373047 2.879956483841
-7.588055610657 -76.249794006348 -276.571044921875 1.675432324409
-146.298004150391 -76.678619384766 -282.107513427734 1.330607295036
-168.882400512695 -71.251625061035 -281.997192382813 2.187072753906
-128.185440063477 -73.416297912598 -287.834289550781 3.785987377167
-116.083267211914 -75.218452453613 -278.461486816406 8.483873367310
-79.939422607422 -67.782501220703 -287.485626220703 1.843138694763
-55.716262817383 -66.444297790527 -289.965423583984 3.972137212753
-44.600238800049 -71.248977661133 -285.828338623047 2.303062438965
-12.461532592773 -71.015289306641 -289.455963134766 0.699144959450
-9.909030914307 -70.792228698730 -286.919555664063 3.181884288788
-34.187633514404 -73.736968994141 -289.313079833984 2.846878051758
-34.364501953125 -71.467720031738 -286.704559326172 2.885176897049
-20.243503570557 -68.561637878418 -292.782928466797 5.079272270203
-73.545188903809 -75.494735717773 -292.232299804688 2.720415115356
-53.845680236816 -68.720794677734 -294.973968505859 5.330526828766
-12.412672996521 -66.961189270020 -290.635498046875 4.651347160339
-14.763525962830 -72.477165222168 -290.645355224609 1.291455507278
-4.639623641968 -71.519477844238 -291.509704589844 1.301032662392
4.162728786469 -67.040916442871 -295.821166992188 3.095916986465
-86.820037841797 -71.016006469727 -283.562103271484 3.509012699127
-147.212799072266 -69.952896118164 -286.737670898438 1.824246525764
-117.184646606445 -73.519599914551 -296.299957275391 4.027496337891
-153.342376708984 -76.914253234863 -302.920196533203 2.317920207977
-155.127670288086 -73.878890991211 -298.440856933594 1.980769515038
-142.919525146484 -72.209266662598 -303.724731445313 0.993445515633
45.843750000000 -73.977745056152 -25.851020812988 2.316579580307
17.572143554688 -70.897277832031 -23.895629882813 2.739512205124
50.410636901855 -73.395530700684 -25.041236877441 2.424469947815
49.307609558105 -75.565856933594 -32.170627593994 4.009568214417
86.366500854492 -65.478683471680 -66.559837341309 3.818001031876
98.088905334473 -68.456031799316 -75.352828979492 2.545846939087
96.241645812988 -69.971481323242 -79.822418212891 3.320406198502
95.223678588867 -68.635902404785 -88.786773681641 5.652761459351
48.589763641357 -71.316856384277 -86.772842407227 4.447688102722
50.784404754639 -71.166549682617 -91.119026184082 1.197041034698
60.283058166504 -68.555519104004 -92.234703063965 2.244421482086
-65.025566101074 -66.977325439453 -92.206718444824 1.762518882751
72.901916503906 -72.297523498535 -90.031173706055 2.639341354370
102.930610656738 -69.818801879883 -90.561500549316 1.293179512024
73.647911071777 -75.149406433105 -98.985572814941 2.375625610352
93.529037475586 -66.794097900391 -94.797988891602 7.034532546997
-81.219520568848 -73.044342041016 -101.012145996094 1.143045186996
46.385063171387 -71.618446350098 -104.058830261230 2.802565336227
-88.699676513672 -75.377243041992 -109.423004150391 3.751872777939
50.457942962646 -72.676116943359 -113.054237365723 1.473845481873
42.744956970215 -66.163963317871 -105.965599060059 1.326590657234
101.981163024902 -74.371696472168 -105.695976257324 3.106769323349
40.790210723877 -67.727661132813 -108.009078979492 2.668184518814
41.724094390869 -74.826492309570 -114.424552917480 3.758153676987
40.746772766113 -67.800628662109 -116.290649414063 1.660174489021
103.014976501465 -65.116607666016 -117.535896301270 5.953435420990
-80.751464843750 -70.319358825684 -118.910499572754 1.749801993370
114.109893798828 -74.087707519531 -120.183738708496 0.721387684345
39.571079254150 -64.701934814453 -115.971618652344 4.170932292938
44.405113220215 -72.872360229492 -115.205154418945 1.374538540840
32.458961486816 -72.741523742676 -119.058235168457 0.402538597584
-54.738151550293 -70.344688415527 -131.113357543945 2.272746801376
29.357746124268 -69.599342346191 -121.140312194824 3.966609716415
-78.079010009766 -73.189552307129 -136.113052368164 1.213963985443
-60.879730224609 -70.441551208496 -133.918334960938 1.905287384987
-75.558143615723 -69.054222106934 -129.912033081055 1.232443571091
34.379787445068 -70.775993347168 -125.704277038574 2.498480319977
-55.413646697998 -69.311256408691 -131.233596801758 2.036238670349
40.178913116455 -71.509605407715 -131.303680419922 1.236840724945
-76.805511474609 -72.162849426270 -137.855285644531 1.326942324638
-56.811786651611 -74.481376647949 -140.478088378906 1.475849866867
29.131286621094 -70.235252380371 -137.696624755859 1.986553072929
112.423088073730 -75.679893493652 -145.807250976563 1.377005577087
119.776863098145 -71.984924316406 -137.500091552734 3.994173526764
34.221500396729 -70.461288452148 -139.885559082031 1.816420912743
-47.994308471680 -68.715660095215 -144.183578491211 1.506906986237
109.384078979492 -70.983718872070 -158.605422973633 1.093655824661
-72.976852416992 -70.967338562012 -148.884796142578 1.865825533867
-48.039230346680 -73.480636596680 -137.185058593750 1.268225073814
35.629253387451 -76.514396667480 -151.471771240234 1.825907349586
-68.349014282227 -73.178489685059 -142.213485717773 2.276713848114
-69.638656616211 -73.891662597656 -144.147003173828 2.265733480453
117.424263000488 -66.238601684570 -145.992050170898 3.872714996338
-62.761493682861 -69.022941589355 -146.703979492188 5.665880203247
-40.649192810059 -69.453979492188 -149.350677490234 2.156181573868
31.987854003906 -65.571136474609 -152.861129760742 4.688717365265
-75.480201721191 -70.630851745605 -147.654357910156 1.764225363731
7.833682537079 -73.897697448730 -160.264739990234 1.786265850067
34.780174255371 -67.292251586914 -155.744003295898 4.541450500488
25.245786666870 -72.554634094238 -150.850570678711 2.730363130569
5.717020034790 -75.859176635742 -154.450790405273 3.440611362457
-47.456100463867 -68.547630310059 -152.678192138672 2.222915649414
24.532533645630 -71.335365295410 -150.526351928711 2.071453094482
-47.768272399902 -73.977729797363 -149.020645141602 3.482255697250
6.519008159637 -73.858283996582 -148.715286254883 5.395844936371
20.766830444336 -72.750305175781 -147.048233032227 2.722990989685
-72.412101745605 -76.117630004883 -151.871337890625 0.922735214233
-44.512680053711 -72.038436889648 -154.512069702148 2.304655790329
-71.373229980469 -68.084831237793 -161.745056152344 5.091784477234
10.581836700439 -63.184001922607 -165.346633911133 9.414211273193
18.298768997192 -72.350456237793 -144.155349731445 3.408455848694
1.314214587212 -68.752510070801 -162.274749755859 2.982164621353
22.646293640137 -66.417816162109 -153.869720458984 2.434512615204
28.585088729858 -71.928939819336 -160.796112060547 1.147812485695
-45.793342590332 -73.967468261719 -161.942108154297 1.004810571671
-32.088230133057 -70.809532165527 -159.478530883789 2.717555046082
-36.142543792725 -69.742027282715 -160.379302978516 2.409403085709
31.318706512451 -73.095046997070 -163.148773193359 1.895707726479
-46.029991149902 -71.253013610840 -164.406463623047 1.683100104332
-43.464641571045 -72.286331176758 -161.681701660156 1.210758209229
20.762685775757 -74.560119628906 -160.740264892578 1.571127414703
-42.464843750000 -70.840515136719 -171.717269897461 2.742841959000
33.708366394043 -67.762588500977 -173.409362792969 6.463430881500
118.480773925781 -68.212799072266 -161.654617309570 4.454490661621
-31.978691101074 -70.473030090332 -172.877243041992 1.131790757179
105.613342285156 -67.615348815918 -168.395172119141 4.201161384583
-32.910121917725 -66.996055603027 -177.168060302734 3.942330121994
-38.743064880371 -72.255920410156 -178.547012329102 2.734964609146
17.881790161133 -73.431877136230 -173.831314086914 1.720831632614
102.758186340332 -67.621902465820 -176.751800537109 5.102998256683
-28.543270111084 -70.567512512207 -181.486175537109 1.671158075333
-30.015180587769 -63.806339263916 -173.183624267578 5.490125656128
-21.567853927612 -74.770675659180 -185.827102661133 0.661566257477
-145.083084106445 -77.339668273926 -186.830780029297 1.358327984810
12.737750053406 -74.687255859375 -181.071578979492 2.104588270187
107.009956359863 -69.435691833496 -193.634872436523 3.502429962158
-159.138778686523 -71.232635498047 -193.300888061523 3.290049076080
-25.291362762451 -71.883476257324 -189.114746093750 2.005731105804
-114.616928100586 -68.241409301758 -193.497833251953 2.154095172882
-129.763320922852 -72.048171997070 -196.691772460938 1.683779358864
-106.511154174805 -68.734909057617 -201.992095947266 4.046463489532
-109.588554382324 -65.993774414063 -198.578735351563 0.553401410580
-16.135856628418 -66.907028198242 -199.193557739258 2.723842859268
18.868328094482 -73.572387695313 -197.121337890625 2.005695104599
-22.682815551758 -62.009403228760 -199.519241333008 5.981235027313
-125.626548767090 -68.221237182617 -201.407623291016 4.082257747650
-26.955226898193 -69.192131042480 -206.564178466797 5.235908985138
-128.695251464844 -76.070907592773 -202.276565551758 3.988879680634
-10.445065498352 -66.077369689941 -199.768341064453 4.444845199585
-143.933166503906 -71.347412109375 -202.100479125977 2.494718074799
90.476684570313 -70.537429809570 -209.117050170898 0.327735394239
-164.787551879883 -71.372558593750 -203.427505493164 1.059787034988
1.088855981827 -72.771156311035 -212.460464477539 5.097872734070
14.516113281250 -63.237087249756 -211.837402343750 5.758618831635
8.853967666626 -65.656478881836 -215.331771850586 3.063074350357
83.627822875977 -70.649169921875 -217.516448974609 0.557536244392
2.947766542435 -65.928070068359 -216.549591064453 6.845655441284
15.942539215088 -71.846839904785 -212.357574462891 2.405086278915
-13.536912918091 -77.118141174316 -209.843231201172 2.962723970413
-87.749618530273 -71.774040222168 -212.760009765625 1.884427189827
-102.361312866211 -73.527519226074 -217.073425292969 2.705631256104
-2.419716835022 -70.291259765625 -220.070648193359 1.398232102394
-169.328384399414 -71.867561340332 -232.088394165039 3.814057826996
11.818141937256 -68.009231567383 -217.470809936523 2.764911890030
-141.923599243164 -73.372718811035 -222.083572387695 3.205115318298
12.607919692993 -67.375175476074 -225.094299316406 2.306001901627
-134.223175048828 -72.395286560059 -219.749191284180 5.284585475922
-114.975555419922 -70.190025329590 -228.483474731445 1.758959412575
21.123594284058 -64.022392272949 -224.505996704102 8.739726066589
74.206726074219 -70.129753112793 -229.777557373047 2.107500314713
2.963613510132 -68.009811401367 -225.350143432617 1.174857854843
-115.721572875977 -74.083969116211 -217.807128906250 7.795276641846
73.603233337402 -69.886573791504 -225.211822509766 3.042939186096
78.895606994629 -73.419273376465 -230.729476928711 1.000857591629
-121.516845703125 -72.122352600098 -229.050537109375 1.829811453819
-121.166206359863 -74.299148559570 -231.930679321289 2.787765026093
-10.706023216248 -70.516632080078 -230.528823852539 0.984594523907
69.123168945313 -74.515663146973 -226.966796875000 4.125928401947
68.251945495605 -68.533538818359 -235.117065429688 1.435502171516
72.156455993652 -69.593208312988 -233.087539672852 1.002649545670
-133.376419067383 -74.940826416016 -238.106643676758 5.289907932281
68.593002319336 -77.643920898438 -232.406356811523 3.939899682999
64.454299926758 -75.619750976563 -234.077545166016 3.544145107269
-167.507904052734 -75.065971374512 -226.104019165039 3.645195960999
-0.638869524002 -73.563133239746 -241.569030761719 1.001673221588
15.107181549072 -69.956428527832 -245.514633178711 0.868421256542
-2.308608055115 -74.508354187012 -242.678833007813 2.418189525604
15.218717575073 -76.095001220703 -243.821868896484 3.086901664734
70.581222534180 -73.152938842773 -239.793762207031 2.095332145691
10.219722747803 -76.740463256836 -238.419464111328 0.981038987637
-6.499044418335 -68.371032714844 -244.053405761719 3.276854991913
-5.693451881409 -73.550964355469 -246.556838989258 1.211341857910
67.015113830566 -70.238174438477 -244.835266113281 2.798133850098
6.789718151093 -74.703697204590 -245.923233032227 2.594622612000
-10.085231781006 -71.391921997070 -237.951110839844 1.788580656052
15.699662208557 -74.404975891113 -246.534194946289 1.479984521866
-164.644104003906 -65.148361206055 -240.277145385742 3.058163642883
62.200721740723 -69.252731323242 -249.458175659180 3.558569908142
53.203334808350 -70.714546203613 -251.791885375977 1.790086388588
57.435268402100 -76.061241149902 -240.263793945313 3.687299251556
-14.537903785706 -70.310852050781 -252.900405883789 1.568761944771
53.535507202148 -75.572334289551 -243.927444458008 3.774206161499
-73.928077697754 -74.564956665039 -248.025650024414 1.149142622948
52.063701629639 -73.635917663574 -250.751998901367 2.267105102539
-87.905494689941 -74.568016052246 -255.118972778320 1.413289904594
-128.481353759766 -74.855819702148 -252.834823608398 3.880481481552
-135.121658325195 -65.397056579590 -250.641952514648 4.821170806885
53.667079925537 -69.235191345215 -257.464050292969 6.693074703217
-138.164291381836 -67.858123779297 -256.558593750000 2.971894264221
-104.345703125000 -81.018989562988 -250.236373901367 10.081294059753
-110.737571716309 -70.889053344727 -257.530792236328 1.159721732140
-84.794502258301 -72.536979675293 -249.193191528320 1.422236561775
-112.444923400879 -73.893104553223 -263.199157714844 2.709363222122
-124.921798706055 -67.328025817871 -266.293884277344 2.019674777985
-143.914703369141 -71.821899414063 -265.005706787109 1.467260599136
-11.143539428711 -73.894638061523 -258.929779052734 3.549242496490
-173.604736328125 -70.310729980469 -267.442260742188 6.278763771057
-7.628792285919 -76.129974365234 -270.094543457031 3.434153318405
-157.407775878906 -64.981254577637 -264.318420410156 3.018721103668
-154.854385375977 -67.097976684570 -270.603424072266 5.353346824646
-169.057785034180 -63.919895172119 -271.901336669922 6.611701011658
-11.994389533997 -68.291999816895 -275.838439941406 2.350217342377
-133.128448486328 -71.828315734863 -282.333923339844 1.705540060997
-156.202468872070 -67.203125000000 -288.242370605469 2.559057950974
-142.152603149414 -70.829574584961 -281.187072753906 3.418355703354
-136.507614135742 -74.197479248047 -283.638671875000 1.906652450562
-9.034850120544 -72.684051513672 -279.230194091797 2.172657012939
-123.326774597168 -76.940284729004 -281.430206298828 4.506682872772
-141.573135375977 -72.425209045410 -285.135070800781 0.448784977198
-113.080963134766 -69.240211486816 -284.314025878906 3.323616981506
-78.385810852051 -68.424102783203 -290.384826660156 2.414498329163
-61.268966674805 -72.541793823242 -281.038818359375 5.591094970703
-4.887659549713 -72.820556640625 -287.440521240234 1.280087232590
-48.579158782959 -73.821975708008 -289.504089355469 3.125624895096
-62.897800445557 -74.561180114746 -286.012237548828 2.457089662552
-69.346153259277 -69.342933654785 -290.566375732422 1.014273285866
-86.799629211426 -73.011474609375 -296.627044677734 5.317286491394
-106.423484802246 -64.678298950195 -287.078399658203 3.850884675980
-158.386688232422 -71.515960693359 -289.653137207031 1.723143458366
-153.589141845703 -69.682403564453 -286.934783935547 2.787761926651
-126.810165405273 -74.390914916992 -296.804962158203 2.860446214676
-144.688201904297 -71.120300292969 -291.565307617188 2.107134342194
-157.674850463867 -68.887573242188 -297.617797851563 3.194449186325
-146.600280761719 -72.256423950195 -317.493225097656 4.917534351349
46.283107757568 -68.613067626953 -20.388122558594 2.792146682739
19.819431304932 -80.138420104980 -24.362804412842 8.150000572205
46.854480743408 -71.806579589844 -37.263450622559 1.995074629784
-19.573852539063 -72.212974548340 -64.556091308594 2.071972131729
80.451126098633 -69.227523803711 -65.886665344238 1.650545954704
85.621368408203 -63.031627655029 -72.284820556641 8.717481613159
76.355522155762 -68.450241088867 -73.876594543457 5.237262725830
78.895446777344 -69.924133300781 -66.877937316895 0.738767385483
98.616409301758 -71.281211853027 -73.186103820801 2.796649217606
-96.744407653809 -73.850151062012 -73.400886535645 5.691105842590
68.705718994141 -73.009796142578 -78.042778015137 1.396900057793
-34.939910888672 -67.114723205566 -75.813880920410 2.099935770035
99.009025573730 -71.572090148926 -86.192794799805 1.688076376915
66.593826293945 -78.269355773926 -87.679107666016 6.077396392822
111.765701293945 -69.171875000000 -88.607849121094 8.295520782471
106.884056091309 -74.657516479492 -97.348030090332 2.114531040192
72.473823547363 -73.729705810547 -95.360298156738 1.360436916351
-78.386817932129 -71.588752746582 -98.204444885254 1.850817680359
56.821235656738 -72.518775939941 -109.867683410645 4.769416809082
109.119880676270 -72.482345581055 -105.128097534180 1.970001816750
49.432338714600 -77.675468444824 -114.772071838379 2.591757297516
86.944702148438 -71.745925903320 -100.410278320313 2.099777460098
44.364830017090 -77.439483642578 -110.688629150391 2.194490432739
106.653427124023 -68.031150817871 -98.030555725098 1.269469738007
49.125335693359 -69.409523010254 -106.719055175781 0.797946453094
113.077651977539 -74.656341552734 -112.286552429199 2.104602813721
107.811599731445 -70.307159423828 -115.885780334473 1.227817893028
-78.493209838867 -60.528255462646 -113.115661621094 0.696048676968
-74.347480773926 -69.829383850098 -113.409774780273 1.465858101845
42.757003784180 -70.441154479980 -116.625740051270 1.360901713371
117.331054687500 -65.043586730957 -116.274482727051 6.865710735321
117.063804626465 -67.365135192871 -120.554557800293 3.797577857971
-78.979545593262 -70.343460083008 -125.066993713379 1.294889807701
109.296600341797 -69.458526611328 -120.466255187988 1.708428263664
-67.030342102051 -70.748497009277 -135.310806274414 4.976848125458
-88.890632629395 -66.824493408203 -126.654319763184 1.273972749710
-73.695564270020 -68.487358093262 -128.433959960938 2.214473962784
-56.665500640869 -63.750904083252 -123.494621276855 2.058894395828
37.618507385254 -69.633827209473 -129.849884033203 1.771277427673
44.184574127197 -68.915924072266 -133.780532836914 5.716536998749
-74.136466979980 -71.971961975098 -133.672836303711 2.345067977905
28.957815170288 -67.378784179688 -128.643295288086 4.617642402649
104.746192932129 -73.658157348633 -133.402755737305 4.799241542816
-37.064395904541 -71.346664428711 -148.788818359375 3.759573936462
26.092472076416 -69.781738281250 -144.225402832031 2.382241249084
110.052268981934 -62.850116729736 -145.815765380859 7.156569480896
36.220409393311 -73.191619873047 -143.542877197266 1.506217002869
111.741111755371 -72.875633239746 -143.175765991211 0.954522430897
-55.191635131836 -70.781929016113 -146.356536865234 1.248254656792
-66.026527404785 -74.060234069824 -148.794494628906 1.602582454681
-53.553237915039 -74.282249450684 -153.640731811523 2.130759239197
-45.693080902100 -69.054801940918 -168.997009277344 3.690063714981
0.757767975330 -68.048088073730 -152.010604858398 7.100820064545
110.294647216797 -64.294006347656 -153.765213012695 5.289350509644
107.825485229492 -68.288848876953 -161.342071533203 4.027772903442
10.037203788757 -63.879901885986 -159.694137573242 5.223016262054
0.430692136288 -68.858802795410 -158.761550903320 4.004808902740
15.281297683716 -66.000007629395 -159.518417358398 3.740913629532
20.045768737793 -68.936691284180 -146.482238769531 2.089140653610
117.160232543945 -75.738510131836 -164.531723022461 3.328024387360
107.020637512207 -72.896797180176 -173.345932006836 1.297976732254
27.858612060547 -69.390426635742 -173.111740112305 0.865837633610
27.928972244263 -68.857612609863 -164.228652954102 2.645911931992
116.450630187988 -70.476760864258 -161.557098388672 1.449652075768
-31.699453353882 -68.101333618164 -172.760696411133 1.373741149902
113.823280334473 -68.250785827637 -170.806915283203 3.093408346176
21.849695205688 -64.156150817871 -179.402267456055 2.644634008408
15.140027999878 -73.827857971191 -164.316528320313 3.989991188049
108.855789184570 -68.960128784180 -178.319412231445 2.840306997299
23.410100936890 -70.736389160156 -169.042587280273 3.029504299164
110.515571594238 -66.104179382324 -180.211380004883 4.950737476349
-40.568664550781 -67.580749511719 -176.617416381836 4.873918056488
27.848653793335 -66.231506347656 -170.673385620117 2.827311277390
108.913131713867 -69.542442321777 -185.729049682617 1.990791559219
24.761913299561 -67.259620666504 -175.223571777344 1.620465397835
-153.143630981445 -65.188522338867 -178.400482177734 2.008666038513
-32.996467590332 -70.950057983398 -187.386444091797 2.353247165680
25.490190505981 -72.677680969238 -185.313064575195 1.448939442635
-112.785263061523 -70.007789611816 -194.886260986328 1.956495523453
-113.505615234375 -72.204864501953 -188.908569335938 4.058980464935
21.694763183594 -65.748626708984 -192.741012573242 3.864166736603
12.417091369629 -71.491317749023 -186.202026367188 1.250391960144
-25.994281768799 -73.812911987305 -191.686080932617 1.635758399963
-27.397489547729 -70.700225830078 -185.457046508789 1.372758388519
-24.582847595215 -72.568740844727 -184.890014648438 2.266927719116
22.229110717773 -74.442779541016 -177.577316284180 3.197465419769
-153.432067871094 -69.303497314453 -192.197906494141 1.384584903717
-146.683761596680 -72.769157409668 -200.861190795898 1.357125639915
-141.339920043945 -69.549468994141 -191.237045288086 2.833732128143
-17.132144927979 -65.600479125977 -191.075897216797 4.079395294189
16.751331329346 -69.886405944824 -198.017364501953 1.617094635963
99.106735229492 -72.054962158203 -195.951766967773 1.812222957611
-116.038246154785 -69.424110412598 -203.668823242188 2.119592189789
16.246513366699 -67.307289123535 -202.139846801758 1.453704833984
-15.644269943237 -68.391525268555 -194.240905761719 2.417894840240
-18.434265136719 -68.839874267578 -193.976318359375 1.537837028503
96.052825927734 -69.655303955078 -201.420410156250 1.238052129745
8.129038810730 -73.165611267090 -197.471527099609 2.048319339752
-27.761646270752 -69.344169616699 -193.371810913086 2.336128711700
-121.146049499512 -71.911636352539 -202.106460571289 0.996588706970
-134.336288452148 -67.938446044922 -197.771850585938 2.109266996384
-108.328880310059 -67.004737854004 -207.865081787109 6.518479347229
-146.694671630859 -70.259109497070 -203.459411621094 2.791357755661
21.912088394165 -72.187026977539 -196.573074340820 1.500051021576
96.103828430176 -73.807685852051 -207.763977050781 1.791600704193
-166.500244140625 -68.846954345703 -205.714889526367 2.030551195145
102.098144531250 -70.773803710938 -202.589569091797 2.022568225861
-14.992367744446 -69.768051147461 -210.715881347656 1.015844702721
90.781341552734 -78.284225463867 -213.958526611328 1.887297511101
92.081916809082 -67.033264160156 -218.539001464844 3.969844341278
10.434961318970 -68.523635864258 -211.071273803711 2.073958635330
14.505307197571 -70.777526855469 -209.727493286133 2.283366918564
9.621819496155 -70.707298278809 -212.848846435547 1.121281027794
-8.520421028137 -68.574714660645 -217.585998535156 1.492825746536
-99.152473449707 -69.071975708008 -218.463348388672 1.540044784546
-6.628863811493 -72.775489807129 -220.593612670898 3.383923530579
92.132843017578 -68.902961730957 -213.245422363281 1.868079900742
-91.829917907715 -73.529281616211 -221.258270263672 2.322426319122
-101.453636169434 -73.380325317383 -220.522308349609 0.412252813578
-95.747138977051 -67.653686523438 -218.673751831055 1.350112915039
89.928535461426 -75.312599182129 -221.286102294922 1.256438255310
-134.251037597656 -74.062149047852 -226.633392333984 1.251357674599
-132.248580932617 -60.556346893311 -232.375976562500 3.779975175858
-120.421859741211 -69.352088928223 -227.501663208008 3.107690572739
-112.710113525391 -67.480667114258 -224.663223266602 1.632913827896
-131.589553833008 -66.434577941895 -218.945404052734 5.746887683868
-105.993904113770 -78.830169677734 -226.710144042969 6.291736602783
-114.196662902832 -65.496070861816 -227.924591064453 1.596217036247
-12.953751564026 -66.786819458008 -223.054824829102 3.497638225555
-21.033607482910 -73.538749694824 -226.410568237305 1.617553710938
-0.720859706402 -70.923011779785 -232.683395385742 0.543185770512
-8.031147956848 -67.878791809082 -229.118377685547 1.891749501228
16.187383651733 -72.848030090332 -230.988143920898 1.342562437057
-18.776313781738 -71.961380004883 -226.191131591797 2.098468542099
-159.533981323242 -71.183471679688 -222.667236328125 1.556416153908
-2.064426898956 -69.125610351563 -229.100814819336 1.512495636940
83.077713012695 -71.576210021973 -227.995834350586 1.679685831070
7.667306423187 -68.395179748535 -236.709152221680 1.691569089890
-10.704357147217 -69.129692077637 -226.166015625000 1.306323170662
-154.439758300781 -64.625488281250 -231.028717041016 1.085906028748
-137.450820922852 -72.630378723145 -233.009643554688 2.685873508453
70.963356018066 -65.318649291992 -236.072280883789 3.396229982376
-7.802984714508 -69.054962158203 -232.376983642578 2.005169868469
0.792083799839 -68.575927734375 -234.978424072266 0.818454921246
74.407264709473 -69.961952209473 -239.345840454102 3.226032972336
77.742835998535 -71.482460021973 -236.309600830078 2.261497735977
66.011665344238 -74.739341735840 -234.632156372070 2.785440921783
-3.146573543549 -66.507240295410 -234.738418579102 0.643069863319
54.215736389160 -70.517677307129 -237.284774780273 4.143380165100
-14.896927833557 -69.278518676758 -237.749435424805 1.875814795494
-15.051679611206 -67.751319885254 -239.029876708984 2.686821699142
9.449522972107 -70.886611938477 -237.939483642578 1.535336852074
66.584220886230 -69.891876220703 -246.467727661133 4.196975231171
59.164390563965 -71.059623718262 -238.457962036133 2.780436277390
54.138763427734 -65.552978515625 -246.453140258789 1.690104603767
62.303886413574 -73.826171875000 -244.114562988281 1.346511960030
-17.092931747437 -66.186584472656 -244.864959716797 4.929183483124
-84.065193176270 -66.628410339355 -246.084274291992 5.946593761444
-77.416053771973 -64.606330871582 -253.043899536133 5.074869632721
41.352005004883 -69.687828063965 -250.401687622070 1.269281744957
-142.587890625000 -65.241493225098 -247.570022583008 4.108949184418
41.476669311523 -70.852188110352 -258.815460205078 2.502912282944
-83.582847595215 -70.748641967773 -251.341690063477 1.678986072540
-153.369613647461 -71.105873107910 -255.683761596680 1.842583060265
-144.219161987305 -68.599197387695 -255.180862426758 0.958052814007
48.527797698975 -72.063873291016 -250.925277709961 1.586002111435
-127.799926757813 -68.213882446289 -250.244064331055 4.148480892181
-117.964286804199 -69.838020324707 -255.649948120117 1.944073796272
-96.100540161133 -69.501678466797 -252.214736938477 1.372024178505
-17.814313888550 -77.294013977051 -253.734725952148 5.319805622101
32.428829193115 -70.920745849609 -259.472839355469 1.207839250565
20.784681320190 -74.975143432617 -261.068298339844 2.004585027695
-155.212921142578 -69.050926208496 -254.054763793945 1.499459743500
-112.747604370117 -69.622863769531 -263.458862304688 1.969620704651
-11.538450241089 -71.828186035156 -257.521575927734 3.621727466583
-134.629074096680 -68.467247009277 -265.108367919922 0.940319538116
-11.810155868530 -67.947311401367 -272.392852783203 2.214332580566
-161.329742431641 -69.672546386719 -279.376953125000 1.867171168327
-9.630004882813 -64.958602905273 -274.352539062500 4.579797267914
-163.415359497070 -67.220474243164 -290.372222900391 3.218976974487
-156.780807495117 -69.488922119141 -276.420043945313 3.369811773300
-152.025482177734 -67.702644348145 -284.727050781250 2.367291688919
-169.747650146484 -68.723884582520 -282.479400634766 3.525110960007
20.948047637939 -64.334838867188 -287.600128173828 4.410200119019
-105.313842773438 -75.234947204590 -285.623748779297 3.306888103485
-88.825874328613 -67.737930297852 -284.588714599609 4.115090847015
-170.983856201172 -68.958282470703 -283.119812011719 4.014140129089
-88.734443664551 -72.190292358398 -289.465240478516 2.289213657379
-157.949707031250 -75.658256530762 -288.727539062500 1.814469933510
-76.081649780273 -72.445983886719 -292.040863037109 2.845880270004
-66.872627258301 -70.287498474121 -289.707977294922 1.805096745491
-81.795387268066 -68.160354614258 -289.698028564453 1.917092680931
-2.557730436325 -64.649017333984 -286.683959960938 2.470832824707
-84.573448181152 -71.392280578613 -291.779388427734 2.210279703140
-96.932861328125 -70.699455261230 -290.507141113281 2.420118808746
-118.583511352539 -68.624870300293 -292.737335205078 1.194429755211
-116.253074645996 -67.477127075195 -295.152587890625 3.093678712845
-140.038604736328 -64.187919616699 -291.748565673828 3.474984884262
-141.570159912109 -78.125968933105 -298.992584228516 4.688393115997
-145.444519042969 -75.983146667480 -309.991424560547 2.256520271301
26.252691268921 -69.354347229004 -17.230899810791 2.767429351807
29.616909027100 -65.452926635742 -24.360549926758 4.039141654968
30.395494461060 -73.194862365723 -16.107196807861 1.302559018135
47.301170349121 -71.165893554688 -26.927158355713 2.194903373718
20.544883728027 -71.857444763184 -31.025115966797 0.911734461784
-80.943923950195 -67.669189453125 -50.679340362549 0.723765790462
84.163734436035 -68.902976989746 -64.465026855469 1.568134427071
-11.972011566162 -68.084815979004 -66.741523742676 1.610513210297
101.858566284180 -72.167739868164 -71.225700378418 4.483369827271
95.118026733398 -64.533638000488 -79.073951721191 6.967486858368
74.276603698730 -75.699485778809 -82.334518432617 0.777871847153
68.258079528809 -66.810279846191 -86.908927917480 2.755583524704
-50.183773040771 -67.689826965332 -81.303100585938 3.619487285614
58.799438476563 -69.397880554199 -80.171920776367 4.733082771301
-100.279449462891 -69.410850524902 -88.399421691895 4.537024497986
-48.231010437012 -69.797462463379 -88.300346374512 3.320941448212
-56.893280029297 -72.865837097168 -82.882171630859 7.452423095703
94.966835021973 -69.983680725098 -96.390777587891 3.384978055954
56.141853332520 -70.245010375977 -102.188621520996 0.638270378113
61.065959930420 -65.693946838379 -90.893356323242 1.825640916824
-94.447685241699 -67.856025695801 -94.064651489258 3.757682561874
109.349464416504 -65.157997131348 -93.062950134277 5.133831501007
47.771961212158 -68.819343566895 -92.608238220215 1.152807950974
101.678642272949 -66.684898376465 -96.479248046875 1.626045107841
106.281875610352 -68.588508605957 -106.645103454590 2.603949069977
99.965431213379 -67.499237060547 -102.948844909668 1.875113368034
75.269607543945 -68.084655761719 -104.307701110840 1.189761042595
85.235229492188 -68.237525939941 -107.382972717285 2.132605552673
45.944293975830 -72.336563110352 -109.475395202637 2.982894182205
107.242095947266 -66.257476806641 -107.598731994629 1.984439015388
47.128742218018 -69.867767333984 -109.228591918945 2.108048439026
47.055034637451 -66.126335144043 -100.919204711914 0.863926172256
105.900527954102 -72.329513549805 -117.003074645996 1.650241017342
-79.444610595703 -64.861305236816 -106.491264343262 1.888946652412
47.783458709717 -66.510162353516 -114.174377441406 3.332252979279
35.143047332764 -69.982894897461 -110.623390197754 3.176383018494
107.282653808594 -70.684875488281 -107.203475952148 1.049547910690
43.282459259033 -68.276634216309 -113.067039489746 1.390566587448
-89.842498779297 -67.488128662109 -119.002952575684 1.920094370842
-98.024848937988 -67.636734008789 -115.952865600586 2.932092666626
109.324241638184 -65.962562561035 -122.634635925293 2.070515394211
-91.701072692871 -73.400573730469 -115.056831359863 2.373616456985
39.802124023438 -68.042091369629 -123.138313293457 1.877470254898
36.806159973145 -68.620170593262 -116.391342163086 2.092704534531
-77.953582763672 -70.624191284180 -122.113456726074 1.979801893234
28.011272430420 -65.247100830078 -127.070732116699 4.288357734680
109.350456237793 -68.798416137695 -133.900665283203 2.434830665588
-47.061328887939 -69.795410156250 -138.685699462891 1.481627941132
-89.356689453125 -70.558174133301 -130.937805175781 1.795642256737
34.580802917480 -69.657501220703 -138.306625366211 2.733684778214
-85.965248107910 -69.515434265137 -134.913909912109 1.786380171776
-90.898147583008 -72.153137207031 -133.515792846680 3.090426445007
-47.388805389404 -71.857521057129 -134.632919311523 1.962995409966
-73.188835144043 -70.361633300781 -137.674514770508 2.084117412567
-49.727706909180 -68.967338562012 -138.597961425781 1.609017848969
114.346008300781 -66.367477416992 -137.619995117188 2.790983915329
-75.191169738770 -63.317489624023 -140.323333740234 2.674982547760
36.114765167236 -70.767944335938 -128.087432861328 2.793474674225
-74.883171081543 -63.695858001709 -137.984329223633 2.548061132431
-79.519035339355 -67.647621154785 -130.885269165039 1.512123107910
-86.876602172852 -70.331031799316 -134.756607055664 1.137157678604
-58.555328369141 -67.815689086914 -151.660507202148 5.619741439819
31.389926910400 -66.678939819336 -151.357742309570 2.743159770966
34.290451049805 -69.146774291992 -152.118469238281 3.193477630615
20.634263992310 -67.287582397461 -144.588134765625 1.169206380844
113.330795288086 -73.255897521973 -150.426742553711 0.971098363400
-98.096130371094 -77.045944213867 -156.039993286133 8.243947029114
17.725389480591 -69.296142578125 -144.347518920898 1.109268903732
-68.776977539063 -72.464767456055 -144.808013916016 1.846519470215
23.107648849487 -67.234588623047 -148.051818847656 1.936714768410
-43.445907592773 -66.739913940430 -152.464416503906 2.713104963303
6.431236267090 -64.805572509766 -147.017807006836 7.317128181458
5.911311626434 -67.499824523926 -155.133865356445 2.199873209000
16.388719558716 -67.668365478516 -160.937530517578 3.706535100937
-46.698246002197 -70.493339538574 -164.760391235352 2.254476308823
-41.363883972168 -61.813640594482 -151.870742797852 7.203339099884
-47.649852752686 -67.254737854004 -154.908950805664 2.024818897247
-99.890853881836 -67.502464294434 -168.700851440430 1.324533343315
16.113286972046 -64.125068664551 -170.572143554688 5.200984954834
-37.999004364014 -71.646697998047 -173.623779296875 0.834697365761
12.038176536560 -59.433605194092 -177.563812255859 9.912863731384
-147.032546997070 -74.431648254395 -169.679702758789 6.116659641266
-35.556640625000 -63.258724212646 -175.184326171875 5.503806114197
-151.494430541992 -64.646949768066 -175.374908447266 1.778795123100
17.927434921265 -70.707221984863 -180.142074584961 2.136334657669
-33.972717285156 -74.947914123535 -170.165237426758 3.385812282562
-108.633087158203 -72.574851989746 -182.622604370117 3.241821765900
-103.838943481445 -68.918006896973 -181.656829833984 2.079252004623
-35.390357971191 -66.460311889648 -179.062118530273 3.974521636963
-16.744712829590 -68.842315673828 -189.221908569336 2.769424676895
13.157633781433 -70.051742553711 -188.549835205078 2.330250263214
20.432395935059 -68.745407104492 -195.756408691406 0.950977921486
18.182571411133 -61.705280303955 -187.486358642578 5.002201080322
-138.982498168945 -68.795654296875 -183.495254516602 2.888004302979
16.052141189575 -68.833412170410 -194.404357910156 1.235319018364
10.157076835632 -69.785034179688 -197.557144165039 1.468862533569
-140.777542114258 -65.637107849121 -195.879196166992 1.547371387482
-118.849021911621 -70.487251281738 -199.635131835938 3.508442163467
15.561653137207 -65.780326843262 -197.989212036133 1.323791861534
-112.005874633789 -72.330909729004 -190.395965576172 3.136139869690
-109.307090759277 -71.451583862305 -191.200668334961 2.736261606216
-162.926757812500 -72.827423095703 -200.989318847656 2.386713027954
-15.367152214050 -75.474525451660 -204.137741088867 2.447194337845
15.815343856812 -63.873905181885 -202.021133422852 3.267209768295
-137.808578491211 -64.656204223633 -197.339920043945 2.921515464783
-134.661178588867 -70.571228027344 -208.121124267578 4.340962886810
-19.604965209961 -66.912765502930 -206.096267700195 1.184851408005
-12.457332611084 -65.649299621582 -203.891754150391 2.222864866257
-14.485386848450 -71.167625427246 -210.280075073242 2.036595344543
-146.736541748047 -72.721199035645 -207.614013671875 2.451102018356
-21.694084167480 -71.642799377441 -200.372985839844 1.328983545303
-12.476099967957 -65.435440063477 -208.198684692383 1.633968234062
15.183254241943 -67.626670837402 -207.919754028320 0.218158021569
-10.855294227600 -69.169120788574 -206.643859863281 2.531848430634
10.891219139099 -63.943748474121 -211.992782592773 4.271224975586
-6.990818500519 -72.319236755371 -216.666610717773 2.741732835770
-14.616601943970 -72.608253479004 -210.113296508789 2.870149135590
9.519645690918 -68.810638427734 -225.369415283203 2.023819208145
-5.504461765289 -69.328956604004 -218.043533325195 1.705054998398
12.832999229431 -67.142349243164 -221.192626953125 2.722770690918
-4.426415920258 -71.889686584473 -222.468887329102 2.203762769699
-159.632095336914 -69.983406066895 -219.550750732422 2.115785360336
85.297004699707 -70.021186828613 -221.392410278320 1.614274024963
-134.552154541016 -68.380821228027 -219.872100830078 4.941480159760
-134.339157104492 -68.508575439453 -223.524337768555 1.516408681870
-8.218295097351 -68.655296325684 -228.181503295898 1.956038594246
13.768824577332 -71.886802673340 -234.358215332031 0.769737541676
-149.877624511719 -66.919876098633 -219.767135620117 2.943108797073
84.876007080078 -65.078300476074 -221.673339843750 4.346813678741
-8.923991203308 -69.402557373047 -223.167129516602 2.287014007568
3.759865522385 -70.886825561523 -226.956497192383 1.276862144470
70.882713317871 -67.792587280273 -227.906845092773 2.914464712143
5.241239547729 -71.542823791504 -231.695297241211 1.928854703903
-18.196866989136 -65.307830810547 -230.337112426758 5.460686683655
-120.078826904297 -73.627746582031 -236.553115844727 5.220172882080
-5.564457893372 -69.010215759277 -237.738555908203 1.876605153084
-1.491428256035 -70.738281250000 -232.059799194336 1.542761206627
68.976554870605 -70.853752136230 -234.522979736328 1.110575318336
-163.154968261719 -68.776794433594 -237.549163818359 2.297773122787
-9.097297668457 -67.273109436035 -246.878128051758 2.805477380753
-165.938385009766 -71.002220153809 -238.808746337891 1.393210649490
8.253702163696 -70.440765380859 -244.444671630859 1.658155679703
-167.261627197266 -68.776062011719 -237.043975830078 1.511011004448
-155.002593994141 -65.006423950195 -241.331100463867 4.768133163452
54.134845733643 -74.526466369629 -253.073806762695 4.983630180359
63.383617401123 -66.476226806641 -243.470657348633 2.425103425980
53.850353240967 -68.247886657715 -242.840011596680 2.088028907776
49.423286437988 -73.597351074219 -247.709762573242 1.308036565781
-160.908020019531 -68.280578613281 -245.158874511719 1.330511093140
-151.247390747070 -69.986198425293 -249.263442993164 1.742558121681
-15.889303207397 -68.446006774902 -245.897399902344 2.553436756134
-154.716201782227 -67.289367675781 -246.715103149414 3.393868684769
20.321626663208 -71.707801818848 -256.444061279297 3.172369480133
-165.246566772461 -67.683586120605 -250.417190551758 1.158215641975
-170.174514770508 -62.479351043701 -242.205505371094 7.415543079376
-80.055191040039 -66.568305969238 -251.244186401367 3.144758939743
-172.210342407227 -70.296699523926 -265.108581542969 5.065749645233
-86.307640075684 -70.990982055664 -260.283874511719 4.339304924011
35.699115753174 -62.640335083008 -248.248886108398 5.058407306671
24.720067977905 -72.895339965820 -255.545455932617 2.055694341660
-157.499679565430 -65.362045288086 -257.708892822266 1.795366406441
-102.678871154785 -64.886711120605 -260.467926025391 3.062588214874
39.334182739258 -67.793617248535 -258.155487060547 0.576184511185
-101.193893432617 -69.046043395996 -257.800750732422 2.097318172455
-151.153808593750 -66.562042236328 -256.723815917969 2.719642162323
-106.715881347656 -65.481094360352 -256.561645507813 1.751478910446
-162.280273437500 -69.105712890625 -257.216979980469 2.992819547653
-113.499900817871 -70.205566406250 -261.046630859375 1.385490059853
-155.092971801758 -70.319023132324 -268.243591308594 3.931380510330
-157.551925659180 -71.746070861816 -262.045593261719 2.441255807877
-167.352355957031 -73.194633483887 -264.180938720703 1.326277256012
-159.363479614258 -69.496475219727 -264.690002441406 0.825379967690
-165.917007446289 -64.960983276367 -267.592102050781 4.223457813263
-164.353469848633 -62.523128509521 -266.316833496094 6.655247688293
23.836282730103 -70.078125000000 -262.974243164063 2.164092302322
-148.533386230469 -66.963485717773 -267.354217529297 2.339373826981
-148.822357177734 -66.945838928223 -287.521636962891 1.972975850105
17.614824295044 -76.864936828613 -279.462463378906 1.477484345436
-7.509841442108 -67.818634033203 -275.346374511719 2.994259357452
-126.465606689453 -73.458992004395 -284.070343017578 1.362236976624
-137.655151367188 -76.605781555176 -288.392700195313 1.836115956306
-138.417098999023 -70.312820434570 -285.416778564453 2.480453729630
-130.148635864258 -64.736198425293 -283.776733398438 4.161969661713
-116.136695861816 -68.479621887207 -288.231903076172 1.468404769897
-108.424377441406 -72.077163696289 -286.283416748047 1.033779859543
12.354207038879 -67.462677001953 -291.967926025391 3.241178750992
-91.109886169434 -67.403182983398 -283.544891357422 5.359679222107
-145.504562377930 -71.023536682129 -294.807464599609 1.534648299217
-99.299568176270 -66.418731689453 -287.400054931641 2.274935007095
-130.075195312500 -68.565742492676 -291.273193359375 2.570698976517
12.245022773743 -76.030609130859 -287.779479980469 1.906857252121
-115.823791503906 -72.828475952148 -293.822723388672 1.435171723366
1.474939703941 -69.763710021973 -287.464599609375 4.168822765350
-142.669937133789 -72.052146911621 -287.781127929688 2.759233236313
-157.058013916016 -72.302955627441 -301.923919677734 1.941081881523
-165.874023437500 -70.315437316895 -306.476257324219 10.177490234375
-152.731246948242 -70.394554138184 -309.881805419922 3.151624917984
49.251033782959 -74.455558776855 -24.639255523682 2.934775114059
19.565467834473 -69.268745422363 -30.482021331787 2.041662216187
35.441181182861 -70.545112609863 -37.413700103760 0.603023111820
-50.610145568848 -67.092025756836 -51.570518493652 4.584592819214
-12.752105712891 -65.866226196289 -61.156749725342 2.042760848999
94.251327514648 -74.795349121094 -75.261718750000 1.866854667664
66.161178588867 -65.940048217773 -66.125282287598 3.088716506958
-19.462253570557 -69.955642700195 -73.566116333008 0.895958900452
-92.828529357910 -66.986793518066 -80.088630676270 3.967645883560
-37.657009124756 -69.165557861328 -79.485298156738 2.916405677795
63.526699066162 -69.963584899902 -79.248558044434 3.756270885468
55.714641571045 -75.964286804199 -82.003555297852 7.452419757843
57.495712280273 -71.167160034180 -86.206062316895 1.261384367943
-55.677143096924 -71.840042114258 -83.128738403320 6.672619342804
68.799011230469 -67.024078369141 -86.644309997559 2.863399505615
45.069381713867 -74.206054687500 -95.130134582520 2.718620061874
66.737815856934 -72.910140991211 -88.714157104492 3.192894220352
-62.549755096436 -67.053634643555 -96.665298461914 2.676078319550
55.245273590088 -63.581062316895 -96.508735656738 0.992918848991
47.279342651367 -71.090209960938 -96.814056396484 0.648645758629
103.918579101563 -73.294631958008 -93.239669799805 3.764109611511
-70.276916503906 -76.603393554688 -98.375907897949 2.841568231583
110.913215637207 -70.958580017090 -101.035705566406 2.354773283005
-80.466949462891 -66.319747924805 -92.501655578613 8.063017845154
56.591747283936 -70.611656188965 -106.943107604980 3.532359838486
50.491573333740 -66.954139709473 -101.417915344238 1.850439071655
96.406677246094 -68.286315917969 -97.542625427246 3.810696125031
88.364799499512 -59.458450317383 -114.375228881836 5.644079208374
56.997303009033 -73.086387634277 -103.338630676270 1.859754920006
-68.877250671387 -70.363845825195 -103.777481079102 3.431299209595
-80.757896423340 -70.067840576172 -108.245735168457 3.121639728546
-85.074081420898 -72.293174743652 -119.438621520996 2.469087600708
-94.874420166016 -78.894569396973 -114.408554077148 4.803719997406
101.175270080566 -71.176170349121 -113.579505920410 3.880738735199
-86.345970153809 -65.011863708496 -119.006614685059 2.172883033752
-79.809532165527 -65.411819458008 -118.634483337402 2.105269670486
111.370857238770 -66.428375244141 -115.909255981445 1.540929436684
-63.058574676514 -62.744491577148 -116.422775268555 1.318612098694
112.104629516602 -72.757385253906 -130.570617675781 1.475394248962
