# This PCD file was generated using the MATLAB® pcwrite function
# from Computer Vision Toolbox®.
# .PCD v.7 - Point Cloud Data file format
VERSION .7
FIELDS x y z
SIZE 4 4 4
TYPE F F F
COUNT 1 1 1
WIDTH 1417
HEIGHT 1
VIEWPOINT 0 0 0 1 0 0 0
POINTS 1417
DATA ascii
73.351959 -71.879173 -74.595024
-24.447174 -73.617828 -74.840050
92.366409 -72.504501 -74.636765
-38.509064 -71.959839 -77.376907
-34.089966 -71.961769 -77.778351
-35.872547 -71.746292 -74.272614
96.517601 -75.345352 -80.531067
98.546066 -73.693176 -78.573708
-90.502510 -72.910606 -78.023247
98.388481 -71.375420 -80.863274
73.183327 -75.239906 -82.336502
-44.394764 -74.816063 -81.011116
-43.310413 -76.726112 -82.651367
-96.737015 -75.321877 -80.781395
98.299400 -75.319878 -83.081223
-44.481583 -78.921837 -84.586502
99.134224 -70.462288 -85.655708
-93.704285 -74.912750 -86.123489
-55.228889 -71.245758 -88.303596
96.746773 -75.672203 -86.208168
56.380840 -72.790001 -89.728348
63.113308 -70.200256 -85.664360
-95.309441 -68.530968 -90.715767
-54.458130 -74.531090 -89.069984
60.291649 -70.920883 -91.189857
94.570831 -71.234505 -87.356674
55.775497 -74.242401 -92.980217
-61.154968 -69.360573 -90.777977
-55.242741 -75.607506 -93.889709
59.885975 -72.470741 -96.100677
52.744614 -70.596489 -93.273575
72.989708 -74.051888 -91.127487
-65.664886 -73.339622 -92.472382
57.935608 -69.843254 -93.401054
95.482315 -73.645622 -94.338760
-93.315231 -72.761246 -94.255836
56.628002 -77.470367 -92.844597
57.408134 -73.716721 -98.116386
69.795845 -75.522858 -94.245247
44.048107 -70.628563 -98.014084
102.909698 -68.836380 -99.043427
51.938080 -74.591270 -101.035385
104.398453 -73.814117 -101.145660
59.409840 -73.720749 -98.361404
97.899834 -74.219467 -100.080109
-64.741219 -68.651985 -98.205116
-75.608284 -75.348274 -100.143486
-78.285294 -74.738625 -103.706657
104.618698 -72.346527 -99.815346
-79.723549 -72.606255 -100.395866
107.804581 -76.106529 -101.652634
-68.721794 -70.359978 -100.661964
85.100220 -71.532349 -100.787025
96.194969 -71.723228 -99.278229
94.122643 -72.679413 -103.003136
91.876724 -70.291023 -100.704079
87.388123 -74.111847 -99.265839
103.414154 -74.447578 -100.760269
57.587387 -72.371735 -103.189903
40.211311 -74.590454 -103.185867
110.522118 -71.634155 -103.899223
39.354961 -70.672859 -111.813934
-84.617996 -69.881989 -109.285027
50.796669 -69.508171 -107.107643
106.510513 -73.082863 -105.878571
47.780491 -72.345497 -108.250557
39.091465 -70.648605 -109.355675
-94.295441 -72.525620 -114.373871
105.321457 -74.348747 -108.892349
108.167694 -72.201332 -113.681404
49.554863 -71.080948 -110.241951
35.395920 -73.936516 -107.584671
49.067257 -72.048546 -109.529831
-90.141327 -74.588951 -116.538651
108.278191 -72.307137 -116.862122
32.755379 -75.271309 -114.875786
110.314438 -74.569427 -115.150070
-93.193161 -70.905876 -119.196884
-89.038353 -71.719322 -119.783157
105.557274 -75.186264 -113.558517
-91.121315 -72.086632 -116.886452
-93.665642 -72.480942 -118.430855
37.668690 -74.234268 -116.762283
41.453587 -73.003944 -120.917007
33.196159 -76.234177 -120.598396
107.460007 -71.121811 -120.085518
111.000862 -71.593475 -119.068756
110.018326 -71.218971 -119.559547
113.466347 -72.132996 -122.808205
30.504612 -73.848900 -122.878120
34.559170 -74.718521 -122.558449
46.497166 -74.211906 -122.898483
112.154198 -71.980339 -118.579613
41.774048 -72.726654 -123.177734
107.478958 -72.755623 -124.872826
112.378502 -70.599098 -125.269264
28.754940 -76.351730 -127.395836
34.523224 -72.160187 -120.310730
113.231575 -70.665245 -118.917946
28.133940 -76.528091 -126.834648
40.193680 -73.266541 -121.737747
109.418938 -73.960854 -122.527954
29.184366 -74.461349 -125.593620
31.415308 -70.432655 -126.264809
39.546352 -73.706497 -129.970474
42.588650 -75.676750 -127.107056
116.398232 -73.151772 -127.989716
111.542389 -70.481178 -125.315872
40.485748 -72.294838 -131.135452
25.365637 -75.017357 -128.908203
109.513107 -77.255074 -129.657944
116.381271 -71.858185 -132.006500
39.964996 -70.588379 -131.493301
35.555962 -71.508286 -134.740921
-58.023720 -71.041756 -133.551300
111.479828 -75.283646 -128.545883
29.683615 -74.398468 -133.815323
29.082615 -72.524536 -135.077408
103.775963 -71.273529 -130.496841
-50.325367 -71.595306 -131.532501
115.875267 -75.237679 -132.525955
-73.830788 -70.680443 -135.195618
-59.276390 -72.508469 -135.529327
40.081081 -71.410591 -135.269882
-58.621689 -76.722748 -139.485840
-57.478031 -71.817940 -137.264587
-53.923908 -72.767578 -140.790024
-48.836338 -71.350250 -135.757217
-76.895363 -73.557404 -135.543976
-76.594948 -71.072868 -133.476471
-73.639305 -73.679131 -136.446106
26.008574 -75.525131 -137.987335
-52.902233 -72.898346 -136.838623
-55.960354 -74.170486 -139.011795
111.663727 -72.586189 -135.899414
36.792301 -76.089592 -138.678192
113.389000 -75.146332 -138.601410
109.767548 -75.282021 -137.245743
114.300766 -73.516777 -138.781555
26.588608 -73.737839 -138.096222
-55.678783 -76.993973 -139.382965
26.619446 -70.165810 -140.077591
-67.889847 -74.052521 -142.457214
27.685133 -70.851044 -142.102097
109.615868 -70.951096 -137.284485
-72.499245 -72.215591 -140.130005
-56.954632 -71.111885 -140.094360
-48.000908 -73.147369 -142.226242
38.285339 -72.686813 -140.172455
111.602798 -75.953568 -137.434509
112.538925 -73.175827 -142.925446
-46.053185 -70.885674 -142.998856
27.095367 -73.364403 -141.800583
38.199413 -70.374947 -143.313522
-73.931915 -73.213173 -149.849274
-70.504715 -72.606087 -143.993759
-55.371204 -73.221420 -144.532730
-53.973133 -70.490044 -146.344894
-42.500290 -77.381004 -146.070969
-79.020340 -73.928978 -147.431992
-69.449104 -72.937897 -144.694443
-42.260647 -74.769920 -143.463745
35.760578 -73.117928 -147.225708
115.082054 -70.625267 -145.600082
25.524916 -71.602036 -145.950165
114.044823 -74.166985 -148.084259
118.639519 -70.112915 -151.175064
-69.885262 -71.758339 -150.213379
-69.001648 -71.298332 -150.025330
-54.782299 -74.928917 -151.617737
32.934910 -73.980026 -149.421631
105.192238 -77.769096 -150.167267
-65.394829 -75.562057 -149.345688
-41.627831 -74.753853 -151.714081
111.567024 -72.935219 -152.906281
-55.126286 -69.364441 -150.960266
-73.489044 -70.112160 -154.169449
-67.981438 -70.599800 -157.358627
-70.712379 -71.386459 -148.448334
113.068748 -69.903893 -150.845535
-68.409798 -74.717155 -152.379211
-40.675213 -74.921661 -150.912598
112.669090 -73.266838 -151.232132
-44.442600 -72.838982 -153.897324
13.337136 -69.422020 -154.972702
10.629256 -73.432693 -153.236664
112.696991 -76.594711 -154.429703
-65.635895 -70.518166 -157.202850
9.339934 -75.694702 -154.801483
19.204163 -71.128853 -154.523376
12.205490 -73.463570 -151.121231
114.689293 -76.094788 -156.226212
-37.947449 -73.425644 -153.825974
-68.270210 -73.620018 -155.470551
-66.761993 -70.753342 -155.426666
3.145246 -70.465187 -157.309662
12.489956 -74.610168 -155.258820
-73.309891 -73.382744 -158.100281
16.003242 -72.148247 -157.853806
14.249203 -75.989357 -159.521271
30.502577 -71.892036 -161.034515
109.300972 -71.089249 -149.890869
115.193489 -70.601585 -153.960922
-37.455753 -75.454620 -155.556686
3.126402 -73.597519 -155.750259
108.659592 -69.332115 -155.428146
120.541420 -70.737381 -155.021301
13.242476 -74.657684 -158.432022
35.475868 -76.031853 -156.336212
108.505096 -74.502258 -159.123627
-34.195831 -73.266220 -156.709137
10.345921 -72.077835 -159.844971
110.895943 -69.861824 -159.175308
-64.825562 -71.137077 -161.421631
29.223604 -70.607101 -156.550903
-36.186275 -71.768539 -163.536041
5.406608 -71.099098 -160.391113
29.022095 -73.112473 -160.734253
115.435982 -72.408867 -157.473969
-42.331398 -71.425858 -162.700912
-31.841204 -76.054192 -160.043442
18.910835 -72.707428 -159.300812
3.845962 -71.416100 -163.541336
109.785522 -70.751724 -158.620514
114.848770 -73.146622 -159.854187
4.137779 -71.610008 -164.008606
30.184502 -73.964882 -164.044220
111.752853 -71.270325 -164.330353
-63.692692 -69.226891 -159.091995
-43.092728 -71.610062 -162.197800
-0.630385 -68.477196 -160.723557
114.295143 -75.170792 -163.762436
2.120343 -70.411140 -162.408340
19.600063 -73.054375 -164.227798
-30.283876 -76.769165 -163.881287
-2.483847 -75.213898 -160.905533
1.423895 -70.814651 -166.488739
-33.641930 -73.859604 -166.169632
-40.858948 -73.427795 -161.422256
1.070739 -67.700485 -163.231644
2.833356 -72.682549 -162.483475
112.183250 -71.737671 -161.744797
-63.098118 -75.002594 -169.432968
18.874701 -72.500252 -160.652618
-62.107651 -72.327324 -167.036850
-32.203026 -72.482079 -166.748474
26.951735 -73.604584 -163.573517
112.057350 -70.974571 -167.654312
106.957100 -72.920364 -166.155975
-35.579071 -70.843376 -164.407242
110.868523 -74.677299 -167.709061
-41.660526 -75.548264 -169.507187
-33.205212 -72.288437 -169.468323
109.333595 -72.666580 -165.483215
-56.968010 -73.447655 -171.977356
19.660524 -72.731201 -168.170074
-56.748703 -74.760460 -171.110641
29.384792 -74.456299 -172.868225
28.543224 -73.584496 -172.317307
-60.486111 -72.594856 -172.124954
-61.898914 -70.547142 -171.126160
110.853973 -76.776970 -170.381104
-41.831020 -75.531403 -171.306808
-25.429850 -71.314163 -173.589447
108.716019 -70.673752 -171.974823
-38.593407 -71.577126 -171.560272
-31.335110 -75.320663 -170.421494
114.052673 -72.701637 -176.229034
21.842031 -74.925934 -175.369583
-38.561008 -72.616112 -172.711853
-35.277191 -72.934731 -178.753174
109.570763 -74.692764 -174.643402
-37.910782 -72.454033 -175.239182
-22.193291 -73.471581 -172.130798
-26.684271 -72.007652 -175.024323
104.958488 -71.601974 -172.535706
-37.544106 -69.540550 -177.453873
-29.736849 -75.288445 -174.980164
103.078056 -73.925072 -180.266144
115.045715 -72.421013 -175.513443
15.616048 -75.380836 -177.571213
-37.161636 -71.835083 -180.073929
-33.668777 -70.662636 -176.563492
106.979439 -71.907463 -180.179382
105.116920 -74.809525 -179.254257
104.999832 -74.960350 -178.702545
-150.109650 -71.927773 -176.633896
27.089432 -73.756203 -174.648224
106.473251 -75.366142 -181.013840
-23.994968 -71.375755 -179.573898
25.874031 -74.324799 -177.434494
-149.365524 -70.907959 -181.213730
-24.762505 -73.237778 -182.401108
-33.964226 -70.764282 -177.137665
-25.755548 -76.196625 -182.026566
26.500219 -76.783478 -180.405014
25.937727 -70.337654 -179.571213
-31.940653 -73.459488 -182.883774
16.243021 -74.220291 -180.214386
26.600266 -73.155647 -182.367340
107.874573 -74.678879 -179.821045
110.329155 -76.868294 -184.523087
-150.887955 -71.957184 -181.712326
-26.427422 -75.291451 -183.962448
105.738640 -74.630821 -185.327942
110.233612 -75.306099 -185.119003
-32.850571 -69.548813 -182.673904
-147.658493 -75.571014 -183.697540
-20.925745 -74.418770 -186.828323
107.341019 -74.358223 -184.933228
-20.252556 -70.923187 -186.564743
100.106422 -72.728325 -184.531754
-143.699554 -72.439339 -186.055069
-22.254087 -69.730270 -185.143982
111.963326 -75.536148 -187.125336
-153.220535 -70.933044 -188.597961
-29.001070 -73.797462 -186.527267
98.115250 -74.237633 -190.527176
106.933891 -73.735359 -187.213287
105.298943 -75.107323 -184.924423
15.557843 -72.120293 -190.592316
-146.791718 -75.776634 -188.767853
-149.336395 -74.119522 -190.059525
105.823387 -73.713692 -190.320847
-30.494787 -74.246841 -188.634262
-18.466106 -77.726372 -190.663055
101.781960 -71.394440 -189.583527
105.925674 -71.610451 -191.341431
-26.682747 -72.004036 -188.699341
-27.125065 -73.582878 -190.645157
7.829276 -70.409821 -193.075287
103.967918 -72.973152 -188.335770
-145.507309 -75.840050 -191.911697
-17.094757 -75.668617 -192.039902
11.521942 -70.446350 -195.359375
-154.115158 -73.914200 -192.449905
-31.238636 -75.137413 -192.587250
107.893997 -73.064293 -191.695694
-152.738190 -76.139313 -193.950089
97.442963 -72.831497 -197.147522
-13.276509 -75.411339 -192.621414
106.339203 -73.223907 -194.500702
-25.287935 -73.688667 -194.730301
20.163328 -72.629974 -195.319977
96.015213 -71.077538 -195.138168
-144.695633 -71.234116 -193.802643
-126.870590 -71.086357 -197.783844
101.926498 -71.291611 -195.459854
-122.707962 -72.252983 -196.820435
-24.870621 -75.723999 -198.793381
23.858015 -71.558273 -193.699051
-138.308975 -72.247688 -193.624695
-15.049488 -72.982903 -196.164124
104.115959 -73.088959 -192.904144
-143.724686 -73.231560 -194.732330
-131.359177 -72.108650 -200.185593
-145.214951 -69.195786 -197.556122
-139.224945 -73.996582 -198.666809
-134.740875 -70.828453 -199.776459
95.830788 -72.340088 -199.640381
10.899003 -73.276306 -199.076782
22.832977 -75.583138 -195.083893
-134.138184 -72.948273 -199.076904
-140.484344 -72.911537 -198.221176
-22.936245 -73.949516 -200.009369
-153.629089 -75.489700 -201.355118
-134.489700 -75.081482 -201.034500
-124.274734 -72.577133 -199.905563
-146.361420 -75.552399 -196.523895
-142.645706 -75.262383 -201.632233
-140.437897 -71.226585 -202.766907
-133.350281 -69.956650 -200.284042
94.037819 -71.044174 -200.008636
100.385162 -71.323715 -202.009262
21.139412 -71.885216 -199.228912
97.048714 -71.140564 -202.248291
106.453705 -72.928535 -202.642960
-137.463745 -70.612602 -202.325256
9.629619 -74.688080 -203.510666
-131.731384 -69.445587 -197.909256
-10.423259 -71.778038 -198.989548
-19.200474 -71.670876 -203.483307
-133.342636 -73.177292 -203.171677
-127.194031 -70.620087 -204.704102
-119.851471 -72.553619 -204.951599
-26.372025 -76.956955 -201.662430
-12.601342 -70.563187 -205.895309
99.504906 -75.248741 -204.957245
-125.502991 -70.297173 -204.689102
17.326508 -71.989418 -204.760925
22.523088 -70.476929 -198.603439
96.426506 -72.046066 -206.728775
-146.702698 -71.852180 -205.425735
-143.000656 -71.860939 -203.518387
-20.226280 -75.488640 -203.215073
-5.523366 -73.529114 -204.759964
98.340225 -76.823151 -207.176788
-23.457621 -74.381775 -206.275330
-10.666188 -70.883179 -207.977020
11.009975 -72.120979 -208.364853
-7.533647 -77.461792 -205.509293
95.255226 -72.672081 -203.410492
-19.579851 -74.442650 -203.572906
17.382248 -69.592644 -204.323761
-8.589344 -74.341454 -209.522308
10.541923 -75.143860 -207.492569
89.072823 -71.038094 -208.000488
93.223381 -71.570992 -208.262329
11.564662 -73.259842 -205.048996
96.039177 -72.595474 -208.391571
-163.457108 -69.059547 -207.243256
-161.258606 -73.352005 -209.597839
-141.878464 -73.448257 -210.076035
-22.303802 -74.496681 -209.606796
-18.642195 -74.039261 -207.023697
-150.774765 -70.680672 -205.235977
-19.758923 -72.483261 -209.357742
88.357590 -74.949707 -209.168274
94.695374 -73.110931 -206.607422
-73.811867 -71.315254 -209.869888
94.951454 -70.910950 -208.285873
92.351517 -71.337868 -210.042007
-153.268829 -72.128799 -216.988449
-77.580261 -73.168129 -207.157257
98.980988 -79.075516 -207.482162
8.341412 -72.390068 -208.445236
-162.242050 -75.831284 -209.132492
-77.975677 -73.296509 -212.470963
-77.307404 -72.616570 -212.614288
-32.257301 -71.120308 -214.054977
-20.013582 -71.146286 -212.616241
6.094283 -73.572914 -206.878067
90.163055 -71.081444 -212.898315
-163.223938 -72.769585 -211.654709
-14.091314 -70.949745 -212.525940
-16.177517 -71.513832 -215.547852
-6.389333 -73.655136 -217.047150
10.761745 -76.143143 -213.745468
-157.049652 -70.548073 -213.993805
-30.383810 -72.340225 -212.875870
-164.184814 -74.380005 -217.388931
-87.113434 -72.191895 -212.891937
86.309334 -71.468719 -215.527115
-84.150963 -75.465279 -212.414795
-84.222397 -72.377930 -213.431290
17.727482 -74.823494 -215.603043
-144.214539 -77.596313 -216.651810
-29.798237 -72.193527 -211.511307
-27.064806 -72.496590 -214.296021
89.546722 -73.668419 -215.635818
-163.798569 -71.705360 -216.893188
-153.673126 -72.009399 -217.757843
-22.527237 -71.966949 -216.865189
-158.410492 -68.993530 -214.151825
-85.813431 -72.465981 -216.637100
-31.218182 -70.494728 -211.989029
82.804955 -74.233765 -216.241730
88.472305 -73.342262 -215.207199
90.975670 -73.554512 -217.344696
-158.084061 -70.041595 -215.079895
-83.856094 -73.675819 -214.135529
-4.075538 -72.280487 -214.816284
-97.192444 -70.839783 -213.106400
-86.356339 -73.437828 -215.298401
-24.502264 -73.053963 -216.974503
88.268257 -72.816185 -215.613419
-154.906769 -71.311111 -217.575867
-153.876129 -76.053978 -219.567825
-30.220015 -75.313499 -217.767502
8.244607 -73.549850 -217.162323
84.841721 -73.685959 -216.668472
-154.083115 -71.733749 -216.148621
-87.074051 -74.921646 -218.542831
-13.723961 -74.317970 -219.810822
84.446686 -73.164024 -217.060364
-14.514865 -73.237251 -214.866623
90.649559 -74.518326 -219.413132
-145.326950 -72.120407 -216.447006
8.329471 -71.017487 -218.837402
-151.329865 -72.297516 -219.969254
-90.964798 -73.352058 -220.335785
-158.585907 -74.624878 -218.678131
-15.744743 -73.133415 -216.005478
-2.772146 -72.955902 -219.794617
82.823921 -72.105988 -218.217377
0.881865 -67.910576 -221.537338
-2.743573 -71.822052 -220.561874
-162.520081 -74.927406 -213.803146
-161.116562 -71.531876 -222.650131
-17.371208 -73.355751 -219.099625
-10.541415 -73.391212 -218.797470
-92.977470 -73.387489 -221.903397
8.185508 -74.970978 -220.315430
14.792045 -74.364471 -222.217987
84.538666 -74.806030 -222.949249
92.278084 -75.047577 -222.696960
-152.429001 -75.316093 -221.730820
-103.615585 -74.264313 -221.200455
6.716051 -71.246559 -218.391891
-150.565598 -69.723457 -220.997787
-150.258804 -73.514595 -223.140839
85.522713 -74.889122 -223.462234
-94.180626 -74.209877 -224.887497
-21.600761 -72.390045 -226.237167
82.324791 -73.511429 -220.750137
-167.198517 -70.392174 -221.583466
-161.742004 -72.266304 -223.198502
-160.484634 -76.213989 -223.547745
-156.313660 -69.364601 -222.979294
-99.974396 -72.800934 -222.705795
-24.104059 -75.530296 -224.147690
86.685158 -73.703720 -224.495087
-151.893799 -76.782143 -223.913177
-107.222466 -73.470520 -222.636353
-16.511236 -71.888161 -224.477127
-19.067326 -74.145935 -223.003922
-0.786226 -69.704185 -225.396835
-146.888382 -74.217003 -223.219833
-106.565933 -74.082474 -226.379974
-99.694611 -71.199875 -222.237595
-161.307663 -73.265839 -225.077026
-157.571045 -73.192184 -225.473221
-156.474152 -71.614479 -226.242783
-6.200902 -73.216110 -223.563644
9.175764 -73.047165 -223.967560
-164.127548 -74.037689 -224.280563
-164.025909 -73.741760 -222.392670
-105.572258 -73.018410 -222.429474
-15.317823 -73.762436 -227.699509
-159.708252 -71.457245 -224.717316
-142.587784 -76.300407 -223.486740
-128.839096 -72.177925 -223.064163
-13.339760 -73.518280 -222.551682
-12.355720 -75.393150 -226.531067
0.852636 -72.062828 -226.042343
4.001435 -73.397736 -225.079086
84.401344 -74.395279 -222.043091
0.078989 -74.953201 -225.164032
16.416838 -74.920135 -226.876480
-154.951172 -71.758156 -226.845230
-140.918152 -72.136612 -224.875870
-126.019035 -71.477989 -222.795334
-105.984558 -72.031242 -231.622421
-19.058710 -74.288361 -222.987640
-10.425841 -72.002022 -229.023270
-152.911896 -71.804489 -226.395157
-138.550781 -71.890656 -226.245010
-121.500908 -71.984550 -227.290085
-110.948708 -71.611015 -227.756195
-161.786942 -74.234200 -223.240433
-138.800232 -73.563515 -226.871811
-139.049179 -71.204460 -225.600677
-121.921074 -73.287041 -228.731659
-112.098175 -73.286362 -226.299042
-104.558334 -73.401321 -228.214767
-15.579503 -69.851791 -231.754822
-6.371713 -70.494034 -227.731201
-153.127289 -71.968216 -225.615051
-147.577805 -77.677116 -227.595016
-146.340302 -71.842957 -226.205032
-125.894806 -73.006302 -227.478699
-12.946861 -69.465790 -225.118362
1.785400 -77.480316 -226.858749
81.470612 -74.109169 -222.101379
-165.126755 -73.728043 -225.854919
-157.649048 -74.792580 -227.889664
-155.788803 -70.785820 -227.921402
-125.870644 -75.207016 -230.061432
-11.981042 -74.643661 -226.432266
-118.400597 -71.631462 -228.068741
-18.732431 -67.473114 -227.581665
-11.471324 -74.352913 -227.647720
-146.653824 -72.744843 -228.380890
-121.568092 -71.599930 -229.154907
75.258797 -73.767616 -229.761154
83.720390 -69.178391 -224.645309
-114.446709 -73.966049 -229.313919
-114.610641 -71.921349 -229.553772
-149.481033 -70.497765 -228.662216
-148.758331 -72.767570 -230.399719
-125.393600 -71.115028 -230.961914
-12.307619 -71.497581 -230.571564
-146.220749 -70.123566 -231.809082
-113.157600 -71.428246 -230.503510
5.122745 -70.574585 -230.300293
-156.373230 -72.679047 -230.080994
-146.587234 -72.779655 -229.265396
-120.310730 -74.261612 -227.192429
7.875606 -74.830231 -228.743561
-121.634605 -72.051521 -230.985550
-116.029305 -74.614502 -230.899216
-7.037365 -73.817902 -229.868652
-156.688614 -75.673637 -230.203583
-136.365051 -73.132904 -227.177444
-124.211067 -71.510048 -234.221100
-6.867893 -69.692932 -234.028381
-13.976554 -72.961227 -235.952377
-13.739605 -71.927078 -231.319931
10.139351 -74.159584 -239.918884
-165.914612 -72.852097 -229.465469
-140.355453 -74.072868 -232.605316
-134.107742 -72.346924 -234.625366
-12.802863 -72.121857 -232.389648
-152.841461 -74.386963 -233.529251
-0.198798 -73.721062 -233.781784
-130.970093 -72.953354 -235.154678
-123.881180 -75.162125 -232.089676
15.571830 -73.307419 -232.721634
-156.882675 -72.725311 -231.625229
-153.492508 -72.613777 -233.839813
-142.562378 -73.308914 -236.016769
71.259598 -72.262604 -232.259857
75.005119 -70.194389 -229.514572
-153.148224 -71.592079 -231.753235
71.528625 -77.048172 -234.218216
67.947083 -71.914398 -234.015961
70.481255 -73.131523 -235.269440
-158.095917 -73.059837 -232.142593
-155.686279 -72.497032 -233.095306
-155.316284 -71.890282 -232.843994
12.812531 -72.658218 -234.472275
65.357155 -67.916687 -234.405396
12.367797 -69.884552 -232.809326
-154.038071 -75.322388 -239.383484
-154.602280 -73.180511 -231.895645
-14.779871 -72.609528 -236.623474
-5.801090 -71.434036 -238.475220
10.617637 -72.437355 -234.159607
15.292269 -70.852890 -234.974457
7.947742 -72.289253 -238.335938
73.180977 -72.972343 -239.669205
-11.754047 -72.729279 -241.035645
-166.074036 -70.584595 -234.698441
-154.062897 -73.846489 -238.367004
7.571229 -71.874092 -241.865814
13.825178 -70.072105 -237.670563
63.559364 -73.847870 -236.610031
16.624361 -75.382370 -236.927475
-18.961704 -70.851044 -242.228043
69.771660 -71.047188 -235.570877
-148.464767 -74.036110 -241.089523
-9.134484 -73.200798 -239.464813
11.421161 -71.792198 -240.910553
-9.979545 -72.154526 -242.025772
-1.242811 -72.396690 -240.512970
6.230957 -72.455193 -241.507797
66.614258 -73.372650 -241.282867
-23.603395 -72.212166 -237.133102
-5.915458 -73.485580 -239.074753
59.653683 -71.363022 -240.789230
-19.746113 -72.824722 -240.952240
-21.610533 -75.677719 -243.297058
-20.119131 -74.321121 -239.952255
-18.658308 -72.669167 -240.973846
-5.055373 -69.815468 -240.847412
-1.691338 -73.254082 -243.185577
3.891151 -72.530998 -242.231583
5.427325 -75.033600 -242.214798
59.389412 -73.486626 -239.786636
1.112954 -72.584297 -245.670609
10.325130 -75.237823 -244.481598
11.373341 -72.295853 -242.581482
57.264473 -74.508003 -242.390884
-163.944931 -71.023079 -244.362808
-5.625288 -71.425797 -245.896133
55.953442 -72.645515 -245.074417
-7.931373 -73.471779 -244.877182
19.533501 -69.631348 -241.192612
-58.354218 -74.395248 -243.777802
-0.781265 -75.342049 -247.279816
-61.889221 -73.425201 -244.053513
13.847397 -74.759537 -246.286240
18.171881 -74.335594 -244.831451
57.638069 -70.214912 -244.323334
56.541836 -72.881416 -249.252823
-63.147392 -77.345879 -243.663681
20.591843 -73.985977 -243.094574
-74.977051 -70.432541 -243.909866
54.135403 -73.621391 -248.432602
-58.343704 -72.994850 -245.324982
47.694557 -70.039993 -246.538437
-163.695435 -74.345116 -242.313339
53.956799 -73.336227 -244.129791
-13.243747 -71.512306 -251.096558
-9.047963 -72.542603 -246.851456
-78.731987 -72.134056 -246.878693
-7.378895 -71.957001 -248.295837
-60.158989 -71.000694 -249.999359
-61.101707 -73.094009 -250.174713
48.135498 -71.619003 -250.135635
-85.034203 -71.172485 -248.148026
20.535912 -73.566452 -253.406631
-65.765129 -71.049118 -249.562637
-9.500537 -68.555962 -247.522018
-13.612825 -69.026192 -247.620697
-86.119080 -74.870537 -251.374680
-83.797157 -69.706017 -253.279602
-65.323364 -70.710358 -249.169342
-15.435642 -73.584602 -252.875183
-72.014572 -71.213600 -250.847351
-11.070004 -76.804962 -251.896317
-90.658974 -71.509949 -250.842361
-74.037201 -70.831299 -251.654053
-15.373316 -71.935623 -253.236435
-165.783966 -74.333733 -251.995819
-145.174255 -72.133331 -255.745682
-94.514938 -73.784447 -252.529724
-123.573341 -71.289124 -255.139954
-81.534241 -75.966530 -256.544037
-122.263832 -73.555161 -253.214798
-123.894676 -72.427330 -255.702576
-118.343956 -74.533371 -256.915894
-97.422646 -72.695488 -250.746613
-83.174660 -73.443031 -254.758194
-16.008837 -72.042496 -250.218979
-142.267502 -73.673088 -254.530045
-86.990059 -70.681534 -257.108551
21.780758 -76.940651 -257.074707
-113.694389 -73.628860 -261.595490
-114.397446 -77.122017 -254.341431
-99.254631 -75.734055 -257.763947
-15.337247 -72.374474 -256.272491
-92.170166 -72.987160 -258.902771
-110.711403 -73.394485 -258.170807
-99.266991 -74.904175 -257.957367
-104.749756 -73.633789 -260.765259
-104.167206 -73.040573 -259.012482
-101.399834 -74.539215 -257.615021
-110.361916 -72.553444 -262.071136
-105.085228 -70.248085 -256.032654
-105.744202 -75.430786 -259.273071
-113.107002 -73.549469 -256.905853
-111.926651 -74.829041 -264.164124
-125.019379 -72.384560 -260.664795
-123.538597 -74.510612 -262.395203
-117.184418 -71.033760 -262.843140
-113.239815 -75.401947 -264.332825
-145.908768 -73.222466 -262.816895
-130.771271 -70.699051 -265.618927
-125.817894 -73.983139 -265.616638
-170.915359 -72.804802 -263.033691
-144.010086 -75.439552 -263.857239
-129.042969 -69.702637 -262.746552
-147.074829 -71.243629 -261.242523
26.313519 -70.942123 -271.413544
-14.579911 -76.305779 -270.684540
-169.433716 -72.254028 -266.554474
-15.354086 -70.939308 -275.261536
-148.354767 -71.299843 -270.382111
17.062788 -67.398911 -280.766907
-149.795898 -72.199799 -281.523682
-168.695358 -74.690506 -281.451050
-143.468094 -70.774277 -279.467255
-136.505234 -73.416100 -284.998962
-124.532860 -73.398888 -284.174805
-124.515335 -73.766396 -282.616730
-143.154282 -71.506920 -284.000946
-142.315872 -74.451263 -285.675140
-136.719131 -73.172440 -286.755463
-63.949627 -71.776215 -287.154419
-49.914436 -73.382744 -285.578308
-78.605904 -72.109009 -288.534912
-66.610390 -72.488098 -286.336914
-58.239017 -72.387161 -287.321411
-52.252716 -72.108574 -285.746948
-46.709740 -74.160233 -288.720276
-115.483124 -71.318558 -288.510498
-97.535393 -70.207832 -286.727478
-86.702644 -75.196213 -287.140869
-83.746559 -72.013214 -285.515350
-43.948154 -72.126877 -287.580139
-25.744978 -74.232208 -287.870270
-113.006546 -70.074402 -288.331177
-106.467117 -74.094238 -290.304321
-42.403309 -71.615288 -288.413055
-24.189562 -70.382851 -286.479645
-33.895657 -72.945122 -289.639801
-27.412062 -74.223427 -287.318634
-7.949020 -74.345421 -282.523529
-5.064612 -72.360931 -286.843567
-167.684601 -72.254921 -286.136658
-13.541567 -71.180519 -285.858795
6.637753 -78.088356 -286.180084
-26.162075 -73.426865 -290.047974
13.558502 -73.344604 -286.241486
-19.741817 -73.123566 -289.629669
12.817717 -72.281631 -290.233246
13.471016 -70.726234 -288.159027
-56.620575 -74.888023 -289.668427
-47.958874 -73.862991 -290.471649
-38.845680 -72.786568 -290.603668
-36.363377 -73.274498 -291.221680
-32.576118 -70.923912 -288.842072
-20.144735 -71.961868 -291.251068
-19.862198 -69.160736 -288.942749
15.126415 -70.665863 -291.749939
-75.139664 -72.877357 -289.703064
-61.717522 -73.908501 -289.222656
-34.344193 -70.703896 -287.429413
-24.049019 -71.133583 -287.350830
-84.697037 -72.327492 -290.120911
-15.729632 -76.353378 -295.234039
-3.635298 -72.761024 -289.571533
-110.499176 -73.039680 -294.719818
-94.593239 -70.236473 -291.155396
-4.127700 -72.213219 -289.123077
1.139260 -76.407524 -290.042023
15.839575 -71.057106 -292.145996
3.094496 -71.610336 -288.397797
3.608663 -71.539940 -291.247467
-145.531006 -74.434547 -295.405975
-133.770493 -70.879417 -290.744049
15.505487 -71.165298 -293.622314
-137.055511 -73.866646 -294.105316
14.507768 -76.054939 -296.279968
16.098272 -75.996536 -291.463043
-129.568207 -73.682266 -293.972443
-159.418610 -73.566383 -294.801758
-146.442810 -73.838638 -295.249329
-152.415817 -73.539459 -299.824951
-142.285736 -76.313934 -301.658997
-154.966812 -74.815689 -304.981964
-154.815323 -71.609657 -309.453796
-157.475021 -70.498230 -313.578186
-144.995239 -72.905159 -311.066620
-145.743942 -74.335342 -317.702179
31.950535 -69.838684 -14.257601
36.260464 -72.310135 -11.474134
29.994884 -70.860489 -10.932422
37.417721 -66.996582 -11.745306
40.778461 -70.172203 -16.892410
33.307854 -70.623230 -17.320219
28.166138 -72.954880 -13.118610
41.395775 -72.855209 -14.639670
36.664085 -70.711105 -13.934603
27.272472 -70.342278 -16.141632
33.920628 -68.541130 -13.934754
35.662140 -70.755196 -15.173056
30.677622 -74.708046 -16.855139
49.256268 -71.053719 -15.731648
37.518318 -73.335419 -16.082787
41.513180 -72.413422 -22.197338
42.049358 -72.308670 -17.250832
47.100933 -72.103844 -19.347271
23.648922 -73.967216 -18.109661
44.382301 -75.103889 -18.965036
44.439724 -70.691765 -21.054804
22.751869 -71.130936 -23.338814
47.734482 -72.486153 -20.851158
21.456957 -73.195358 -20.027201
48.040394 -74.656685 -26.098139
26.049854 -73.556465 -25.607744
49.188175 -72.828529 -28.993193
22.003971 -71.342171 -27.078243
45.203030 -70.996681 -27.738590
26.425791 -74.383690 -27.135143
27.433712 -71.641411 -32.439873
18.071468 -70.382568 -32.667267
45.675346 -72.055473 -33.608051
26.503578 -73.281975 -33.540691
40.979736 -72.424011 -34.697830
46.977180 -70.314255 -31.361881
44.074978 -70.180840 -33.428513
24.351870 -67.317543 -32.720814
45.860653 -73.920914 -37.032604
27.890047 -71.409355 -38.771896
36.892422 -71.114723 -35.600075
37.910675 -68.401009 -38.397232
39.534477 -75.083176 -36.228420
22.759684 -69.825455 -37.662643
26.051413 -72.610992 -37.091869
43.892067 -72.879120 -36.259125
30.293962 -71.260780 -37.425270
41.776569 -70.524437 -38.970509
37.024700 -70.138542 -36.968529
33.692429 -71.661186 -38.540554
43.852070 -69.824738 -37.675194
24.505051 -73.740105 -37.119160
39.237576 -72.778297 -40.799900
43.017765 -75.770813 -40.987312
35.550526 -71.140083 -42.731358
-57.785332 -73.839622 -50.783138
-54.390995 -70.357597 -48.923599
-71.116318 -71.118736 -46.367321
-51.330383 -72.719879 -48.843220
-65.407928 -71.509407 -51.615005
-44.409988 -70.329933 -50.285629
-40.367123 -68.776810 -51.587620
-40.878159 -72.729721 -54.320286
-34.369617 -67.940704 -51.081356
-34.118813 -70.574158 -50.455574
-30.225042 -71.650208 -56.318565
-28.365347 -72.528030 -59.218517
-28.235285 -70.866982 -53.942757
-30.423676 -72.004372 -59.613781
-25.233294 -72.931061 -55.615517
-85.322380 -72.289597 -61.697735
-20.076780 -72.588417 -61.409008
-82.459541 -75.127060 -62.548569
-86.030716 -67.027214 -59.118271
81.497711 -71.293808 -66.162628
77.947304 -68.172585 -67.112038
79.469208 -69.452171 -71.172905
86.910034 -72.950775 -69.382988
82.807220 -72.595398 -70.148621
86.902817 -73.756165 -71.623428
-14.866013 -71.725510 -67.435020
79.102127 -70.021912 -67.068039
71.711540 -71.462257 -70.261757
93.086098 -72.880821 -66.916855
-87.882347 -72.051842 -69.955353
-16.297064 -68.832397 -71.251465
-90.821762 -76.906342 -75.149384
69.926270 -72.240395 -74.829994
-19.598709 -74.209740 -76.757744
97.189537 -73.216599 -74.143898
-95.104553 -71.638344 -80.248871
-25.503847 -73.049660 -75.812752
-29.336100 -73.458870 -77.311485
71.019470 -72.685127 -78.077652
-42.536739 -70.618645 -84.543190
67.703857 -71.256653 -85.110336
-49.936348 -76.683342 -86.817932
-49.657513 -72.313599 -82.192253
68.528152 -69.820724 -86.368896
58.134232 -72.505180 -86.204330
66.195152 -74.641373 -87.526657
58.374359 -75.873039 -91.307152
52.087101 -69.342010 -89.974457
53.586475 -73.697990 -88.340958
52.096149 -71.198792 -91.957092
58.530846 -71.929504 -91.809898
-59.965672 -70.087807 -91.099907
56.791275 -68.723289 -90.511154
96.144958 -71.037529 -92.596405
-58.175678 -70.850311 -91.542366
51.312115 -72.034904 -92.190475
47.279305 -72.394310 -93.196800
61.712582 -68.163033 -92.926979
-64.971703 -72.062263 -91.804260
-62.231186 -70.863899 -91.521545
47.147659 -75.161423 -96.577148
69.384071 -71.360847 -91.251198
51.162460 -69.576027 -96.232651
-65.135605 -74.877945 -96.610214
98.296371 -71.901459 -95.716072
107.620529 -72.980591 -99.435173
56.650375 -69.421173 -98.141495
-94.597374 -74.623604 -95.039482
-64.438873 -71.048157 -100.525146
71.377037 -70.478394 -95.335075
96.989220 -73.474731 -97.881989
45.170349 -73.551521 -98.723610
106.860046 -69.876015 -101.276421
-73.744446 -73.337761 -98.398857
79.410782 -74.485100 -102.339493
80.451714 -75.615524 -100.424965
81.098320 -73.546387 -102.243568
79.127701 -68.647034 -100.075935
80.723671 -70.700043 -103.092255
42.461037 -70.144669 -104.884872
44.188057 -72.512016 -104.037170
53.243973 -75.106888 -102.148491
88.484512 -72.646698 -101.429657
101.054466 -68.970764 -97.667542
-97.621490 -72.205574 -102.701958
111.412048 -71.899193 -103.725319
102.691078 -71.933540 -103.269073
107.809875 -71.319496 -101.281265
-83.153091 -74.145798 -104.459480
109.847473 -71.304901 -99.146431
-83.858513 -69.269936 -108.869850
111.320404 -68.316223 -102.650024
108.084045 -73.256256 -103.228676
107.866478 -72.353531 -105.819626
-86.532478 -72.774506 -103.844284
41.591293 -73.630196 -102.273834
103.240158 -69.277985 -106.939545
109.706093 -75.415245 -105.504051
-93.989426 -67.625488 -107.445625
108.624214 -72.937866 -107.762329
110.358833 -70.978539 -111.019974
51.407539 -72.574615 -108.059845
51.966030 -73.079300 -110.561783
36.969761 -72.173454 -106.019440
37.755123 -71.238190 -109.519913
107.562950 -73.436607 -110.423622
45.038532 -71.490829 -110.537537
31.270363 -71.202507 -110.714729
102.527351 -66.251144 -108.340698
-82.606659 -76.789589 -112.140266
48.380238 -72.217697 -112.573494
108.710526 -73.578781 -112.529114
38.965527 -74.749779 -112.175339
43.869034 -71.185562 -112.068268
108.885094 -75.516953 -112.945015
110.044518 -72.963943 -112.369858
-95.139145 -71.089943 -112.326622
-88.052422 -74.650414 -116.251762
-93.465256 -68.874115 -115.794289
48.602001 -74.081657 -114.023758
34.730362 -72.840530 -115.491653
112.775391 -71.918022 -113.113731
107.643257 -71.206543 -113.373451
108.891541 -70.776314 -109.552292
42.533630 -76.243195 -117.750854
104.282181 -72.213661 -116.311058
116.196419 -72.966805 -118.459740
108.414558 -70.066574 -117.781845
110.723724 -76.199471 -114.524261
33.813271 -71.845993 -118.079208
38.155724 -68.991219 -117.954514
46.109283 -70.937569 -120.835129
33.043934 -72.444710 -117.022408
43.429565 -72.481804 -116.399254
43.473526 -67.331284 -120.360641
107.745659 -72.310951 -120.260880
39.952759 -72.603951 -122.411079
33.154839 -68.419960 -125.849693
41.663227 -70.807999 -118.204170
31.446308 -70.219536 -122.949982
107.038475 -71.574852 -122.216980
39.627651 -74.709251 -125.886139
42.388485 -72.993912 -125.556534
109.482315 -71.748901 -122.630470
114.171936 -69.282425 -129.266861
109.359444 -68.541466 -129.256882
114.629059 -72.068581 -128.211197
32.105076 -72.068230 -126.975327
-59.654789 -72.230698 -126.774040
-53.858860 -70.963531 -132.719116
30.391901 -71.479218 -127.777176
40.073940 -69.492439 -130.461243
113.790123 -72.655418 -125.366661
-74.717560 -69.481964 -130.378311
-74.287361 -73.793335 -131.230789
31.101574 -71.993149 -132.613342
110.735641 -71.774231 -132.007797
109.624077 -73.020439 -131.299438
117.303055 -73.142029 -130.964188
35.640949 -72.185745 -136.045029
-49.966621 -70.169937 -132.846558
111.010086 -71.947784 -129.905487
-55.696724 -70.245911 -133.889557
108.472382 -73.029617 -137.234055
37.647469 -72.936249 -136.882523
-72.802856 -72.985977 -133.393539
-51.483982 -74.731171 -134.936844
-60.647190 -71.994720 -132.538971
-48.104973 -70.510513 -135.506958
-46.389336 -71.844597 -137.940414
-71.554070 -74.289215 -135.110428
-57.847256 -71.097588 -139.352402
-78.722511 -73.157372 -136.749954
113.706223 -68.551399 -136.050095
-70.645790 -72.504715 -138.594238
26.540415 -72.680107 -139.664413
35.108307 -72.192245 -136.541229
-76.386696 -71.556427 -138.564896
-72.372932 -72.049492 -139.433075
24.541040 -70.594200 -140.488892
38.443592 -70.732834 -139.269974
107.925766 -69.103455 -143.759293
-73.816444 -72.912239 -140.100128
-74.338127 -73.465904 -143.867004
-73.156860 -71.408798 -142.945343
-45.894703 -76.434959 -143.574066
108.857498 -70.709908 -137.527084
32.057095 -72.329666 -144.644745
111.455933 -72.527634 -139.881592
-71.690430 -72.776932 -142.992477
-44.804409 -74.261459 -146.038696
113.936134 -69.662941 -145.302948
34.873631 -70.284607 -143.236282
-73.720604 -77.153915 -150.123154
114.552361 -74.297546 -143.987717
117.182449 -71.402260 -140.832199
-69.163849 -73.409065 -143.526581
24.390368 -74.667320 -144.448532
-47.726746 -71.636078 -145.703659
29.456293 -71.743820 -140.323135
-77.682587 -71.319778 -145.702927
-71.562660 -75.948547 -147.815765
-53.804420 -71.117554 -146.680420
23.066374 -72.366920 -151.802216
-69.890686 -72.650528 -148.500534
25.332268 -69.835159 -148.040039
32.273941 -74.477364 -148.570053
-66.741898 -72.854446 -153.798477
-54.408836 -72.000023 -147.189758
-44.683849 -74.683388 -148.105087
-41.983677 -71.305206 -148.340729
-69.674370 -69.906647 -146.570786
-69.437218 -70.714905 -149.170776
15.102626 -69.672920 -148.929764
24.487297 -71.943153 -148.316971
-69.396431 -75.484161 -154.904114
20.877357 -71.837723 -150.883423
34.371136 -73.122444 -149.203613
13.143564 -71.188110 -149.278793
-50.799934 -72.570381 -151.788483
13.138888 -72.150513 -151.570648
7.641820 -72.305023 -152.893677
23.167892 -75.371140 -153.839951
115.774864 -71.088860 -148.978638
-57.845882 -73.137619 -150.694336
13.396014 -72.083038 -155.608170
-74.211220 -70.569595 -151.751129
-49.508423 -71.022430 -151.631119
115.589188 -71.650230 -155.799271
-37.349957 -68.211662 -152.379028
6.095093 -70.797768 -153.711716
21.352200 -76.082474 -151.997421
29.291758 -68.292137 -151.836304
33.219849 -67.331947 -153.495712
105.301414 -74.171890 -152.295059
36.179535 -70.913048 -153.885300
-47.847355 -73.016945 -156.168182
-42.488350 -68.422905 -156.843277
-72.552170 -70.269363 -154.158524
-50.205524 -70.415428 -157.612289
-47.308872 -71.267921 -157.063950
-38.473026 -72.343430 -159.014252
15.101365 -70.833618 -158.571671
13.825944 -76.588570 -159.803909
24.230726 -72.863632 -155.406113
-63.551773 -72.417557 -156.019333
13.923668 -70.763107 -159.944672
11.559182 -69.035973 -158.664658
119.672523 -73.346191 -157.536621
30.306339 -71.812698 -160.793976
10.060711 -72.459038 -161.129837
12.632231 -70.454102 -159.191803
2.993125 -70.399727 -158.346191
12.331312 -69.695076 -157.857254
28.697317 -68.783936 -161.319183
-32.639984 -76.119797 -159.852081
-69.628479 -70.352676 -158.026917
-42.428181 -71.243324 -163.063934
0.585167 -71.642525 -161.650253
-48.178532 -73.176956 -160.910583
109.461662 -71.048592 -155.525391
112.066032 -72.274078 -159.394608
8.293763 -69.315254 -161.195053
32.584332 -71.451050 -163.904068
-67.267715 -70.750534 -163.074158
-58.720184 -74.679703 -162.901947
2.543052 -72.362076 -164.854034
27.874657 -74.045418 -159.838058
-64.745003 -73.892509 -166.927734
-69.687569 -67.995544 -160.913895
6.966030 -70.091888 -163.887726
116.482964 -74.526558 -169.317932
-43.227501 -69.743568 -161.515015
2.780091 -74.027557 -162.216766
23.131439 -77.051613 -161.195557
-65.011513 -76.176765 -163.465530
107.565361 -73.255791 -165.789551
-61.394165 -72.676605 -164.097672
-36.416851 -71.190842 -163.454117
34.243313 -69.950256 -164.436661
-48.162663 -73.739662 -164.394852
27.077662 -74.783058 -165.268234
116.837601 -70.764534 -171.094116
-33.713696 -71.339294 -165.447235
-38.913486 -70.760834 -168.457367
-35.359821 -70.334694 -166.565994
-30.329483 -73.836746 -168.863358
106.885620 -72.938011 -171.006287
-34.606133 -69.705299 -170.570389
-28.249731 -72.933395 -166.415207
107.836174 -72.016785 -168.720169
115.646927 -70.258919 -171.207581
116.628456 -73.100220 -173.300888
15.193767 -71.497726 -172.500717
27.880041 -73.970505 -170.853714
102.739418 -69.028572 -178.036423
-31.885784 -71.617378 -171.443130
-38.599895 -72.017372 -170.708359
14.943403 -73.911507 -175.509445
112.957161 -72.957436 -176.809418
-146.870621 -71.843178 -176.667282
14.718138 -71.538071 -177.019165
27.257307 -72.868141 -171.630722
28.199335 -72.315269 -177.471359
109.552422 -75.337181 -174.879807
-141.956573 -69.668015 -172.302414
111.956444 -72.401009 -180.397552
-22.944645 -73.932518 -176.576385
13.461762 -71.659439 -178.978653
-27.376667 -72.883781 -180.546417
-151.080551 -71.649712 -178.854843
21.155935 -72.531784 -180.032852
-143.084976 -74.288857 -178.938446
29.060715 -74.243126 -181.173996
101.219666 -73.784180 -178.951828
-150.057739 -70.686996 -184.277145
13.122459 -75.399750 -183.146072
-142.574997 -74.003067 -183.243088
-34.287655 -72.854225 -181.602844
-22.920252 -75.474716 -180.119049
108.430939 -71.736687 -183.400085
16.486597 -71.344109 -184.015167
-30.638510 -73.733055 -183.445007
-23.040560 -71.602028 -180.213257
25.075268 -68.730843 -182.648911
-140.989716 -70.887794 -180.999680
11.564378 -69.973915 -181.752975
102.687065 -73.347572 -182.465973
111.390770 -71.543861 -182.692627
12.884158 -75.712410 -185.161514
28.841099 -70.105522 -185.435699
-35.535740 -70.600403 -180.730865
25.189655 -72.189720 -183.243866
-151.941452 -70.993080 -189.779404
-137.154388 -72.149544 -189.036423
13.457314 -71.484398 -188.465271
27.351109 -71.559052 -183.845505
-148.350616 -74.823311 -187.778992
-144.410568 -73.912514 -185.566971
-19.030201 -70.498871 -187.408569
-26.982134 -69.105927 -189.369415
27.427135 -73.409943 -187.902771
-30.397402 -69.322685 -185.873962
16.449640 -76.003082 -187.961746
-24.771767 -70.717728 -188.406097
-149.582870 -73.460777 -189.868042
-30.388542 -69.056206 -189.108673
-20.984985 -71.436729 -191.227386
11.835483 -70.886131 -187.287247
100.260315 -73.308701 -186.980469
-143.407928 -68.530334 -188.875656
23.961412 -74.097389 -189.665405
107.960304 -73.971252 -189.240936
-146.873428 -70.945877 -192.986298
-13.298834 -68.136086 -192.032028
-30.635590 -73.735283 -191.573898
27.001314 -73.474014 -191.765503
-16.901997 -75.264244 -191.331009
-15.936207 -70.766220 -191.752487
99.709763 -74.301422 -191.342255
-22.312639 -72.018250 -197.948166
-152.022446 -71.840683 -195.792358
-129.073944 -70.659828 -195.324326
-124.447060 -67.446075 -196.454758
-124.452332 -74.302498 -200.186081
-152.447021 -74.303101 -194.247299
-161.063416 -70.144188 -194.675491
-156.001450 -71.440666 -197.795654
-122.127609 -71.123131 -196.735626
-14.541079 -76.085800 -197.952011
-135.265015 -70.967598 -196.685089
-161.189926 -71.152069 -198.097046
-147.319305 -70.490875 -199.363266
-125.783875 -69.387794 -197.855438
-118.571526 -72.161255 -198.199280
-24.181438 -69.860428 -193.846954
10.748177 -74.065224 -192.730698
12.173099 -73.494591 -197.321838
97.734810 -72.918816 -197.120331
-162.096268 -72.081383 -199.740433
-147.987183 -70.273407 -198.258194
-122.738983 -69.348160 -199.266800
-23.480543 -74.150185 -200.521790
6.248786 -69.399475 -198.876144
-15.418900 -74.404121 -202.643341
-156.469482 -72.645683 -198.726303
-114.949348 -68.908798 -200.608047
19.252844 -75.584229 -199.695587
-156.786194 -71.668419 -198.230850
-140.476959 -71.412704 -202.451019
-13.810867 -70.016800 -197.069748
104.817932 -71.959641 -193.270416
-148.937988 -74.030357 -197.430756
-120.453705 -69.746437 -200.324692
-112.166756 -69.286758 -198.501907
-155.524338 -67.784782 -200.193222
-114.139313 -72.288162 -199.400406
-26.431061 -71.278023 -200.136719
-157.010513 -72.036819 -201.422058
-148.843262 -71.637085 -199.276642
-147.047455 -70.119461 -199.665161
-148.789856 -71.605484 -201.219009
-122.819908 -68.754372 -198.130615
-118.220192 -74.314232 -201.098373
-12.232106 -74.549553 -200.123352
-150.597809 -71.904053 -200.273376
-22.541086 -72.297752 -199.575363
-16.427715 -72.169159 -198.537537
-164.120926 -72.596527 -199.432785
-14.544630 -75.690788 -204.026062
-153.056732 -71.758438 -201.079971
-132.428864 -73.719711 -204.367874
8.073140 -70.600555 -201.978058
-140.189285 -71.973991 -202.418900
-143.237900 -70.265457 -202.086716
10.630959 -76.852234 -205.719986
19.282068 -70.107742 -196.780762
93.317261 -71.772606 -198.490677
-122.601730 -72.654945 -204.011841
-165.558914 -76.080330 -199.586609
-161.555740 -70.397957 -200.720947
-156.869385 -74.823219 -205.209793
-150.789185 -71.101959 -201.552979
-132.485855 -71.363205 -204.238312
-128.185318 -68.846214 -206.084930
-129.209137 -70.211685 -203.484207
-155.994247 -72.199043 -201.929855
-150.663773 -69.259247 -204.900223
-153.133621 -71.092369 -204.880249
17.621769 -72.497871 -207.944458
-161.033798 -70.938286 -204.510605
100.199974 -74.350006 -206.964035
-150.227509 -73.898201 -204.267273
-142.771881 -73.257736 -206.994583
10.704844 -71.743355 -205.643250
10.772799 -71.955956 -204.510010
-159.262939 -74.724091 -208.126541
-20.814840 -75.966972 -205.727020
94.954315 -74.714470 -209.232056
99.240601 -70.254105 -208.548172
-160.986649 -71.849014 -209.560715
-151.646530 -70.377197 -207.567520
-150.141144 -70.783577 -204.944077
-11.593220 -74.873634 -208.495789
-18.438734 -70.344887 -209.472046
7.602010 -68.828812 -207.335831
19.217855 -74.500610 -207.363586
-162.860794 -68.694664 -206.708603
-148.418167 -72.108368 -210.384521
9.507763 -76.217247 -211.056747
-80.482536 -72.872391 -207.267166
88.537079 -69.698097 -210.246628
-80.492516 -71.850662 -212.358887
13.997549 -71.822433 -212.107483
-77.609985 -74.207909 -211.604645
-6.065669 -70.336670 -212.876007
16.827797 -75.542709 -210.578613
-75.580498 -74.342728 -208.102493
88.905853 -69.187263 -213.380936
-79.017029 -74.085007 -214.545181
-16.180233 -73.331123 -213.073425
9.146784 -73.323868 -213.564880
-7.567529 -73.788589 -210.977249
-5.918813 -71.462105 -214.384491
-157.324142 -70.140236 -211.849609
-166.859436 -72.086319 -211.345108
-154.933304 -72.840118 -212.530884
97.037216 -74.201851 -214.576874
-88.959114 -70.934494 -212.053650
91.834503 -73.328171 -214.235504
-167.778015 -66.310616 -217.272156
-18.655239 -70.605972 -217.686768
-1.721485 -67.164139 -212.924286
-148.704620 -71.654961 -216.752502
-150.546982 -70.443924 -214.191849
-94.970222 -72.942642 -213.379196
-86.472878 -69.553398 -211.789551
-3.510938 -72.854843 -215.024658
13.714563 -72.539810 -214.572449
-87.628998 -71.136429 -212.765198
-5.750986 -73.472389 -214.500168
-3.600862 -71.756714 -219.836182
19.695379 -73.364319 -221.724274
-143.227066 -74.203583 -219.011703
-98.539055 -70.496025 -218.312943
-1.442179 -74.930283 -219.246017
-11.345119 -72.271805 -218.899445
-17.483471 -73.996918 -218.262878
90.909729 -72.328423 -217.538330
-87.664558 -70.227211 -216.571808
-3.962476 -70.503342 -217.891022
-26.644356 -73.015625 -219.948578
-14.583385 -72.567657 -220.446655
87.993698 -73.016251 -218.413132
-23.465616 -66.270157 -220.192322
-89.014168 -73.520012 -219.353333
-27.092405 -71.932487 -219.116501
-103.109062 -75.540710 -221.766434
-16.608873 -70.049599 -222.563873
88.339836 -75.852356 -219.675140
-90.568718 -68.043625 -223.744339
80.896431 -75.992180 -219.170288
86.770874 -71.639763 -222.648590
84.608093 -70.791405 -221.087799
-102.336136 -73.038574 -220.593765
-26.379438 -70.361618 -223.178238
5.835358 -70.282753 -220.648911
88.364754 -71.461456 -224.083969
-148.817123 -71.769043 -224.583664
-95.363266 -73.315788 -222.601501
-10.972816 -72.160789 -221.282776
11.966033 -68.907570 -224.211182
80.377274 -72.004082 -223.225662
80.022430 -71.831253 -225.656952
-143.684479 -74.025963 -225.493469
-110.811661 -71.921478 -225.079941
10.121764 -71.753098 -223.742844
10.546944 -72.624092 -221.227264
-124.980042 -69.618843 -225.023422
-103.600197 -70.447014 -221.352448
-22.767225 -71.874504 -223.225601
-118.370277 -71.147530 -223.477936
11.964074 -70.230934 -225.828506
80.135689 -73.864807 -224.139587
84.617210 -72.404648 -224.541916
-144.818985 -71.654037 -227.130203
-103.069763 -69.804436 -222.509003
-9.597178 -70.704895 -227.677994
-106.948326 -72.489365 -222.660461
3.264663 -74.156273 -226.181900
78.999863 -72.245796 -224.734360
-169.858978 -73.593018 -223.575134
-130.723740 -72.143173 -226.352997
-116.619171 -77.259499 -226.976669
-8.794821 -71.110229 -226.081406
82.845955 -71.268150 -225.598984
