# This PCD file was generated using the MATLAB® pcwrite function
# from Computer Vision Toolbox®.
# .PCD v.7 - Point Cloud Data file format
VERSION .7
FIELDS x y z
SIZE 4 4 4
TYPE F F F
COUNT 1 1 1
WIDTH 1462
HEIGHT 1
VIEWPOINT 0 0 0 1 0 0 0
POINTS 1462
DATA ascii
20.883747 -51.815765 -273.554993
26.752333 -52.208439 -274.944427
-6.252455 -52.108757 -274.746155
14.561239 -51.356991 -275.792725
18.905602 -52.713902 -275.470154
26.059780 -51.375546 -274.214783
16.650700 -49.477341 -277.130280
10.444225 -51.843727 -276.109314
16.749273 -51.364349 -273.036926
18.924871 -52.076057 -277.874298
23.642265 -52.874184 -275.537445
9.533379 -52.166779 -279.071014
-4.492428 -51.174637 -274.366791
4.319638 -50.955868 -274.993744
-4.119276 -51.932880 -277.862427
13.311447 -51.576359 -278.391602
17.336781 -51.411602 -277.528442
27.526625 -51.920555 -277.726532
25.161541 -51.769905 -277.377258
7.256358 -51.612942 -278.333923
18.953623 -51.824596 -280.885468
24.291231 -50.897629 -280.048767
12.652902 -50.400150 -279.528595
21.604788 -52.493073 -278.609070
-3.684844 -52.626984 -280.552582
8.999640 -52.704803 -280.952362
16.023499 -51.924545 -281.674835
24.729094 -51.460167 -280.635681
12.928764 -50.941948 -282.281342
21.974289 -51.798298 -282.004089
19.132948 -51.633633 -284.035614
-0.551028 -52.386391 -284.250275
23.203627 -51.349522 -283.273010
4.664517 -51.989613 -284.074982
21.671143 -50.473343 -284.367310
-0.152201 -51.245880 -287.017334
5.805490 -51.234821 -288.237640
17.435698 -51.005596 -286.353455
21.476906 -51.146923 -286.050842
18.725925 -51.917389 -287.653839
12.992775 -50.577183 -288.044800
2.369327 -51.784954 -286.629456
5.774827 -51.666969 -289.833374
15.473973 -50.839779 -288.002136
18.490932 -52.227985 -289.758362
14.111168 -52.814484 -288.964813
17.578127 -51.069962 -289.664825
2.925046 -51.696976 -291.008911
16.792219 -51.962215 -290.168182
10.240539 -51.289326 -290.058380
10.933173 -52.938885 -292.151093
5.778846 -50.918324 -291.726471
10.057849 -52.041351 -291.072784
13.506527 -52.197269 -292.589905
9.161918 -51.665417 -293.195496
6.508672 -51.595177 -294.759583
12.692759 -52.917995 -294.754425
3.591482 -50.818321 -294.612091
4.744102 -51.122082 -294.974731
3.285661 -53.385830 -296.181610
38.715561 -50.815052 -13.956169
33.930092 -50.176678 -13.282567
40.257526 -50.756790 -14.965574
36.770473 -49.822674 -13.632368
42.872520 -49.404690 -15.886656
26.729635 -50.394352 -14.617160
38.887100 -50.092075 -15.864343
34.453953 -51.305691 -14.391775
45.035236 -51.328808 -16.785246
26.757999 -51.272339 -17.434195
42.523960 -49.213238 -18.140606
29.332756 -50.665009 -17.178518
32.921734 -49.671516 -15.936902
36.866348 -49.327248 -17.512550
38.919296 -50.703945 -17.584936
29.681467 -49.961548 -17.247747
32.417336 -50.153858 -17.476851
45.531815 -49.359455 -18.437460
46.267700 -51.152863 -16.975838
25.887938 -51.836132 -18.366129
27.506174 -49.754314 -18.906637
39.656708 -50.512325 -18.343784
42.309258 -49.834862 -20.528362
39.161510 -49.786812 -17.256842
26.931118 -51.183056 -20.833086
42.483982 -50.772644 -21.329866
44.848400 -50.017857 -17.866047
25.350021 -50.233273 -20.122568
24.895784 -50.399288 -22.330256
48.072815 -50.933182 -21.586939
47.606216 -51.068348 -22.567499
45.023399 -50.401405 -23.642769
49.583118 -49.248859 -22.041895
44.385113 -50.864876 -22.566870
49.009544 -50.219204 -25.869713
49.792297 -50.213951 -25.845297
46.365334 -49.385918 -26.191717
45.021030 -50.968922 -25.626007
47.699612 -49.426788 -30.984856
48.368732 -50.732796 -31.008425
44.382725 -50.538990 -28.928192
44.486103 -49.389587 -30.581829
46.872959 -50.178585 -32.046310
43.339062 -50.822071 -33.686672
48.762661 -50.756374 -33.965038
47.402676 -51.502178 -33.213535
43.483055 -51.278736 -33.301151
45.536179 -49.602951 -36.181702
41.091446 -50.398472 -35.282616
29.598463 -50.135509 -37.305004
30.539068 -51.353481 -37.105453
38.853371 -51.216808 -36.410446
45.505245 -50.381474 -36.855503
37.580864 -49.008961 -38.343750
25.004004 -50.178982 -37.488712
42.984928 -50.029293 -37.079884
30.764336 -50.020615 -37.382126
35.774090 -50.332043 -38.257042
43.325264 -48.950558 -37.979809
28.445013 -49.868229 -40.240459
43.292191 -52.779243 -39.053677
29.925711 -50.812344 -40.115681
42.125328 -51.642082 -39.262173
34.147068 -51.185997 -39.565529
37.239681 -50.082485 -40.404270
-67.050835 -52.242840 -42.766270
-57.810635 -52.563171 -44.210758
-78.679070 -52.002880 -44.423958
-89.958878 -51.771774 -51.256680
-36.913826 -50.817314 -49.975609
-20.606863 -50.793068 -51.390129
-9.726254 -49.401459 -53.400658
-8.431474 -53.180107 -53.699883
-93.810059 -53.232151 -54.753799
-7.074978 -51.081554 -54.632450
-95.658455 -52.613964 -56.676483
-59.582027 -49.334595 -56.043678
-9.125519 -50.291588 -55.967857
-94.804886 -52.280281 -56.487911
-63.682007 -50.658741 -56.586811
88.711220 -51.948494 -59.385262
72.091629 -51.707516 -58.502148
-63.553635 -51.375912 -60.108990
-15.049009 -49.308460 -60.932598
95.263626 -54.106449 -59.966671
-23.176344 -52.531944 -60.798168
-97.232201 -51.411369 -60.697628
95.835983 -49.366962 -60.068741
-29.633287 -49.981342 -60.998009
68.587280 -51.754906 -61.844547
-60.307411 -52.966156 -64.129646
66.775688 -51.856617 -62.097950
98.748344 -50.859703 -62.966877
66.689758 -51.566177 -64.375725
98.690643 -53.159611 -64.146484
-62.584148 -51.504986 -66.205879
66.393745 -50.887985 -65.828758
69.672775 -49.684925 -67.086166
-99.472679 -50.910923 -65.939529
64.456345 -49.615658 -68.052628
80.750458 -50.285553 -67.964073
101.997101 -51.259682 -68.855324
66.011070 -51.769527 -69.760895
67.250252 -49.643593 -69.443909
74.391563 -51.227859 -69.129181
83.437485 -50.411472 -69.805756
68.541443 -50.741531 -70.549820
76.448250 -51.203136 -69.530746
101.667900 -53.314617 -69.517143
65.637367 -50.559826 -67.962486
82.291588 -50.783112 -71.037529
85.171722 -50.427620 -69.929756
87.009209 -50.594975 -71.984344
93.082481 -50.430210 -73.474304
62.604610 -50.413403 -72.523407
63.394585 -50.191311 -72.417107
104.335571 -49.806236 -73.878349
97.972298 -49.509586 -76.490578
102.416084 -51.819981 -76.935707
89.856880 -50.461945 -74.617111
-39.798271 -53.795574 -76.973396
-38.616951 -53.232426 -79.857964
63.335323 -50.405918 -80.041496
101.754051 -50.888508 -77.832092
62.275379 -51.601997 -76.628700
63.484776 -50.955177 -75.176865
100.353333 -51.244038 -77.783836
-40.428318 -53.923164 -80.340714
64.276558 -50.899418 -79.163048
-56.004353 -49.737446 -84.424011
63.448391 -50.361275 -85.305779
102.522499 -52.267021 -85.241066
63.272388 -50.919704 -83.805298
98.690262 -50.588024 -87.238060
101.398102 -50.314198 -87.495033
101.293358 -50.206383 -88.331032
103.754066 -50.350231 -87.287277
98.481476 -52.289898 -90.860336
-64.434654 -53.334347 -90.507858
62.216019 -50.609184 -89.709610
63.080173 -51.146458 -91.489548
100.639038 -50.862576 -91.784103
101.661438 -49.132191 -89.425026
-68.120804 -54.414463 -94.276672
62.906895 -52.459232 -95.894302
-70.327087 -51.803356 -98.034775
64.851212 -50.409740 -95.528580
-71.966438 -54.408184 -99.502403
65.424240 -50.600307 -98.124405
63.773678 -50.876007 -98.116936
64.444069 -51.316788 -102.292397
67.115837 -51.533154 -100.600739
69.086838 -52.128132 -105.110870
-98.494812 -52.281822 -105.817947
-75.073334 -52.063599 -105.150070
67.730469 -50.403625 -105.610977
-99.104134 -52.005962 -104.908554
-76.193016 -52.431076 -106.921112
72.200073 -50.693336 -106.235390
69.170998 -49.998322 -107.041870
70.621155 -51.447205 -106.281891
-66.243340 -50.920547 -108.142052
71.373932 -51.148689 -109.314545
73.713631 -51.233299 -106.761955
75.293137 -51.546524 -107.397919
-77.155609 -50.947830 -110.230011
-68.772903 -50.642445 -108.884697
-66.235718 -50.297207 -109.803429
-80.046371 -52.564175 -113.584564
-84.182808 -49.031811 -113.921806
-85.792816 -52.839996 -118.222633
-94.677025 -52.774700 -117.258018
-94.142456 -52.750813 -119.997116
-89.301720 -51.776775 -119.052788
-93.402283 -49.424145 -119.864746
9.550845 -50.613075 -236.362045
4.311136 -51.217091 -235.243393
9.189841 -50.292107 -236.562347
13.668113 -51.337437 -235.498230
4.527490 -50.779514 -237.679108
10.774773 -50.825378 -238.452225
18.441326 -52.132710 -237.655182
7.024717 -51.019154 -238.530380
5.800920 -49.942154 -237.890762
6.512900 -51.073570 -237.150787
18.753222 -52.330879 -239.891754
14.660756 -51.368107 -240.305847
10.555459 -49.763824 -240.883514
12.585877 -50.995224 -240.586868
-6.666674 -51.271126 -242.302475
-1.064996 -51.807163 -240.986496
13.347161 -52.027943 -241.992935
16.261778 -50.385555 -240.720062
-9.994631 -52.043938 -243.140961
6.042498 -50.450577 -243.723450
16.237484 -50.825691 -242.569351
23.575232 -52.184929 -241.310791
-0.516350 -53.659039 -242.176117
0.778830 -49.664726 -242.537857
15.157174 -52.207237 -241.020279
18.252443 -49.943123 -242.054596
10.851407 -48.903908 -242.275620
-6.113002 -50.725601 -244.364761
16.213911 -49.687401 -243.077133
4.033824 -50.685127 -242.210144
17.565384 -52.201504 -243.157303
-12.121738 -50.428085 -240.960953
-5.641771 -51.366409 -242.272125
-2.557340 -50.588512 -242.453247
0.712248 -50.222126 -242.283157
4.507504 -52.759342 -243.708069
12.488533 -50.401463 -243.635468
19.485874 -50.610420 -242.101089
16.246563 -51.039013 -242.409653
16.769350 -50.423653 -243.758301
18.386681 -51.081524 -243.763504
18.440849 -50.131176 -244.165100
9.298969 -50.325893 -242.849335
13.213383 -51.264839 -244.776520
16.623249 -51.258797 -244.959412
24.339973 -52.048141 -245.200882
-10.770878 -50.320423 -243.546051
3.703650 -51.213650 -243.734863
7.076359 -50.826958 -243.905975
24.749987 -50.182415 -242.883209
-13.370874 -50.825321 -244.825180
5.680322 -51.160580 -247.741776
15.092016 -51.835285 -244.510635
-0.204346 -50.361622 -245.151047
27.697947 -50.568974 -246.855682
8.862631 -50.482563 -246.331696
29.912235 -51.204250 -247.361160
-11.510895 -50.606358 -245.618729
-9.886936 -50.221359 -245.125198
24.943460 -49.805969 -245.882721
-11.328724 -50.926758 -246.112595
-11.299406 -48.360115 -246.558792
13.821093 -51.200981 -246.297958
12.146684 -51.051403 -248.535217
21.205061 -51.897247 -247.768585
-12.277409 -51.838230 -247.110153
-11.452563 -51.171200 -248.668533
27.431032 -51.161819 -248.090042
20.805525 -50.415718 -250.123276
27.881868 -49.757057 -248.052994
-10.262828 -50.406853 -247.817322
29.509920 -50.727184 -249.835312
-11.168674 -50.330101 -249.185928
-11.446651 -50.389439 -248.669189
-11.118396 -50.190418 -250.018829
-12.744982 -51.673977 -249.485443
-11.034501 -50.911522 -250.723190
0.820871 -50.645542 -250.870285
5.596042 -50.783249 -248.965759
10.960829 -50.736095 -249.680389
-13.446065 -50.599236 -251.097656
7.350522 -50.165123 -251.577744
1.393013 -50.692051 -250.724792
6.590974 -51.350414 -251.928406
-10.986192 -51.285782 -252.338013
-4.246542 -49.796093 -253.000412
3.310700 -50.640907 -251.919662
7.611234 -50.343868 -251.720428
12.370617 -51.483860 -252.020187
15.649651 -49.870239 -248.319046
14.444996 -50.838913 -249.600418
-11.550913 -50.600449 -251.395493
-10.168848 -50.191570 -250.893829
3.034610 -50.093075 -252.959747
12.835039 -51.079430 -252.122025
25.509483 -51.351540 -250.162842
30.244938 -50.665501 -249.667694
-8.589017 -50.930218 -253.917206
-7.158348 -51.326305 -251.667740
1.254349 -51.474274 -253.655411
16.462173 -51.919949 -251.775375
24.558405 -50.087433 -252.380905
29.771559 -51.109982 -250.665085
-12.810189 -51.410091 -253.689819
-9.982435 -51.236988 -255.851898
7.195760 -49.889870 -253.216751
-4.914444 -50.486927 -254.389908
6.919805 -50.893829 -254.731979
31.053919 -50.395969 -253.475494
29.501078 -50.871952 -256.448059
-7.546453 -50.024731 -255.783798
2.516343 -50.181366 -256.387207
6.932268 -51.051552 -255.322998
28.036684 -50.645115 -257.438507
-4.021019 -49.905651 -254.157318
0.217122 -49.917908 -259.561920
25.490046 -51.489342 -257.764557
29.854052 -49.988728 -258.111633
29.266731 -51.177395 -258.235443
-6.368677 -51.018497 -259.350983
24.206032 -50.276413 -259.458313
-11.055025 -50.263382 -259.765228
-5.242423 -50.922161 -258.811554
-2.960780 -51.389351 -260.600861
5.382984 -50.967789 -257.416107
1.095818 -50.001255 -260.367798
29.252764 -51.302330 -260.489807
-0.199164 -50.936802 -261.994385
-6.990672 -49.955093 -262.222015
22.988264 -50.242329 -262.009979
23.424532 -50.138020 -263.707428
-6.139146 -50.984993 -266.723541
28.639256 -50.380730 -264.751740
24.769556 -49.918816 -265.856506
20.574186 -50.240135 -268.809967
18.124039 -50.508987 -268.075592
-4.675342 -50.281467 -265.817505
23.825436 -49.854740 -268.960297
-3.796911 -49.901844 -270.572174
22.892776 -49.908943 -269.584351
-2.210816 -49.838150 -272.093811
-4.675280 -51.298656 -273.019165
18.585503 -49.649265 -272.997925
-0.052501 -50.759319 -272.603760
5.642790 -49.222164 -271.568329
-2.482053 -50.610195 -274.016937
8.103810 -50.290535 -274.591309
12.341724 -49.372189 -274.490509
7.936880 -50.913757 -274.967468
14.205897 -50.362141 -275.503479
2.072107 -50.706509 -274.896057
9.424349 -50.376698 -274.978210
15.588095 -50.984821 -276.115936
18.527336 -50.680542 -274.443268
9.865089 -49.742702 -275.311707
22.535992 -51.359028 -272.812866
2.568175 -50.263111 -276.227753
1.854184 -50.991127 -277.346222
25.594313 -50.428047 -276.472382
-1.372469 -49.615101 -275.142975
9.150015 -50.404922 -276.581970
26.039227 -52.376736 -278.049835
-1.616774 -51.218666 -279.386230
18.062025 -50.316414 -277.843079
20.795776 -50.804451 -277.160217
24.454000 -52.270176 -280.743805
13.584859 -49.771507 -277.766510
19.840090 -50.798889 -281.476776
5.173752 -50.432316 -280.595551
6.204547 -50.828194 -282.807556
24.849646 -50.457348 -280.901550
16.414680 -50.909904 -278.661407
17.456774 -50.755207 -283.322968
24.695835 -50.790859 -282.047852
24.283485 -51.454632 -281.890564
6.914005 -50.888397 -285.611755
12.229715 -50.469536 -283.341980
25.149900 -50.749001 -282.712830
22.842321 -50.499149 -283.938080
16.550045 -51.559998 -284.362915
21.987377 -51.163311 -285.377991
11.076290 -51.591236 -284.258636
10.572585 -51.181370 -287.600586
13.239058 -51.886410 -287.458527
20.782644 -50.203037 -287.591614
6.610130 -52.012138 -287.787689
21.680231 -51.013824 -284.958618
20.389330 -50.677853 -287.498993
21.035103 -50.580902 -289.153015
19.109919 -50.804943 -289.563141
16.472017 -50.717148 -290.962769
18.850838 -50.457096 -290.025848
15.130904 -50.848297 -292.806854
16.382889 -49.404774 -293.819611
14.363123 -50.109108 -292.275696
11.304138 -50.874348 -294.164734
14.496475 -52.416256 -295.736084
9.130358 -50.622715 -294.871460
7.042723 -51.659969 -294.576965
10.907546 -50.554115 -294.910400
8.243475 -50.774597 -295.580444
-66.317619 -50.451336 -44.082737
-76.434059 -49.734230 -44.181046
-58.856945 -50.465992 -44.669785
-56.461441 -52.340893 -45.360081
-82.874298 -52.158642 -45.276897
-51.873974 -48.893661 -46.808655
-46.469589 -51.586823 -47.568680
-91.165176 -50.329506 -51.515522
-35.181496 -50.148815 -51.226788
-26.682013 -51.549820 -52.400852
-90.923790 -50.833920 -51.846924
-22.643982 -49.599186 -52.459602
-13.942753 -49.985439 -52.034248
-11.758417 -51.042412 -51.634384
-63.206490 -49.885860 -54.615524
73.245125 -50.751545 -57.585438
78.325714 -49.768562 -58.140484
78.824272 -51.119148 -56.739475
-59.556068 -50.849899 -56.923645
-8.227809 -50.776226 -58.646652
-9.617445 -48.833996 -57.097202
70.975365 -49.278896 -59.144096
83.143097 -51.530186 -58.049812
-16.042730 -53.321552 -59.896973
82.807312 -48.672428 -58.526993
-96.332848 -51.212639 -60.535362
85.276093 -49.351791 -58.813225
-63.844158 -49.106266 -61.182217
-20.640064 -50.690353 -60.526543
82.820602 -49.739468 -60.912434
-61.295258 -49.159378 -60.334835
-26.310638 -51.512924 -61.590248
-96.821289 -50.605999 -61.845627
-60.390045 -50.805340 -62.765930
-65.246712 -51.017162 -63.576210
-63.505005 -50.033695 -64.664268
-62.458057 -50.205784 -64.025604
71.423096 -50.788391 -66.940620
65.317169 -51.460869 -67.777603
83.525108 -48.893368 -67.768333
100.240189 -51.237949 -66.820854
74.396233 -49.704151 -67.489441
-37.441341 -50.398293 -68.422447
77.801575 -49.396996 -68.549034
83.007187 -48.909054 -69.294014
-38.285370 -49.365723 -69.467560
85.525612 -49.160717 -69.423416
67.172462 -51.422012 -69.031876
89.009155 -49.420982 -71.650032
89.406868 -49.187538 -70.943535
66.083755 -49.834606 -73.328018
92.484062 -50.695400 -73.015549
103.123169 -49.317951 -72.390045
-38.037975 -50.600624 -70.599831
64.091805 -48.928249 -73.324966
95.356194 -49.376625 -72.706818
102.012314 -50.211624 -74.132172
97.965240 -48.676987 -73.277008
99.935936 -49.532387 -76.172066
-100.132545 -49.566921 -76.357971
62.311821 -50.041485 -74.374039
64.460495 -51.814373 -78.467529
-41.035912 -48.055111 -77.857704
-41.838554 -50.118526 -79.482925
-44.981544 -51.047291 -79.718376
62.281670 -49.907230 -81.288963
-45.872845 -51.269608 -81.454224
64.728340 -49.994110 -80.733162
-47.433231 -49.618713 -80.909172
65.799774 -50.682819 -85.428299
-51.881725 -51.155979 -82.933617
60.420437 -50.744080 -83.707741
62.394581 -50.430370 -86.340401
60.638893 -51.427856 -89.271347
63.958565 -49.982635 -85.635109
-100.264801 -51.173634 -88.036011
-64.064522 -52.995441 -89.982025
-67.146523 -53.043472 -92.264603
64.423920 -51.193619 -89.592926
63.459164 -49.449543 -91.905602
61.068306 -50.410809 -94.064362
-100.232956 -48.904011 -94.526833
64.817726 -50.235649 -95.137131
-100.614220 -52.190178 -99.521378
64.636337 -48.870235 -96.709564
67.405563 -50.218227 -101.684654
63.941254 -49.759079 -99.081871
-72.760628 -51.602596 -100.800385
-72.950661 -51.905308 -102.073738
-73.024864 -51.560471 -103.477539
63.652729 -49.203979 -100.436386
-98.965614 -52.859577 -108.792625
-97.557144 -49.287125 -107.628471
69.955154 -50.968323 -108.134750
79.497787 -50.065388 -108.044456
72.022636 -50.730598 -109.853828
81.042473 -48.989803 -110.458427
-97.949524 -51.577915 -109.423187
74.863075 -49.453472 -110.210876
-96.946426 -53.324936 -111.707504
-96.506073 -50.086735 -114.273376
-83.410728 -52.053574 -117.073555
-87.138321 -49.482010 -118.733322
-95.584488 -50.999588 -117.720146
-90.475594 -49.625927 -120.171501
11.779028 -50.786015 -236.679718
12.627973 -50.165405 -236.684433
15.823303 -50.446514 -236.922806
15.636205 -50.296696 -237.362183
13.941687 -49.998772 -237.192520
15.364054 -50.071148 -237.957977
19.218534 -50.523952 -237.489182
22.425299 -49.201771 -239.960571
17.434868 -49.531223 -237.903137
22.309649 -48.538635 -239.829849
19.360273 -51.190773 -239.802933
0.888902 -50.452160 -242.506958
11.257697 -50.084858 -241.399643
21.846752 -48.921066 -240.479843
23.920498 -49.707378 -242.170914
23.392260 -50.297058 -242.113174
9.602818 -49.202358 -242.520691
14.847588 -49.882725 -241.886627
-9.956486 -50.222008 -242.607712
-7.626174 -49.784668 -243.668869
24.183609 -49.033829 -241.424881
-1.716003 -50.097027 -242.862656
16.420357 -50.667122 -243.410492
14.152365 -49.066853 -243.902634
18.629305 -49.764156 -244.067719
-7.476438 -48.893681 -244.039215
24.217237 -50.357441 -242.271118
6.578173 -50.316505 -244.103775
-9.504205 -50.458019 -243.234238
-10.097050 -49.813145 -244.560486
-0.376493 -49.303772 -244.343063
2.462934 -50.193642 -245.037537
13.529465 -49.297256 -244.596497
-12.302122 -49.340939 -244.987686
-10.538211 -49.755737 -245.278610
-3.020042 -50.213722 -245.390533
11.781751 -50.025177 -245.171829
17.723383 -49.619171 -244.511642
-8.933970 -49.900925 -248.021484
4.595469 -49.737877 -245.166000
17.335657 -50.427982 -245.479187
-7.771917 -50.388546 -244.344711
2.389833 -48.490459 -247.861984
2.363943 -48.897507 -246.002167
13.602228 -48.325417 -246.070679
8.963154 -49.886868 -246.356949
16.739073 -50.540215 -246.961258
18.949947 -50.195110 -246.327225
-12.599507 -49.905228 -246.962906
-11.451192 -49.241295 -247.071198
-6.664263 -49.972561 -246.082458
-6.160330 -51.357029 -249.502045
14.147978 -49.759193 -247.017639
6.378329 -49.281620 -247.461731
17.055189 -49.501472 -250.887634
18.688616 -49.868584 -248.485031
-7.774629 -48.739079 -248.179504
-11.136004 -50.441448 -250.390976
-12.914937 -50.856579 -249.863693
-12.812362 -50.706047 -250.587799
16.965570 -49.158043 -250.701004
22.181009 -50.604271 -250.798370
6.665091 -49.266647 -252.202911
-9.111330 -48.863571 -252.119171
2.310125 -49.329926 -249.471924
14.473957 -49.033684 -251.258514
20.530319 -48.384449 -251.005997
2.477302 -49.708927 -252.887451
-10.660222 -49.962082 -252.515274
15.920212 -49.403606 -252.237656
20.960072 -48.845310 -251.749512
22.850040 -50.494202 -251.587494
4.826113 -48.932400 -253.507751
10.408565 -49.514664 -254.134125
0.631738 -48.842815 -255.842880
-9.182609 -49.647274 -252.473160
15.424940 -49.605370 -254.040009
20.865759 -50.184708 -252.889420
12.080317 -50.818783 -255.795837
16.747068 -50.172768 -256.835052
24.773787 -50.048042 -255.047302
-8.901684 -50.187103 -255.699112
-6.787788 -48.434830 -255.687439
-1.755069 -49.746105 -257.499664
9.050659 -50.282101 -255.036942
21.429365 -51.041641 -255.971893
-6.636368 -49.722656 -256.568298
3.796678 -49.955772 -256.079102
9.414697 -50.344776 -255.946030
0.556870 -50.052582 -257.530823
-2.442094 -48.664913 -257.956360
15.236044 -48.751423 -259.504303
18.618872 -48.677814 -260.344086
-7.938694 -49.900784 -260.532684
1.328385 -50.128506 -262.286926
11.639969 -49.844006 -258.398438
20.331316 -49.310387 -261.574371
23.142778 -50.836803 -258.882568
10.491377 -48.989201 -261.042725
15.625799 -49.679077 -260.625092
5.685615 -50.196278 -262.655945
11.157761 -50.038963 -262.044464
-4.361187 -50.351616 -262.273529
16.723196 -50.236362 -261.660980
19.190887 -49.797939 -263.654938
-1.548045 -50.611443 -263.721466
3.170436 -49.434433 -263.092529
9.327472 -49.335587 -263.495758
10.637394 -48.472614 -265.134491
18.033792 -49.935787 -264.706940
21.072399 -50.855450 -261.269470
3.333951 -49.525917 -265.045227
20.923502 -50.227108 -266.359192
1.650279 -49.597645 -264.957977
15.001097 -50.362473 -265.812561
18.797832 -50.364140 -264.694305
10.232069 -49.594234 -267.285187
17.521311 -49.873493 -265.791016
-0.806993 -50.416527 -267.889130
6.482245 -50.421940 -268.071381
15.686052 -49.914291 -267.828949
7.573974 -50.215313 -271.495209
-0.882618 -50.787964 -272.005280
3.298651 -49.814339 -270.123627
13.535498 -48.867306 -270.145050
4.724475 -48.834663 -271.153809
17.596542 -49.181660 -269.866974
8.945293 -49.516499 -271.053497
15.496410 -50.690372 -271.218170
4.846104 -49.957104 -271.872528
10.314490 -49.217510 -273.018463
14.168278 -49.888607 -274.116608
-68.664444 -49.686054 -42.437653
-72.242294 -49.470669 -44.077427
-62.224415 -49.795422 -44.729256
-55.376396 -50.874958 -44.975880
-52.942333 -50.617382 -45.785889
-46.161819 -49.935043 -47.616055
-37.042229 -47.572338 -52.093044
-28.252264 -49.796963 -52.321312
-28.224731 -48.537529 -52.147762
-25.220886 -48.826305 -52.531399
-20.045883 -48.480247 -51.768208
-10.197749 -50.531532 -53.632328
-92.805305 -50.825996 -52.478279
-61.799992 -48.940750 -52.631363
77.119347 -48.502312 -56.576225
81.215897 -48.075352 -56.862026
-64.521790 -49.395565 -58.692764
72.564308 -49.739738 -55.974003
76.743340 -49.403652 -56.657070
-10.176680 -50.156647 -58.979603
79.082169 -48.328423 -58.866951
-11.584537 -51.373539 -59.282211
80.725555 -49.003048 -58.775787
93.218414 -49.928909 -59.748356
95.264893 -50.673206 -59.651630
-64.500694 -46.938976 -60.154758
-62.380966 -48.452736 -60.525604
-63.753208 -50.241428 -62.774796
66.471970 -50.966644 -63.220963
96.661789 -47.681881 -62.792145
-32.888432 -48.733101 -64.233154
72.109436 -47.574070 -64.000923
99.755844 -49.690498 -64.670090
68.566254 -49.751789 -65.812584
71.711639 -48.667397 -64.907921
-34.879475 -52.264900 -65.310295
74.513580 -48.904800 -64.944077
99.836754 -49.378891 -65.450737
76.116966 -47.564529 -65.049210
68.927582 -48.949581 -67.424622
83.923393 -49.081661 -67.217628
88.535004 -48.551079 -67.773117
-37.415913 -50.193768 -68.739281
100.933258 -48.401249 -68.226784
67.552734 -50.191372 -66.139450
87.070335 -49.029873 -68.564064
64.764099 -48.604763 -69.249359
68.177811 -49.318893 -69.714676
93.636253 -48.855461 -70.692566
63.268230 -49.754917 -69.584305
89.671326 -48.090446 -69.902786
102.458801 -49.626167 -69.652458
62.117184 -47.125198 -71.387772
65.782631 -49.596489 -70.734192
102.060158 -48.805302 -72.724945
95.707001 -48.636608 -73.053452
96.846878 -48.504883 -72.255447
98.169006 -48.973137 -73.443169
-39.133423 -52.139774 -75.903709
64.642769 -51.031788 -75.297409
-100.590996 -46.042953 -76.683235
63.228413 -49.201420 -76.599838
-39.595829 -49.614738 -77.292976
62.003284 -48.000828 -76.117493
61.830528 -49.358917 -76.983536
60.794975 -49.342403 -79.830284
64.130348 -49.312805 -78.423950
-43.034298 -47.490658 -79.189461
65.442909 -48.642818 -82.802414
-52.318104 -48.832836 -83.466591
-100.572311 -48.942287 -81.222504
60.405003 -49.580799 -81.414459
-56.597904 -47.452660 -84.962181
-57.234261 -53.507252 -85.289482
-59.808743 -50.706699 -87.452385
62.776447 -49.902077 -85.901588
64.117676 -48.871738 -82.659286
60.717312 -49.396610 -87.281364
63.873280 -48.373558 -89.890526
65.659538 -49.721569 -90.867561
61.567234 -48.520668 -89.289948
64.574615 -50.055084 -89.979446
67.023613 -47.588089 -91.487251
-63.977982 -49.923271 -90.838531
60.751762 -49.417423 -91.624245
62.100307 -48.439571 -93.492645
-100.629776 -51.219879 -92.069107
63.032795 -49.712086 -94.049828
-99.545876 -47.742561 -96.759758
67.034767 -49.255497 -99.685669
-100.240456 -49.947197 -100.760132
61.827736 -49.411720 -98.335182
65.565582 -49.678265 -96.768303
-70.723778 -49.399487 -98.473869
65.552460 -49.914619 -100.153992
62.230698 -48.529270 -98.183601
66.415192 -49.408455 -102.376953
69.320465 -50.600285 -104.293625
68.137894 -48.428497 -105.098007
67.227974 -49.476513 -103.511208
-74.066963 -50.582069 -104.602005
64.914902 -51.246986 -103.858055
-76.489655 -49.833721 -106.971214
74.189674 -49.412838 -107.042198
76.224289 -48.796383 -107.804489
80.623497 -49.587666 -107.405197
71.750191 -49.179871 -107.628342
83.850746 -48.160427 -107.384796
83.664734 -49.260956 -107.453316
73.636169 -47.754463 -108.956551
72.556671 -49.982433 -108.267570
73.905037 -48.897232 -109.631050
86.648354 -48.589687 -108.930542
82.625854 -49.308395 -109.172478
70.786232 -48.505699 -109.945274
91.108452 -49.265785 -109.454498
74.661026 -49.788425 -111.420250
84.677956 -49.417721 -109.660873
92.261642 -48.572475 -112.004684
76.672249 -47.583557 -111.903244
86.320496 -50.288448 -112.018219
-79.968925 -49.968918 -111.559654
-83.794640 -49.714771 -113.630341
-82.616119 -50.121613 -114.438759
-87.806389 -49.085976 -117.888931
-88.683670 -50.722439 -118.495293
-91.259636 -47.511250 -119.071281
-3.650244 -48.936092 -241.505600
-5.964403 -49.278790 -244.387192
-0.406158 -49.135239 -243.264069
-6.285873 -47.593838 -244.981964
-10.133884 -49.624405 -243.830704
-1.545254 -49.759689 -244.590927
0.491824 -49.566650 -246.975937
-3.717721 -47.543961 -246.703766
-7.428680 -49.240383 -248.223953
-1.235919 -48.173416 -250.521622
-3.815266 -48.943939 -252.217010
-5.982862 -49.334400 -252.714737
-1.467354 -49.302856 -252.424393
-5.011048 -49.253059 -253.107071
-0.243527 -48.084698 -254.060989
-5.293790 -49.903973 -254.357468
-2.694339 -49.394115 -255.915283
-1.782480 -49.547691 -254.395798
-80.075394 -49.037334 -44.861801
-59.466599 -47.985504 -46.212551
-57.002892 -47.042130 -47.069599
-85.727226 -50.405979 -47.179920
-49.146427 -48.367607 -49.048710
-88.523994 -50.295712 -49.094349
-60.997337 -47.929913 -50.306362
-41.015144 -49.160408 -50.291534
-90.222694 -47.249859 -51.514000
-61.914890 -49.261917 -52.814941
-59.783382 -48.235126 -52.702034
-39.887451 -48.612431 -51.574135
-63.445992 -48.443604 -52.779240
-93.588928 -47.563709 -54.636253
-63.638195 -49.169544 -56.310028
-93.816338 -49.734749 -54.444664
-63.565189 -50.641323 -55.270382
76.765175 -47.727177 -54.654758
-64.612579 -47.195095 -55.937634
74.474228 -49.014057 -57.471523
73.017395 -47.565418 -57.061047
-60.042286 -48.270073 -57.811768
76.845459 -46.246090 -56.399498
88.000099 -49.999401 -57.643303
90.663063 -48.594448 -57.484707
82.620636 -48.680264 -58.206024
83.968445 -48.357021 -59.057083
70.428429 -48.611824 -59.109558
93.443878 -48.265827 -58.712528
-20.358356 -48.790997 -60.092091
-62.429802 -48.909977 -61.711353
70.796074 -48.318501 -62.904594
97.429878 -47.306862 -62.095776
74.296661 -47.042011 -62.048161
75.801308 -47.378132 -62.085567
69.400536 -48.000961 -63.911438
64.039650 -48.584339 -66.482529
80.400734 -48.663433 -64.976212
-99.625114 -46.000996 -65.415619
82.783646 -47.893894 -64.328323
67.414734 -48.573906 -65.973022
-37.954826 -49.789398 -65.357536
70.276154 -48.194771 -65.035927
68.147781 -48.993271 -66.899254
67.718445 -48.832737 -69.202248
89.431084 -47.894867 -67.105453
91.437096 -48.605350 -68.311707
65.685425 -47.820354 -67.541145
95.998207 -46.728203 -68.300133
93.056541 -48.710899 -70.062386
100.915771 -47.186081 -70.322456
98.715759 -46.633896 -70.852112
69.489136 -47.345314 -70.976318
65.504585 -48.484291 -69.621696
97.842323 -48.728439 -71.248474
100.771988 -48.708397 -72.405594
66.195305 -48.790592 -71.817535
-38.776703 -49.982922 -73.471344
61.257374 -48.268124 -74.357811
65.756165 -48.845509 -72.988213
62.906494 -48.860012 -75.000404
61.414341 -47.570534 -75.121140
66.159264 -46.517265 -73.406105
-38.556278 -48.755444 -74.973854
61.274632 -46.801521 -78.008133
66.387749 -47.284714 -75.426025
-99.696274 -49.729347 -77.763779
58.985477 -48.862583 -79.384705
61.348606 -47.095585 -76.662811
65.396843 -48.116817 -78.447258
-45.464027 -48.617573 -79.824455
61.222778 -47.020267 -79.774445
60.153271 -47.513950 -80.669922
-49.874916 -48.794006 -82.636086
61.270226 -47.034439 -82.351578
62.453274 -49.952034 -79.806633
63.817554 -47.058121 -80.853584
66.512001 -46.222378 -81.087128
64.794067 -48.210175 -83.087029
64.294662 -47.635857 -85.505081
59.981453 -48.407787 -85.614975
59.976212 -48.226460 -84.303337
66.370384 -48.064240 -87.487885
-101.762138 -48.610092 -86.737640
61.507603 -48.008354 -86.766716
60.814404 -48.924450 -88.322121
59.889935 -47.760487 -88.233238
63.696117 -48.158947 -89.857193
66.148537 -47.541359 -91.483223
64.728142 -46.887711 -89.441589
67.454926 -47.768501 -87.016670
60.081837 -47.427448 -89.063965
64.794487 -48.436607 -89.758362
65.054474 -49.295280 -90.577065
64.137886 -46.562252 -89.926689
65.278206 -48.811531 -90.686913
66.870346 -47.584934 -90.294991
70.490707 -46.759705 -88.660141
62.508266 -47.479126 -91.016922
67.124252 -47.263737 -93.063263
60.196655 -47.501564 -90.801323
-66.103195 -49.930019 -92.119499
64.763336 -49.049019 -92.756294
62.170406 -48.710411 -93.452240
67.000397 -47.613640 -93.839294
-67.028671 -51.563171 -94.290298
65.226860 -47.805958 -94.086853
61.260929 -47.695271 -93.349922
68.790611 -47.590790 -95.465790
-69.169373 -49.802979 -94.830696
64.259857 -48.891689 -95.302979
66.317596 -47.922363 -95.849190
71.199791 -47.535236 -96.595772
62.915405 -48.568535 -97.767944
-70.511032 -48.827904 -99.326027
61.101738 -48.564705 -96.453728
67.197189 -47.445572 -98.596542
62.033016 -48.793621 -98.814583
66.957382 -49.312439 -98.923103
-72.721558 -49.959904 -99.788635
68.280327 -47.346306 -99.685593
-98.636307 -47.402927 -100.366249
-71.996010 -47.542206 -100.750298
67.889252 -49.006550 -99.699982
67.479034 -47.927471 -101.045998
67.032753 -47.327591 -99.943451
69.361328 -47.064632 -100.857109
69.406891 -47.584591 -101.708458
61.982746 -47.067383 -100.584419
68.494675 -49.050179 -101.745003
63.113064 -48.026157 -100.135323
65.869972 -49.400105 -101.877800
-73.214401 -51.873711 -103.656311
-100.099648 -50.287483 -102.336945
62.763145 -47.049088 -101.450249
69.575279 -47.147346 -102.189743
65.595093 -46.399940 -104.583160
64.533958 -47.334675 -103.779800
64.926582 -47.016273 -104.497017
70.213783 -48.080936 -103.796852
97.589386 -46.897308 -105.639603
-78.265579 -44.984398 -105.543755
72.436874 -46.637756 -104.951866
68.567032 -49.828171 -105.980537
71.519661 -47.833057 -105.398796
70.755310 -48.786587 -107.734627
75.314049 -47.222908 -107.150681
-77.456474 -49.391003 -106.708740
66.643257 -47.569653 -107.563148
73.909042 -46.401485 -107.304733
65.763412 -48.007046 -107.941017
77.267235 -48.193691 -107.583351
76.311607 -46.722950 -108.097549
79.715485 -48.262875 -108.256264
92.306923 -47.687988 -108.812889
97.131523 -48.037827 -107.325401
-78.676659 -49.755638 -106.925011
93.692612 -48.030186 -108.752594
95.865707 -48.411060 -107.691948
-81.944725 -47.168854 -109.709663
82.874603 -47.452297 -108.227699
88.072426 -47.680511 -109.396332
68.313072 -47.467838 -108.849304
-97.261726 -48.771717 -110.407082
-83.030807 -45.897762 -110.554367
68.383919 -48.123203 -110.232758
73.380882 -49.146515 -109.960655
78.889229 -48.373951 -109.341721
93.739433 -47.816166 -110.475449
76.296516 -47.849163 -109.695129
79.878433 -48.727364 -109.343773
81.083801 -47.471397 -110.834152
83.891670 -49.662731 -110.887306
88.828751 -49.056808 -111.977684
-96.241577 -48.660896 -112.720978
-94.464447 -48.533928 -117.269630
-93.821297 -48.383324 -118.018661
-67.237701 -48.813213 -44.984554
-82.281815 -49.058163 -47.859169
-59.908783 -47.537594 -46.449326
-60.222290 -45.696102 -47.431114
-58.432930 -47.445389 -49.309837
-45.862892 -47.720722 -49.190235
-88.919655 -45.932541 -50.291920
-58.850323 -47.151436 -51.346771
-62.717556 -46.760864 -49.207378
-63.542263 -47.068203 -51.236164
-34.054367 -47.692863 -53.331001
-32.062115 -48.051868 -52.993122
-28.188721 -45.666382 -53.838642
-21.178915 -47.225372 -54.065853
-11.501175 -48.293259 -54.030754
-59.609493 -48.231537 -55.649525
80.277718 -47.952980 -56.894436
-63.214142 -46.685658 -54.790863
-8.084154 -49.629044 -53.678474
-94.637939 -44.625671 -55.979698
73.655457 -46.685646 -56.138584
83.086578 -46.993633 -55.867119
-95.199219 -50.291718 -56.735081
-62.408451 -47.650009 -57.387249
-60.725399 -47.706696 -59.021049
91.803474 -46.732956 -58.005375
80.470657 -47.141895 -56.226433
87.994331 -46.011662 -57.697887
92.202538 -47.281372 -58.939434
-60.704216 -46.728779 -57.541256
78.413361 -47.634445 -57.959969
80.960716 -46.017212 -57.688332
86.747398 -46.807610 -58.622852
73.164726 -47.470215 -58.236519
-14.349026 -49.292263 -59.374741
71.017487 -46.147125 -60.588444
92.735016 -47.046234 -59.877201
75.600243 -46.510513 -59.070026
68.497879 -49.582954 -60.620461
95.651253 -46.131142 -60.245861
72.664749 -48.781002 -59.047588
75.609261 -47.024166 -60.825447
-98.139816 -48.320381 -60.856995
69.685890 -48.588524 -61.334274
70.103058 -47.963490 -62.782467
-99.226761 -46.533779 -64.243828
67.411514 -48.921188 -62.305630
74.534134 -47.882748 -60.226906
83.579849 -46.771206 -62.906387
99.820633 -47.477081 -62.326492
-32.816154 -49.822243 -62.769516
78.182564 -46.446808 -61.509289
96.029892 -46.869621 -63.643616
82.261284 -46.194447 -64.015839
83.415260 -47.578400 -62.972015
86.664063 -47.115498 -62.865505
66.398781 -47.051125 -63.966450
97.169792 -45.816879 -63.942165
65.907089 -47.277477 -64.235512
72.549469 -47.062492 -63.290714
86.417397 -47.805714 -64.049492
97.704582 -47.674324 -65.261497
-98.592155 -49.957924 -65.987427
69.687393 -47.052567 -63.159508
90.392578 -47.166420 -64.992912
-35.435993 -47.275711 -65.342888
63.898506 -47.902397 -64.965309
64.384377 -45.941959 -66.144112
63.645306 -47.617126 -66.251106
71.139305 -47.865765 -67.063683
90.569267 -46.788967 -66.403122
-38.382900 -47.104771 -67.202805
103.413651 -45.877956 -66.769035
99.306664 -47.050385 -65.641380
63.493080 -46.724285 -69.253166
69.813950 -47.262600 -66.162437
99.703026 -47.020103 -69.443909
95.717949 -47.097893 -67.644913
-38.414360 -48.573029 -70.202606
64.532410 -46.936760 -68.524315
67.592125 -47.427525 -67.438576
68.051208 -46.239693 -68.371292
69.058334 -47.218895 -69.984848
68.669952 -45.795319 -70.185516
62.434383 -47.312252 -70.222351
63.203606 -47.466579 -72.593163
61.617558 -48.271935 -72.597794
70.015068 -47.085339 -69.602425
66.089989 -47.336941 -71.363190
61.036068 -46.077801 -71.828445
60.663376 -47.637260 -74.916397
69.796288 -46.944904 -72.172668
68.485023 -47.564255 -74.231499
-99.865860 -51.474037 -74.697258
65.344978 -47.743191 -73.870743
72.952965 -45.075176 -72.722778
64.894737 -47.628498 -76.599579
-100.308403 -46.636723 -74.487709
68.662048 -46.509102 -76.649590
68.761765 -46.429268 -77.300499
-40.969727 -46.204338 -78.661591
104.348358 -45.855900 -75.503006
64.134270 -46.662830 -80.706680
-42.807693 -45.030113 -78.597572
106.369553 -46.443611 -81.470245
68.412811 -47.802116 -80.106430
73.394424 -47.080208 -80.241188
-51.763027 -47.515965 -82.702698
66.324760 -45.906025 -83.083580
77.320648 -46.107071 -82.856407
-54.442490 -48.629940 -82.621208
70.486031 -47.754013 -81.449226
64.776047 -46.433178 -85.681099
72.486053 -47.489014 -86.718040
78.347237 -45.582848 -87.603554
-59.207634 -47.274143 -86.993134
69.799065 -46.781384 -85.365540
74.462662 -47.597149 -87.096169
-60.050842 -48.680500 -88.272484
64.078209 -47.353943 -88.135338
64.236923 -47.097164 -88.873367
65.465668 -47.574173 -89.187065
67.414124 -46.236790 -90.686943
73.651100 -47.064098 -90.497391
105.411018 -46.587914 -88.330429
-100.604271 -47.465248 -87.997246
64.593262 -47.969715 -91.602119
78.721245 -46.960030 -89.746185
104.843315 -48.180859 -94.142609
65.113518 -47.736828 -92.593765
74.814819 -47.061600 -94.147835
-64.899078 -46.534706 -92.780525
60.629421 -46.898785 -93.805923
73.119476 -46.778553 -93.949203
-68.369881 -50.559555 -94.350037
82.297295 -46.445690 -96.026588
103.479271 -45.961819 -94.027603
72.115814 -47.740448 -94.971817
60.789158 -47.043491 -95.031578
64.653389 -47.987541 -97.724205
65.176903 -47.079182 -94.057648
72.961044 -48.034584 -95.555138
81.157135 -47.058990 -96.771217
-69.062012 -47.851772 -97.517532
63.117146 -47.331158 -95.958893
103.153145 -46.679272 -95.641891
62.167625 -48.136360 -98.025017
75.559006 -47.054104 -97.589340
60.790245 -46.886318 -96.494225
69.886795 -48.029678 -98.045700
74.024094 -48.077515 -97.995262
78.133034 -46.235294 -98.273819
-99.735123 -46.851654 -96.548119
74.712891 -46.837139 -100.069077
76.716087 -46.512413 -98.459801
84.123917 -47.448395 -98.680267
66.982513 -47.302368 -98.001228
100.592484 -46.989841 -99.412369
-70.734879 -46.238743 -100.815994
63.123714 -47.328087 -99.352875
78.533508 -46.475609 -100.717934
75.212334 -47.062336 -99.933319
99.378029 -46.462696 -101.208405
84.199211 -46.037773 -100.451035
69.635963 -47.590614 -101.865662
68.724205 -46.408627 -98.550987
75.868912 -46.803631 -99.644699
100.484329 -46.670677 -100.966927
66.500481 -48.215824 -101.767670
74.882057 -48.096939 -103.104195
-74.289078 -48.032192 -103.674133
80.088882 -46.305141 -103.004791
69.883423 -47.305145 -103.383751
76.059700 -46.898438 -104.075348
83.143517 -46.658016 -104.609428
71.498085 -47.317516 -105.728996
-99.475983 -49.042908 -106.746872
76.458618 -47.628124 -105.240776
79.519661 -47.586708 -105.062859
95.623459 -47.216053 -104.764526
-75.275986 -48.908756 -105.145485
81.735451 -46.576393 -106.307892
82.809540 -46.284950 -106.133446
99.217308 -46.709267 -103.826591
65.284798 -46.565788 -105.772682
95.031784 -46.040295 -106.210327
77.706337 -45.491982 -107.313667
97.917656 -47.644234 -108.370667
66.914848 -47.085476 -107.150543
81.256889 -45.393780 -106.817856
94.302109 -47.185253 -108.193535
68.358459 -47.641781 -106.888084
82.371803 -47.358898 -107.966827
-81.672249 -46.501816 -107.861885
85.498726 -45.919525 -108.246384
96.247032 -46.873920 -109.033989
89.638779 -47.882427 -108.757095
67.974991 -46.579060 -107.622330
70.895653 -47.577988 -109.860016
-96.168053 -45.574093 -107.665863
69.101913 -47.545650 -108.797508
80.956825 -45.599533 -109.990593
81.318459 -47.372906 -109.240288
89.880486 -45.913391 -110.261536
87.831741 -47.116543 -109.757370
-82.845146 -48.000931 -111.209648
82.414268 -45.813671 -110.285469
85.649582 -48.010269 -109.604935
87.854622 -47.009407 -111.051971
74.021133 -46.242271 -110.878204
92.439766 -47.861195 -108.953148
71.892090 -47.211143 -110.166214
86.251617 -46.646378 -112.351181
-83.609955 -48.228821 -111.412392
84.598061 -46.769882 -111.361481
81.646820 -47.704361 -110.405685
-84.338654 -48.648582 -112.109535
79.303940 -46.454117 -113.241707
89.406883 -47.320057 -111.604538
92.468872 -47.697361 -111.842743
-83.857353 -47.602024 -112.506218
-94.877953 -47.178486 -112.499046
-94.627235 -48.055191 -115.518105
-88.196899 -47.342113 -116.824783
-90.513321 -47.595673 -118.100067
-75.511391 -45.356281 -43.819065
-70.991898 -47.080967 -45.025467
-77.901466 -48.291275 -44.606266
-62.481880 -47.321194 -46.244179
-85.332436 -47.531605 -46.853420
-55.964928 -46.190006 -47.961411
-61.575169 -46.139355 -47.726898
-59.212238 -46.232449 -49.079395
-52.449371 -45.568600 -47.776726
-63.232803 -44.671062 -51.194740
-58.821442 -46.319248 -52.540806
-59.038769 -44.277775 -50.992741
-58.946133 -45.807034 -53.007584
-63.413853 -44.904713 -53.996773
-16.251228 -47.055336 -54.517189
-59.606499 -46.408367 -56.099586
79.904678 -48.323963 -55.071651
-61.598862 -46.990414 -56.974167
74.861397 -45.314812 -55.612537
80.889122 -45.822617 -54.716980
-60.628506 -46.460831 -54.298210
78.546410 -45.586510 -56.988792
-96.041122 -46.424797 -55.670383
76.367325 -47.064457 -57.183376
84.847839 -47.517521 -57.626453
-96.101395 -48.181290 -57.291084
-9.572985 -46.812813 -57.134499
93.290733 -45.760971 -57.570095
70.797104 -46.444130 -59.911011
69.875031 -45.974091 -57.405918
89.129219 -46.352016 -56.543156
95.884239 -46.177383 -58.409592
69.533699 -45.201729 -59.240681
85.775040 -45.870274 -57.201019
-11.961058 -48.074024 -59.993019
-10.859881 -46.715420 -57.470242
79.485428 -46.057640 -58.836861
70.960220 -45.264668 -58.777775
80.786560 -45.648468 -59.970901
92.301445 -45.743000 -58.506123
81.801979 -46.956837 -59.083748
84.348534 -45.825031 -60.326477
92.906364 -44.855118 -59.504425
70.057396 -46.323181 -60.229088
77.875793 -46.124432 -60.284355
81.066154 -46.598221 -61.021294
-23.666239 -49.750835 -60.290325
69.648941 -45.515762 -59.615402
67.937714 -45.230145 -61.227348
84.280579 -46.373425 -60.187996
79.515167 -44.279800 -61.380207
-29.385773 -48.763294 -62.057941
-26.046022 -46.894711 -61.140686
74.486931 -46.067856 -62.570667
74.914124 -45.627571 -61.093575
100.570892 -46.947433 -61.361759
-31.420919 -49.507580 -62.715767
66.716621 -45.853722 -63.065071
73.431831 -45.769295 -61.432659
73.205963 -45.411934 -61.695358
96.654778 -46.475250 -61.504494
73.995415 -45.907661 -60.406734
74.066948 -45.652920 -62.230545
91.493187 -46.555305 -62.628860
97.689545 -47.135696 -62.996098
67.806427 -45.853897 -61.434940
73.897667 -45.708244 -62.181320
95.577049 -45.333317 -62.599453
102.162010 -45.723476 -62.662621
71.026688 -46.352699 -64.750458
102.264038 -46.846210 -63.272385
65.199165 -46.456299 -63.061165
70.265823 -46.328121 -65.137627
89.756104 -45.383301 -61.978920
93.933723 -45.220398 -62.085587
66.719383 -46.398117 -63.846146
100.827774 -46.287262 -62.046379
74.023460 -45.456577 -64.972885
93.995132 -46.028564 -65.930466
96.204811 -45.609322 -65.090546
101.721886 -46.193485 -66.081100
72.384026 -46.279037 -68.959618
96.143486 -47.268597 -67.248436
98.090828 -46.331741 -65.660553
74.558319 -45.385342 -70.148407
92.885666 -47.039211 -65.901825
97.617294 -44.347637 -67.401016
99.859398 -47.052727 -69.885803
-99.457947 -46.441719 -69.806091
78.476692 -45.260296 -68.453156
68.385262 -46.835705 -70.054123
67.782326 -47.031799 -69.596626
67.938065 -45.598919 -70.642647
102.800919 -46.160126 -69.124519
103.511185 -47.051121 -69.943245
103.676918 -45.788017 -68.927315
74.571114 -47.012207 -72.440086
81.195557 -45.690792 -72.230614
-39.093304 -47.715000 -73.386032
70.671844 -44.391911 -73.008904
80.225815 -46.150928 -71.341003
103.437958 -45.734489 -73.191734
104.134964 -45.538975 -72.012604
74.750793 -45.517952 -74.701416
66.848999 -46.075615 -73.967064
83.203957 -44.407536 -75.396126
105.456451 -46.233536 -75.667526
-100.782219 -47.756062 -78.893669
104.722099 -46.193764 -76.412544
78.810783 -46.053574 -76.252937
83.641197 -46.904350 -79.406517
68.429031 -45.677528 -78.638763
76.469887 -46.247875 -78.511284
69.511093 -46.160358 -81.718918
105.590706 -46.243652 -79.421440
-46.434673 -45.461761 -80.100433
77.133110 -46.395626 -80.380974
-46.912453 -47.886913 -81.895508
71.888878 -44.840370 -79.861557
-51.739532 -45.735222 -83.141289
78.348152 -45.950302 -81.301750
79.218872 -45.804432 -83.090034
68.167175 -46.731148 -85.297928
-55.908703 -44.855209 -84.583130
74.054230 -44.995129 -85.848816
106.882416 -45.370220 -84.491119
86.883835 -45.749805 -84.392914
105.056419 -46.266968 -85.560875
-58.099400 -50.399364 -86.787384
83.359337 -46.217995 -86.532440
71.974533 -45.244804 -87.804588
88.623451 -46.089382 -88.290451
67.530983 -46.439362 -90.348946
69.444122 -46.260403 -88.224052
75.342781 -46.190193 -88.827553
70.197350 -45.591801 -89.733696
84.558411 -44.789974 -89.694077
77.425491 -46.420479 -90.814987
102.278313 -45.702599 -91.518700
74.422173 -45.054871 -90.095833
105.834541 -45.956230 -89.807114
89.145164 -45.317089 -91.966354
79.998230 -45.862988 -92.322800
-64.749886 -43.788784 -93.605965
81.738625 -46.362419 -92.796089
69.011940 -46.240669 -94.828247
74.416931 -46.029739 -93.861183
84.631935 -45.593460 -93.854446
82.315994 -45.421654 -96.559944
105.137062 -46.740261 -94.281448
-67.637939 -47.707775 -96.107552
100.071365 -45.949146 -98.281532
75.871117 -45.029400 -94.747574
85.276970 -45.135696 -95.705086
85.848976 -44.649807 -96.933250
-69.120941 -48.326374 -96.890419
71.482567 -44.682640 -96.336418
78.020859 -44.428276 -97.113731
102.946800 -46.458309 -97.032700
71.393608 -46.371208 -97.882256
84.210617 -46.259075 -98.236374
72.103683 -46.256413 -102.423866
74.822670 -45.800217 -102.517372
84.934814 -46.702988 -100.246506
76.512802 -44.715183 -100.228638
97.197296 -46.194618 -104.737480
74.615837 -46.393803 -104.259651
90.218475 -44.963631 -104.358711
79.037331 -46.368141 -105.554276
81.637985 -44.955223 -105.632553
85.274994 -46.362099 -106.219543
90.960297 -44.923088 -107.081825
80.703003 -46.179356 -106.278229
83.205040 -46.466324 -106.477989
87.349518 -45.742416 -106.039581
96.458885 -45.642776 -105.298195
96.446510 -46.374252 -107.154579
91.058212 -45.216240 -107.915672
91.897697 -45.694870 -108.728241
95.325439 -45.878098 -106.648590
88.509232 -46.174171 -108.387947
98.684479 -46.528252 -107.830986
93.507690 -45.732643 -109.983810
86.074539 -46.459507 -109.098236
88.275627 -44.728374 -109.999947
94.892891 -46.226601 -109.090080
71.391357 -46.238747 -110.490753
78.031548 -47.879002 -110.386948
81.314545 -46.316730 -110.548981
74.403969 -46.394871 -111.938385
77.044197 -45.358334 -111.218353
84.287025 -45.585407 -111.247772
92.003952 -47.515125 -111.637245
75.692184 -45.419102 -111.622108
76.012947 -47.038734 -111.376785
90.460648 -46.636234 -110.617264
96.725876 -45.754124 -110.944008
77.937134 -46.446110 -112.038277
91.817924 -45.079914 -111.616188
86.245583 -45.464268 -113.000755
-85.602898 -45.293671 -112.834633
-90.728043 -43.896542 -116.596062
-69.800682 -41.898232 -46.272053
-67.517319 -45.712540 -45.449932
-81.295631 -44.925858 -46.385628
-60.715767 -46.574165 -46.466553
-63.410885 -44.601700 -47.231377
-56.675095 -45.343025 -48.462196
-48.524303 -44.388741 -50.268784
-46.651894 -45.580299 -50.608547
-41.276184 -46.174343 -51.256874
-38.987488 -46.628822 -52.991383
-92.741035 -47.688168 -53.444897
-35.282974 -45.195305 -52.757931
-22.107697 -44.835175 -53.247276
77.291779 -44.593006 -55.011581
82.286591 -44.326992 -54.935768
-27.575308 -45.857502 -54.083015
-14.994005 -43.639225 -55.040272
76.604492 -45.694672 -54.541260
79.873405 -44.389027 -53.973331
77.889244 -44.791763 -55.277615
81.063385 -44.835609 -56.202972
84.549309 -45.199379 -54.984344
83.295555 -45.070789 -55.293247
-10.634378 -44.563839 -55.489101
73.242493 -45.591732 -56.970032
-8.875702 -45.097046 -55.290089
75.032265 -44.763885 -56.753365
85.268982 -44.727211 -56.505367
87.964394 -45.131382 -56.325359
83.486244 -44.375065 -56.615501
90.889427 -44.982494 -56.947159
86.096092 -44.083557 -56.223999
94.589767 -45.276016 -56.811436
72.111420 -44.326267 -56.960754
85.458832 -45.905670 -57.885509
86.542618 -45.633533 -58.760620
89.503792 -44.816513 -56.161037
-9.343297 -45.076260 -57.858364
86.681915 -44.063046 -57.364296
87.756134 -45.903927 -58.358459
