# This PCD file was generated using the MATLAB® pcwrite function
# from Computer Vision Toolbox®.
# .PCD v.7 - Point Cloud Data file format
VERSION .7
FIELDS x y z
SIZE 4 4 4
TYPE F F F
COUNT 1 1 1
WIDTH 1449
HEIGHT 1
VIEWPOINT 0 0 0 1 0 0 0
POINTS 1449
DATA ascii
33.055351 -57.688923 -132.776031
32.392036 -58.837517 -131.758560
27.107386 -58.862213 -135.089554
26.426575 -57.454735 -138.056442
29.976431 -59.102619 -135.064011
4.861272 -59.456936 -241.891632
-3.567936 -61.789715 -238.468719
18.198956 -59.169537 -243.954895
-3.402691 -60.466625 -242.475494
0.778104 -58.572136 -242.704453
14.052646 -59.558521 -243.189575
14.161505 -61.991207 -242.505295
8.995339 -58.250805 -245.746216
3.284897 -60.564316 -245.547424
-0.439480 -58.154816 -245.899597
20.958658 -60.467609 -245.770508
2.992478 -56.954300 -248.863632
20.212296 -55.352898 -249.297745
5.322872 -57.648148 -252.250778
5.342718 -57.160194 -252.721863
25.142601 -58.436832 -261.034485
-15.073749 -58.759674 -266.602356
-13.092947 -55.722672 -260.831726
10.608594 -58.392029 -263.025482
-13.705129 -60.013588 -265.695557
-18.411560 -58.943245 -265.345917
-19.169670 -57.829601 -268.550049
-14.677173 -59.314732 -269.493866
26.126257 -60.004162 -267.880371
-11.951551 -59.057350 -271.317352
-13.308371 -58.487457 -270.979431
-14.730131 -60.971771 -274.064423
-13.469595 -56.728870 -274.246338
21.196058 -58.452614 -279.018463
-11.840269 -59.799446 -278.249084
-14.492837 -57.848846 -274.305969
-10.339209 -56.431625 -278.432343
19.640970 -60.504398 -280.718140
-6.994870 -58.299385 -282.709381
14.859786 -60.906925 -285.513245
13.149425 -58.907288 -285.786316
12.433396 -61.379181 -289.310150
9.153932 -56.678680 -287.944641
8.603274 -59.562038 -290.248810
8.708112 -57.605995 -289.798676
45.206249 -62.700520 -15.603376
47.888336 -59.676640 -17.805597
45.901619 -63.583130 -18.184137
41.439171 -59.103561 -21.444494
48.951752 -59.065033 -20.242224
20.413456 -58.714054 -21.761189
19.840799 -57.161182 -24.652210
45.175156 -59.444233 -26.069811
41.891846 -60.287510 -29.714279
41.643364 -56.019218 -33.166668
30.666862 -61.768959 -33.481647
43.401108 -57.245007 -36.834278
21.817467 -56.205341 -36.672642
24.330603 -60.239368 -35.963737
24.235178 -59.286800 -40.885414
45.361332 -52.934940 -37.445972
42.269100 -62.055012 -37.607025
36.163620 -62.068977 -38.666637
42.530640 -60.872459 -40.130657
26.278168 -58.679699 -39.858261
33.857437 -66.250931 -40.230087
28.488247 -55.635685 -38.626484
39.300335 -61.113495 -41.221458
35.182384 -60.120232 -43.205780
-52.148376 -59.925941 -43.375889
-73.479126 -57.487156 -42.699043
-45.128471 -59.601135 -44.677753
-79.164513 -57.643837 -48.837627
-85.566429 -56.186508 -46.393505
-83.021973 -57.541866 -49.861832
-31.684170 -58.949680 -46.336800
-27.158943 -58.406651 -48.708641
-14.502785 -57.686253 -52.402580
-8.408933 -58.629654 -55.548134
77.783173 -61.200695 -57.769688
80.519821 -59.810822 -57.497417
90.399002 -59.454887 -58.810017
84.414871 -60.174156 -60.719456
-7.580748 -58.549942 -57.939823
72.913734 -57.913467 -57.860184
-12.157409 -59.251759 -63.314419
-11.949778 -58.466961 -62.459003
-13.916764 -58.029865 -63.416718
-20.800220 -57.246590 -63.548256
-25.947357 -57.095966 -61.742786
98.918427 -57.873829 -65.744308
-28.978764 -57.066116 -66.297218
68.964180 -57.679600 -64.067032
101.417175 -59.778145 -65.155388
67.179832 -58.106167 -66.865341
-65.433769 -57.364918 -68.286652
-63.912380 -58.088402 -71.676086
101.916138 -58.438877 -70.357361
65.576454 -55.175537 -69.175293
-65.907524 -57.655643 -73.899307
-61.448013 -58.021580 -71.033981
63.450970 -60.272518 -75.689217
104.966690 -60.133129 -75.855515
-100.493446 -58.371510 -78.970512
-42.345779 -60.264645 -81.178795
62.908958 -55.531166 -81.586418
104.042374 -59.927845 -80.629105
-51.871559 -56.692715 -82.134262
61.030182 -59.324303 -85.473770
-58.884003 -57.363899 -84.039948
59.623573 -57.110264 -84.855957
-58.801285 -59.636265 -85.422401
60.402424 -58.453644 -87.585968
105.165298 -59.071335 -88.229881
-63.911415 -59.836620 -88.700798
56.324688 -57.690136 -89.100967
79.094818 -57.228134 -91.537819
59.332066 -57.494564 -88.079666
60.329685 -58.506443 -90.128624
61.475605 -56.604748 -89.994789
85.131775 -56.208584 -91.228752
80.346497 -57.093731 -94.411278
-99.481743 -57.650265 -94.595482
86.956757 -57.655468 -90.907845
90.907433 -59.292561 -92.403389
105.080902 -60.506008 -90.283020
82.374329 -56.856468 -95.718742
83.762650 -58.669956 -93.574287
80.873192 -59.144672 -94.571053
105.300682 -60.779385 -93.866951
76.110481 -58.493710 -95.213295
80.416710 -58.007832 -93.263130
66.598671 -57.470341 -96.309952
-100.474655 -56.466419 -95.100761
67.324867 -58.235153 -98.264450
66.450661 -58.410801 -96.381607
76.623474 -57.887321 -99.628365
80.012550 -57.266296 -96.159523
81.958412 -58.877316 -97.680519
85.500511 -60.067905 -99.838318
87.520477 -54.767960 -99.492928
101.629234 -57.619957 -100.648430
75.129532 -56.369789 -101.816643
92.140221 -57.025440 -99.406578
76.230629 -58.147881 -97.801392
61.341606 -57.059196 -99.445229
66.587273 -59.342579 -102.294838
86.755272 -56.638226 -101.292908
88.369232 -56.420326 -100.938972
-73.064476 -58.266937 -99.779968
66.917175 -55.958500 -100.375961
69.654442 -58.212845 -101.501511
69.141960 -57.725700 -102.765793
76.159363 -57.424614 -103.798416
-71.473610 -60.614609 -102.275146
55.598553 -59.038841 -102.891273
-62.452110 -57.182415 -105.505714
77.077400 -58.915520 -102.855492
84.769951 -55.885319 -103.980797
-66.697433 -56.271976 -103.707199
74.422592 -56.477978 -105.001648
72.176956 -58.313725 -104.795853
61.870022 -59.085041 -105.326050
97.385536 -57.331905 -105.309296
81.688919 -58.713444 -105.621819
-61.654640 -57.876591 -108.194267
57.165535 -58.103855 -109.403053
86.173706 -56.137955 -110.231262
-97.476540 -60.870247 -107.296562
-60.238529 -60.753273 -106.481468
48.144463 -57.488621 -107.207184
86.816612 -59.645290 -108.836372
90.981499 -57.608852 -108.760056
91.571991 -54.278103 -110.929428
-71.658669 -59.932636 -109.496384
44.797081 -58.514820 -114.058708
-74.881668 -57.794067 -107.539169
-74.539680 -55.359032 -109.279900
52.498322 -57.601528 -108.445053
-76.661491 -59.576809 -111.836182
-77.111473 -57.970184 -113.678139
-81.389542 -60.466957 -111.168747
-71.498901 -58.881336 -113.633224
-60.289627 -60.046818 -112.466164
-58.346935 -60.682667 -112.301575
-80.342995 -58.472885 -114.976006
-97.213142 -58.442719 -117.099457
-80.693321 -57.804684 -116.721832
-70.701492 -59.067783 -116.398468
-66.439285 -58.494884 -116.789963
49.040760 -57.667679 -117.425262
-87.035172 -57.844028 -118.520294
-84.654678 -55.962914 -117.825577
-71.566040 -58.852043 -119.293083
-57.772343 -55.823692 -118.518814
-97.116920 -60.375500 -120.703636
-68.207146 -58.831367 -117.414131
-55.328922 -57.597237 -119.543510
47.429859 -59.643875 -119.310249
-90.248680 -56.869713 -121.737976
-64.822357 -56.534599 -122.197144
-58.767223 -56.002712 -118.041191
-90.901009 -58.925533 -121.844238
35.603523 -58.139759 -121.450562
42.638329 -56.646484 -123.115440
-55.181129 -56.682137 -123.431496
-66.833168 -58.804390 -122.600853
-60.594505 -56.826313 -123.743477
34.725632 -56.998123 -122.753830
-63.284851 -58.220852 -123.947853
-58.926941 -55.401375 -122.898560
38.426105 -56.666122 -126.253464
-62.436527 -56.423180 -126.361389
-56.924160 -56.538921 -126.530830
-59.167477 -58.457397 -131.582779
-56.699459 -57.205070 -129.004227
32.325352 -59.686974 -130.436768
29.780853 -59.001343 -132.036804
28.901211 -58.950695 -135.839096
31.175543 -56.670067 -131.764725
0.353106 -61.176830 -237.356934
1.639194 -57.361511 -237.421844
6.823747 -60.011688 -237.914230
6.380598 -59.577808 -240.577042
16.394930 -57.341724 -242.661713
19.185734 -58.378067 -242.610336
2.422980 -58.912415 -244.367401
1.954136 -57.274345 -243.208313
10.038719 -59.336536 -244.149979
13.340022 -57.187962 -243.455444
9.081719 -55.918385 -246.275650
9.044352 -56.898235 -244.707321
-1.518938 -57.036560 -246.223618
4.478127 -58.433651 -244.712738
1.895617 -57.225990 -245.166885
23.515041 -57.337444 -244.475128
5.173373 -56.859291 -248.549377
20.709538 -57.180157 -249.431824
21.296814 -58.419743 -251.957626
10.028553 -59.672268 -254.473450
25.277845 -58.059929 -258.376923
-19.180447 -56.548119 -257.270325
-17.547932 -58.028797 -258.349030
-19.448284 -56.961536 -260.612549
-15.322938 -58.587849 -259.481537
-16.856989 -57.941441 -259.294250
-17.155144 -56.755444 -260.441925
-15.511071 -55.578041 -261.901428
-18.074629 -56.991493 -262.592590
-18.868973 -56.218933 -260.537201
-18.177589 -54.725990 -263.686127
-16.882933 -58.571533 -262.948730
-17.924582 -58.569847 -261.734924
-16.544064 -56.289646 -260.733337
-19.460985 -55.878456 -264.061798
12.975297 -57.411633 -263.260651
25.445948 -57.823242 -267.699982
-18.605688 -56.706249 -265.616394
10.327939 -57.425892 -265.470856
25.279001 -55.672482 -269.462158
-18.416107 -55.720188 -270.909119
-16.779171 -57.082832 -268.960663
-15.168610 -58.776310 -269.946869
13.741035 -57.270020 -270.355194
-13.613612 -58.638668 -271.296936
25.465628 -58.279144 -269.180023
-17.445314 -58.239845 -268.153076
24.228222 -57.995174 -272.901062
23.219212 -59.917675 -275.482819
-16.780811 -59.742561 -272.366455
-9.723015 -57.694054 -274.137939
-12.123160 -57.829693 -275.051758
19.281160 -55.711185 -274.324432
-8.865976 -58.773090 -279.836456
17.655876 -61.714371 -280.790253
-12.702580 -54.357330 -277.000488
-9.543212 -58.846558 -280.790771
-5.551548 -58.281235 -281.777069
-6.742584 -57.475750 -281.749023
17.624544 -58.961449 -283.153351
9.927050 -55.711674 -281.329712
17.708158 -59.643997 -283.670288
14.400813 -55.180931 -286.281372
-5.239797 -59.477448 -286.078125
-5.906390 -59.537014 -286.632233
9.880340 -56.281609 -286.753540
13.049634 -57.532860 -286.275757
11.109517 -59.457428 -290.964172
11.277350 -56.415913 -289.628143
34.669498 -60.310852 -10.795657
36.506268 -59.443295 -11.447214
39.190067 -56.554588 -11.699500
26.707619 -57.033463 -12.907157
45.290363 -61.559105 -13.822723
45.622860 -55.550526 -16.195753
44.572887 -56.372650 -17.477312
24.058271 -56.152054 -16.934340
23.599771 -58.335022 -17.955482
28.939445 -57.220222 -18.402031
47.171394 -54.192757 -20.193842
44.294621 -53.638977 -21.942720
21.772673 -62.617512 -25.042397
49.993221 -58.270138 -24.522243
18.999426 -58.118980 -27.329517
18.150000 -53.633533 -29.805429
24.503685 -55.300533 -29.538877
43.997887 -56.742851 -28.699387
49.036964 -60.831806 -28.690132
46.842739 -59.920826 -33.501892
32.509373 -58.979103 -35.936176
35.987160 -56.094833 -36.987381
46.461292 -56.242897 -37.175663
33.340168 -59.416557 -36.865215
26.207901 -60.279415 -38.639973
26.204586 -62.885780 -39.983665
43.657822 -57.335789 -39.633892
32.760433 -64.653275 -43.823727
33.722080 -60.328190 -39.962074
39.716827 -52.281048 -39.419094
-59.227547 -57.840771 -41.797043
-52.828663 -59.435787 -42.934177
-49.351315 -54.091488 -44.489117
-42.698177 -58.398640 -48.577515
-37.323318 -56.455452 -49.229019
-85.822006 -59.083534 -48.551762
-30.572681 -57.750130 -48.229229
-88.342583 -56.281441 -50.895210
-20.594715 -56.197357 -49.511543
-10.640867 -56.130695 -49.773483
-92.562965 -55.499977 -53.736107
-5.633613 -56.191814 -54.191036
-94.491058 -57.245987 -59.518330
79.040512 -54.213356 -57.270580
88.174507 -57.042549 -58.374664
-7.967750 -56.448940 -59.166241
90.014442 -60.392918 -60.767017
83.030983 -55.066929 -59.937370
91.254105 -60.026279 -59.973808
71.639984 -55.790051 -59.391239
92.785713 -58.129879 -60.941200
-8.461136 -57.371956 -61.108070
96.994568 -58.088665 -59.458763
-18.498917 -58.047615 -61.483456
-95.657440 -60.142319 -60.795006
-21.843283 -58.477779 -64.195007
97.663361 -56.912552 -63.352905
66.331032 -56.467323 -65.790436
-99.498795 -59.751587 -66.740463
-33.535934 -59.309166 -70.780396
-63.825539 -57.226467 -67.203133
100.111076 -60.612549 -66.378723
-99.514427 -57.486149 -70.991974
-65.317192 -57.278320 -71.451538
65.123863 -57.313065 -72.336815
105.881248 -56.439697 -73.232117
-98.944099 -57.102459 -75.798271
-34.994968 -56.035706 -74.221191
104.226028 -56.797462 -73.268578
-35.835751 -57.954216 -75.589485
64.869408 -55.660725 -74.169365
63.896698 -58.762142 -76.374634
-50.052158 -57.181000 -74.431053
-48.695492 -54.616142 -76.395309
62.969578 -56.411438 -78.858459
62.973232 -58.051594 -75.983345
-48.113388 -59.943577 -76.976486
103.637527 -60.731892 -79.078087
-49.984402 -54.429760 -78.160614
65.620819 -58.362270 -80.466370
-54.272694 -56.671509 -78.257545
-51.864841 -58.421261 -82.422630
104.495117 -61.782734 -82.237907
62.243065 -55.465557 -83.598198
-60.117661 -55.097866 -83.933380
104.242821 -58.773434 -87.573174
60.874004 -54.724922 -86.498772
62.146732 -56.443916 -85.874519
81.305534 -57.423382 -84.971298
86.301697 -57.372250 -88.111732
85.359978 -58.325371 -87.003105
-100.232841 -56.052967 -88.091110
81.361801 -55.638351 -89.416985
79.103294 -56.669029 -87.473282
90.945206 -56.276913 -87.624626
75.167625 -58.223343 -87.546059
104.061584 -57.418045 -89.005577
64.716812 -56.114876 -88.137566
76.228401 -56.920307 -92.057068
92.908699 -56.707649 -88.910873
-69.098480 -61.461746 -95.186348
-66.485016 -57.831894 -93.520607
86.474037 -59.125084 -95.351479
81.180580 -54.385113 -94.735031
68.727356 -55.604252 -97.865929
72.596687 -55.671982 -92.613998
79.423515 -59.368301 -95.943985
72.321747 -55.550720 -95.335640
104.279915 -57.365135 -95.666306
65.920036 -54.747040 -97.670769
66.864944 -56.446632 -96.942062
60.932076 -54.858463 -97.800720
81.012466 -55.560352 -98.336235
75.854492 -58.344440 -99.272446
82.446289 -52.658649 -99.187408
89.330627 -56.542267 -98.386040
90.764763 -57.766556 -100.913788
60.196278 -56.271603 -98.871193
94.032196 -56.138103 -97.552147
69.735802 -57.293835 -99.343246
101.158989 -58.122086 -101.907715
68.438759 -56.148739 -99.801453
67.351379 -58.014893 -101.488937
56.010052 -56.321297 -101.268333
91.570564 -58.487995 -101.497192
98.907097 -57.103951 -105.502991
-98.787010 -58.766254 -100.348488
64.396805 -57.268097 -101.895279
91.492035 -55.776665 -101.816818
51.590652 -54.467880 -103.437759
88.756889 -53.717472 -101.679962
-64.602043 -56.540791 -104.672150
90.336502 -55.027843 -105.442818
92.152504 -55.057934 -104.739563
-66.402245 -56.870571 -102.976250
83.358047 -57.810181 -108.371758
85.501152 -56.052273 -104.948738
-59.472637 -57.585560 -108.142593
96.530594 -56.476421 -106.583809
-63.368584 -57.134789 -107.057640
87.103119 -56.243435 -105.488556
-77.635345 -58.200199 -107.044579
-78.732170 -58.442822 -109.698097
48.424301 -57.782227 -110.079002
-63.449131 -56.568665 -106.338745
45.653301 -55.812141 -109.496773
94.607689 -56.435814 -108.756775
88.149658 -57.634956 -109.476135
90.485161 -58.694736 -107.348923
55.481590 -56.912281 -108.310555
54.643547 -57.410519 -108.350021
-60.217457 -57.113789 -109.187035
-62.458858 -54.699257 -111.904800
-74.824379 -57.828537 -109.719513
-72.459000 -55.970348 -110.652260
-62.275528 -57.320457 -110.244637
48.637028 -57.854919 -111.147675
-59.544788 -54.470047 -112.304039
-63.156628 -54.582714 -110.707825
-76.927528 -58.834259 -112.643570
-79.768921 -60.901066 -115.809349
-70.604126 -56.963005 -113.990761
-59.090103 -56.231991 -114.362289
39.840633 -55.598698 -114.537865
49.522175 -57.051895 -113.920181
39.032345 -59.360657 -115.510117
47.072460 -56.863155 -115.752884
45.891418 -56.664917 -117.659470
-67.604897 -55.871799 -115.550148
-83.294647 -56.230610 -116.637253
38.213795 -57.213696 -116.413071
-56.034527 -55.715477 -117.212402
44.622738 -58.770313 -120.070938
42.254517 -56.437756 -118.268158
-87.982857 -54.364002 -122.065643
-60.037430 -54.948437 -118.084251
-57.083385 -57.235050 -122.119240
-95.774414 -56.094246 -119.964920
38.096184 -55.052589 -120.127487
-89.947044 -57.517509 -121.218933
-68.216972 -56.595177 -120.421661
-94.962868 -54.197891 -119.364975
43.020401 -56.297882 -121.073532
-92.586685 -56.019039 -121.549232
-64.252678 -57.399281 -121.012024
32.969055 -57.310452 -122.035385
-91.783463 -57.579220 -121.911674
-60.544472 -56.020477 -121.213516
35.429340 -57.488384 -123.158249
-56.806366 -55.464882 -124.626106
32.717110 -57.201950 -126.628212
34.652637 -56.279846 -124.515289
42.032269 -58.587433 -122.311272
-61.270458 -57.759422 -125.152344
33.708820 -57.062607 -128.963608
-64.335655 -55.358616 -127.387970
39.851177 -55.343105 -125.015800
32.647587 -56.663010 -125.815697
35.233391 -53.764198 -128.018768
-64.027916 -60.140961 -127.312393
38.465351 -60.934448 -125.940521
-61.779720 -57.149796 -125.687370
32.219349 -56.571331 -125.649757
34.953808 -56.651279 -128.076630
33.709747 -55.428349 -128.012466
-59.228939 -56.229073 -129.900848
-58.668240 -55.848602 -129.251358
-58.532349 -57.538490 -129.968979
4.837651 -55.046314 -237.560974
-1.089271 -58.350895 -239.397614
4.565810 -56.250374 -241.551788
15.166375 -55.731491 -240.725403
0.165624 -54.994690 -243.306686
6.151710 -57.092812 -241.296448
8.019195 -55.349380 -243.648697
21.531719 -58.270035 -244.130981
9.173081 -57.872250 -247.823975
13.623714 -54.311165 -245.443130
6.995574 -58.173862 -247.805588
25.404877 -55.469692 -247.660690
-17.656395 -56.795448 -250.959808
24.312048 -57.861992 -252.614319
-19.104609 -55.487251 -253.639221
-16.006170 -56.426048 -253.354446
-21.171562 -57.023869 -256.143921
23.688988 -57.782070 -254.445099
-14.774859 -57.042164 -255.300415
12.976644 -56.027782 -254.851608
-17.315317 -57.313313 -254.721085
23.349993 -57.039074 -253.415146
12.816759 -56.516125 -258.101349
-20.277605 -55.647816 -257.911987
25.433523 -55.761555 -258.553467
-15.235342 -55.219536 -259.407410
-17.915648 -56.428280 -261.753052
-18.955536 -58.060757 -256.712799
-17.000900 -56.907215 -262.821472
-20.506294 -56.917824 -262.399261
-16.834866 -57.668346 -264.253815
-23.670689 -56.521671 -261.857697
-20.850412 -57.610886 -262.626617
-17.406895 -59.196079 -264.553131
-13.917500 -55.649220 -265.924835
25.708120 -57.961613 -267.803680
-15.461866 -59.209167 -266.985413
-11.128345 -59.081066 -270.314789
-9.869356 -55.641136 -271.672211
-18.297691 -54.722305 -270.699524
-13.287209 -57.103153 -270.887451
22.305874 -57.324474 -273.019592
-16.378649 -56.944717 -273.688507
-13.399277 -58.133270 -271.375153
-16.080832 -56.655460 -271.731140
-10.904880 -58.158573 -275.275604
-13.487760 -55.124336 -275.326569
-15.279651 -54.986996 -277.152283
22.883184 -56.602451 -275.504303
-13.579392 -57.023094 -277.812286
20.317938 -54.971218 -276.933594
-8.796692 -54.656738 -278.516357
-8.133200 -56.908176 -277.309204
-16.526766 -56.404808 -279.123108
12.023670 -56.806507 -278.985657
18.734228 -56.742458 -281.937531
-14.951708 -56.776356 -281.764313
-10.720400 -55.388451 -280.492340
-9.347792 -57.317234 -281.872375
-10.849845 -55.470680 -279.557861
-9.550513 -57.095833 -282.286163
-10.738170 -57.042770 -281.090759
-8.437798 -54.103550 -281.789215
-8.677996 -57.740479 -279.784851
-6.343391 -56.423073 -283.955597
-4.736555 -54.830208 -283.363770
-6.964345 -58.076477 -283.438904
-9.273330 -54.703232 -282.619537
8.533059 -59.684113 -283.189484
-8.534592 -55.170361 -286.252350
10.509981 -57.124638 -288.692017
15.156837 -57.787914 -287.263123
-4.589707 -55.939236 -289.560028
-2.725410 -57.011303 -285.897125
-2.241257 -58.410072 -288.529510
-1.011480 -58.180756 -291.366974
0.789102 -54.179535 -292.821228
-1.395731 -56.917385 -291.044006
2.133402 -56.697853 -293.640564
30.588284 -60.952991 -13.047724
41.306774 -56.544510 -14.591033
26.888813 -55.453373 -13.270452
23.737421 -57.603653 -18.563501
34.263760 -58.091778 -18.205219
37.245457 -56.535099 -17.148232
43.132366 -58.299488 -17.914032
28.784229 -61.120449 -18.305609
47.668060 -53.265957 -18.972025
49.336155 -57.894802 -20.947947
25.971764 -59.072159 -21.811106
24.527840 -54.329449 -22.591879
45.863884 -55.082161 -30.476746
26.459679 -55.268642 -31.668514
20.976036 -59.475464 -33.454464
23.654348 -58.089008 -32.101643
42.399704 -56.901775 -33.802635
26.920870 -57.428852 -35.746563
41.517368 -56.398567 -35.938469
46.822189 -58.946659 -36.009064
44.153427 -57.769382 -38.358006
26.855639 -52.325893 -39.150558
42.337540 -56.038574 -39.224140
37.767319 -58.466076 -42.511593
-66.424133 -55.960457 -42.580177
-77.864395 -57.294865 -46.173859
-46.429611 -57.174473 -45.009289
-81.552521 -57.112179 -46.806053
-42.611900 -59.586502 -47.150238
-31.057810 -54.870464 -49.794415
-93.045441 -58.902740 -52.797813
-9.740011 -56.724766 -55.963207
-9.992301 -57.268349 -56.532772
79.039749 -57.699280 -58.916042
83.524399 -57.978680 -59.220234
90.778053 -55.278530 -58.903309
93.040390 -55.792702 -60.749676
-17.708158 -55.504349 -61.559021
-14.850560 -56.980553 -63.743484
-13.629607 -57.417233 -61.147243
-10.352689 -55.921600 -62.665478
-27.993874 -54.204754 -65.414063
99.719940 -54.555340 -63.646179
66.050644 -55.382847 -64.527634
-31.910702 -56.402473 -66.082413
101.191292 -54.559052 -66.596710
99.666161 -58.398605 -66.036995
-98.465813 -58.651714 -66.272308
67.321739 -57.517174 -66.132439
-63.278713 -56.947159 -69.990799
-33.570091 -55.967243 -69.314255
-68.369354 -55.476715 -69.720886
-63.695984 -55.049095 -69.814995
-64.841576 -56.316597 -70.482559
-67.362442 -55.975185 -73.397469
63.111279 -53.362453 -72.511581
105.723648 -54.777824 -72.487900
-98.539948 -55.343822 -78.132370
105.647606 -57.212070 -75.852028
-50.347488 -57.674519 -76.625000
-48.555019 -55.643841 -79.336777
-38.974998 -55.052059 -78.034019
-48.943508 -52.775635 -78.201950
80.923691 -58.380695 -81.061516
-51.568573 -53.210358 -83.579178
-55.592339 -56.176167 -81.790680
82.306442 -57.616898 -81.846245
82.260941 -54.844963 -83.964066
-100.090408 -55.182468 -83.387985
84.121185 -54.909729 -83.965332
-99.152855 -57.241516 -84.529785
79.120514 -54.207428 -85.138222
74.553467 -54.578350 -84.606499
88.470192 -52.975258 -85.436836
75.258102 -56.271873 -85.771805
105.590729 -55.530849 -87.706306
-62.206127 -57.184097 -85.206017
72.343666 -56.259022 -88.816818
87.533707 -55.534180 -85.349869
-61.342987 -54.816589 -86.407150
92.489716 -55.111607 -88.205093
-62.419643 -58.088806 -87.246742
63.900955 -56.048588 -90.187782
72.400299 -55.755283 -86.496925
-63.069283 -56.807800 -90.399086
104.203568 -54.828468 -92.292015
-67.738800 -57.743149 -90.196854
66.892159 -56.131870 -92.280067
67.781395 -54.315071 -91.013687
71.780510 -59.282547 -93.522293
65.832306 -54.883396 -92.529099
65.576408 -59.019562 -93.586975
103.345749 -54.807533 -94.094147
68.777145 -56.070248 -92.524857
-100.747719 -56.228783 -92.454437
67.719955 -55.825172 -93.403099
74.725327 -55.395771 -95.614143
88.386093 -57.938351 -92.886658
95.509048 -54.591038 -92.382202
97.290596 -55.319878 -94.759811
73.728348 -57.762707 -94.591583
69.595276 -57.633183 -97.597992
102.317001 -53.700020 -95.123512
-99.995667 -52.678570 -97.520561
63.883049 -53.078880 -97.980095
103.219101 -56.948460 -98.103889
60.065914 -53.343693 -97.840103
77.661766 -54.712360 -101.541199
91.198929 -54.815098 -99.030052
92.228714 -54.975266 -97.406372
60.983070 -56.056633 -99.478104
75.530876 -56.002594 -101.028114
94.365341 -56.004402 -99.632874
96.104538 -54.914440 -103.519913
56.998699 -55.455650 -102.655571
101.973213 -55.231136 -101.605896
96.949661 -54.788231 -105.199303
94.070259 -58.235031 -102.181892
50.697586 -54.714714 -104.611053
97.695122 -53.095131 -103.868080
61.707924 -55.696381 -103.418388
86.591995 -56.113110 -107.253891
-75.724625 -54.929901 -106.974213
63.460804 -56.824612 -110.325478
91.498642 -56.121471 -107.637848
84.942589 -54.517559 -107.672546
92.860146 -54.948914 -106.222229
86.836906 -55.512974 -108.440063
90.509605 -56.042965 -107.925774
95.609879 -55.618042 -105.134583
91.600693 -55.626896 -110.464676
92.524872 -55.978077 -107.999306
56.990273 -57.097824 -109.109261
-61.272308 -55.940525 -109.358002
-76.716454 -56.284786 -108.748909
-96.667793 -53.981564 -112.350800
-76.409477 -56.628101 -111.197632
-70.872551 -57.207211 -111.997322
-73.458542 -54.981533 -113.130318
-71.429337 -57.572369 -115.564079
53.078083 -58.179249 -111.752335
49.286572 -54.871552 -114.495140
-72.386139 -55.217274 -116.365913
-97.988564 -56.195309 -113.876106
-78.800377 -54.452061 -113.474121
-68.703415 -55.632706 -114.592110
-61.098160 -56.639271 -115.325722
47.839272 -53.634655 -114.659210
43.689331 -55.030632 -113.898811
-81.946541 -54.517155 -115.443848
41.767853 -54.825439 -115.627533
-72.753769 -53.926186 -114.063736
-69.084572 -54.682507 -117.460228
-60.895836 -57.667439 -117.728851
46.469959 -55.709076 -118.083443
-96.101105 -59.306355 -120.320679
44.386059 -55.246101 -117.820595
-69.231133 -57.029350 -119.267838
-68.402626 -56.373348 -117.751236
41.017178 -55.900608 -117.951332
-66.066628 -55.538506 -121.394142
-57.928017 -53.416245 -116.621544
-68.254242 -58.305389 -122.075752
-62.272923 -57.234573 -121.786911
38.604740 -54.274956 -120.728470
-68.692566 -57.790199 -123.241516
40.483971 -54.827496 -121.390907
-67.692558 -56.002789 -124.773582
37.941990 -53.715057 -121.819115
37.985661 -54.888130 -121.852318
37.332760 -55.895565 -122.157364
-61.668674 -56.608135 -124.897514
36.471195 -54.955605 -124.940758
-65.242958 -53.752335 -123.589241
-63.994205 -52.360413 -127.691940
-57.940601 -56.395699 -127.156776
-60.914291 -56.735844 -126.677635
2.466776 -56.935589 -238.085968
3.472948 -55.615856 -236.230103
4.154074 -57.935280 -237.740753
6.319851 -57.322666 -240.987030
1.503811 -53.185501 -238.617447
-12.577061 -55.689922 -239.813080
-16.991896 -52.863998 -238.223816
-0.504937 -57.169498 -240.514114
7.404890 -55.103523 -241.374664
18.997635 -56.671120 -243.018494
0.442239 -53.312298 -241.588760
-1.097939 -56.389786 -242.951035
21.020199 -55.728439 -242.305099
-14.072556 -53.084705 -241.179260
2.545809 -57.507347 -244.110031
20.656475 -57.209969 -244.324692
14.042850 -54.991894 -243.187714
-15.241249 -54.300735 -242.688705
13.998021 -56.188461 -244.764435
23.727928 -57.569756 -243.310822
-16.551462 -57.911018 -244.758972
8.372859 -56.239922 -246.106476
8.889606 -55.167576 -247.895477
-18.419191 -54.437870 -246.238739
22.645655 -53.047138 -250.648071
-18.836752 -56.328621 -250.210739
-14.422052 -53.161118 -245.954147
21.922125 -55.766983 -251.591949
-20.266434 -57.240814 -251.717804
-14.875227 -56.316586 -252.042114
-15.891950 -55.853645 -250.309998
-14.970313 -55.477219 -253.751312
28.734058 -57.675671 -248.167496
26.317774 -54.858471 -252.753922
-20.941549 -56.740059 -253.080688
8.999484 -58.120171 -253.829697
23.983194 -55.057446 -251.368805
26.488010 -51.888290 -253.343384
-17.139242 -54.525387 -253.561340
24.224110 -55.316223 -257.134918
-16.814306 -53.984798 -254.014618
-18.487429 -52.558140 -253.218369
-20.221138 -54.946194 -257.572998
-16.751778 -55.634987 -256.713287
-19.817686 -56.029663 -255.264389
-16.778454 -55.871181 -257.480316
15.372407 -53.619629 -255.538620
22.951324 -55.743038 -256.246918
-14.304503 -56.309830 -257.168945
-15.596058 -56.384636 -260.567749
-15.691458 -55.824818 -264.779694
25.977879 -55.423252 -262.210358
26.824821 -56.168575 -260.476074
-14.956511 -57.177242 -262.429474
24.733896 -54.975719 -262.305389
15.384245 -53.897976 -260.550446
23.265045 -56.333263 -265.595520
28.170473 -55.847313 -264.272156
-16.689554 -56.288506 -266.757080
26.436579 -55.275650 -269.362061
-14.260350 -55.985821 -266.946686
-14.538054 -56.265293 -266.422485
26.476761 -56.001797 -267.367218
25.392645 -56.285221 -269.656006
-13.031146 -55.519810 -269.412689
24.379229 -56.005283 -269.758362
12.346596 -55.421021 -271.969757
25.354563 -53.110195 -270.543732
20.891230 -55.481186 -272.900757
-11.392598 -53.364079 -274.076477
-11.294221 -56.577118 -272.808502
24.124432 -55.856846 -270.661774
-10.849077 -55.448135 -274.354370
-12.514058 -56.846153 -274.582428
-9.264472 -55.955837 -281.647400
19.800615 -53.569435 -278.380157
-7.682305 -55.326679 -279.595764
19.957279 -57.842438 -282.167206
22.244736 -54.712906 -280.614441
-13.320630 -56.310104 -277.375214
-7.013793 -53.154026 -278.813202
24.638298 -54.752403 -280.396027
10.617315 -55.628178 -279.981140
19.829048 -57.480053 -282.552673
17.654226 -57.382591 -282.152710
23.821320 -55.776691 -281.193146
12.585963 -53.957321 -284.321503
-9.524698 -56.326057 -282.527191
-9.128406 -56.300175 -283.121124
15.915220 -55.237797 -284.289124
22.376879 -55.176476 -282.061371
-3.539568 -55.167801 -285.772858
-8.647005 -55.445950 -286.354614
12.844417 -55.104446 -283.455475
15.157224 -56.247643 -284.105865
-11.496901 -53.919212 -286.976654
-4.755158 -56.318501 -286.418213
-4.022181 -55.938835 -287.428650
-7.020485 -57.627670 -286.934418
0.019152 -54.223537 -285.711609
16.329109 -56.499481 -288.793060
20.185339 -56.772751 -286.189209
-3.129059 -55.844292 -289.618591
-0.160737 -55.519073 -290.034912
16.115114 -57.995750 -290.770477
-0.994626 -57.174042 -292.184784
13.441798 -55.071609 -292.932709
6.053741 -57.218853 -292.064484
12.015262 -54.733368 -292.270355
6.202290 -55.333607 -291.074860
4.668966 -54.761742 -294.759308
10.957315 -56.478302 -294.485779
11.351804 -55.058918 -295.774933
30.193251 -56.325077 -12.125569
35.923943 -56.807930 -14.118538
27.869402 -53.107132 -14.366472
23.649855 -53.821651 -14.198501
33.243313 -59.163589 -18.213501
32.155354 -55.390717 -17.449385
39.576015 -55.705444 -18.185223
47.984291 -56.622234 -19.223885
28.711599 -54.226177 -19.103445
49.600044 -56.023010 -22.243441
45.079472 -61.205616 -20.182671
48.997654 -58.329773 -21.850531
26.257122 -51.928116 -23.288065
49.089355 -57.823689 -24.506027
21.839399 -55.913380 -28.303553
26.352150 -55.874916 -28.380430
28.425964 -54.813869 -33.976582
42.169750 -55.159149 -31.262831
25.399220 -56.016994 -33.503014
48.287975 -57.002460 -33.230694
42.269325 -55.657124 -31.540705
22.262363 -58.091911 -33.451984
41.242550 -56.554890 -34.253784
23.657963 -53.468620 -35.379200
29.995770 -55.586582 -34.525894
35.179100 -55.150063 -35.803246
32.979038 -61.255180 -38.133072
28.839098 -54.820194 -42.064220
29.143244 -57.297501 -42.080914
-64.046600 -56.111015 -44.344837
-69.825462 -54.759037 -44.208652
-68.151787 -54.436165 -42.168827
-59.901455 -55.110603 -44.054794
-53.265205 -54.879673 -46.543831
-78.509491 -57.550976 -43.769897
-49.015362 -55.765064 -46.987473
-49.790188 -52.340092 -45.738319
-45.830811 -54.852615 -46.325310
-86.171669 -56.340508 -48.117348
-43.039219 -58.669765 -46.657375
-36.260830 -54.983246 -48.137310
-26.916105 -56.657181 -48.564228
-90.865669 -50.644932 -49.316486
-25.496521 -55.283867 -50.740879
-90.595444 -56.789593 -51.265678
-90.466965 -56.237286 -51.341461
-89.652962 -56.189842 -51.167782
-90.910446 -56.709118 -56.578735
-97.103180 -55.931160 -56.335197
74.873535 -55.047176 -58.695419
76.737968 -56.884731 -57.678558
86.713203 -57.470646 -59.627476
72.340233 -54.169544 -58.925072
70.936531 -52.499935 -60.218956
91.826759 -55.642181 -58.573669
-96.475235 -56.446896 -62.584003
-21.803802 -56.069725 -59.875370
68.237434 -55.672146 -62.761837
95.364197 -54.789097 -61.723949
97.999413 -51.627396 -65.388870
-64.912872 -56.194134 -63.888718
-64.426155 -55.619740 -64.594528
-63.187412 -54.917271 -66.436966
66.541168 -54.099052 -64.618423
-66.917313 -54.891235 -66.508743
-65.125114 -54.973152 -66.163170
104.019661 -55.549160 -66.206741
-101.857559 -57.194550 -68.244820
63.671764 -53.839745 -67.448868
103.322639 -58.098686 -68.449432
-64.271370 -53.161442 -70.070175
-98.953728 -52.781162 -67.977562
-62.532036 -56.146591 -73.097816
-66.378464 -55.297733 -71.335274
-65.242966 -53.477409 -75.586632
-40.849823 -55.712536 -71.432289
104.121521 -55.652145 -76.126633
61.932762 -55.126434 -77.144646
-45.633797 -53.635860 -79.166397
80.350212 -53.358139 -78.775887
104.171463 -53.585835 -80.205116
61.460079 -53.604420 -78.301430
81.710594 -56.223473 -77.723389
-39.790382 -58.892128 -78.857445
75.758942 -51.479515 -80.349014
82.368881 -55.309719 -81.411232
85.832733 -52.447227 -79.822014
73.362648 -53.537441 -82.166389
76.326218 -54.920815 -77.694595
86.615105 -58.402176 -80.766220
86.781059 -53.172012 -79.923889
105.281525 -54.698353 -83.037041
64.858948 -55.337093 -82.517082
76.158241 -55.096272 -82.881088
87.229889 -52.633652 -81.105522
90.031166 -55.215527 -81.879219
72.992271 -54.051708 -83.214127
101.820480 -55.482441 -81.622948
69.509598 -51.988522 -85.257011
91.243683 -52.750473 -80.812180
-99.559311 -54.051868 -85.949249
-57.617626 -54.425285 -84.825294
62.879723 -54.184261 -83.991554
69.094025 -54.079311 -86.870209
91.296364 -54.489845 -82.980141
105.733498 -56.611458 -86.261185
65.266617 -53.480495 -83.652550
64.076187 -53.992313 -86.807251
92.110489 -55.327484 -85.535736
64.712517 -54.927826 -89.059311
71.750145 -55.521320 -85.243858
68.137276 -55.020172 -90.202400
67.103569 -55.204681 -89.932480
91.997017 -54.309387 -91.575996
-98.498672 -53.594383 -89.112549
-66.142517 -54.146580 -91.413353
102.896820 -58.248653 -92.666183
94.642624 -55.846241 -93.714539
84.161697 -54.368275 -93.451012
97.476135 -51.859119 -93.049530
80.382439 -54.465237 -94.754959
88.598709 -54.287266 -95.202164
-99.813087 -56.938751 -96.688049
71.877296 -53.609364 -95.718834
-67.925949 -57.197887 -99.129395
66.304283 -54.171906 -97.132370
96.262024 -55.987862 -98.016403
78.464119 -54.170273 -97.024437
85.591415 -54.823811 -97.775177
90.467010 -54.206207 -98.180580
62.281601 -55.881420 -98.848938
101.582512 -56.180622 -98.358315
71.639557 -55.843464 -98.352821
97.860870 -54.790009 -100.062042
-100.378250 -56.193073 -99.132492
69.683281 -55.935509 -101.973488
99.591614 -55.437645 -100.207947
99.149704 -52.702019 -102.588058
65.333328 -56.011539 -102.122147
97.265450 -54.161411 -104.303848
53.808548 -56.316063 -104.106010
65.435768 -56.792294 -103.582413
-62.343002 -55.225739 -104.814987
-61.937092 -53.428326 -104.149460
-75.092735 -57.749340 -106.227478
63.065800 -53.943462 -104.488098
51.399696 -53.792194 -103.995049
-59.634827 -53.053974 -105.742455
50.700455 -54.865597 -108.417191
-100.422951 -56.535603 -108.345566
-72.500359 -56.055798 -109.566833
-73.254669 -57.630325 -108.487617
55.653790 -55.291908 -107.594994
-74.012444 -54.299557 -109.425385
-62.824158 -54.207382 -109.620796
-70.493446 -54.484306 -110.743187
46.494366 -53.497952 -111.584175
-78.535973 -53.095024 -112.393677
-74.790657 -54.481052 -111.237328
-69.821259 -56.294807 -111.895462
-59.827812 -57.132519 -112.435722
46.270725 -55.649921 -114.204872
45.805878 -53.386528 -111.978607
-73.390442 -53.682705 -113.577049
-63.072922 -54.469189 -112.691872
-69.050842 -55.397324 -113.239609
49.165466 -57.216293 -115.672943
47.235607 -56.968040 -112.953590
-58.660164 -57.066418 -115.135269
43.750446 -52.853832 -115.213142
48.038300 -53.826031 -114.933418
-62.192364 -55.996738 -115.431564
43.943939 -55.562107 -115.776360
-79.891533 -55.243481 -116.683975
-64.680878 -52.175137 -114.100723
44.562408 -55.454075 -116.105911
-81.963737 -53.998302 -120.369507
43.635990 -54.353256 -117.063721
-61.378807 -55.105286 -120.719643
-69.133560 -56.126358 -118.606430
42.856922 -55.326519 -118.588531
-96.333809 -53.224297 -119.703758
-87.162437 -58.527149 -121.914581
-91.240700 -56.242401 -122.768120
-68.109360 -54.956306 -118.916931
-57.964523 -52.764095 -123.063568
-60.392216 -52.625999 -124.296394
-61.288277 -52.662018 -123.119362
-59.965172 -53.079914 -126.164627
-12.297479 -55.340260 -237.346222
-8.725521 -56.204994 -239.175735
2.376506 -54.456203 -238.230637
3.488124 -56.588200 -238.785629
3.083174 -56.190384 -237.275040
13.675371 -55.785427 -238.975601
-10.978140 -55.882889 -238.324539
17.965002 -55.316231 -237.391754
-7.218167 -52.813431 -241.015961
0.741237 -56.921875 -241.411880
-2.204666 -56.919601 -240.961700
11.390575 -54.733219 -236.568497
17.221102 -53.285591 -241.201813
-4.151595 -54.813477 -239.785858
-2.789021 -55.282890 -242.731262
-2.129072 -52.040394 -242.561371
-0.046988 -54.808563 -241.391449
5.141493 -56.263855 -238.401352
15.683033 -52.249439 -240.732758
19.302437 -54.945915 -240.912628
20.115602 -54.242115 -241.287323
-9.557159 -57.558811 -243.588257
3.502209 -55.208843 -243.446991
-15.452064 -54.951111 -241.357849
-9.463725 -56.071140 -241.576630
1.986683 -54.802547 -240.699310
-15.961610 -54.800373 -243.866150
14.276694 -53.857243 -243.075699
15.131641 -55.004719 -239.922226
18.178720 -54.584061 -241.215073
21.538025 -53.827099 -242.820618
-17.901527 -56.187405 -243.836838
-13.698208 -52.104778 -244.230545
22.100990 -56.290005 -242.534790
22.695499 -57.056324 -245.795853
21.557386 -54.239914 -247.421600
-17.017096 -55.588703 -243.947098
-15.200039 -53.850872 -246.634537
-17.128759 -53.339375 -248.790680
24.440248 -52.880024 -250.149261
10.280192 -55.792721 -248.882782
24.792547 -54.373413 -250.526794
-12.626659 -54.560139 -253.916763
-17.535416 -52.538929 -251.909363
25.134964 -55.076740 -250.304657
-12.410465 -55.657894 -254.552246
-15.249462 -55.345810 -253.842422
-18.079483 -54.141724 -251.521835
27.007822 -52.569515 -254.171341
-14.864971 -57.357937 -254.948914
26.545393 -55.503521 -253.442596
28.773830 -56.463318 -256.130646
-13.755822 -54.918983 -257.130310
23.927038 -58.887115 -255.227463
26.809582 -56.014652 -256.292053
25.692770 -56.115303 -259.809265
22.441956 -54.126293 -255.872025
-13.922294 -54.475487 -261.117249
11.061922 -59.111080 -258.819305
28.586178 -54.203484 -256.653229
-15.492695 -54.872684 -261.960052
-15.648209 -53.880569 -265.304321
-13.136781 -55.840591 -264.732361
28.454224 -55.171864 -263.722351
14.295920 -53.779232 -269.074005
-14.985685 -54.458576 -265.109589
25.176439 -55.542511 -268.229950
24.069183 -55.836620 -270.009033
-16.922583 -55.452560 -268.266632
-10.769371 -54.733013 -269.096375
29.389784 -56.242283 -268.009918
20.602354 -54.013729 -269.712311
-13.251911 -56.911121 -268.431030
27.512802 -53.816444 -270.207397
12.707378 -56.627701 -274.499573
-10.817325 -54.174187 -271.845032
22.809137 -55.762447 -272.577942
21.130880 -55.031090 -275.176788
26.340208 -54.373009 -276.304474
25.318619 -55.377388 -277.376190
-9.844934 -55.063496 -276.352814
23.669987 -55.238037 -275.747314
-8.346805 -54.085014 -279.693573
-8.427710 -57.970860 -279.146149
14.659362 -53.089638 -279.961823
13.468708 -52.560860 -279.753967
-6.829723 -56.108719 -281.519379
-13.024517 -56.506428 -282.467957
11.024638 -54.866982 -282.916138
-6.157516 -55.693150 -281.176880
14.977094 -53.699520 -283.341705
-5.153731 -53.950554 -286.982727
22.098656 -54.815159 -282.620697
21.102991 -58.182171 -285.615997
-10.485472 -55.061909 -283.788330
-6.981207 -54.244381 -287.493530
-10.464694 -55.096928 -286.646118
-0.989348 -56.483818 -286.865326
18.692873 -56.478813 -287.114349
-6.718248 -55.481068 -286.473724
20.820034 -50.990452 -284.705200
-5.798286 -54.837807 -288.060272
-0.008540 -55.528263 -288.634125
-5.787988 -56.768360 -288.373932
-3.284759 -53.227375 -290.263794
-6.151155 -51.804047 -289.377075
-1.053285 -56.705639 -289.277649
1.054005 -55.154461 -291.689270
-3.763128 -55.335850 -291.204834
-1.313673 -54.817043 -291.590912
2.527289 -54.773708 -290.040680
11.414022 -56.081596 -290.626221
15.728505 -56.204853 -294.646790
-2.849913 -56.929977 -294.005127
2.296201 -58.001614 -295.191620
9.883226 -54.543602 -295.023682
38.780296 -54.302383 -12.862237
25.393471 -55.511295 -17.066057
46.701077 -54.746868 -22.084282
22.187098 -57.786201 -22.135765
28.919590 -57.170765 -19.401413
42.647331 -55.042194 -25.701792
20.465416 -53.345886 -25.748684
18.916605 -51.629456 -32.697323
24.992596 -52.314732 -32.685043
25.230068 -56.461418 -32.851822
30.314322 -57.261932 -31.595390
20.687904 -54.134819 -34.212185
32.067276 -57.573601 -37.258999
32.368183 -55.016350 -39.796749
31.348759 -53.492340 -41.430786
35.623436 -54.562691 -39.633644
-57.266693 -54.460163 -43.292145
-81.133842 -48.540077 -46.675621
-39.886055 -54.062603 -48.887711
-19.823515 -55.949692 -47.945293
-17.663450 -53.324757 -51.141354
-14.201501 -56.992714 -51.691505
-94.431534 -53.703510 -54.564846
-8.501773 -55.209412 -54.672432
-89.644981 -55.410599 -54.314320
-95.412109 -55.799870 -53.772022
-8.284528 -55.824097 -55.920238
78.592316 -54.677517 -57.826294
90.173096 -52.482021 -58.964485
-6.210120 -55.626160 -58.902412
84.313728 -54.156364 -59.700127
-95.901939 -55.772850 -60.514015
-14.626624 -51.909519 -62.081390
-10.704436 -55.592377 -62.739517
-21.986694 -53.382648 -64.694633
69.950844 -52.951191 -58.672882
-27.671473 -52.295204 -64.032990
-62.169857 -54.455147 -62.023308
-28.985863 -53.879444 -62.530323
-61.674973 -53.015011 -67.770485
99.119972 -54.612728 -65.486206
64.858589 -53.108665 -66.749039
-98.486893 -54.650120 -68.634491
-63.616772 -52.425827 -71.585823
-63.476723 -53.085758 -71.230804
65.443481 -53.381142 -70.319061
103.688828 -56.962074 -71.609734
-63.014648 -53.544865 -72.913048
-99.599487 -53.874001 -70.203178
64.580261 -51.860615 -70.790840
103.409920 -51.575378 -75.096542
64.843857 -52.670559 -73.009193
66.543076 -55.063263 -75.864830
77.084839 -53.220169 -72.229317
85.063774 -52.294289 -75.924225
-38.316738 -57.265919 -76.624680
64.199646 -54.478294 -76.859970
77.585320 -53.317520 -77.794067
80.626976 -52.623890 -77.578285
86.685745 -52.706879 -77.667992
86.740936 -53.283726 -78.351471
-99.982368 -53.469246 -77.944359
-43.863281 -52.408642 -79.746803
65.130386 -55.074780 -78.263573
71.398117 -51.496059 -78.824181
-40.491955 -53.415241 -81.725449
66.381866 -54.349190 -79.178139
68.366890 -54.139439 -79.221786
69.617706 -54.628647 -79.603661
88.448746 -52.281307 -79.558395
91.032410 -55.154469 -81.414429
105.432625 -54.377525 -79.591858
-50.805332 -52.480068 -82.903191
61.849998 -56.520226 -80.646683
64.867203 -53.620312 -85.648270
65.985435 -53.138386 -83.798882
93.698578 -54.184776 -81.724213
-55.238483 -52.960430 -84.710892
65.883064 -54.328045 -83.704407
95.366920 -51.681313 -84.635803
-55.451889 -54.017056 -83.760277
94.797577 -50.929665 -87.236649
93.746651 -56.612076 -83.495239
103.579445 -52.742805 -89.945564
105.668930 -54.898800 -93.574745
84.930710 -52.387440 -93.119820
101.795395 -55.226578 -91.953262
76.162201 -52.383247 -94.913399
92.464951 -56.152817 -95.383957
73.377701 -53.957321 -94.920044
88.667297 -54.561447 -94.694588
91.151947 -54.005810 -95.068810
93.943199 -55.052254 -94.247566
96.455055 -50.529507 -93.740959
-70.006355 -58.945240 -96.259369
68.642731 -53.461472 -98.285439
96.070351 -54.962498 -96.190620
98.239029 -52.031338 -97.452934
65.690933 -51.860130 -97.973892
93.112122 -53.666523 -96.389198
95.000275 -53.996441 -98.677109
102.768738 -52.721027 -96.178932
87.694473 -52.395298 -98.596321
100.555672 -55.709072 -98.367409
81.451454 -54.604118 -97.862846
87.415062 -55.670452 -99.566589
98.530067 -53.193459 -98.670082
63.653866 -53.827148 -102.438484
102.260811 -54.699211 -102.519981
-71.229233 -56.485638 -101.690475
72.398453 -55.723133 -100.299889
61.565636 -54.905403 -102.407410
-99.552238 -53.179153 -103.431946
57.215973 -52.818310 -100.370102
67.487900 -52.704967 -102.114746
51.965641 -52.368206 -108.040100
57.689091 -52.767632 -104.329788
-64.098022 -53.841640 -107.130730
60.257732 -53.169231 -105.366898
-64.383606 -53.168327 -106.332909
56.060631 -51.496696 -108.479065
58.291416 -54.596497 -109.747215
-59.916218 -55.457363 -107.769478
55.880608 -52.635117 -108.456795
-77.636459 -54.929928 -108.005684
-68.548660 -53.583687 -108.457695
49.943703 -52.467766 -107.149178
53.091927 -53.629326 -107.779778
52.357471 -54.416935 -108.266747
-65.167999 -52.697334 -108.277382
50.413754 -52.954426 -110.040260
-68.028992 -54.374531 -110.632347
-60.431160 -54.973728 -109.248085
50.342606 -54.144859 -110.865974
50.487602 -53.470032 -110.241432
47.352695 -54.272495 -111.612389
-79.622498 -54.810043 -112.708458
-66.811668 -54.500000 -111.996147
-67.588173 -54.419205 -113.848412
-63.349213 -53.610291 -112.327988
-64.727821 -54.148964 -115.952034
-64.971664 -56.028587 -119.047493
-98.190880 -55.812572 -117.369827
-70.366096 -52.084785 -114.813881
-67.381607 -52.287838 -116.904999
-85.433128 -53.904667 -120.890480
-61.034191 -54.651787 -117.439789
-95.393417 -53.130081 -118.306969
-67.089432 -54.360222 -118.442177
-61.083172 -54.101234 -121.072929
-94.054749 -55.826378 -119.658157
-65.798485 -52.898792 -120.936012
-62.812645 -50.720482 -120.294052
-66.810684 -52.304867 -122.478828
-10.238297 -54.599403 -237.800720
-7.900893 -54.827557 -235.208405
-11.176615 -54.684464 -238.869217
-2.471776 -53.496162 -238.092606
-0.507506 -52.949486 -239.588654
10.405720 -54.720093 -237.593964
-8.845316 -54.370323 -237.804550
-4.190036 -52.118008 -237.848679
4.821237 -53.860355 -240.044952
17.414358 -53.083977 -238.047531
-11.568422 -53.695522 -237.791656
-4.908086 -52.782681 -238.564377
3.734151 -54.653107 -240.323578
7.749885 -54.709057 -239.720917
2.298658 -51.780739 -238.874847
16.436935 -52.281105 -242.124680
-13.882304 -52.420643 -238.673477
-14.048843 -54.071617 -239.803131
-11.882171 -53.042839 -238.793106
-10.550973 -52.474548 -239.703339
5.472179 -53.038620 -238.290771
11.337503 -56.411839 -240.934448
-15.766281 -53.135918 -240.300034
-11.975169 -53.613274 -242.729492
2.028550 -53.772079 -242.553024
-4.561887 -53.544083 -244.679199
9.291027 -54.167591 -242.048798
-16.125330 -53.716583 -242.674820
4.546835 -52.923573 -240.714417
-13.016009 -51.678932 -244.812378
21.902809 -51.367592 -242.515167
22.143930 -53.169411 -241.189957
-15.309107 -55.217636 -245.459793
24.215525 -54.789974 -247.099197
-19.129213 -53.786507 -244.902771
-13.769649 -54.850739 -250.265930
9.726103 -56.019535 -246.903427
26.033457 -53.147114 -248.189072
-13.432361 -53.215778 -246.483597
10.874789 -54.321892 -249.653641
22.390806 -51.338112 -248.344360
-17.045349 -51.704350 -248.801147
26.376846 -55.293163 -252.158417
26.340843 -52.063900 -248.903732
24.693863 -54.089878 -251.871384
14.219007 -55.822315 -252.184082
29.663099 -53.174900 -250.356674
27.634302 -52.877781 -252.466461
-16.021843 -52.415295 -255.646378
-13.937105 -52.782337 -256.358429
26.549244 -54.408329 -256.498962
26.652334 -53.279053 -260.749908
-14.976785 -53.172806 -258.583252
15.262860 -54.510944 -256.975647
24.909521 -55.145374 -260.521271
27.365417 -51.232430 -258.921753
30.024412 -52.223972 -259.043060
-9.717785 -53.026970 -261.603088
27.331057 -53.169151 -264.802887
-13.784966 -55.561886 -265.818817
-13.123737 -54.954971 -266.248352
-12.122303 -54.324986 -265.190247
29.112520 -53.936436 -263.986389
15.905636 -53.090363 -263.068085
-11.249063 -53.480576 -266.557312
-11.323589 -54.389687 -269.477783
24.712103 -51.745552 -262.383026
24.535091 -53.141434 -270.087921
27.267900 -53.171318 -267.649078
28.723703 -52.212208 -268.531403
28.424812 -53.299526 -269.421478
-11.019784 -53.552193 -269.819977
-8.243090 -54.329556 -273.790161
21.215622 -56.067619 -271.751282
-9.974580 -51.595394 -272.000885
-11.982671 -53.789337 -270.169250
14.189758 -55.280453 -270.877869
24.995609 -53.123779 -270.252533
19.134737 -52.242256 -273.550812
22.565386 -55.818756 -278.098572
-9.481250 -53.820240 -275.468079
-7.548235 -52.528873 -273.340210
16.514891 -52.524296 -273.122955
22.776096 -54.896046 -277.850281
29.038538 -53.305424 -278.027191
-10.345824 -53.485855 -278.399323
-7.306559 -52.368664 -276.955963
-10.223650 -54.274208 -277.699951
-7.635632 -55.045677 -280.037415
-8.921658 -52.762001 -279.622009
14.061541 -53.508747 -279.796539
18.723505 -54.891438 -279.418274
24.949598 -53.485310 -282.499634
-6.796663 -54.566730 -281.634064
-6.435468 -52.616722 -279.182556
-4.549393 -51.347519 -284.157593
-0.986883 -51.155563 -282.547699
-3.270093 -53.865719 -282.099274
19.541805 -54.870762 -280.232697
-6.005910 -54.339405 -283.731598
-2.913777 -54.274853 -284.724091
15.760639 -53.719101 -286.815826
19.623114 -53.448597 -288.175812
-2.933097 -53.478168 -283.930511
0.750338 -55.337372 -283.676788
5.014864 -54.549118 -285.632141
-2.367880 -53.162041 -283.628906
3.517078 -54.709785 -288.839203
-4.473650 -54.382607 -288.272675
0.694376 -51.502224 -288.016815
15.757274 -54.885670 -291.215637
-3.237071 -53.052750 -289.018738
-0.015114 -52.846046 -289.237732
14.421127 -52.737209 -289.620941
3.836757 -54.095345 -292.471680
9.526826 -56.229748 -294.625397
-3.126208 -54.537163 -291.513306
14.000642 -52.742859 -291.891510
5.001498 -53.470699 -292.931824
4.360161 -55.263191 -294.249634
4.184749 -55.159054 -293.018341
10.490931 -53.525169 -292.584991
10.597640 -53.208881 -292.573212
3.181792 -50.156822 -295.362335
