# This PCD file was generated using the MATLAB® pcwrite function
# from Computer Vision Toolbox®.
# .PCD v.7 - Point Cloud Data file format
VERSION .7
FIELDS x y z
SIZE 4 4 4
TYPE F F F
COUNT 1 1 1
WIDTH 1418
HEIGHT 1
VIEWPOINT 0 0 0 1 0 0 0
POINTS 1418
DATA ascii
-0.647440 -77.085617 -228.180130
-137.388275 -78.141380 -231.532257
-140.950211 -78.853249 -230.562759
3.412421 -78.157104 -229.374344
3.240778 -77.974762 -232.401642
9.137778 -78.662361 -235.122864
-4.610366 -77.222000 -231.583664
4.795758 -77.769211 -233.675690
15.943836 -77.597084 -231.999924
-0.633795 -76.951378 -231.427002
1.813384 -76.684830 -234.543015
-144.443634 -78.842552 -234.299591
7.901804 -80.563194 -236.442947
17.383339 -77.930359 -235.611984
-150.203552 -76.844322 -235.085464
6.616034 -77.063232 -235.190369
-21.319456 -77.775581 -237.433640
-32.489487 -77.262665 -238.497833
-28.307310 -78.164215 -238.748489
6.925660 -77.961830 -238.057663
1.162467 -77.274513 -238.860474
7.207915 -76.815277 -238.798370
-35.306496 -76.344292 -240.353851
-17.336775 -77.217125 -238.353378
-1.199415 -79.395699 -236.063919
-150.749756 -77.698860 -240.225510
-37.296429 -78.745171 -239.115997
20.876045 -78.359619 -238.227814
-41.856277 -78.110931 -240.607986
9.675498 -78.304253 -239.767441
-47.648376 -77.830780 -242.514725
-20.107754 -78.724693 -240.135757
4.836022 -75.623077 -238.991943
6.850957 -80.214920 -241.645737
-51.378330 -78.457108 -243.120270
19.932554 -77.042221 -244.783844
-147.784378 -77.216042 -241.192856
-30.989443 -78.864555 -243.647018
8.984247 -78.423210 -245.392639
-38.929585 -79.567406 -245.053345
-59.639408 -77.543411 -244.840652
18.977293 -79.799873 -246.632172
-148.254929 -77.487816 -245.823563
11.173041 -79.720589 -245.433563
-147.825729 -77.502502 -245.657425
-44.173492 -77.172295 -246.699661
1.122859 -77.015373 -247.193344
-150.307831 -77.037308 -248.486572
-145.282135 -77.052711 -247.475327
-63.272045 -77.290527 -247.576065
11.753757 -77.874565 -246.354233
21.355274 -76.251373 -246.227570
-54.318024 -76.720772 -247.448746
-50.337280 -79.697929 -247.405304
-69.279068 -76.791786 -246.596100
-65.873192 -78.931778 -246.880356
-63.422272 -77.272980 -247.571548
13.276481 -78.651924 -247.513138
23.798401 -77.436501 -247.335968
-57.008854 -78.513252 -248.087494
-4.995953 -78.553642 -248.465454
-68.209076 -77.744408 -247.902969
-62.170010 -77.534027 -248.730911
-60.075043 -76.019821 -248.703278
-64.192375 -77.031090 -248.721619
-7.113853 -78.302841 -250.104172
-146.196167 -77.001259 -252.559311
16.435377 -78.948143 -251.104324
-149.816147 -76.950531 -252.756195
-8.207898 -77.950722 -252.694519
-147.192368 -77.345856 -251.599930
17.174143 -77.533836 -251.785950
-145.118301 -76.485809 -254.936829
-11.611935 -78.630554 -256.668701
-153.580978 -79.941422 -254.387955
-142.417557 -79.669151 -254.345062
-154.972336 -81.277443 -256.856018
-141.931305 -77.774185 -256.870300
-150.232101 -83.032997 -257.403351
-146.443741 -77.123863 -259.502228
-141.455429 -76.868484 -259.118225
-137.351028 -76.774498 -258.805359
-136.422043 -77.010338 -256.819977
-136.758530 -77.015663 -260.951294
-12.421570 -77.532600 -258.493408
-141.085587 -77.918198 -260.746307
-155.125824 -78.978081 -260.829865
21.771837 -76.867111 -262.755249
-142.890625 -79.958435 -262.116028
-152.747955 -75.022308 -263.758423
-143.300171 -77.005539 -261.778229
20.369938 -78.613548 -264.524994
-144.572601 -79.873505 -263.723480
-147.402008 -77.025940 -264.818481
-11.669698 -79.615372 -266.319885
-149.625900 -77.914299 -267.352997
-146.971771 -77.715080 -269.424377
-150.017334 -78.251648 -270.505920
18.959270 -77.972038 -269.453644
-150.412643 -77.584198 -276.140320
-147.810394 -76.810013 -276.781158
-147.238525 -75.569748 -277.090698
-147.184052 -77.925568 -277.927551
-1.880111 -77.006134 -281.961700
-146.837173 -78.061600 -282.203156
-150.936783 -77.905670 -281.514954
-1.569571 -78.090134 -281.271759
7.099537 -78.752655 -283.527405
9.368222 -76.683319 -283.819305
1.862130 -76.744812 -282.844025
-142.910309 -75.819679 -285.996277
-142.160919 -79.117722 -287.111237
-32.382946 -76.619759 -287.419006
-42.092999 -78.837257 -287.139954
-26.830439 -78.130829 -287.188171
-32.709084 -76.525940 -288.230255
-16.381611 -77.307335 -285.980316
-127.243721 -77.298759 -287.193756
-51.420410 -77.792343 -287.671051
-44.988842 -77.116203 -287.016388
-37.008377 -76.466530 -287.634369
-26.397110 -77.128891 -287.462219
-13.469982 -77.735107 -288.959534
-132.027130 -76.457130 -286.913605
-32.476471 -77.697617 -287.926910
-21.450138 -77.581619 -288.205017
-17.429543 -76.955574 -289.051758
-5.378973 -76.961868 -287.938446
-156.026352 -78.082817 -288.921295
-54.799816 -75.219284 -288.732269
-37.547195 -77.635887 -288.623657
-4.837643 -76.550766 -288.287994
4.561437 -77.906082 -288.211029
-131.271301 -77.216690 -288.128540
-48.502235 -76.847527 -287.693787
-11.546018 -77.533966 -289.140076
-133.019821 -76.374191 -289.828491
-126.381973 -78.089073 -290.511047
-52.541672 -76.619240 -290.691833
3.391789 -77.007027 -288.956726
6.037350 -78.427902 -288.565948
14.903716 -78.758507 -290.572906
-125.924469 -76.556213 -289.416107
-48.801670 -77.080482 -288.605042
9.716200 -77.601234 -289.677155
-128.541824 -77.064713 -289.313385
-45.822815 -77.260498 -288.495178
-40.458344 -77.535133 -291.013336
-23.187599 -78.571770 -289.635040
-13.508921 -78.917923 -288.876434
-6.381322 -77.615746 -288.926025
-39.839214 -77.688492 -290.041656
-34.266144 -78.322655 -290.694305
-31.532244 -78.024757 -290.251251
-14.139597 -76.628113 -290.646698
-1.961636 -78.354149 -291.444214
-134.086151 -78.024513 -290.733765
-127.128120 -77.454262 -290.685730
3.688312 -77.517944 -290.452087
-7.358874 -76.595901 -290.624573
0.951558 -77.198578 -291.832367
-143.252136 -81.679794 -291.626953
9.485188 -78.334183 -291.399200
14.179337 -76.960091 -291.000366
9.283979 -76.665810 -292.596069
13.797813 -76.932236 -293.035461
-145.644394 -78.153542 -295.023010
-145.630844 -76.594368 -303.710938
-151.623230 -78.195526 -302.148651
-148.994553 -78.921959 -301.963806
-153.579346 -78.885979 -304.769257
-152.855042 -78.009857 -305.898804
-146.587219 -77.900887 -307.609772
-152.240494 -80.030579 -307.958954
-151.195602 -77.931824 -312.859772
-146.863907 -76.877098 -312.871948
-64.062798 -76.432716 -55.952858
-59.680752 -76.366707 -56.659977
-54.629314 -76.720650 -55.239822
-48.594570 -76.047432 -56.060341
-61.253731 -76.746735 -57.607216
-54.613247 -76.631897 -56.920383
-46.728161 -76.423416 -57.212154
-66.729019 -77.248138 -57.473495
-70.530144 -75.695869 -57.540932
-43.555752 -76.367409 -57.938271
-72.986000 -75.240440 -58.962585
-38.459667 -75.868805 -58.239483
-39.808235 -77.287384 -58.818565
-35.891235 -75.549980 -61.410107
-35.280609 -76.631042 -62.753353
-80.504181 -75.856270 -63.233761
-26.897070 -75.707848 -66.927490
-26.804508 -75.970894 -65.142212
-82.907494 -75.381004 -63.572392
-79.467499 -76.928810 -66.357689
-81.968346 -76.959656 -70.128288
-23.607357 -75.796112 -72.849304
-21.897205 -77.016731 -69.818726
-23.285780 -77.095024 -72.522362
-23.404278 -77.401085 -74.751633
-27.174948 -77.185783 -77.651314
79.207634 -77.483444 -76.302567
74.868744 -74.763382 -77.793510
-28.337637 -76.792580 -77.640923
81.613869 -77.158226 -79.667702
-30.078468 -77.832649 -79.421692
82.594498 -75.950508 -78.151070
78.831718 -76.440529 -78.988342
86.829819 -77.117371 -79.608589
-38.897511 -75.586098 -81.592453
-86.941277 -77.697800 -82.222046
80.830322 -77.190804 -80.953690
88.092957 -76.099648 -81.099686
85.639320 -77.967606 -81.335815
-40.867580 -76.862801 -81.357704
-87.679184 -77.723045 -84.016724
-90.349739 -74.676521 -82.353104
89.930168 -76.984299 -81.888481
-42.348270 -75.042259 -84.663368
-46.915970 -78.343880 -85.595871
-46.754791 -78.972534 -85.191780
75.945389 -75.222252 -84.325813
92.667686 -76.687653 -85.710915
-89.381554 -77.357246 -86.033836
93.692474 -76.382973 -86.721268
91.784897 -77.502480 -88.876450
93.953941 -76.779579 -89.778946
-91.547066 -77.026360 -90.559647
76.082695 -77.274246 -92.754883
77.883217 -76.841782 -91.675835
-61.160328 -77.207588 -94.688004
84.717056 -76.444145 -92.290329
-64.155067 -77.582008 -94.010864
90.881142 -76.952240 -92.612709
80.510483 -76.290062 -93.855057
82.250511 -76.895058 -94.279190
78.050064 -75.687485 -95.591095
87.722244 -77.535912 -93.552567
85.180534 -75.398026 -94.584618
-63.460377 -76.911133 -96.428268
52.759956 -76.045334 -96.583969
49.432243 -77.132294 -99.693832
54.770363 -76.440483 -96.436844
-68.388466 -77.598434 -100.474236
-71.484627 -76.884438 -101.533791
47.113441 -76.866486 -98.690018
50.368370 -74.954323 -100.793938
47.551609 -76.301048 -103.576973
49.290768 -76.263977 -104.496735
47.360004 -76.799492 -104.589890
41.261723 -78.848518 -106.101410
40.176403 -76.763924 -107.300156
-82.142220 -78.256462 -107.098976
37.721149 -75.723633 -109.218338
41.892689 -76.925102 -111.104599
49.133671 -77.954010 -111.132187
-90.778999 -76.917763 -112.922852
38.430443 -76.559692 -114.170479
-90.445946 -77.238480 -112.224373
-86.633499 -78.114136 -113.028336
49.180893 -75.929695 -112.243996
45.848045 -76.673790 -113.916893
35.370667 -77.569054 -115.468658
47.867649 -77.516106 -117.161751
35.561123 -76.109222 -120.915810
44.220116 -76.781448 -118.628540
44.450123 -77.417839 -120.560669
33.832767 -77.981888 -122.306137
43.796612 -76.788132 -124.849640
32.140884 -76.221245 -127.824310
40.968094 -76.426437 -125.220757
28.914074 -76.195564 -128.153839
40.946545 -76.541885 -128.854309
110.902367 -75.635315 -126.418297
37.714729 -77.768745 -130.556030
111.006088 -76.170586 -134.249191
29.297991 -77.675873 -136.917480
37.017513 -76.646591 -134.056992
38.463280 -76.310356 -133.843658
113.765373 -76.904404 -133.448639
26.367100 -76.889572 -135.341049
27.220207 -74.311432 -138.104187
29.560774 -76.530983 -136.079025
-52.619160 -77.304176 -137.483459
111.658028 -75.652084 -136.422089
-49.309624 -76.827675 -141.564285
35.599430 -77.192024 -141.736328
-55.467655 -75.910194 -140.183731
38.189777 -77.636139 -139.626266
113.025375 -76.468552 -138.561676
28.067970 -77.507492 -140.331497
-49.988522 -76.420540 -142.946396
-45.702961 -76.868141 -143.339844
-53.490253 -77.284355 -145.608353
-47.476658 -75.241402 -144.682419
-42.821632 -76.904221 -147.571411
35.257259 -78.184586 -145.562195
26.839090 -76.190559 -146.062698
-44.067829 -75.289139 -146.721985
115.030464 -76.510544 -142.072037
-49.798920 -76.654350 -144.881912
112.837280 -77.557060 -145.977692
-46.220638 -76.635048 -147.534637
110.766335 -75.611252 -143.472855
113.225883 -76.551689 -146.731033
32.452885 -76.822197 -150.073853
25.896002 -76.445313 -148.482788
23.792458 -77.246353 -149.013412
112.556343 -76.789574 -153.142181
113.840775 -75.886276 -148.526718
35.383385 -76.092987 -151.318909
34.148022 -76.753311 -150.407303
-53.303928 -76.890251 -149.104111
-41.788601 -77.228432 -151.479736
-69.387405 -77.117599 -151.437103
-67.570625 -76.297134 -151.034348
-49.145248 -76.998917 -150.179184
111.314751 -77.209518 -153.505768
23.045633 -77.290947 -154.364471
26.128967 -77.247917 -152.851044
-42.495872 -76.832977 -152.594940
113.770363 -77.257423 -155.931808
34.142204 -77.477585 -153.623764
-66.351791 -76.951408 -153.609894
-68.523209 -77.441994 -155.705368
-65.524338 -77.573059 -155.280167
-39.215450 -78.043060 -153.174179
116.019424 -76.282288 -154.384567
-68.328369 -78.108719 -155.687347
-47.648331 -76.584229 -154.256943
31.086798 -77.459633 -155.832855
111.222847 -76.299980 -158.646530
-48.270821 -76.199905 -158.894714
24.526896 -77.278221 -158.545654
-63.348541 -75.540680 -157.696991
7.570475 -75.243446 -158.763336
3.892263 -76.758408 -158.764664
-37.498779 -75.904617 -160.266357
111.152107 -77.129364 -157.843750
111.349907 -75.922867 -159.765884
-65.034233 -76.923515 -162.384903
-35.174995 -75.552292 -160.789841
-34.168392 -76.088600 -160.525635
-61.720280 -77.442413 -161.222153
-44.475750 -75.462318 -161.025528
-0.472270 -76.498695 -161.334854
32.154556 -76.179420 -158.943817
29.393066 -77.258034 -159.713287
110.387260 -77.388672 -163.600510
112.914680 -77.386314 -159.635864
115.415504 -75.960312 -162.423553
-48.267803 -75.806526 -161.569458
19.892281 -75.726807 -160.933731
-68.920219 -76.952652 -159.819199
-31.697868 -74.837418 -162.474762
21.701244 -77.275108 -164.232193
-35.408752 -76.027061 -161.815750
-67.794861 -76.568069 -164.344162
-62.951973 -76.253204 -163.247437
-34.135632 -76.838989 -164.183777
4.342318 -76.739922 -163.511719
109.437569 -76.593918 -163.621674
113.362282 -76.385010 -164.756851
-63.559132 -76.185661 -164.805420
29.623383 -77.104187 -163.628067
-65.007103 -74.580780 -164.923386
-4.895456 -76.400337 -164.643661
3.110294 -76.641869 -166.848480
28.310482 -77.174393 -169.161621
30.764048 -77.824249 -167.283279
112.463791 -75.791527 -166.703186
-61.529560 -76.365303 -168.111618
-62.590828 -76.613739 -164.190506
-32.494728 -77.197037 -165.782928
108.653709 -76.203690 -168.412552
-30.966785 -77.748672 -165.566574
-66.339203 -77.600769 -166.348526
-42.525719 -76.485985 -165.660797
-0.052166 -77.258461 -168.324097
-59.791340 -77.203743 -167.873901
-2.001941 -75.723740 -169.816086
22.682550 -77.037857 -169.480591
-54.676453 -76.980415 -172.041412
-42.442959 -76.249847 -170.366364
-39.349487 -76.649139 -170.837265
-29.057404 -77.977234 -173.589233
-11.424687 -75.957031 -172.539078
18.429279 -77.712929 -171.288437
-3.645417 -77.151138 -171.120346
107.756020 -75.469955 -170.536316
-62.080940 -76.617188 -170.411102
-57.513985 -77.262199 -172.206512
-40.566448 -78.354729 -172.794220
-13.068036 -76.663918 -172.218506
110.767616 -77.864922 -172.945984
-24.000368 -75.593758 -175.178360
-12.007977 -75.661942 -173.333679
-7.521120 -75.884651 -174.039963
-29.276287 -77.436783 -174.661423
-59.357025 -76.309280 -173.306290
-9.329817 -76.899986 -174.152161
-10.298512 -77.482101 -176.619827
20.809969 -76.206421 -173.795212
26.678904 -76.659302 -172.908554
-57.205830 -76.328133 -175.190979
-26.179636 -75.979782 -176.058121
-13.344754 -76.427124 -176.358551
-13.204048 -76.540779 -176.774445
107.914207 -78.079361 -175.094574
-37.959564 -76.878723 -176.245010
16.394995 -74.936050 -176.542236
19.237991 -78.021973 -176.126343
112.170746 -74.833481 -177.226028
-24.019693 -75.848091 -176.903732
-37.057545 -77.227020 -173.547913
-57.695072 -75.807411 -176.906631
17.646408 -75.846603 -179.809875
27.095516 -75.928932 -176.477203
-57.458660 -74.893196 -176.446960
-33.160435 -77.311211 -180.291016
-23.531736 -75.868317 -180.937088
-50.491421 -78.289238 -182.112900
24.023066 -77.091911 -177.084045
-59.331505 -77.827736 -180.105408
-23.184349 -77.132439 -181.069199
-55.872089 -75.441711 -175.994553
20.961168 -75.590805 -180.855774
105.205620 -77.201118 -181.030350
-55.275028 -77.828049 -180.234024
105.168030 -77.545898 -182.787582
26.964327 -76.325806 -180.960022
-56.635468 -76.282608 -183.074265
-34.719528 -77.291206 -180.367371
-54.837822 -76.702965 -182.980927
109.630119 -77.197075 -182.184158
15.793187 -76.079994 -181.624557
108.592628 -77.851463 -184.079269
-20.636044 -76.955704 -184.374924
18.725136 -76.534546 -186.377975
-57.275341 -77.554222 -183.852493
-53.300243 -76.771446 -183.229111
-48.829945 -76.813438 -182.979248
107.536575 -76.929581 -186.768661
-22.648010 -77.104866 -184.670731
103.874344 -78.144264 -185.397202
-19.869461 -76.635811 -185.861221
21.472101 -76.345367 -182.167526
-149.813995 -77.748657 -186.722153
-144.738113 -76.679794 -187.103577
-55.237541 -77.877823 -186.385422
-28.356852 -76.565727 -188.044205
23.937727 -76.927406 -185.234573
101.919777 -77.692001 -188.644150
-31.725742 -76.228477 -189.133026
-19.700727 -76.652794 -189.416306
-30.689026 -76.795143 -188.900452
13.892972 -75.962791 -188.481873
-41.661980 -75.987686 -191.623718
106.471138 -77.671043 -189.063385
20.179565 -76.665611 -189.103210
107.694374 -75.398788 -189.223862
13.058230 -78.143356 -192.530609
-17.460400 -76.271843 -190.737915
17.190762 -77.741119 -192.052780
19.230112 -76.630173 -193.854675
20.789198 -76.420204 -194.145248
100.508102 -77.187416 -191.193619
-150.552780 -77.279999 -193.222687
-50.510941 -77.467598 -194.132248
-18.319216 -76.944344 -193.218597
-27.248234 -77.814430 -194.118744
-26.132116 -76.495461 -193.053360
-48.862514 -77.214828 -194.670486
101.077080 -78.027939 -194.092438
-39.982349 -76.901253 -194.623428
15.030144 -76.148842 -197.177231
-135.710571 -75.498344 -197.382431
-47.228413 -77.359360 -196.304718
-153.000259 -78.982468 -196.846939
-147.468216 -76.933006 -197.505768
102.761757 -78.060883 -196.427200
-38.371044 -76.278473 -197.100327
-24.671371 -77.874825 -200.099640
13.139335 -75.753365 -196.391861
-154.845291 -77.221565 -199.035126
11.889168 -78.307068 -198.776215
-15.319510 -76.694664 -197.671143
-46.162388 -75.921913 -198.107315
-41.891205 -77.406487 -196.929977
-36.358070 -77.313644 -198.869370
98.292763 -77.723602 -198.471008
-148.385452 -77.449242 -199.667679
-148.384811 -78.813141 -201.003357
-146.432144 -77.245430 -200.576828
17.722763 -77.081467 -196.359406
-44.546989 -77.921555 -200.947403
102.211754 -77.515991 -200.502213
12.708573 -76.803917 -199.434601
-37.431610 -77.140892 -200.918976
-33.812057 -79.221626 -199.847900
-22.728458 -77.019691 -202.114029
21.199963 -76.694191 -201.625443
-151.448441 -76.840881 -204.521301
-39.688114 -77.279266 -202.280182
-36.210133 -75.736862 -204.147522
-30.830011 -77.238373 -204.353851
98.946663 -77.475372 -203.793747
-13.215718 -75.826942 -202.865616
-19.756474 -76.531784 -203.865021
11.129534 -77.233299 -204.725128
-150.125885 -78.008812 -204.477188
-41.707390 -76.356956 -204.926071
-35.709980 -75.803200 -205.206650
16.103691 -76.647560 -206.317123
95.598511 -77.790543 -202.449219
-148.580093 -76.597099 -207.844223
-144.976990 -76.389679 -205.962601
-7.829364 -76.038841 -207.250641
-15.900102 -77.238922 -209.747574
17.286196 -74.966690 -207.927963
-35.831322 -77.698669 -204.629974
-32.970875 -76.382942 -205.479950
-19.420298 -76.901665 -207.239777
8.499241 -76.777336 -207.746445
-33.424576 -75.675293 -206.868439
93.162651 -77.001801 -208.838318
-29.403811 -75.697556 -208.405106
-76.040596 -78.124123 -209.749619
-70.097115 -76.277771 -209.323807
-32.079437 -75.687981 -210.340836
17.763674 -76.880196 -208.592316
-150.363998 -77.271042 -208.783539
-10.398603 -76.470024 -209.794296
-83.043587 -78.051353 -211.041565
-73.934525 -76.462494 -209.722336
-27.618244 -78.259132 -208.508896
94.321831 -76.734138 -210.364655
-17.368319 -76.508972 -210.933075
-30.157333 -76.147171 -208.152725
94.566658 -75.710556 -213.992386
-69.510956 -76.437088 -211.929367
-6.871848 -78.097061 -211.656906
-72.972122 -75.084740 -213.147766
-30.770966 -77.308037 -211.837402
-14.422820 -76.908455 -213.832306
-147.382736 -76.456253 -211.427292
-71.341393 -77.859940 -212.190186
-34.382366 -76.219833 -211.815414
7.671288 -76.433502 -212.605576
87.914474 -75.845016 -214.333496
-75.624092 -75.938438 -212.941208
16.286388 -77.016006 -209.820068
90.146767 -77.031845 -212.537857
-75.800446 -77.282722 -214.951416
-28.074785 -75.639854 -212.305435
-4.480609 -76.654228 -214.769226
92.239616 -75.101471 -213.345703
-32.834183 -76.943756 -215.130432
-16.851936 -76.047157 -213.789581
-76.191139 -77.553841 -214.686035
-23.833271 -75.938881 -216.330383
-14.046060 -76.719612 -217.426208
9.952390 -76.463737 -212.144531
18.156977 -77.943237 -217.111542
-148.611923 -76.348244 -216.982117
-148.405945 -76.887100 -214.615082
-78.702080 -75.415237 -216.036682
-22.046741 -75.727402 -215.699860
-147.271484 -76.875145 -215.954697
-31.435358 -75.258293 -216.828293
-7.149744 -77.406898 -212.842453
-93.192436 -77.417397 -217.062653
-26.382509 -76.288849 -216.725128
89.091469 -76.921112 -217.134628
-91.048103 -76.809822 -216.544235
-83.395653 -76.448433 -216.502213
-1.841561 -76.103889 -216.836197
8.799860 -76.447563 -218.003235
86.918533 -76.839897 -217.838211
-150.045517 -76.125214 -217.394897
-4.638993 -76.617134 -216.819427
5.385556 -75.883018 -217.070145
-91.864410 -76.241737 -218.634964
-23.270218 -76.672012 -218.008911
-91.425468 -75.719643 -219.403503
-87.782745 -75.539047 -218.174896
-23.178720 -76.841469 -218.193924
-1.512524 -76.008331 -220.185776
-20.403873 -77.820709 -218.086685
-151.070221 -78.348312 -219.036850
-9.725785 -75.754654 -217.802048
87.489929 -75.892715 -217.098465
90.003845 -76.300499 -220.074127
6.090176 -76.708412 -221.028580
15.968988 -75.896194 -215.526474
84.244797 -75.768539 -219.911743
-18.068005 -77.531334 -221.783508
-2.523492 -76.890205 -220.072708
85.262177 -75.958649 -220.389114
-27.056898 -76.810341 -220.618195
-8.921407 -77.772667 -225.016281
-2.558577 -77.724907 -222.670532
85.375526 -75.663345 -221.755753
-20.598257 -75.485954 -224.060074
-149.901260 -78.990997 -223.186874
-16.304121 -77.889412 -222.879288
9.055930 -77.573036 -224.110306
16.130104 -76.316040 -222.665863
-144.084198 -77.281555 -224.166840
-7.333378 -76.829842 -225.278152
-8.346323 -76.676048 -224.406616
0.896401 -77.206017 -224.832626
82.704727 -76.637352 -225.524307
82.553299 -77.310394 -222.450790
-13.689439 -76.190712 -224.927597
-153.992035 -77.582649 -226.382660
-20.035164 -77.426933 -224.305832
0.077798 -76.278069 -226.383743
2.957418 -79.121468 -226.964066
-146.566269 -80.069427 -227.109192
-139.910980 -75.085152 -226.571014
-16.093788 -77.475517 -225.760925
16.396626 -77.566040 -228.160629
-153.259857 -77.508804 -226.813461
-138.310577 -76.165695 -228.126129
-136.027054 -76.041504 -227.212845
-148.997131 -77.576141 -228.978546
8.282509 -77.458771 -227.113495
-6.017487 -77.105225 -228.870392
-11.306541 -75.141426 -227.768326
1.193319 -76.405663 -230.246536
-155.114990 -76.640030 -230.030075
-146.863419 -76.026230 -231.061523
-135.781281 -76.760246 -229.063492
-12.170599 -75.327873 -230.997986
-147.574600 -77.310982 -230.832611
-141.322235 -76.912270 -230.164810
-135.308334 -77.162956 -231.150024
-0.801422 -76.631943 -233.275604
8.378958 -75.536743 -230.482483
-137.013092 -75.914886 -230.478745
6.570846 -76.452049 -231.402100
-141.197662 -78.364281 -232.484283
5.081321 -77.952995 -231.932251
5.620607 -75.791664 -234.190552
-143.419556 -78.552536 -234.283310
-149.125671 -77.498177 -235.899063
-146.315796 -77.625412 -235.338913
-0.412283 -77.065193 -237.111221
18.248171 -76.057091 -236.605682
19.962519 -76.877983 -234.553772
-145.186798 -77.141640 -235.770477
-2.438904 -76.679184 -236.039505
2.036257 -75.883209 -236.197281
-0.293723 -75.498100 -238.142014
-30.283157 -77.159149 -238.287430
-17.814276 -76.676308 -237.852097
-146.612762 -76.887474 -239.641571
5.276728 -75.227608 -238.495911
20.346375 -75.158051 -238.148087
-15.373790 -76.474701 -239.654785
19.209583 -77.804787 -238.450394
-40.317799 -75.734344 -238.866196
2.507337 -77.053001 -239.805969
-149.002243 -77.190872 -239.028076
19.887299 -77.137085 -241.394409
-148.891357 -77.002945 -242.471817
-147.009842 -76.830818 -242.074020
-44.594433 -77.704155 -239.788849
8.408412 -76.618958 -239.783234
-48.687901 -77.094246 -243.446579
3.203228 -76.452515 -241.879242
-150.896576 -75.917061 -241.033798
-52.969810 -75.205101 -242.501328
-22.970091 -76.479782 -242.059280
5.908180 -76.878967 -243.814026
6.902474 -76.115616 -242.641357
-150.127823 -79.017311 -244.064209
-31.628155 -76.505341 -243.934311
-26.610689 -76.818871 -242.720963
6.650254 -75.944870 -242.747757
7.675152 -76.799103 -244.335663
8.474948 -77.064507 -244.208267
-35.177456 -78.000061 -243.579391
-37.796993 -77.884964 -245.016541
4.544032 -76.436943 -244.669922
-63.394779 -77.930717 -246.404617
-41.277039 -77.576523 -246.512070
-39.563126 -76.833702 -245.124680
-145.346390 -76.281898 -247.267105
-65.294571 -76.984123 -245.415573
3.526145 -77.834923 -246.755707
21.058151 -78.026939 -245.123032
22.317776 -77.066422 -245.788406
-46.425400 -76.896690 -246.259262
-1.225174 -75.204964 -247.833710
-48.290752 -77.019447 -247.548874
-150.046326 -77.093468 -244.651505
-146.481522 -77.235657 -248.778503
-6.352021 -77.138763 -247.810486
-150.951691 -76.390160 -248.944412
-56.334431 -75.848946 -248.808395
-71.278549 -75.860527 -248.713821
-7.890787 -76.480362 -248.705353
-145.522736 -76.942421 -246.964172
-74.289177 -76.634300 -248.563126
-69.116501 -76.688347 -251.052170
-75.467674 -76.332893 -250.793350
-69.625114 -77.718323 -250.182327
-8.472680 -77.108246 -250.491714
-76.899719 -75.934624 -252.198441
-12.395424 -77.129951 -252.419693
-154.050369 -79.522522 -254.964615
-155.405090 -78.762650 -257.805206
-149.470764 -79.096863 -259.292633
-129.168945 -76.111649 -258.724640
-149.087082 -73.969734 -260.424316
-132.043869 -75.832275 -260.147430
-129.855194 -75.378975 -260.709198
-12.231296 -76.576698 -262.353088
-12.037868 -77.181824 -264.558655
21.389021 -75.852127 -263.655945
-146.259308 -78.226463 -264.043060
-150.787018 -78.480675 -265.590790
-12.975034 -77.437386 -267.725311
21.315348 -75.853241 -269.949097
-10.774274 -76.281151 -272.925781
19.953129 -75.512184 -270.540894
-147.235458 -78.261841 -272.174866
18.780714 -77.340935 -272.925873
-8.233533 -77.303558 -275.882111
-150.241653 -76.911842 -277.384491
17.065790 -78.153473 -277.180878
-7.323668 -77.590622 -276.322388
-6.506383 -75.528732 -279.421143
-3.338387 -77.505196 -280.949036
-151.106674 -76.768890 -282.314758
-4.260767 -75.646477 -282.518066
-147.594238 -78.834274 -282.917786
-153.519730 -75.010017 -283.317993
-4.017727 -76.237839 -282.067505
-0.308738 -76.091698 -284.183685
3.069475 -77.035881 -284.460602
-129.275223 -75.777344 -286.759766
7.769811 -76.360550 -285.622589
-46.064022 -76.131760 -284.925262
-30.836292 -76.761505 -285.997162
-46.929985 -74.926575 -287.013672
-41.225788 -77.516106 -286.431152
-35.902271 -76.438980 -288.538208
-28.093653 -76.422951 -286.563232
-133.849716 -77.435074 -287.386353
-132.482803 -76.353882 -285.917236
-127.669556 -76.088249 -287.712189
-63.076317 -77.301979 -287.293579
-56.768734 -76.243492 -286.721344
-53.708530 -76.900421 -287.178131
-15.203865 -76.605659 -287.575226
-71.205208 -75.317879 -286.799927
-67.744217 -76.451759 -287.836304
-61.717106 -76.083954 -288.222321
-10.736328 -77.082443 -287.295471
-125.272232 -76.864166 -286.924866
-125.970398 -77.021996 -287.696198
-68.912445 -77.657196 -288.038666
-147.688232 -77.996162 -287.911957
-123.793175 -77.027023 -288.813843
-77.240021 -76.542343 -288.688782
-72.532951 -77.162178 -287.620270
-67.054672 -76.407280 -288.579254
11.913715 -77.414711 -288.167450
-120.163834 -77.258163 -288.427887
-58.488708 -76.953941 -288.498932
-56.850983 -76.209396 -289.620697
14.405973 -78.079216 -288.018738
-142.451096 -75.186531 -289.159607
-117.850891 -76.941292 -290.415222
-72.361420 -77.268112 -289.621613
-65.524414 -76.121620 -289.875031
15.376740 -77.588440 -290.409821
-142.352570 -77.790329 -289.229736
-124.311432 -76.071381 -290.433563
-117.410995 -77.748642 -290.141663
-67.849113 -76.074181 -290.754913
-58.253311 -77.094276 -290.452911
-50.385250 -77.071350 -289.779663
-44.675270 -76.431183 -290.084045
-143.098480 -75.963333 -291.083527
-125.467079 -77.037216 -290.664520
-38.907349 -76.809822 -290.067230
-32.624588 -77.062050 -290.893524
-23.854877 -77.203751 -291.816010
-17.773752 -77.381607 -291.708954
-134.365845 -77.738716 -291.807159
-126.602837 -77.909218 -290.753784
-9.997626 -77.737106 -291.325287
-1.075263 -76.795197 -290.924194
-129.754440 -76.717186 -292.250305
-11.445732 -76.303963 -292.472748
-126.371727 -76.857864 -291.941284
4.517097 -78.059189 -291.960602
14.401806 -76.843369 -291.557556
-151.707657 -78.233643 -294.254272
-144.907257 -77.451691 -293.692047
12.622402 -78.138885 -293.875427
-151.054794 -76.925957 -295.127655
-148.790878 -76.728287 -295.530914
-148.312393 -75.319115 -294.563019
-151.344452 -76.341255 -299.056854
-149.011200 -75.908394 -300.463684
-147.668823 -75.886459 -298.555786
-153.447464 -76.853920 -302.089233
-145.200363 -77.556694 -300.701508
-152.716599 -76.641350 -304.991608
-146.944199 -78.413185 -304.392059
-153.061188 -77.159042 -306.474304
-146.187363 -76.907570 -306.418671
-144.364792 -75.789398 -306.497040
-155.261841 -76.551407 -309.298401
-147.364868 -77.923950 -310.668732
-153.052856 -76.891655 -311.298035
-53.749878 -75.483192 -54.851379
-63.403519 -75.393913 -54.367771
-57.963207 -75.394951 -54.448700
-56.260223 -75.575569 -54.729931
-51.240654 -75.976402 -55.618996
-44.459911 -76.259247 -55.880337
-47.799767 -75.230179 -54.308292
-58.622902 -76.676994 -54.559601
-42.168846 -75.929039 -54.434559
-73.614006 -74.771294 -57.590752
-70.316269 -75.859169 -57.157921
-66.794952 -76.406403 -56.082100
-39.028316 -75.158348 -55.695087
-36.124367 -76.092659 -59.064407
-40.817619 -75.086098 -57.652840
-32.032196 -75.646393 -59.861660
-33.767048 -76.694016 -60.586185
-81.653404 -73.706390 -63.043953
-31.006788 -75.265686 -61.028469
-28.200127 -75.187935 -63.808231
-25.600267 -74.594666 -65.747276
-21.363785 -75.088219 -65.689484
-21.346443 -77.046013 -67.794159
-21.239204 -75.371399 -69.882668
-87.872009 -74.988266 -69.655556
81.110146 -74.105133 -72.388695
-87.587509 -76.315918 -72.201775
-86.960693 -77.440933 -75.695328
83.696541 -75.736382 -74.772476
87.939018 -74.862106 -74.844208
87.290802 -74.575760 -76.127647
90.510483 -74.144333 -73.998024
80.079208 -76.655022 -75.415932
83.247719 -76.723167 -76.624413
-25.171515 -76.068619 -75.876137
88.788719 -75.733879 -76.591904
87.261429 -75.939339 -79.730225
-26.565489 -76.019722 -76.584106
90.801514 -75.890198 -77.956451
85.774193 -76.900757 -78.785278
85.339256 -74.099411 -74.767143
-32.792542 -74.932388 -78.179131
-36.621082 -74.616341 -80.198639
-33.986694 -76.154808 -79.308807
89.517845 -76.664261 -79.485886
-37.387184 -75.536911 -78.930687
77.980988 -75.296989 -79.633148
92.519226 -74.735306 -80.604317
77.041237 -77.125648 -81.319939
92.862335 -76.332184 -82.011185
-40.915089 -76.711288 -83.887695
95.532646 -74.483910 -82.449081
75.265434 -76.816765 -83.302315
-91.023598 -76.223640 -83.676079
-91.637978 -73.702042 -86.114967
-47.637859 -74.809258 -85.531075
94.967018 -77.093819 -85.516953
74.859764 -77.124329 -86.142982
73.374313 -75.865417 -87.797325
74.534676 -76.544632 -89.641891
95.788567 -74.964783 -86.639702
-55.309734 -76.837440 -92.410995
73.721375 -75.865654 -91.106537
73.133186 -74.774918 -92.860298
94.278801 -75.857376 -90.935074
-58.069435 -76.017159 -92.767349
93.471733 -75.486870 -94.289818
91.946510 -75.943474 -92.935791
53.606796 -74.455093 -93.641716
82.457054 -75.742424 -94.522896
75.152176 -75.583748 -93.681786
55.707581 -76.037910 -95.828300
84.666885 -74.805794 -95.694672
-65.266144 -76.103836 -95.751877
50.105209 -77.127785 -95.744125
93.225578 -75.913490 -96.398674
90.539093 -76.564827 -95.258636
80.070152 -76.012947 -96.269424
87.974236 -77.502159 -96.363708
88.441017 -75.472420 -95.942421
77.024643 -74.704979 -97.016151
82.199730 -75.600983 -98.343193
87.981827 -74.851341 -98.989624
90.956650 -75.011803 -98.971336
87.379700 -74.210960 -98.498634
45.882385 -75.279686 -99.156731
49.152237 -74.388939 -97.781540
51.569523 -74.529633 -97.676872
55.536499 -76.318817 -97.214325
55.488609 -75.423317 -100.990402
-77.123695 -77.184433 -101.549713
-79.700165 -75.874779 -100.341980
43.835373 -75.248718 -99.891136
48.752041 -76.000534 -101.019684
-74.785667 -76.381348 -102.329323
47.253975 -74.967216 -101.789253
51.839615 -75.047806 -102.698853
-81.459259 -75.351143 -103.342232
42.360996 -76.057930 -103.133392
54.920876 -74.622955 -102.989182
-89.267761 -77.649918 -101.509453
-80.568184 -78.187698 -106.375160
44.262760 -76.818848 -103.563477
50.938499 -76.321747 -107.381767
49.248657 -74.942543 -105.927834
41.868076 -75.248131 -107.981766
-83.026871 -77.146706 -109.056679
-91.739502 -77.292450 -106.919098
35.053028 -77.003807 -113.054062
-92.875916 -74.735260 -115.338387
-88.811584 -75.925720 -113.967575
47.179180 -75.254196 -113.977547
-91.000893 -75.603966 -115.600479
-90.466927 -77.270912 -115.144432
44.479038 -75.774673 -119.115326
33.249352 -75.947105 -118.884888
35.094807 -75.826012 -119.005249
110.933746 -75.016945 -116.465538
32.546623 -77.097412 -121.663376
110.719551 -75.751671 -126.651039
35.117886 -76.628654 -119.889175
32.961445 -76.664345 -124.201363
41.859276 -75.657692 -123.133430
31.370016 -74.559967 -124.025497
30.177841 -75.908669 -125.994621
112.417824 -75.877472 -122.156181
113.914330 -75.271172 -128.399124
111.993080 -76.881157 -130.366470
42.246426 -75.645012 -127.301048
41.300068 -75.665619 -129.552414
29.722343 -76.085579 -131.735123
38.186340 -75.054733 -133.156174
28.643539 -77.396599 -131.094528
110.532127 -74.996040 -130.242752
27.928959 -77.899971 -131.607025
-51.229015 -75.218987 -136.103165
36.270660 -75.453369 -136.513687
113.800499 -76.089584 -134.689423
-55.405506 -76.053123 -137.558533
38.568157 -76.674858 -137.735611
-49.167007 -74.756004 -138.259460
-52.815544 -75.720238 -138.879684
-48.397823 -75.897552 -140.237610
25.539341 -74.981712 -139.347168
35.944393 -76.057297 -138.684845
-47.735359 -76.258926 -140.119095
111.492203 -76.087372 -144.049530
-45.495869 -76.314888 -141.245865
-51.099590 -76.196472 -143.379761
34.717003 -76.538460 -145.601563
-55.066784 -75.513672 -140.235733
-54.842228 -75.120346 -146.855133
114.709404 -75.901154 -143.670471
-50.674007 -75.527435 -143.385025
-72.391869 -75.355522 -147.074677
34.140141 -74.748909 -144.594147
22.943169 -75.360565 -147.400711
-71.574120 -76.901314 -148.891449
-50.529461 -76.400955 -146.650925
109.957161 -75.439926 -150.506805
-71.447746 -75.582489 -149.189331
-51.149830 -75.255760 -148.845062
23.232450 -75.372948 -152.372726
31.311619 -76.302856 -152.557724
-51.488708 -76.043900 -152.683319
-44.698708 -75.879745 -147.736557
-40.431099 -76.147026 -149.770370
-41.772240 -75.804375 -151.889114
23.102041 -75.118187 -150.008194
-65.291664 -75.716331 -152.627197
114.765625 -77.345932 -152.338013
-71.879509 -75.554298 -151.383072
-38.326778 -76.163361 -153.219910
-51.750034 -76.946396 -154.425766
-48.975121 -76.124557 -152.488602
110.077477 -74.683601 -153.210007
-50.153111 -74.365936 -156.210831
21.737812 -77.037949 -157.274750
32.014050 -75.527092 -155.551804
-39.827961 -75.975609 -156.130524
-70.187088 -76.033356 -154.498871
-66.126495 -74.765816 -156.343521
-37.440319 -75.768684 -156.537857
22.452862 -74.845047 -158.374924
115.148476 -74.964897 -157.066498
5.579268 -75.535568 -156.427536
109.341110 -77.158661 -160.323242
-65.501717 -75.783707 -158.583115
9.579431 -73.917587 -158.114822
-67.358162 -76.042778 -159.321259
-70.918198 -76.197876 -158.667389
-45.185986 -77.146767 -157.706619
1.808734 -76.669144 -160.979111
-64.872345 -75.981636 -162.612473
5.850088 -76.603142 -160.739212
32.634037 -75.090210 -162.104843
113.993057 -75.564041 -160.243713
-61.249981 -76.450439 -162.518051
22.663469 -75.803719 -160.428986
30.118208 -76.299530 -159.933365
-45.927158 -75.254677 -161.110367
-62.916798 -76.232597 -162.780289
-1.731986 -75.507729 -165.345810
21.720211 -74.528336 -163.885880
-45.763638 -74.538948 -164.443802
-42.190865 -75.492104 -163.892029
20.229345 -76.525932 -163.688370
32.493080 -76.864136 -162.431183
109.429337 -75.389496 -162.903976
-30.691877 -76.234795 -165.171951
-30.535576 -74.271851 -165.977203
-33.072659 -75.034035 -165.209091
31.247917 -75.816261 -164.934616
-61.834774 -75.763298 -163.839493
-58.627239 -75.806007 -164.781265
-3.429166 -76.817123 -165.084412
-60.975048 -74.954979 -167.346283
-43.455200 -76.715965 -168.096390
114.054161 -76.383171 -168.148697
-56.412731 -76.989815 -170.158325
-58.035419 -77.576363 -167.969070
-7.685204 -76.518036 -170.859833
18.681236 -75.182991 -167.384659
-63.353363 -76.532158 -168.425491
-59.797844 -76.300667 -169.005951
-57.538273 -75.091064 -166.629044
-31.115524 -75.116112 -169.934143
-29.727295 -75.901154 -168.196274
-8.903083 -75.140434 -169.558105
-5.292499 -74.743439 -170.140076
-2.504706 -75.553253 -170.286850
107.270348 -76.000580 -168.167480
-64.846870 -76.808830 -171.524979
-27.986586 -78.866821 -171.780899
-63.544170 -75.332016 -172.124008
-39.873814 -75.071861 -169.478241
-61.533646 -75.771027 -170.839188
16.743126 -75.725708 -172.100021
20.761036 -76.058647 -169.101166
-39.173180 -76.375656 -174.296188
-28.077196 -74.653244 -172.967880
-9.075980 -75.498116 -171.547409
28.596930 -75.808037 -171.724487
-58.940910 -75.820724 -171.665695
-10.089468 -75.214073 -173.964859
-7.351794 -76.156059 -173.795639
112.682632 -76.482468 -172.299438
17.096533 -76.964981 -175.207840
-62.280670 -75.982292 -174.239578
20.605391 -76.083580 -173.071304
112.488083 -75.757866 -175.373215
-53.219791 -76.557602 -177.019547
-34.753933 -76.099274 -178.381470
-27.238930 -75.916809 -175.918289
26.711325 -76.230331 -174.232208
-61.918690 -75.689262 -176.574417
-54.487286 -74.647354 -177.588501
106.126503 -75.284546 -174.096619
107.517036 -74.793678 -176.534821
-59.123081 -76.666924 -180.154449
105.647148 -74.301590 -176.590378
107.346466 -76.715828 -181.750458
-23.023079 -76.660858 -180.009903
26.019022 -75.739532 -177.695602
18.429543 -75.597336 -180.899338
-32.824749 -74.534996 -180.559036
112.186035 -76.333397 -178.417526
16.567467 -76.160820 -184.134109
-21.000679 -75.458153 -184.826050
-20.155939 -76.223396 -181.953598
-48.524025 -75.430595 -183.374451
-34.605000 -75.856041 -183.711990
-31.807436 -76.019310 -182.730453
15.036266 -75.816444 -182.157242
-54.720982 -75.613815 -183.817688
-144.818344 -75.182037 -187.210236
-32.682716 -78.453804 -185.906815
-21.927330 -75.333275 -186.672638
21.821636 -75.515854 -187.730209
-146.082596 -75.309753 -188.155945
-53.883232 -74.375473 -187.049271
-47.209026 -75.376648 -186.437363
-18.625385 -76.744354 -188.162247
24.501747 -74.583832 -185.521866
-147.783661 -75.022018 -187.184464
-147.703903 -76.080833 -186.835999
-149.570389 -75.779373 -187.526764
-143.812653 -76.878922 -189.650101
-43.195854 -76.245979 -191.251663
-30.945366 -75.077705 -189.809387
-27.982615 -76.325600 -188.970032
16.610540 -75.353722 -189.639572
106.773613 -76.062637 -190.934647
100.392044 -75.477074 -192.925446
13.615497 -75.431999 -189.351395
15.078235 -75.560181 -192.308136
-149.948303 -75.261780 -193.169434
-142.783051 -76.401428 -191.704529
-143.734955 -77.988388 -192.923264
-26.805346 -74.658913 -194.800018
-14.321491 -74.860458 -194.729507
11.733027 -77.046516 -194.241974
-141.594772 -77.355766 -194.643829
-49.844040 -75.470047 -193.204987
-141.568787 -73.879593 -195.408737
-152.232346 -76.775009 -194.683197
104.104889 -75.926010 -196.385391
11.459173 -73.894135 -195.575317
98.614349 -75.823296 -198.205444
21.158251 -76.012993 -194.928894
103.129585 -73.688240 -196.460419
-139.498596 -76.079102 -197.515182
101.725807 -74.356667 -196.396805
-134.732864 -74.947166 -197.826065
-148.432892 -78.954292 -198.696274
-134.434708 -77.020081 -197.592331
-27.023636 -76.516464 -197.629364
-23.209759 -77.195869 -197.198593
104.742470 -75.664474 -197.924438
18.554207 -75.808945 -196.715103
-140.038040 -75.276497 -197.242264
98.339439 -76.235321 -199.185410
-44.194000 -75.373993 -199.327240
-16.976841 -75.226990 -196.571091
11.860388 -74.782539 -201.199097
10.596054 -76.634277 -198.813263
-136.378052 -75.665962 -199.048965
-22.469191 -75.028732 -199.641556
94.028732 -75.764755 -201.904449
-140.359177 -75.475891 -200.485153
-140.077209 -77.277328 -201.051910
-135.988632 -75.120064 -201.201340
-135.165833 -76.144463 -200.981003
-13.527718 -76.205200 -202.830475
-35.495300 -75.663071 -201.629517
-40.322449 -76.129189 -204.074478
-149.452576 -74.946396 -206.245468
-9.787109 -77.523949 -204.768188
100.549347 -74.995941 -204.540573
-40.189705 -76.844444 -206.562958
9.807755 -75.107391 -205.396317
-22.829639 -76.295181 -203.428864
-20.885077 -75.727051 -201.979462
8.342510 -76.939194 -206.952911
-149.177094 -75.957680 -206.162735
91.574455 -76.616943 -207.577637
-11.605727 -77.315224 -206.281860
6.996289 -72.768875 -208.232620
98.706085 -75.786972 -205.387665
-29.942526 -75.624321 -206.274261
-17.247248 -76.526482 -207.669998
-7.539964 -75.719528 -209.373398
-76.688309 -75.371994 -210.014832
-76.873878 -76.214127 -209.467987
-37.811230 -75.615578 -209.545029
89.408463 -76.570274 -211.394119
-148.468323 -75.723709 -210.335205
-77.599960 -74.878090 -210.882111
-74.952393 -74.734077 -210.313858
-33.597057 -76.007393 -208.151093
-16.826992 -78.138245 -210.039658
9.887938 -74.275902 -209.351501
-79.946854 -75.971382 -211.735916
-78.039627 -74.513138 -211.809174
-18.792048 -74.545166 -209.559509
7.605180 -75.409142 -208.972260
95.468246 -73.986755 -212.752747
-146.268707 -76.261559 -211.224945
-83.666412 -76.259880 -212.502167
-31.384604 -76.457954 -212.745636
-30.120098 -76.199196 -211.138321
-86.829445 -76.429565 -212.236572
-28.733076 -76.116180 -211.752090
-24.236288 -76.258209 -212.635147
-90.550522 -76.041733 -214.547577
-72.931877 -76.399094 -211.594513
-73.506447 -74.990524 -210.940033
-145.841736 -75.633415 -212.770050
-32.873169 -75.595680 -212.749466
16.466162 -75.906242 -210.960007
18.936216 -76.127502 -214.198303
-148.526169 -76.019295 -212.095169
-90.373932 -75.859894 -215.097534
-78.413383 -76.159813 -214.742615
-26.261194 -75.270119 -215.550903
-29.546114 -76.465065 -215.492325
-13.676861 -75.207298 -216.533234
-81.518730 -75.190987 -216.962570
-25.663177 -76.027130 -215.413391
-145.713364 -76.920853 -217.675964
-84.964226 -75.926476 -217.919861
-86.465698 -76.568916 -217.579971
-17.688255 -75.753761 -219.906982
-3.573267 -76.020790 -219.409729
16.830393 -75.893860 -216.860596
-25.884335 -76.243507 -216.519577
8.345795 -74.854073 -214.127457
-94.340561 -76.691788 -217.790619
-88.521507 -75.204384 -217.773224
-13.152806 -76.097984 -219.678680
-93.852776 -75.161598 -219.030304
-29.349873 -76.202408 -217.197021
-23.555906 -77.528450 -221.482346
16.202671 -75.877327 -222.173798
-4.053719 -76.906631 -219.219162
-148.609848 -76.114670 -217.000092
-20.942659 -76.408592 -218.217316
-0.869066 -76.896210 -220.429138
8.851160 -75.338699 -217.376678
18.458755 -75.683441 -220.233902
-148.283005 -75.703239 -222.443787
-20.620609 -76.398201 -221.477081
-19.450541 -75.604233 -220.961349
-8.809228 -76.865204 -222.044388
2.401726 -76.036560 -222.890869
87.205467 -75.592361 -222.703110
-19.018526 -76.095139 -222.070160
-144.837555 -77.286293 -224.403656
-11.506490 -74.753815 -222.559586
-1.370028 -76.237328 -224.228851
1.982804 -75.736641 -224.374084
78.921806 -76.208923 -226.527222
1.548493 -73.914543 -223.993713
-142.388168 -78.232162 -225.673386
0.672773 -74.899986 -226.078247
3.394941 -77.437637 -226.597824
-10.134895 -76.383308 -226.251602
17.946066 -76.505226 -225.990540
-19.777054 -75.590202 -227.440125
80.935661 -77.218712 -226.298401
-148.061234 -76.907120 -227.896332
-7.009051 -76.367340 -228.073029
3.284507 -75.001343 -229.944946
77.252495 -75.904144 -226.328842
-16.131668 -76.258202 -228.322647
-9.247106 -73.998550 -227.476349
81.328964 -75.790764 -227.244904
-146.443573 -76.926468 -228.471588
-140.772903 -76.868919 -227.938614
6.597017 -74.694077 -228.847351
16.647301 -76.078186 -226.913010
77.640388 -75.760468 -227.335648
-140.420670 -76.018639 -229.789001
-16.446156 -75.303238 -229.534988
-10.279016 -74.741188 -231.221695
-5.505336 -77.536469 -229.592941
-8.201758 -75.033089 -229.743515
-4.412579 -76.353493 -229.268631
75.005463 -75.636528 -230.831787
76.029404 -76.085640 -229.532211
8.236907 -75.608223 -232.075729
-3.655419 -76.375183 -233.830490
-153.019073 -78.556618 -231.623215
75.656616 -75.869339 -232.415237
-153.533905 -79.472801 -231.436249
5.307992 -75.625710 -235.393585
17.969284 -76.271942 -233.267410
8.181288 -76.729736 -235.068558
71.407761 -76.109268 -235.131332
-1.167321 -76.083328 -234.619629
-2.756824 -74.700165 -235.498718
17.473518 -74.443542 -234.933945
18.973166 -75.516525 -232.247940
-23.867018 -76.240166 -237.787109
-19.923573 -75.251778 -236.598328
-16.118032 -76.447517 -237.717758
-13.290091 -74.796204 -239.110657
2.177013 -76.929550 -239.549698
-149.786438 -75.147255 -238.902634
-36.751038 -75.580765 -239.914017
-14.585052 -75.605339 -240.733780
-0.370614 -75.891937 -240.566116
-41.133461 -76.574844 -240.849289
-17.045815 -76.220284 -240.346558
-47.760921 -75.188187 -242.676819
-44.767979 -75.973183 -241.095398
-17.290947 -76.797630 -242.223022
5.062336 -75.175789 -241.105621
9.551394 -75.123848 -240.504745
-145.502396 -77.264496 -243.822632
-52.472923 -74.124969 -242.397415
19.067129 -75.692734 -240.121765
-22.698818 -76.610268 -243.084167
-26.806992 -75.975929 -243.833664
7.703217 -75.528587 -243.847092
-55.494747 -76.257858 -242.604340
-28.398705 -75.523392 -242.759430
11.462276 -75.864532 -242.856567
-57.904858 -76.392006 -244.108917
-34.888317 -75.212975 -243.821594
1.934105 -76.031441 -243.967270
6.240654 -76.215591 -244.040649
21.322083 -75.887352 -243.351669
-37.110832 -75.807961 -244.382629
10.413668 -76.096802 -244.120193
-63.599918 -77.112656 -244.926468
-40.975597 -74.726608 -243.599625
18.087700 -75.539261 -242.678864
-41.349735 -75.660507 -245.890244
12.464338 -74.794960 -244.649094
-5.291383 -75.816391 -247.541519
-69.091637 -75.682495 -246.897629
-151.838089 -75.036469 -245.603699
-46.302212 -76.234314 -246.897308
20.978605 -76.528297 -247.177200
21.148361 -76.729790 -247.487015
-71.523216 -76.877609 -248.641495
-53.371323 -76.266266 -249.234100
-55.600796 -75.184273 -249.092407
-59.060993 -75.874626 -250.667908
-78.053581 -74.529488 -250.836258
-62.710190 -75.534180 -249.189026
-67.059807 -75.804207 -250.047073
-8.870376 -76.406342 -250.443726
-146.526398 -76.205154 -249.107224
-70.940018 -76.130478 -250.686005
-81.522026 -76.014023 -250.167038
-77.007683 -75.484184 -250.389633
-144.943207 -73.150963 -253.629242
-84.767220 -75.334885 -251.340271
-81.494041 -75.506577 -253.275116
-79.123543 -75.458351 -253.345383
-79.100662 -73.990845 -252.498352
-154.540771 -76.125458 -256.287872
-12.766619 -75.524788 -256.776642
-141.961624 -77.760567 -257.198425
-133.460098 -75.545235 -257.924225
-126.761894 -75.446022 -257.316620
-147.201538 -77.193192 -258.279572
-141.543304 -76.191292 -257.923431
-149.351837 -73.719093 -257.358887
-13.490474 -76.704071 -259.736298
-142.266144 -76.026001 -260.043579
-130.735611 -74.840813 -260.780396
-125.866364 -77.112175 -259.825195
-126.383659 -74.976189 -262.018158
-132.158966 -75.456078 -261.678131
-126.368813 -75.797363 -261.594879
22.147167 -76.656212 -261.761536
-153.097015 -75.776031 -261.672363
22.592117 -75.259300 -266.328644
20.953745 -77.651237 -265.477081
-146.022079 -73.817581 -268.109192
-12.516820 -76.540482 -269.718048
-149.686325 -77.857582 -271.013000
-12.212169 -73.932014 -271.343323
-151.009201 -76.115295 -276.480072
15.036010 -75.111969 -281.116180
-151.271515 -76.524864 -282.555695
-165.877228 -74.587517 -282.959320
-144.840897 -77.212296 -283.383057
-154.310120 -76.120430 -284.820129
10.527495 -74.183876 -285.125641
-144.310425 -75.746475 -283.995941
-29.320042 -77.042633 -285.115173
-155.342728 -76.852592 -286.125275
-126.261551 -74.710495 -286.217438
-59.779507 -74.924576 -285.860107
-51.542824 -76.042496 -284.869843
-39.399311 -75.761887 -286.709534
-34.144569 -76.504158 -284.553345
-0.708224 -75.337051 -284.987793
-156.716064 -75.627060 -286.506561
-26.468840 -74.591270 -286.990814
-13.729182 -75.617050 -285.311676
-11.065158 -75.904144 -285.842773
-148.232620 -75.880783 -286.574890
-140.776535 -75.048393 -286.292358
-77.269653 -75.487511 -286.686554
-67.922043 -75.654320 -287.723419
2.452790 -76.869606 -286.236908
-136.445953 -75.210480 -287.391968
-77.901764 -76.042595 -286.722626
-5.198852 -75.977341 -286.494354
-1.207824 -75.449638 -287.109039
3.633925 -75.687660 -286.901520
4.763025 -74.649269 -288.041229
-163.000214 -75.677948 -288.861359
-142.537735 -75.684807 -286.872681
-135.546112 -75.972046 -289.804169
-83.402344 -74.266335 -287.301544
-71.258156 -75.716621 -288.009583
1.162418 -77.491524 -287.548553
8.440771 -75.733139 -288.080200
-146.682755 -76.165878 -288.052002
-136.557602 -75.669640 -289.481598
-125.124237 -75.083382 -288.870361
-117.322716 -76.396439 -288.719910
-90.697235 -75.218506 -287.783936
-85.588333 -74.843140 -287.322937
-78.708900 -76.412613 -288.913452
-155.816452 -75.164780 -288.578461
-147.278244 -75.845253 -288.929810
-158.142670 -75.169609 -288.658661
-95.688408 -75.416382 -288.671051
-85.612885 -75.886780 -288.694763
