# This PCD file was generated using the MATLAB® pcwrite function
# from Computer Vision Toolbox®.
# .PCD v.7 - Point Cloud Data file format
VERSION .7
FIELDS x y z
SIZE 4 4 4
TYPE F F F
COUNT 1 1 1
WIDTH 1411
HEIGHT 1
VIEWPOINT 0 0 0 1 0 0 0
POINTS 1411
DATA ascii
-73.845184 -73.564957 -151.092972
-63.790462 -73.949036 -154.690079
-53.728191 -76.846741 -152.379608
112.843468 -74.502899 -148.376968
-71.536865 -74.089691 -155.750427
-67.882484 -75.564674 -152.658142
-40.228954 -70.356255 -152.869553
-51.746124 -74.654854 -153.985947
-65.059692 -74.274361 -154.869339
-36.811428 -76.369446 -154.811523
33.474953 -74.671577 -156.540009
-61.754253 -75.467239 -157.812286
-40.250553 -73.117981 -155.367737
11.087703 -72.246872 -155.723816
-68.680595 -72.936989 -155.294769
-50.142986 -75.473312 -156.495804
23.602924 -74.709656 -155.446411
-66.104630 -72.954361 -158.155624
-68.611511 -73.266434 -154.451553
1.625489 -75.286125 -160.013397
109.533928 -74.994118 -154.997284
-47.681499 -72.146835 -154.516510
20.150127 -73.484009 -156.465225
110.195450 -74.834633 -157.155136
112.902473 -72.870689 -157.135071
-67.386436 -73.592484 -157.031433
-45.017723 -72.803947 -160.691360
11.142340 -74.536354 -159.933334
-73.125732 -73.303444 -156.127258
-37.445030 -73.679764 -160.087189
-71.067345 -71.709251 -158.661438
-63.565136 -72.685181 -155.693069
20.348116 -73.091873 -159.545624
-67.370094 -71.794128 -157.712891
-71.365364 -71.091820 -157.712402
-69.606705 -75.129433 -160.070694
-67.045532 -74.288383 -159.760254
106.520760 -72.222504 -159.358276
113.522369 -74.310608 -162.925949
-49.520050 -73.809586 -160.523743
-0.128421 -75.208282 -158.138184
-69.783951 -73.946045 -161.595200
21.879875 -76.456528 -159.748184
-60.392822 -73.988373 -165.005890
-34.012196 -71.262482 -160.501724
7.288221 -76.175873 -161.776016
-43.426296 -75.914368 -163.343185
-2.647302 -74.485245 -160.806702
-47.019386 -72.083656 -163.967087
110.479408 -74.605759 -159.760147
112.064819 -76.371323 -164.769409
108.307526 -72.503494 -161.576141
31.950073 -73.251556 -164.818222
113.459030 -73.922501 -164.250870
4.577995 -73.753242 -163.594452
-32.812351 -73.369720 -165.488892
-1.957223 -73.714546 -166.686371
1.796623 -74.676346 -164.852844
-59.321613 -75.413879 -167.577286
113.023132 -72.549362 -165.598770
-66.954643 -74.603691 -167.615616
-43.356968 -73.148834 -166.354980
-2.942255 -73.760460 -168.369736
-1.568326 -71.941185 -165.676132
115.936310 -73.940880 -168.022751
-38.407131 -73.343376 -169.925385
31.408974 -72.687065 -168.305862
110.646378 -75.259407 -166.508896
-61.561573 -73.376549 -169.506134
18.806150 -74.871132 -170.530792
-43.387852 -75.151253 -169.403458
18.807505 -74.203407 -164.551163
107.172203 -74.033287 -170.839127
113.245850 -73.409500 -170.772003
18.153591 -73.842857 -167.934158
-40.332268 -73.473785 -171.370682
111.534790 -74.610115 -169.307068
-26.162222 -73.748581 -170.877808
17.936808 -75.063255 -169.687317
29.066332 -74.373856 -167.697876
111.526871 -75.129784 -172.740967
109.055389 -72.992241 -173.038040
-56.763523 -73.073563 -173.602921
19.240574 -74.536385 -168.702011
-43.059582 -77.598274 -175.006805
-27.655272 -73.557587 -175.129532
20.482731 -75.113365 -172.475189
103.392319 -75.337753 -171.519241
-62.846676 -72.870758 -171.379700
110.232796 -74.747269 -177.488113
-61.025459 -74.464554 -173.620911
-60.709976 -72.977715 -175.028885
105.058609 -76.044632 -174.809494
108.495369 -74.702850 -175.983505
-59.022861 -75.457687 -175.281662
15.351977 -75.036972 -176.452209
27.799904 -72.716911 -172.888977
27.540550 -75.465302 -174.232758
113.052795 -74.796310 -175.855896
-56.709305 -72.866325 -177.441193
-60.071629 -72.373695 -173.884918
-34.601711 -73.903740 -178.853424
-148.624146 -74.848244 -177.210129
-57.098312 -74.269173 -181.012238
27.221893 -75.600258 -176.879730
-148.377411 -74.341927 -175.879776
-142.722198 -74.330727 -175.825211
-25.091648 -74.986389 -178.977432
110.393875 -72.920410 -177.124603
106.244019 -77.219345 -178.980789
-144.388733 -73.095245 -176.937057
-52.879055 -74.005493 -174.361465
24.124369 -73.993652 -178.268921
102.113243 -73.761467 -180.672470
106.731934 -75.468674 -180.010193
-56.491158 -73.408875 -181.309677
-23.988621 -76.537048 -178.415588
15.870681 -76.058617 -179.978485
112.423912 -73.480774 -179.850128
-145.294067 -73.132675 -182.588364
-142.795624 -73.999367 -180.603058
-53.114651 -73.202827 -180.268845
19.355499 -73.862885 -179.477188
107.346664 -77.095100 -184.388733
107.490173 -70.032593 -183.035889
-145.534485 -73.039986 -182.752655
-35.626926 -76.151108 -181.700928
-19.676184 -74.590485 -180.424347
100.888809 -72.926231 -184.094406
-150.797684 -74.116684 -182.959000
-36.055187 -70.397667 -182.405197
106.067146 -72.614159 -181.980316
-144.418213 -73.175560 -183.731201
-31.164930 -74.113594 -181.118942
-21.097935 -72.265007 -182.500214
-34.456764 -74.858154 -183.995758
12.924531 -73.074196 -184.118896
107.192322 -70.523865 -185.167587
-148.343735 -72.294151 -184.187500
-144.945557 -73.029091 -185.438751
-18.850254 -71.971512 -184.243225
15.792658 -74.104309 -185.358856
14.450151 -72.260086 -186.233017
-144.122314 -74.155663 -186.034241
-34.198906 -74.541489 -185.821396
-30.366436 -76.521461 -187.653564
101.388161 -72.238609 -186.615341
102.467941 -73.049484 -182.984467
-32.096741 -75.179871 -188.336472
-31.753727 -73.757446 -187.511383
10.585280 -76.177162 -189.835251
-22.277824 -71.769272 -188.126816
-19.040426 -72.527069 -189.364761
15.528928 -73.970192 -185.002853
22.665092 -74.568657 -185.730804
106.781578 -72.913033 -185.034622
-28.895668 -71.705284 -188.914322
-28.031334 -75.627144 -190.823349
11.437539 -74.047211 -190.884537
104.221909 -72.744965 -188.526306
-19.689344 -76.808167 -188.740356
24.575411 -73.772476 -187.590591
-29.652866 -73.929237 -192.494278
23.146225 -74.638107 -191.622467
107.930092 -72.140495 -189.755432
-15.407089 -75.445366 -192.087616
103.450836 -74.305511 -192.298370
12.187162 -74.455215 -192.859680
-147.066437 -74.212204 -192.050491
106.299515 -73.336830 -191.917847
-148.982986 -75.356339 -192.126877
-30.436874 -75.382767 -190.711075
-25.431208 -75.320045 -193.458832
-17.008472 -75.473419 -195.259308
98.896370 -74.763092 -194.851044
11.129413 -73.527260 -194.774185
-16.761465 -71.629074 -195.231110
102.409286 -73.214722 -196.308838
10.105579 -75.787659 -197.741669
101.692978 -73.256447 -194.692398
13.522254 -76.179260 -197.827621
101.684822 -74.193069 -196.261429
-154.594009 -75.025314 -197.934280
-130.546844 -71.776711 -197.461288
-131.935806 -75.026543 -196.503357
101.469788 -72.106079 -196.939331
-147.266556 -71.896736 -197.829529
-121.968338 -71.948547 -196.798050
-20.968189 -74.266853 -199.634048
104.074203 -74.681641 -198.274460
-129.641739 -71.712181 -199.506302
-125.845749 -74.340080 -197.699615
93.872772 -76.990608 -199.438278
103.587166 -71.466003 -197.540543
-149.882126 -77.138031 -198.316284
-127.970879 -73.842903 -201.979630
20.268650 -72.905014 -201.518753
-146.139053 -76.725716 -201.780609
-123.030640 -74.277245 -202.458786
-10.621780 -75.990677 -201.414566
97.187370 -74.782806 -200.590683
-142.715210 -72.764641 -202.822708
-151.893250 -74.051376 -202.273575
-23.221773 -73.449814 -203.729767
-132.874176 -73.378616 -201.322906
-129.546234 -72.714272 -201.114853
-14.385263 -74.042107 -202.053116
19.569223 -74.694046 -205.910049
20.170481 -73.876114 -202.678879
-125.759933 -72.547867 -201.641815
-122.565353 -73.776711 -201.265900
-38.587746 -74.487953 -199.368927
-10.777878 -74.852692 -202.610352
21.891542 -73.636871 -202.258789
98.851936 -74.021591 -203.087097
-153.151657 -75.295616 -203.331711
-10.662678 -71.888962 -203.642517
95.131340 -73.023331 -202.445343
99.950035 -74.319237 -203.861450
-9.375908 -75.695160 -200.426102
92.063004 -75.387085 -202.938263
-34.679836 -72.504295 -207.783646
-12.181388 -75.462204 -204.239502
10.954244 -73.650063 -202.727692
-37.361469 -74.398079 -205.529999
-36.001240 -71.434189 -203.308701
6.768567 -71.832764 -204.956650
20.707880 -77.632362 -207.773819
19.705357 -73.285759 -204.459793
-11.355260 -73.236961 -204.046478
91.900383 -72.882935 -207.553864
-39.301754 -73.256439 -205.282303
-150.593857 -72.903534 -206.868439
-145.636566 -75.827515 -207.670258
96.478851 -72.650711 -204.396500
94.559479 -75.038521 -206.851089
-151.500748 -72.878555 -209.231812
-73.788773 -74.802101 -209.210327
-29.531784 -74.457489 -208.842377
-34.790855 -73.302536 -210.324738
-33.241043 -70.502655 -207.809311
18.032734 -74.719017 -210.677399
-29.180529 -75.030075 -208.811615
-79.697266 -73.879868 -207.753311
-78.108253 -75.387085 -208.947083
-8.003548 -76.058220 -210.255081
-143.848297 -75.834450 -209.242035
-74.958847 -74.710632 -209.230667
-143.947098 -76.680092 -210.163193
-78.760643 -73.966751 -213.200485
-76.620605 -72.763100 -211.801392
-35.344635 -74.101501 -213.029373
-75.139473 -71.909599 -211.830154
8.893505 -72.660454 -212.724838
-78.781281 -72.532295 -211.442871
-7.908217 -73.886436 -208.557419
95.108528 -72.312447 -212.151535
-17.478672 -73.064247 -212.282700
8.479833 -72.841942 -210.751007
-145.708588 -72.899139 -212.075043
-83.521217 -71.628899 -210.707397
-27.492920 -74.670425 -212.857666
-25.020887 -72.895233 -213.473755
-4.642652 -75.512581 -215.802826
5.236628 -74.923630 -210.147461
88.780151 -71.970581 -212.847000
-87.499191 -75.440559 -213.769577
-82.738815 -71.131615 -211.507950
-22.980345 -71.991760 -214.906769
94.616760 -74.331268 -212.346466
-80.826393 -75.105927 -212.330246
-6.852104 -74.002808 -213.265457
-92.012230 -75.050949 -215.492325
-4.690992 -73.022552 -213.801697
-14.274175 -74.588127 -213.845367
-146.737442 -73.139793 -215.174332
91.537033 -73.031342 -212.306305
94.409317 -72.908356 -212.327911
-83.393242 -70.879730 -215.863953
-15.466797 -72.856300 -214.529449
-20.531672 -75.215294 -216.344727
-99.207253 -73.381348 -215.622009
-87.156433 -74.710007 -216.917267
-14.502460 -74.641624 -215.595306
-1.166119 -75.308945 -219.754532
16.900078 -75.339699 -215.468399
-149.914093 -74.953636 -215.683899
-85.291115 -73.611351 -216.540024
-4.256518 -72.687073 -218.427017
-25.208063 -72.984009 -217.786606
-97.142281 -73.119232 -218.814667
-88.051857 -70.730499 -217.810257
-27.225533 -73.142799 -216.295792
82.682808 -74.148361 -218.898849
86.013710 -73.415359 -217.757156
88.155716 -74.614410 -215.601105
-13.365189 -74.439034 -217.736740
-144.883514 -75.502472 -221.088455
-87.778358 -75.853554 -218.772827
-99.301575 -72.930893 -219.570175
-25.178566 -73.680511 -218.204391
-2.846201 -74.681580 -219.004532
-150.849060 -75.165192 -222.698685
-99.902939 -73.789864 -217.843231
-93.948570 -71.459938 -221.633331
-21.696043 -74.228470 -220.265488
15.223356 -76.181358 -218.070541
-92.424644 -75.873421 -218.260773
-13.170861 -73.432159 -221.887833
19.451456 -73.938538 -220.612045
-102.811935 -73.994270 -218.604599
-17.619831 -74.752274 -225.386642
5.092434 -76.261841 -219.728210
8.674627 -73.908653 -221.526306
-93.386703 -74.314911 -220.195145
-17.604042 -73.220146 -224.425461
-15.386165 -74.115204 -225.098938
-2.899695 -76.591049 -223.830826
86.033989 -73.653297 -219.368500
-145.400909 -75.678329 -222.486984
-101.380585 -74.251083 -223.451859
0.774615 -75.312355 -222.537552
77.498932 -73.870491 -222.703384
-1.574667 -72.524788 -220.859726
-21.463463 -74.481346 -219.967789
-7.809238 -73.428825 -222.693832
15.577001 -74.358215 -221.767761
-24.736206 -77.150528 -223.709534
-0.051317 -76.177963 -223.458267
75.093979 -72.992271 -225.821838
-142.926910 -75.573242 -224.110641
7.384954 -75.263557 -223.263870
15.599132 -73.887642 -223.547745
82.628830 -75.050552 -224.998962
-13.703164 -71.101143 -225.836868
5.153300 -75.073868 -226.636536
-159.886749 -73.748718 -224.238342
-12.194407 -73.291267 -226.289841
7.555092 -74.171677 -224.857529
82.044373 -72.887749 -223.950577
4.561795 -73.807190 -224.988098
-130.190201 -72.842720 -227.787567
-128.110718 -73.094269 -227.751755
-19.057402 -73.358795 -225.698990
-10.702893 -76.095528 -226.883301
-9.325040 -74.343742 -226.418137
15.998517 -75.179352 -230.625946
-159.599152 -71.451538 -224.991516
-133.545624 -72.767387 -227.808792
80.176956 -73.798347 -225.781464
-141.423676 -73.597305 -225.184311
-124.374863 -73.374802 -225.891647
-17.227335 -74.555687 -227.827240
-161.707642 -71.423958 -228.179810
-147.985077 -72.695053 -226.874527
-17.766701 -73.814056 -227.589767
-5.089885 -75.396408 -226.686295
74.413567 -73.745926 -230.972595
-141.371536 -73.960793 -227.652710
-12.956073 -72.502525 -230.599167
-11.810303 -74.070541 -227.357697
-141.149734 -73.246796 -228.268341
-133.491119 -72.672073 -226.639709
7.939666 -70.647278 -225.575043
-135.253632 -74.113319 -229.390182
-10.395311 -75.118660 -229.742523
72.023804 -73.858696 -231.836624
77.618599 -73.897621 -228.768661
-147.836029 -73.215294 -229.363129
-140.339005 -74.488052 -228.374954
-5.844995 -74.671005 -229.374237
-2.013262 -73.339302 -230.646896
-131.943054 -74.314568 -229.916611
-123.595024 -73.089218 -230.268997
19.244228 -74.295555 -228.162567
70.932671 -75.389503 -230.458344
-142.155121 -71.969566 -232.049942
-16.721895 -74.204483 -231.847275
-156.559891 -72.614693 -234.004669
-141.779648 -71.573456 -234.055344
5.450968 -74.330719 -232.547073
70.001015 -73.400261 -232.428680
-164.601212 -72.175507 -231.763153
-134.474442 -72.548744 -232.026611
-131.109558 -75.941780 -232.756729
77.030800 -72.786018 -229.524567
-162.827148 -72.825737 -234.279922
-129.607635 -73.701294 -232.582596
-126.331650 -73.319160 -232.773773
-127.719498 -72.012878 -233.463577
-2.715302 -74.592751 -233.170593
9.526340 -76.422783 -236.417877
76.866096 -75.489662 -231.566650
-144.515396 -75.552597 -233.229736
16.761641 -72.201469 -232.972290
-150.729080 -71.925934 -234.638412
1.298803 -74.056068 -235.209671
-8.550912 -73.457420 -234.422318
-163.663452 -74.024475 -235.875717
-159.439575 -75.182610 -236.354996
-162.430710 -75.930923 -239.127060
15.845866 -74.221825 -236.936630
-164.183365 -72.520279 -233.841553
-157.754822 -72.487846 -237.505753
-1.645869 -74.477768 -235.359177
6.023865 -72.578964 -233.862091
-4.994873 -75.678772 -235.460800
18.645639 -75.658531 -234.040771
76.368355 -72.804817 -235.755798
-159.872498 -74.328308 -235.595566
-19.756271 -73.410332 -236.784363
-16.055819 -74.233818 -237.491989
-24.142275 -74.957764 -236.363388
-3.466088 -69.963112 -239.061462
-146.700958 -74.887733 -236.829102
-1.559885 -73.247742 -237.408783
0.971552 -73.542664 -237.179077
-161.295303 -73.264023 -237.418137
-151.020966 -74.215416 -237.047775
-23.490915 -74.377533 -238.204697
12.119948 -75.080231 -240.574799
14.288349 -73.427551 -240.619995
19.031969 -73.163788 -238.294556
-166.571442 -74.057426 -237.072220
-154.426071 -73.213707 -241.038986
-10.042118 -74.238022 -238.515274
69.183723 -73.023193 -238.726532
-25.900181 -75.034142 -240.053009
-12.016487 -74.623360 -243.258850
-2.293106 -73.689293 -239.702316
-164.718613 -74.132576 -240.693726
-159.756195 -72.671898 -241.400589
-159.016190 -72.772049 -242.918381
-151.291046 -73.374840 -239.838959
-26.509193 -74.389526 -241.964005
-23.563204 -73.383308 -240.802063
59.808659 -72.247787 -240.421127
-30.414637 -74.241951 -242.157150
13.256393 -72.973549 -240.771957
61.659286 -72.886780 -241.478439
-23.591051 -74.759712 -242.052719
-2.927454 -73.789467 -241.226196
20.953245 -77.616142 -240.908630
-17.867010 -73.381508 -243.236786
-17.042158 -74.508118 -242.316437
-3.070364 -72.973213 -239.825607
6.756966 -74.099609 -240.461746
0.995578 -75.987106 -241.040390
5.040088 -73.806305 -244.353455
62.258976 -74.701225 -242.310394
-51.400558 -74.303513 -243.598465
-6.362937 -71.996109 -243.573837
4.885798 -73.762054 -245.807358
12.338495 -73.957878 -241.120895
-154.220261 -74.470009 -241.313599
-145.683701 -74.635269 -241.517685
15.460597 -72.893158 -246.852127
-2.957210 -72.205521 -244.999100
8.896439 -74.016701 -245.105087
61.513420 -75.206169 -242.424606
-155.814880 -74.271004 -243.756424
-149.697388 -75.443031 -246.637253
-56.777264 -74.308647 -243.922043
-50.684528 -71.801773 -242.580795
-46.506744 -72.815559 -243.748047
-1.716864 -75.521851 -246.131180
-3.364823 -71.264603 -244.826141
15.281772 -72.371605 -247.401428
18.137926 -74.181984 -241.426605
-160.437485 -74.747284 -244.109497
-150.645325 -72.883507 -245.021454
-152.346878 -73.984337 -244.887070
-48.688972 -74.128693 -244.009125
20.869429 -74.755829 -242.515152
56.672962 -72.543846 -244.065567
-160.498962 -73.910378 -247.371048
-55.122288 -70.126984 -243.600266
-50.256069 -74.388702 -244.442383
-48.343887 -73.497337 -246.605606
1.412130 -75.739105 -246.777466
-54.257969 -72.453903 -245.896759
-164.106659 -73.925697 -246.253815
-152.110443 -74.378242 -248.021042
-70.872978 -71.432266 -247.288177
-49.069675 -75.291077 -248.100784
14.953172 -72.970444 -245.506805
-50.614761 -73.613228 -246.135712
-5.460053 -70.401337 -247.100891
20.593918 -73.990555 -247.243286
-69.253746 -74.544807 -249.361572
16.314428 -71.411011 -247.393723
-156.557465 -73.930649 -246.646072
-153.236176 -72.129333 -248.717163
-49.412361 -72.384888 -246.922043
-166.280472 -73.015854 -249.713730
-162.408981 -74.758705 -248.240143
-75.003731 -76.218384 -249.284760
-55.451839 -74.355392 -246.233368
-6.918010 -72.233223 -245.805679
14.588837 -75.314880 -248.679047
-75.055466 -73.301575 -248.654358
-53.953285 -72.718475 -247.993790
-150.339249 -73.005463 -245.204391
-76.497581 -74.744606 -249.811340
-61.757908 -73.692413 -247.344986
-159.369507 -72.398758 -248.442001
-62.639336 -73.419350 -249.042480
-159.393295 -73.370422 -250.046249
-150.539810 -74.548203 -250.223190
-63.705399 -75.672745 -250.800476
-166.622665 -75.511528 -247.444336
-164.865860 -75.728439 -249.833405
-151.341080 -72.316597 -249.027496
-146.042282 -74.912796 -253.926514
-86.259193 -73.242165 -252.690598
-64.311272 -77.368515 -249.827347
18.200645 -72.029869 -250.120605
-152.536224 -72.046989 -251.138290
-68.688805 -73.440926 -253.128555
-160.643219 -73.168953 -252.285782
-148.653763 -75.461136 -251.796448
-160.462540 -74.981613 -253.670303
-72.702713 -73.140625 -250.113083
-75.237556 -75.592003 -253.208664
-165.700699 -73.016670 -253.034668
-153.732895 -73.541420 -254.247131
-91.070816 -72.235405 -253.599274
21.534937 -73.545998 -253.689362
-158.837402 -73.955162 -254.102859
-154.646606 -72.161118 -252.986862
-101.670876 -72.139404 -255.202393
-92.095947 -75.434090 -253.071411
-81.128395 -72.606903 -253.816757
-167.226532 -76.212311 -255.387772
-166.076385 -73.424561 -252.348495
-154.388733 -72.706787 -253.769440
-130.576416 -73.059586 -254.707184
-82.461098 -71.742950 -254.747131
-165.642151 -74.560265 -254.844269
-142.654083 -72.646492 -252.902145
-124.455437 -74.921219 -257.126740
-97.311584 -74.673576 -254.938904
-95.169296 -72.942421 -255.447113
-84.414474 -72.523582 -255.550705
-101.256668 -73.129395 -255.805283
-94.307823 -71.921333 -256.254517
-94.381073 -75.001854 -254.089661
-90.616730 -73.443237 -256.023468
-135.019791 -73.597359 -255.994812
-115.923729 -72.693390 -256.382935
-90.308105 -74.293747 -254.004471
-88.659218 -74.974335 -254.428909
-162.460159 -73.834068 -253.785477
-155.191254 -74.428276 -255.530746
-141.989731 -71.412361 -255.140182
-138.266174 -72.515511 -257.391083
-90.335762 -72.584145 -258.143280
-155.280090 -73.066368 -256.061493
-133.733597 -74.620819 -257.308411
-102.408821 -73.645332 -256.787567
-148.532623 -71.459900 -255.617950
-123.959221 -73.893379 -256.581238
-116.031693 -75.916588 -257.997711
-96.408714 -73.318275 -257.501160
-95.827415 -73.151482 -254.995148
-149.421005 -72.668961 -258.888702
-104.462212 -71.711807 -255.811859
-101.286598 -73.571190 -256.744965
-163.765137 -72.623795 -259.490631
-162.853546 -75.171021 -259.149628
-156.464767 -75.910378 -256.653809
-109.682701 -75.930061 -259.405701
-15.851207 -74.853119 -258.087708
-147.574661 -72.387108 -262.052734
-115.882736 -71.587036 -261.069000
-123.257484 -75.117989 -258.879761
-109.705627 -73.958931 -259.124329
-165.410660 -71.839050 -255.919006
-150.251755 -74.491325 -260.060974
-15.909464 -72.090622 -259.187592
-121.605858 -73.180725 -259.585999
-115.717438 -72.692253 -262.271149
-166.676453 -72.307159 -262.233643
-148.475845 -73.729881 -262.411865
-118.376457 -74.260910 -260.305817
-122.494774 -75.102432 -260.663605
-141.128830 -73.255600 -261.026855
-136.431107 -74.378769 -263.287720
-118.820824 -74.312531 -260.070496
-13.991672 -76.458786 -259.356384
-158.749207 -72.373985 -261.506897
-142.164063 -73.861679 -263.963104
-124.469414 -71.275093 -261.303223
-155.106125 -73.774246 -261.685913
-145.629745 -71.468330 -261.640869
-135.139877 -74.095390 -264.535614
-134.609695 -74.628044 -263.012054
-154.559540 -73.054771 -266.697632
-155.188797 -73.111549 -263.801331
-154.032562 -72.817116 -264.290253
-150.137283 -73.448105 -265.077667
-147.927643 -72.334465 -261.845764
23.116604 -73.822784 -267.445862
-152.703110 -74.173241 -267.995026
-13.939356 -72.351578 -269.638306
22.093481 -74.607224 -268.768738
-12.692226 -74.283775 -269.210938
-168.286438 -72.615639 -267.769989
-13.788452 -73.882347 -270.632690
20.939125 -73.401161 -271.596039
-143.318176 -73.570335 -272.686462
-165.533707 -72.356377 -272.233643
19.052378 -74.840164 -273.495819
-10.480478 -73.394478 -274.067535
16.084377 -75.957832 -277.820923
-6.186240 -73.302208 -277.753937
17.182888 -74.988800 -278.610535
15.951375 -75.658012 -279.317230
-145.994980 -72.647583 -281.075897
-5.712975 -74.707863 -285.092041
12.738657 -74.238205 -284.192108
-133.794830 -72.298843 -284.769531
-143.214127 -73.694084 -283.354034
-164.462845 -74.416710 -286.449036
-136.690369 -71.456848 -285.765594
-64.810219 -74.313026 -286.482147
-59.274734 -74.055611 -284.767578
11.470011 -72.493523 -284.344879
-125.961411 -74.054596 -285.670166
-71.242218 -70.630753 -284.808716
-38.293610 -74.944397 -286.207825
-28.743690 -73.488724 -283.573883
-28.199131 -71.687851 -288.077911
-122.539749 -72.733421 -286.285339
-87.043091 -72.909828 -288.258759
-78.266006 -74.131485 -285.544403
-32.636578 -72.232292 -285.892090
-32.773129 -74.129326 -286.868256
-25.970234 -70.313690 -290.196747
-12.615913 -74.036430 -286.872498
-3.798569 -74.817566 -288.014679
-123.605225 -73.312721 -288.420868
-122.715134 -74.502487 -287.971527
-118.263206 -72.593140 -287.044373
-113.489632 -72.306984 -288.141357
-99.509827 -74.371643 -289.993683
-92.827568 -73.350555 -287.706512
-10.613950 -73.246536 -286.810547
-102.621918 -73.184174 -286.228912
7.000216 -72.568558 -285.884979
-168.320984 -74.990295 -285.839203
-115.620056 -75.689636 -288.436462
-109.916931 -75.139633 -287.430206
-167.101379 -73.732040 -288.299164
9.212030 -74.806969 -289.266235
-165.578079 -71.825043 -290.713226
15.354484 -74.683128 -289.626312
-55.584255 -74.922829 -289.260010
-96.892799 -73.121651 -289.735474
-99.669128 -74.420929 -289.447876
-76.770584 -72.996979 -289.662598
-67.255905 -73.431320 -290.433197
-40.731567 -73.231155 -289.100708
-35.629528 -75.629906 -290.287598
-114.734749 -74.726578 -290.893250
-114.097069 -73.278008 -290.877441
-108.268204 -73.665894 -290.651733
-89.639549 -72.445175 -292.036713
-90.589333 -74.378532 -291.734924
-31.093885 -71.907410 -290.858948
-119.286880 -71.974396 -293.353760
-114.643532 -74.593819 -293.305359
-105.530701 -72.014458 -290.306519
-21.139236 -74.293350 -291.277313
-8.926558 -72.020287 -292.217499
-7.927459 -74.598755 -292.193359
-158.126373 -73.897186 -292.919647
-123.070671 -74.240356 -290.061646
-114.149361 -74.788612 -292.747437
-124.113556 -75.083099 -291.012299
3.823175 -72.462204 -293.661987
9.736465 -73.973907 -293.175537
-144.769836 -73.647285 -292.358826
6.463790 -71.378349 -291.642303
12.554664 -75.659607 -293.283447
-156.055435 -73.554649 -292.291748
-134.278076 -75.775200 -295.128143
-134.914352 -73.311722 -291.846191
-157.997482 -73.570862 -296.362427
-143.417404 -73.868912 -295.965546
-126.955231 -74.446960 -294.516144
-154.721100 -75.456398 -295.080994
-156.493057 -74.008728 -297.418152
-153.406525 -75.010567 -295.048096
-151.265564 -76.279984 -296.862152
-147.336548 -74.550476 -299.195160
-142.165039 -71.734680 -298.659241
-154.901703 -75.671387 -304.577850
-143.527542 -75.372208 -304.696442
-143.162537 -74.816307 -306.013885
-155.774597 -72.249275 -307.580994
-142.493164 -72.458000 -311.378601
-143.944031 -74.409294 -311.227814
-156.178314 -71.798683 -313.131134
-148.818390 -71.480759 -313.828033
-152.775833 -73.169220 -313.089508
-147.053360 -74.990944 -309.655121
28.926191 -72.670601 -13.037305
27.625898 -70.747398 -14.479688
31.238115 -71.192566 -14.617623
25.518345 -72.131241 -16.101257
29.536091 -74.299835 -18.491838
30.416504 -71.136948 -16.983501
22.325235 -72.701622 -19.188412
25.542250 -73.372726 -17.333000
22.738873 -71.781898 -20.341398
25.126764 -73.316910 -20.720354
23.312267 -72.000000 -23.054815
20.934452 -73.524040 -26.898829
25.773333 -73.821098 -23.905689
25.186563 -68.768074 -29.383848
23.488329 -72.385147 -29.629459
22.149183 -73.091545 -32.099884
26.415899 -74.119576 -32.376122
24.594522 -72.738480 -32.757851
25.665091 -75.366653 -36.870316
30.245281 -70.899643 -38.445892
38.396481 -70.850029 -37.941956
32.407211 -73.350388 -37.598717
29.415119 -71.864456 -40.480400
35.664169 -72.934937 -41.293449
-64.602219 -72.930611 -47.632317
-58.126621 -72.149971 -48.173893
-51.451847 -73.219864 -49.409210
-50.455551 -73.611900 -49.264153
-65.315178 -75.602020 -50.490479
-67.368546 -73.071739 -51.062569
-44.105423 -72.160286 -50.358166
-71.405235 -72.549942 -49.841373
-69.620605 -72.588737 -51.669945
-42.221664 -72.158989 -52.631054
-74.482887 -71.550285 -50.410381
-38.149422 -74.122826 -53.257366
-72.309677 -71.559052 -51.959633
-40.648693 -70.802475 -52.358585
-72.771263 -76.673416 -54.380943
-31.497246 -72.606125 -54.111469
-30.910721 -72.504845 -55.962967
-80.706161 -70.734657 -56.378624
-80.304184 -72.514442 -57.889282
-22.317614 -72.327820 -61.714298
-16.869749 -72.003777 -65.392632
-87.632866 -71.569328 -63.057716
-15.864373 -72.110420 -67.927528
78.470505 -74.089462 -69.187775
-14.627654 -71.889053 -68.815361
82.122444 -72.300743 -71.654510
90.900574 -73.629601 -70.462151
82.441597 -72.822906 -72.220634
-17.388193 -71.016632 -69.787399
85.750359 -72.207535 -69.689423
73.603661 -72.408737 -72.351723
90.526505 -71.362999 -68.568420
95.379120 -71.994011 -73.096062
73.396889 -73.494682 -76.343376
-90.030540 -71.351318 -76.204178
72.531952 -73.392761 -77.839371
-23.174500 -74.384056 -77.430099
96.505486 -73.310463 -76.804428
-36.043900 -73.633141 -78.074219
-34.796791 -72.052361 -78.450897
-37.499519 -72.742409 -77.743423
94.005188 -72.716454 -76.943550
99.676109 -73.136086 -77.794533
-92.454041 -71.515556 -77.358856
98.103973 -72.662697 -78.819336
72.122047 -73.988564 -79.665314
-41.115437 -74.987625 -82.633873
-44.887035 -74.464470 -80.182426
-95.080856 -71.757286 -82.701508
97.385231 -75.471329 -86.056877
-45.451645 -74.710518 -84.545631
94.988609 -71.357941 -86.007095
-93.441246 -74.438347 -86.556976
-53.532558 -70.727547 -88.587471
96.839867 -73.996521 -86.994041
55.704746 -73.967796 -87.823524
60.067268 -71.989738 -88.379646
-94.823082 -71.762589 -89.513466
-54.736855 -76.087212 -91.835770
57.621872 -72.093567 -90.103310
101.550064 -70.969475 -89.338615
54.263813 -73.197815 -92.142761
-60.471733 -68.454002 -91.145950
-56.489532 -74.652138 -91.371819
62.176373 -73.803719 -94.101952
55.353439 -72.167419 -90.953842
71.276886 -75.285629 -91.258553
-64.171074 -73.596611 -94.448570
58.621780 -71.303757 -95.236420
96.708832 -74.556175 -93.894997
-94.425056 -71.056053 -93.422905
60.262341 -76.547867 -95.204063
55.170929 -73.629036 -95.849937
72.447662 -73.870209 -95.391663
44.975029 -72.555832 -97.724106
99.457481 -72.889282 -97.126587
48.164585 -73.732918 -98.806725
105.046677 -74.388496 -95.141975
57.061020 -71.516533 -95.986732
94.217636 -73.630707 -97.121857
-68.679581 -70.574532 -98.435204
-76.925545 -73.010658 -99.483292
-76.781815 -75.483360 -101.719879
101.959656 -71.675331 -100.486473
-78.592110 -73.138794 -101.296127
107.654076 -72.275414 -100.053070
-70.265846 -74.811874 -102.558632
83.237831 -72.879745 -101.728714
92.128143 -71.821457 -101.114799
93.377815 -72.304161 -99.615143
91.522400 -72.748856 -100.494087
89.099670 -73.660637 -103.413345
104.603561 -73.228317 -103.782326
56.024021 -71.494896 -99.974815
40.767040 -74.830368 -104.226776
109.460976 -73.616974 -106.696022
40.144886 -74.097824 -105.894844
-85.638397 -73.393791 -108.681114
52.183163 -71.737885 -108.253975
105.392296 -71.817818 -109.634460
50.673412 -72.362740 -107.669434
39.761604 -71.478622 -107.671745
-95.573044 -72.566109 -109.865334
104.921455 -70.376038 -110.563370
106.705208 -69.801041 -112.573547
48.974491 -75.023132 -113.096497
35.473629 -74.000000 -111.442719
47.862732 -73.038223 -114.729546
-87.410301 -76.120522 -115.618233
110.795349 -71.293457 -116.184059
34.880569 -73.424812 -116.393097
112.839928 -73.508743 -114.616844
-93.690132 -73.216820 -118.441330
-92.557465 -72.708481 -117.821709
105.825249 -72.710838 -113.913063
-95.329147 -73.649071 -119.676750
-91.510170 -74.245575 -118.529037
36.956440 -70.774193 -115.110130
44.712223 -74.194061 -118.568100
34.090172 -74.449104 -119.357262
105.166939 -74.738182 -118.734787
110.227890 -70.743607 -119.943298
110.853409 -71.449707 -122.485191
115.345459 -73.876732 -121.220245
32.084473 -72.787758 -120.544472
33.090969 -73.841667 -122.398499
44.759998 -74.147598 -121.623497
112.894142 -72.365013 -123.477409
42.138123 -74.442787 -121.416161
106.822372 -71.383980 -120.846024
112.341797 -70.181190 -122.405396
30.173159 -73.214684 -125.486664
31.318941 -72.414429 -123.988167
110.683708 -71.701233 -123.203690
33.957138 -73.766922 -125.706108
39.234928 -69.782112 -125.750473
110.993774 -72.131050 -125.473839
28.895611 -73.893379 -129.337479
31.469147 -73.838242 -128.341339
40.452541 -72.694862 -127.504181
40.765018 -72.616455 -127.607758
114.228142 -71.393692 -127.847160
113.323402 -71.060417 -126.831894
38.171436 -72.862000 -128.077362
27.437599 -74.682396 -128.559097
109.002930 -72.191780 -126.510750
113.378952 -73.776779 -129.905670
40.495560 -75.287987 -132.761414
37.906956 -73.377350 -135.005875
-54.796043 -73.921402 -132.755600
109.806686 -74.184525 -129.120972
31.477118 -72.868431 -137.433807
26.250633 -71.177391 -134.618713
107.149948 -70.908775 -130.606827
-51.670334 -72.998497 -132.582764
117.168922 -74.723381 -134.164642
-74.391869 -73.578880 -133.319504
-58.653202 -72.105934 -135.243332
38.846767 -72.175865 -135.543991
-56.088905 -74.830818 -138.589127
-55.375175 -72.401535 -134.123550
-55.260040 -71.676422 -134.439926
-51.054039 -73.417900 -134.382751
-76.557236 -75.845169 -137.093750
-77.452377 -72.221054 -135.081909
-72.918800 -73.612053 -135.002808
25.786631 -72.051392 -135.612717
-50.203217 -72.116997 -135.506836
-55.895138 -71.857399 -137.038361
111.839241 -71.150665 -136.002914
36.406765 -70.806259 -140.158371
115.838593 -73.890022 -135.346207
108.879120 -74.574585 -139.070038
113.435951 -73.817108 -138.538727
27.448280 -74.522087 -135.527328
-54.582317 -73.939316 -139.166580
25.832027 -73.300667 -140.126282
-69.724815 -72.510208 -143.408310
27.464668 -70.887177 -138.473663
109.478035 -71.729141 -139.085052
-76.325180 -73.314560 -140.185898
-58.159355 -74.961647 -140.388992
-44.071404 -72.975266 -142.727295
35.006485 -72.081223 -144.339066
115.018631 -70.016815 -137.970917
114.190598 -73.052734 -143.249222
-44.416344 -70.409248 -144.524796
28.629873 -75.168236 -141.409027
39.494408 -71.191185 -142.814377
-73.873047 -74.284096 -144.892929
-70.288567 -74.245201 -144.571045
-57.916134 -75.846169 -146.548218
-53.153786 -73.742516 -143.151962
-43.156837 -72.067253 -149.204636
-76.160683 -69.551437 -146.541153
-70.554245 -74.363708 -146.521957
-43.244480 -70.325790 -147.447052
36.617920 -73.189384 -147.962494
114.831619 -73.390404 -145.837357
23.835745 -71.635406 -149.247681
113.215179 -73.968239 -148.312241
114.814445 -71.780647 -147.208527
-71.642021 -70.144287 -149.517792
-67.590446 -72.787170 -149.713013
-52.949421 -73.422775 -151.632614
33.509144 -75.112587 -152.426682
109.797066 -73.861473 -151.785950
-66.741699 -72.016640 -149.604324
-42.790371 -73.843124 -151.171951
112.902847 -73.572372 -153.206039
-53.125957 -73.903152 -150.949265
-75.137520 -71.472061 -148.244858
-69.612175 -71.915291 -153.845520
-67.876129 -70.591644 -153.302841
116.264839 -75.952141 -153.744156
-67.477753 -72.668556 -151.175385
-40.895992 -75.383820 -152.669373
112.835960 -72.947136 -150.248825
-40.662422 -71.763214 -152.760422
11.776675 -72.150307 -153.284897
8.676796 -73.808235 -153.391083
112.285370 -71.930740 -151.993500
-65.346619 -73.363106 -152.541824
7.824057 -73.532188 -155.869202
18.576271 -71.050560 -153.503754
13.659720 -73.436958 -154.784363
116.523224 -73.129425 -153.246368
-35.251144 -75.045654 -155.273880
-68.817108 -69.369736 -158.832291
-66.906334 -70.929634 -155.103653
6.379661 -72.607964 -157.199387
13.633561 -73.412033 -154.651505
-72.263458 -72.443275 -155.243256
15.288435 -72.679794 -153.969376
11.887489 -73.367790 -155.898651
31.604797 -73.090378 -153.668671
109.766281 -70.980995 -151.617279
111.450752 -72.499634 -158.462448
-37.325554 -73.320274 -158.404556
3.425688 -72.064873 -159.879227
108.142662 -76.012085 -159.272446
115.976013 -73.688362 -155.972397
13.402088 -75.362457 -158.125778
31.411802 -75.979881 -158.231949
111.970848 -72.517509 -157.011459
-35.320480 -73.764168 -157.418182
8.372309 -73.784340 -159.003159
110.943558 -72.391197 -157.094986
-61.684460 -72.531761 -158.916702
29.908710 -71.977692 -156.923004
-33.403042 -73.971603 -162.269363
8.074514 -73.779678 -158.686890
29.209288 -71.904572 -161.175476
112.643654 -70.426254 -157.567841
-44.341484 -74.549171 -162.206223
-34.002209 -72.997528 -162.622543
21.768497 -73.353035 -158.955231
7.984058 -74.514473 -162.436859
107.767441 -75.319984 -160.532761
116.030647 -73.986252 -161.361099
5.570817 -72.000992 -162.434616
31.696863 -72.559807 -161.415649
108.650620 -71.088776 -165.106918
-65.410568 -71.904732 -162.135056
-43.356480 -72.531982 -165.892776
2.617247 -73.174454 -159.259247
111.823090 -74.769897 -161.444870
1.233643 -72.240936 -163.546234
19.605593 -73.110802 -163.668228
-31.576525 -76.891914 -164.415527
0.742321 -74.282089 -164.362732
2.014567 -70.995056 -163.394989
-34.984676 -73.266518 -164.535614
-42.481899 -73.567146 -165.453293
0.448031 -73.042534 -163.545624
1.779615 -71.941353 -164.670761
110.650398 -74.212997 -160.427643
-65.104218 -73.939926 -163.462906
19.262030 -74.015686 -165.376846
-60.280914 -72.556160 -165.773163
-31.674271 -72.993675 -165.222961
29.987906 -71.591881 -163.445770
111.321480 -71.874588 -165.257172
106.443207 -74.961121 -164.746094
-31.266460 -74.449310 -169.554581
110.657501 -72.376465 -167.651840
-43.533028 -75.174492 -166.360901
-30.352869 -72.573776 -169.837830
109.399513 -71.866905 -166.451324
-58.596004 -74.676399 -170.222900
18.770060 -72.378906 -166.155685
-59.905479 -73.173904 -169.717880
29.154232 -75.152390 -171.696625
30.122555 -69.778671 -169.274780
-61.490906 -72.689339 -169.610062
-58.748718 -73.138847 -170.217026
109.569115 -73.234619 -172.235519
-41.698799 -71.113670 -171.170395
-28.111275 -77.522232 -172.193390
111.360779 -73.758018 -172.535538
-39.128201 -73.594322 -175.098633
-30.437889 -73.672485 -172.072098
111.650146 -71.468239 -173.658875
20.699024 -73.590767 -172.512466
-38.398136 -74.178024 -172.982925
-36.317776 -73.638130 -177.646210
111.397514 -72.330673 -173.880829
-37.951077 -70.098183 -175.722153
-27.769424 -74.500298 -173.120407
-25.919043 -72.717125 -175.219727
109.208458 -73.463295 -174.787613
-37.611923 -73.396935 -178.181259
-27.341869 -73.062195 -176.326279
103.015167 -76.125198 -177.231842
113.207809 -73.855148 -178.191772
17.299887 -73.142860 -180.457458
-34.066143 -73.831230 -181.637405
-36.859753 -71.673767 -177.677444
108.325539 -74.964279 -179.467392
104.698692 -73.752991 -179.762070
109.978317 -74.662682 -178.639755
-148.408997 -73.416321 -176.343201
27.900492 -73.109718 -177.955658
106.083603 -71.487778 -180.582855
-26.629827 -73.521683 -179.552536
25.458389 -71.023239 -179.891129
-147.639771 -73.105232 -180.970352
-23.468021 -71.221306 -181.119110
-35.745434 -72.705719 -180.357574
-23.261505 -76.056953 -179.247543
24.815754 -72.388016 -180.078079
23.846567 -72.944351 -179.140503
-32.032742 -71.562767 -181.140915
18.242043 -75.475327 -182.879166
27.848547 -72.840805 -184.375351
105.751076 -73.415451 -185.163559
110.153999 -76.103439 -182.322510
-150.626099 -74.408356 -183.886276
-21.128817 -71.867897 -181.763947
106.564941 -74.743225 -185.979370
108.606995 -73.335060 -187.024155
-30.926443 -74.189468 -185.041016
-152.779785 -73.147934 -189.504639
-25.121153 -75.836281 -185.588867
108.475746 -73.495621 -186.239960
-22.329651 -71.067245 -185.917160
102.989563 -73.270195 -185.078903
-142.822449 -73.414749 -187.833664
-18.859396 -74.060707 -187.446503
108.861168 -71.483788 -187.348419
-147.757660 -73.365448 -188.366302
-30.059818 -74.611229 -186.707016
99.794197 -72.162918 -190.362808
103.961418 -73.778374 -187.573639
104.652420 -72.079247 -185.970596
15.892362 -74.055641 -188.860336
-144.173599 -71.754196 -188.957886
-147.774658 -73.943634 -187.833496
104.323952 -75.046265 -187.853561
-33.393730 -74.956429 -193.371353
-17.558298 -74.000603 -189.479599
99.716202 -71.841278 -189.625397
105.069389 -73.489662 -192.247589
-29.102600 -70.845291 -192.979507
-27.184620 -73.635498 -191.917862
12.375754 -74.197823 -191.119904
104.660973 -72.661110 -190.829483
-148.199295 -74.255836 -190.262405
-14.578279 -76.470245 -192.076736
12.704663 -72.139763 -191.558716
-151.124817 -75.394516 -194.454178
-26.450932 -71.814468 -190.952026
105.321968 -73.245262 -193.566681
-155.661209 -73.526299 -196.420578
97.876831 -74.753258 -192.465317
-15.182365 -73.467285 -195.588974
105.706177 -72.179695 -195.233490
-25.279936 -74.182045 -194.555206
23.544342 -73.652138 -192.000031
95.782616 -71.648033 -197.188934
-139.992996 -69.656654 -196.838531
-126.217155 -72.539078 -196.304306
97.839035 -76.225555 -193.989899
-127.219048 -73.786629 -195.376083
-27.511139 -74.874046 -198.716385
22.617262 -70.714371 -195.731232
-139.349823 -70.176025 -197.993240
-10.642926 -72.558388 -197.240952
102.365311 -70.751442 -195.747650
-146.880432 -72.491913 -195.000595
-131.551544 -70.806595 -196.425171
-151.422638 -70.804886 -197.266357
-138.618439 -71.937218 -199.427048
-136.201004 -73.382881 -197.283432
97.799255 -73.329132 -198.262421
6.967512 -73.638016 -198.722412
23.071224 -73.568947 -199.006485
-133.871323 -71.701096 -198.027557
-139.843628 -72.370689 -198.521896
-24.494841 -74.077751 -199.590134
-152.332367 -71.192696 -201.035461
-135.012573 -73.840721 -199.103973
-124.449051 -74.083702 -199.230072
-144.872955 -75.136948 -201.185516
-140.436539 -73.662224 -199.292648
-140.460617 -73.727615 -200.781509
-135.835052 -71.435112 -201.854599
94.402451 -72.799088 -201.674316
98.021233 -72.483818 -200.937790
20.496626 -73.052124 -197.325745
98.222603 -71.887291 -202.725876
103.978592 -72.492668 -199.274734
-133.262680 -70.297058 -200.084000
9.991344 -75.739868 -200.322449
-130.110733 -71.095558 -202.311905
-12.443178 -72.270378 -199.960617
-19.806896 -72.607018 -203.487564
-129.606094 -71.919853 -203.520844
-124.196625 -70.644005 -202.533478
-122.174324 -73.087204 -204.548401
-24.346222 -73.382103 -201.627213
-10.310577 -70.355072 -203.063217
96.099464 -74.460800 -202.258102
-123.972122 -73.126740 -205.189011
19.740961 -73.547134 -201.610901
21.199316 -72.135323 -203.121979
93.265419 -73.515526 -204.543274
-150.673706 -75.982185 -204.389648
-143.793396 -73.914635 -204.513245
-24.489851 -74.336540 -202.337997
-9.600831 -73.582825 -204.528992
100.252197 -73.515701 -203.535095
-21.322880 -71.458817 -203.892365
-12.628984 -71.946983 -206.951859
9.896447 -72.015488 -204.237045
-10.619018 -75.527405 -205.658401
97.317215 -72.865578 -203.431076
-17.877583 -75.428932 -206.557602
18.902496 -74.317627 -206.759674
-11.170072 -72.904556 -206.189056
10.048888 -73.198326 -205.693008
88.694443 -72.878922 -208.072327
94.430962 -71.695251 -209.462250
8.439650 -72.760513 -206.765930
98.929672 -72.656723 -206.592926
-163.349930 -71.411758 -202.645966
-161.307144 -71.666100 -208.084885
-145.310608 -70.321831 -209.319565
-20.992491 -70.857391 -206.439850
-17.973309 -72.277031 -207.909637
-149.132019 -72.865814 -209.152374
-18.076866 -74.544258 -209.654663
89.421844 -75.262917 -207.560287
93.175980 -73.330940 -207.773148
-78.024132 -73.053139 -210.728348
91.670570 -73.867310 -211.441833
92.271095 -72.345032 -211.345596
-147.808899 -71.937340 -214.186508
-80.498451 -71.828857 -212.689514
97.071785 -70.919029 -212.413361
9.420858 -71.534622 -209.047440
-162.776108 -72.660149 -211.114044
-77.760452 -72.054512 -210.463760
-77.772438 -71.829628 -214.454514
-31.419415 -72.051720 -210.846451
-18.816216 -72.230217 -210.546326
7.907134 -72.343781 -210.601913
86.016747 -72.768066 -210.007217
-162.280487 -71.207626 -212.869675
-18.252060 -73.731209 -212.214539
-17.282410 -73.189850 -213.481216
-7.461576 -72.453316 -213.640640
8.685195 -74.212044 -215.044495
-158.215103 -70.628830 -213.432098
-30.127083 -71.396950 -211.826279
-160.494995 -71.847694 -214.572083
-83.312904 -72.651543 -214.038712
90.401016 -72.826767 -215.186218
-85.419525 -75.264381 -212.656342
-84.742599 -74.856537 -212.695557
16.245872 -72.682388 -213.684814
-145.162567 -72.817947 -216.822556
-33.917313 -73.627159 -213.576981
-26.644791 -72.680428 -214.024414
90.157883 -73.526436 -214.573059
-161.137314 -73.678650 -215.036545
-151.473892 -71.641930 -214.773727
-21.431870 -70.999901 -218.541519
-157.652649 -70.597595 -218.730377
-83.766060 -72.233437 -214.334961
-28.660295 -71.391006 -213.442429
82.478966 -73.434364 -216.505386
90.425987 -72.335716 -213.939468
88.314743 -73.517570 -217.471008
-157.713730 -70.834007 -217.256866
-86.104568 -73.019745 -214.320190
-4.828849 -71.920364 -213.794083
-98.894501 -73.637741 -216.868958
-86.094215 -72.163193 -216.370834
-26.432247 -72.789833 -215.212204
88.361542 -74.273132 -216.267914
-159.285416 -73.642738 -217.391937
-153.467545 -69.979843 -216.004166
-29.253252 -73.981644 -216.194183
7.794419 -72.492500 -214.559296
81.566818 -71.009758 -217.141342
-151.425247 -72.319618 -216.799377
-86.124428 -70.392776 -216.420517
-12.678775 -74.951782 -219.654495
89.207214 -72.681580 -217.555206
-11.358491 -71.788948 -216.070374
91.745422 -74.587990 -220.295441
-145.628769 -71.444801 -217.575317
9.240376 -73.577484 -215.760498
-153.207932 -70.440987 -219.291031
-90.294777 -71.648727 -220.147934
-154.181946 -72.919731 -221.504196
-12.638177 -71.287636 -220.838745
1.550949 -73.092865 -217.808456
85.405655 -75.171295 -217.672806
2.381209 -72.330917 -221.255203
-0.690497 -74.759338 -220.013290
-163.161530 -73.088654 -214.629639
-161.537842 -71.965431 -221.742935
-17.656269 -76.067917 -219.728912
-11.171498 -73.086555 -221.372421
-92.366585 -72.923920 -220.376160
4.757589 -71.574196 -218.099121
14.344601 -75.096947 -224.402145
86.240494 -73.634598 -218.989151
89.922050 -73.262398 -221.918839
-152.085464 -70.765404 -225.657593
-100.510086 -73.988327 -222.888824
8.856449 -73.539688 -219.571167
-150.067612 -72.971573 -221.178802
-152.855057 -74.360947 -221.937943
81.667130 -72.947311 -223.709076
-98.436287 -73.669724 -220.958221
-24.698488 -73.853760 -221.069809
83.025543 -71.708481 -223.828323
-163.961243 -72.833534 -219.201447
-164.670975 -72.538948 -221.728714
-160.688522 -72.354469 -224.066010
-154.559875 -73.552834 -221.525543
-99.731102 -74.234108 -222.874847
-21.801292 -71.738792 -224.149460
88.593834 -72.234825 -224.542725
-152.789383 -74.046890 -224.091293
-107.921822 -72.419281 -222.802536
-20.473934 -75.724297 -224.931183
-17.472582 -73.010078 -222.390778
0.830143 -73.059227 -224.755692
-144.395432 -75.352364 -222.268127
-108.399849 -71.651558 -225.100632
-103.662247 -74.234024 -223.383423
-162.448212 -73.175446 -223.581238
-157.038971 -72.962372 -224.517441
-153.129181 -72.043098 -223.061157
-6.988050 -74.086609 -224.381744
7.076096 -74.283859 -221.906631
-165.339417 -71.527229 -223.384872
-163.108002 -72.972786 -226.453400
-104.771339 -72.201859 -228.686829
-17.729996 -71.248825 -225.882965
-158.268616 -73.212006 -224.110184
-141.946869 -75.896530 -227.011505
-129.011932 -69.564926 -223.889328
-14.539344 -73.000450 -224.083786
-11.696902 -73.062004 -224.183136
0.535403 -74.007759 -224.258865
6.323997 -74.028198 -224.806000
82.707809 -76.710541 -228.691162
0.400282 -72.721733 -225.547577
16.798607 -71.860870 -224.380417
-155.083145 -75.116249 -225.505356
-145.483170 -70.629036 -224.982315
-124.761337 -71.655197 -227.429474
-107.654640 -70.362045 -227.758194
-17.212423 -73.221565 -222.914032
-13.100622 -73.378136 -227.258530
-155.140381 -74.839584 -226.168457
-139.004669 -71.424072 -224.066605
-123.562988 -73.050789 -225.514679
-108.052811 -72.217003 -225.937820
-160.767044 -72.959183 -228.251083
-141.262650 -72.091637 -228.142944
-135.100464 -73.062843 -228.230240
-123.017776 -70.881882 -225.263763
-111.229996 -70.538185 -227.755920
-105.860840 -74.740204 -227.219070
-16.268444 -73.642967 -228.184662
-6.509529 -72.480301 -224.453125
-151.724854 -73.093758 -228.576904
-147.962601 -76.488876 -228.670197
-148.456802 -74.588295 -228.945129
-123.545525 -71.051315 -228.404694
-13.655187 -73.379692 -227.344543
4.740346 -74.506813 -227.031479
80.504845 -73.763260 -224.925323
-166.452286 -73.406960 -227.656189
-157.278488 -74.459442 -227.857162
-156.186859 -71.910492 -225.288986
-123.784447 -77.073372 -231.081772
-9.626856 -72.141121 -229.617538
-119.284561 -71.637497 -228.202225
-16.033533 -73.354179 -225.712280
-14.194668 -75.540581 -229.762894
-148.289093 -72.625778 -228.439270
-122.219444 -74.333206 -227.162720
74.757912 -72.011795 -229.046692
80.589134 -71.504601 -226.660400
-113.812721 -71.639076 -229.844498
-111.369789 -72.184135 -228.693024
-149.798843 -71.137390 -228.664032
-147.385284 -71.835709 -230.681610
-124.851357 -72.325165 -231.085114
-10.630888 -73.040932 -232.421143
-145.087296 -71.917519 -229.924637
-113.405930 -74.444992 -232.686768
4.337842 -72.517418 -229.086273
-155.092163 -74.201195 -230.152466
-148.162552 -71.837242 -230.848282
-121.547508 -72.447708 -230.717285
7.588306 -72.505135 -230.135696
-122.042877 -72.210014 -235.010315
-114.066422 -74.523544 -230.308746
-6.874135 -73.944939 -231.902603
-154.673660 -72.499611 -230.542847
-138.016235 -70.423141 -232.545959
-127.187111 -74.907806 -231.418045
-7.734666 -72.379944 -230.226059
-12.026497 -71.331146 -233.461655
-8.946158 -71.975769 -232.821548
9.980896 -72.867981 -235.305084
-162.504791 -72.265121 -230.920532
-143.184494 -72.441872 -232.037216
-134.573608 -72.688454 -234.069595
-9.128392 -74.198128 -233.769028
-154.566956 -72.743622 -234.699677
-1.575296 -72.798264 -234.640778
-133.825104 -74.779182 -232.598145
-121.613014 -73.126656 -231.303070
16.955603 -71.078232 -233.839539
-157.485077 -73.709282 -232.077759
-151.001343 -71.102921 -235.993195
-143.718292 -71.597832 -235.146088
74.031601 -72.612923 -234.463455
79.800621 -74.071838 -234.230484
-151.520218 -73.803856 -232.411316
77.126007 -72.191582 -230.318924
65.265572 -73.053543 -236.166092
69.991959 -73.707489 -237.934067
-158.288696 -71.472435 -234.129074
-157.695404 -70.642883 -234.978485
-151.936661 -69.809715 -237.377960
14.393872 -69.886688 -234.904587
70.048615 -70.901588 -234.732224
10.736350 -73.438248 -234.989349
-155.604248 -70.688553 -235.402664
-150.534149 -72.309540 -238.776443
-15.721711 -75.277359 -234.571411
-5.671829 -74.038361 -237.378220
11.766469 -71.614975 -237.770752
19.440994 -73.615807 -235.277756
7.341393 -73.332306 -240.254303
74.289246 -70.598312 -237.109009
-8.578569 -72.418800 -238.322159
-164.765625 -72.276421 -233.553406
-152.490143 -72.721642 -239.013245
6.225691 -74.722504 -239.255386
11.331035 -73.990120 -240.741394
63.078957 -72.765419 -238.905334
14.735533 -72.050240 -236.480026
-20.636705 -72.346489 -238.274475
71.435715 -71.872070 -240.478455
-142.541550 -74.531715 -240.057434
-10.128983 -70.981850 -239.671799
13.681396 -74.726448 -241.999939
-9.788213 -74.935684 -240.718292
-2.356685 -75.688171 -239.225113
