# This PCD file was generated using the MATLAB® pcwrite function
# from Computer Vision Toolbox®.
# .PCD v.7 - Point Cloud Data file format
VERSION .7
FIELDS x y z
SIZE 4 4 4
TYPE F F F
COUNT 1 1 1
WIDTH 1412
HEIGHT 1
VIEWPOINT 0 0 0 1 0 0 0
POINTS 1412
DATA ascii
63.421711 -67.849548 -243.047363
59.576366 -68.565483 -244.977219
-151.136063 -62.021854 -248.521774
38.955666 -65.538620 -254.587875
-126.342072 -69.183685 -257.004333
41.159496 -65.679260 -253.413513
-117.505501 -66.370934 -259.745544
-112.699532 -65.742691 -257.125946
-125.023399 -67.046417 -258.005920
-109.882515 -65.562004 -261.182007
-110.934586 -67.523163 -258.259216
-108.507187 -66.418358 -258.351837
-115.534760 -64.649887 -262.254059
-135.951370 -65.657745 -258.642822
-113.691490 -65.549248 -257.652435
-4.384817 -65.196808 -259.834412
-111.307785 -66.068840 -260.793213
-116.663704 -67.977783 -262.872192
-131.140045 -65.887085 -292.340302
-135.510971 -65.975578 -287.308929
-150.082916 -68.994637 -287.825500
12.829101 -64.338882 -288.757813
-137.649673 -66.823471 -288.175995
-133.624725 -69.812881 -293.841095
-129.281281 -67.098083 -290.073364
-153.931534 -65.751213 -300.225952
-147.623291 -66.657715 -298.965057
-151.888245 -66.019943 -301.805115
-150.527466 -67.362617 -306.543121
-154.151779 -65.106850 -304.410431
-149.796341 -66.322815 -310.115967
-150.290405 -64.894882 -309.546356
46.049885 -61.607456 -15.834106
39.241688 -64.850983 -23.319777
20.975752 -63.461388 -23.968258
19.697023 -64.017311 -25.089727
30.215593 -67.345993 -34.063480
39.776482 -65.104752 -33.229736
33.023605 -62.314812 -39.613308
38.973248 -65.743149 -41.712002
-57.018681 -63.107098 -44.940475
-70.403137 -61.382652 -41.627567
-74.050552 -67.044586 -42.983334
-45.271862 -67.348473 -45.925991
-33.485500 -66.841965 -49.708076
-78.429398 -65.465729 -49.366695
-29.318302 -67.224503 -48.408100
-26.283054 -65.644798 -52.673878
-82.587608 -66.322113 -49.086761
73.669464 -70.556252 -64.020805
87.366714 -66.659767 -62.718201
78.405960 -69.264343 -64.180397
96.928253 -64.759186 -62.467953
67.594467 -66.967781 -68.837906
-17.122084 -63.544659 -71.104286
-21.866896 -65.222824 -67.131950
-97.938736 -66.277977 -73.057060
-30.289423 -66.959427 -73.504242
101.403267 -66.468246 -76.362770
103.459717 -65.208855 -75.103531
-39.326336 -68.229553 -79.143326
-36.657990 -66.772484 -77.354416
-42.382046 -65.491417 -82.412979
60.772690 -65.232079 -83.242027
62.651806 -66.754707 -83.941917
-52.555870 -63.646614 -85.250694
-50.320168 -69.650703 -81.832069
54.233276 -65.176064 -89.808731
65.808968 -65.205582 -86.089172
-54.257931 -63.865887 -84.101196
105.694328 -65.046242 -85.728508
-51.530327 -66.013695 -88.443428
-96.700752 -65.641045 -88.923134
66.143959 -67.227852 -88.321686
-64.179955 -68.220665 -88.720123
103.536987 -67.420563 -88.508522
-62.221512 -64.644119 -88.091354
68.279945 -71.615601 -94.188461
47.222012 -61.953598 -90.957100
68.219765 -67.892624 -94.392792
-61.881927 -64.345444 -91.671036
102.929688 -63.584229 -93.039146
-61.138229 -68.585426 -93.157425
-98.835556 -67.487656 -89.670280
102.201065 -68.463615 -95.223724
-66.536667 -63.727383 -95.861153
56.656574 -64.527298 -95.272079
55.111717 -64.263542 -95.533905
-100.788399 -68.004684 -98.293747
47.556427 -64.240776 -98.075935
46.628620 -63.481285 -94.013306
52.327812 -67.095573 -96.798592
49.416428 -68.356827 -101.442429
60.188816 -68.413582 -98.116188
103.130188 -60.847507 -98.115868
-72.568962 -63.585556 -98.610695
103.624023 -66.518120 -98.241295
-72.522141 -66.549133 -98.781296
54.572643 -61.580418 -96.608612
67.082596 -68.476959 -94.394066
49.178188 -65.099030 -99.066231
-72.912178 -67.206444 -100.917358
65.737679 -65.606277 -100.782661
99.605988 -66.572121 -103.154190
-80.979485 -67.603653 -99.172852
-72.731277 -67.325417 -98.971062
-100.152672 -66.471245 -100.476646
-81.581383 -63.144428 -101.261848
51.742924 -64.463005 -101.438400
-76.771065 -65.590569 -104.117325
72.253586 -67.104431 -106.281952
-76.101570 -62.399986 -105.311523
45.629551 -65.039406 -102.189949
49.798027 -66.325600 -103.461739
-71.447174 -64.652634 -102.899452
-69.595963 -66.938347 -107.018150
-70.346970 -66.345528 -110.056023
93.988960 -66.420517 -108.249290
75.352654 -66.125671 -107.014450
-99.487244 -69.414177 -110.931641
-83.623573 -66.095207 -108.720261
-75.313568 -66.968399 -110.928215
-74.757912 -65.530533 -116.476501
-96.921524 -62.720531 -117.956688
-99.322502 -61.900864 -120.185616
-84.622849 -67.980072 -115.426590
-79.912239 -67.055244 -120.396980
-62.892715 -63.869904 -113.694427
-78.504120 -62.968075 -121.194626
-62.496689 -65.185486 -120.298447
-61.068413 -68.793808 -116.619553
-57.469639 -64.340424 -118.797821
-59.989220 -67.020409 -123.707489
-79.025261 -65.852371 -122.288963
-85.963188 -62.323410 -123.409103
-87.899887 -68.110214 -124.461540
-79.806358 -66.053291 -125.331184
-64.060875 -61.948513 -123.469185
-56.939949 -63.698662 -125.804680
-54.386959 -66.622116 -123.784386
-77.232552 -66.114769 -125.438339
-76.577995 -67.435730 -129.163239
-87.934937 -66.028000 -129.151047
-53.674286 -66.643280 -126.293541
-78.790306 -70.405701 -125.956055
-73.751198 -64.894936 -132.756302
-82.293739 -64.922272 -127.807564
-52.330841 -62.709915 -127.836807
-51.617214 -67.239693 -132.809250
-85.094269 -66.486023 -131.900604
-80.689415 -66.876335 -133.388519
-61.208584 -65.473000 -133.004959
-54.923615 -63.581615 -134.411865
-46.427586 -66.847420 -136.655258
-79.425751 -64.687134 -133.297867
-52.831188 -67.037033 -137.625183
-53.779797 -64.712044 -135.618805
-74.831673 -68.208130 -139.234238
-64.123993 -61.487274 -141.035782
-73.914711 -64.230751 -139.877716
-72.279526 -62.250595 -142.024948
-53.779350 -64.241928 -137.262466
-47.682865 -67.090775 -138.500778
24.181767 -64.706108 -140.977997
-52.555111 -66.279663 -139.564194
-79.160858 -69.426903 -142.032013
26.599977 -66.385925 -136.573532
18.121626 -63.678902 -140.030853
24.893921 -65.311333 -139.567169
-57.610519 -62.414116 -141.568283
-44.895065 -65.035248 -139.842850
-56.326141 -68.410652 -140.369553
-53.185570 -67.661446 -143.710403
-99.233948 -67.757538 -145.376129
-53.736778 -62.935036 -144.818649
-53.694023 -66.654243 -142.844147
-99.396957 -64.495895 -146.776688
-92.449799 -64.878983 -142.823578
-51.586624 -67.611778 -145.767502
-48.959969 -68.349861 -146.362518
-50.101395 -65.202095 -144.441193
-90.836693 -65.060471 -147.154938
13.689329 -68.731400 -149.628326
17.960199 -66.103760 -147.481140
-94.954247 -64.621071 -151.003525
-100.303154 -60.336952 -150.234848
12.244724 -67.529831 -149.761658
14.908879 -67.622192 -150.726974
-95.314934 -63.547905 -156.257309
-99.300262 -66.540138 -152.302414
-97.707207 -65.538002 -155.849686
-94.514175 -64.465942 -154.520035
-103.328346 -68.982742 -155.456207
-95.690445 -63.076046 -158.509827
-102.015984 -64.131882 -162.787811
-103.319122 -64.421600 -162.578644
-107.511536 -65.657425 -164.328369
-145.551025 -62.042931 -178.127945
-152.280685 -66.111526 -174.999680
-143.773346 -64.552467 -178.375214
-143.066055 -66.151283 -185.101135
-112.094704 -69.558334 -188.064896
-140.191345 -65.751442 -190.712448
-107.628677 -65.212227 -188.607101
-148.918137 -66.346649 -194.627167
-122.768967 -67.068939 -195.469482
-151.257095 -65.347672 -194.605865
-156.886826 -66.555977 -197.989532
-107.259903 -67.951904 -193.285019
-111.559937 -68.028297 -198.356094
-149.849213 -65.963898 -200.909332
-150.911057 -63.732086 -201.184204
-147.654037 -65.164856 -199.485962
-113.363823 -64.161140 -201.532013
-135.202744 -66.761299 -202.028915
-144.121597 -66.204903 -206.258499
-144.172760 -65.166679 -210.723892
-149.044983 -66.210587 -212.531143
-147.776276 -67.740303 -218.407394
-145.714661 -65.112503 -222.049927
-105.742363 -63.057373 -228.585388
-109.150269 -67.956589 -224.146835
-104.322647 -65.986694 -230.686584
-142.038055 -63.749378 -227.175659
-110.591141 -64.464684 -230.375397
-135.340881 -66.293579 -229.527756
-126.090240 -65.091644 -227.046646
-115.189171 -63.799320 -229.179688
-111.848976 -64.477013 -225.564758
-140.464218 -65.839417 -226.281952
-106.901474 -64.878647 -229.871155
-112.158882 -67.638161 -227.823914
0.118663 -67.578148 -228.751266
-118.238251 -64.459427 -229.613602
-144.345184 -66.819420 -233.254440
-134.265564 -66.787636 -228.865601
1.945977 -65.668343 -229.381653
-134.421112 -60.438450 -230.286682
-111.929588 -65.028328 -231.809586
6.608846 -68.506958 -232.342285
3.983845 -62.998219 -232.504684
-112.882347 -63.654530 -234.735474
3.028803 -66.979797 -228.390167
-114.495811 -67.643036 -231.535736
-126.781120 -65.700516 -235.746475
-126.090752 -65.699326 -231.644333
-124.035843 -68.328987 -238.349014
-113.712685 -67.248352 -235.986771
-147.994614 -66.564903 -234.180176
-2.899105 -65.868088 -235.562393
2.441959 -65.369949 -236.257629
-0.626122 -64.308876 -236.432999
7.446901 -63.184074 -238.086624
-10.276314 -66.006180 -236.667236
11.949229 -68.747780 -243.288193
-6.700802 -65.714722 -241.589172
-6.933139 -64.272804 -240.757019
-8.995275 -66.528587 -242.358170
-148.245255 -64.319962 -241.600342
56.426338 -66.860252 -243.204407
61.311516 -64.367851 -242.060547
62.696587 -67.782646 -244.519028
54.001968 -65.150558 -245.087311
54.888103 -67.829262 -241.899750
53.349789 -66.052231 -248.135361
53.277729 -67.477531 -247.806839
20.732893 -65.116821 -250.883011
51.350845 -66.790337 -245.289368
-148.793503 -67.014412 -250.346268
51.263477 -63.815746 -248.614243
-9.875666 -67.694084 -248.112961
50.526085 -66.919075 -252.890686
37.633396 -64.811836 -251.242950
44.436966 -65.479797 -255.189392
23.918255 -65.772568 -253.180435
33.082527 -66.861343 -250.325073
39.188030 -65.273651 -251.846497
22.570402 -64.975372 -261.422241
37.225925 -64.962090 -255.479523
-132.143616 -67.310432 -258.097595
-134.555450 -60.621235 -257.165466
-130.266541 -67.285805 -256.843628
-9.884170 -63.320297 -253.882462
34.479435 -67.566605 -257.094269
35.835018 -64.020195 -257.801636
-6.651971 -68.946953 -254.695313
35.514797 -63.130871 -260.187042
-143.589447 -66.344055 -256.908905
-138.161484 -66.247643 -261.187256
-127.038818 -64.886261 -255.350204
-7.351142 -66.834137 -256.560272
28.297981 -64.569382 -259.414093
-125.586853 -64.037560 -255.794800
-0.458398 -63.035206 -259.673553
30.101383 -66.508606 -261.804504
29.685146 -65.962151 -259.897766
37.682262 -66.532074 -257.835388
27.453312 -65.403839 -257.956299
-132.018341 -67.044960 -256.567963
-1.492551 -62.479439 -261.806763
26.645432 -67.372475 -260.638611
-148.806183 -66.125992 -260.132294
33.532429 -65.505318 -263.569000
27.040882 -62.660656 -258.405853
-116.242180 -68.793205 -267.095825
32.507057 -64.061447 -262.028595
-137.033401 -63.162304 -262.234558
-125.681679 -63.811165 -262.181244
-123.539352 -65.267189 -261.698853
-130.096893 -63.724171 -262.016632
-126.407166 -71.680275 -262.075256
-121.220634 -66.419899 -265.851532
-134.310760 -68.981224 -262.321655
-125.676712 -62.067509 -263.610962
-119.327782 -65.521820 -265.080170
-124.678917 -66.906326 -264.226929
-123.765549 -67.249420 -264.731537
-118.359833 -64.620979 -266.707123
-115.575920 -67.015022 -265.361176
-1.116663 -70.075790 -263.066376
-154.350616 -65.373146 -264.684357
-146.209244 -67.699379 -261.590820
22.909388 -63.506165 -262.802948
-1.066796 -70.111038 -262.494659
-1.644285 -65.665230 -270.076508
-4.374125 -65.273834 -268.742950
-3.345502 -66.054543 -280.789368
-2.569828 -64.658638 -266.151031
-5.893178 -67.991486 -277.900757
-146.667892 -61.403343 -277.809052
-5.322217 -63.000057 -285.871948
-1.983812 -67.307648 -286.671967
17.492712 -65.223289 -283.354706
-6.782558 -64.376953 -288.183197
-130.779312 -66.372520 -289.400818
-126.669159 -67.782936 -286.732025
-128.028824 -62.826302 -284.905518
-124.005646 -71.705818 -285.685699
-124.963364 -64.171188 -289.341644
-118.724174 -67.638680 -290.936890
-134.152283 -64.591682 -287.969391
-124.369225 -68.673058 -287.106384
-115.003334 -65.446968 -288.194855
-4.216273 -66.675468 -288.060303
-134.081970 -63.577347 -287.096527
-118.795448 -64.991264 -288.797760
-155.922791 -67.278526 -286.511261
-132.695862 -62.475655 -287.482483
-123.553169 -67.085236 -288.437317
-120.387604 -64.147552 -289.682465
-117.992249 -68.218521 -291.158630
-154.531311 -64.260139 -287.902649
-122.948135 -66.723999 -288.535522
-133.651886 -67.677666 -292.167999
-126.622910 -64.550232 -290.500763
-122.934929 -68.653648 -292.898407
-122.886055 -66.016968 -288.812531
-150.385468 -63.880962 -291.576782
-128.725647 -67.962868 -292.064545
-144.733475 -67.050636 -295.268158
35.051792 -61.454830 -11.885622
30.397051 -65.643677 -10.405681
42.283909 -59.713123 -18.997309
49.998890 -60.306091 -21.480495
26.677866 -63.712368 -28.305462
46.174519 -60.185257 -36.880966
34.782658 -63.516056 -39.818443
43.526073 -66.301697 -39.838795
-64.246796 -65.409058 -43.708080
-50.159096 -67.079903 -42.913361
-74.191856 -66.370377 -48.321903
-76.762505 -64.864777 -44.356594
-37.640926 -64.502106 -46.519829
-32.920155 -66.318382 -50.205173
-80.707703 -64.103935 -50.855919
-83.250427 -64.486893 -54.209736
-87.308571 -64.511292 -54.770657
-14.745760 -68.934341 -57.114998
-15.507359 -67.101624 -56.517616
-91.177086 -64.964027 -53.833916
-11.372124 -67.630173 -56.160923
78.419128 -65.461334 -63.226402
87.935989 -66.236145 -63.002384
-12.824080 -63.514389 -62.294182
74.663895 -64.458221 -62.455063
85.392914 -66.346977 -60.758347
90.653748 -63.973602 -60.660191
69.530396 -66.321236 -65.593475
-7.355828 -63.206085 -62.590805
69.022217 -64.819321 -63.175533
95.523964 -66.171867 -65.281906
70.338318 -64.271942 -66.459846
99.604263 -65.259796 -68.942986
-17.917366 -62.737606 -67.788322
-17.410845 -66.790314 -68.878517
-11.804361 -61.631588 -68.596558
103.218102 -64.308380 -70.815643
-25.796425 -63.636265 -70.370239
64.621162 -63.267391 -72.547050
67.393723 -63.959328 -76.610825
60.852081 -66.585030 -73.323273
65.711395 -65.565224 -76.057648
102.817337 -64.429169 -82.922523
63.789505 -64.757515 -77.377495
-94.996330 -64.169182 -81.465874
62.271591 -68.280319 -81.604729
63.995567 -66.089180 -86.177010
-50.423443 -67.219574 -83.840591
64.329659 -69.077744 -80.183144
105.455261 -62.553116 -82.150070
-51.928577 -65.013664 -83.782387
58.885094 -66.647682 -86.616989
-54.158092 -64.154854 -88.180717
51.658424 -67.029846 -82.231018
-59.090900 -61.180801 -88.224678
51.478176 -67.093269 -90.179619
50.444607 -66.915085 -92.860619
57.709187 -66.988586 -92.227036
-61.796295 -65.252625 -96.927505
59.581696 -65.763580 -94.550934
-64.602371 -67.713364 -95.250526
57.816685 -63.557346 -95.954865
48.094227 -66.833809 -93.037514
53.445015 -67.134636 -98.520325
104.830162 -68.870071 -96.764420
-63.653664 -64.665916 -99.762665
-101.074348 -66.380157 -96.376404
-71.285614 -66.484665 -98.786362
102.929283 -66.610809 -99.604797
-71.001892 -67.262589 -94.948662
-100.092278 -63.075134 -100.514206
45.095890 -63.586105 -102.312080
-72.337143 -68.381355 -99.778877
48.439140 -66.159744 -100.799599
-68.388107 -63.544659 -99.980286
51.013279 -66.249710 -104.258163
-77.003990 -65.022598 -99.993706
-74.107224 -64.275421 -102.674805
-74.000114 -64.734604 -100.215729
-71.563805 -66.144073 -103.675964
101.571930 -63.320171 -105.418800
83.471085 -62.144600 -104.187943
-74.830055 -64.972435 -107.748466
90.248222 -65.939796 -104.424278
-98.933624 -68.860146 -108.596664
-77.615158 -63.567368 -108.161697
-79.952721 -63.422394 -114.129639
-73.863762 -66.241783 -113.999397
-74.063835 -65.130714 -116.571823
-80.733498 -65.043007 -116.272766
-75.857544 -64.027878 -114.533813
-61.093334 -66.409119 -116.042473
-90.074997 -62.441357 -119.559494
-64.490471 -68.400475 -115.446686
-76.016869 -67.591835 -120.524025
-87.469627 -66.704956 -119.249954
-65.554230 -67.501801 -117.957047
-78.651237 -65.497734 -121.419220
-96.104431 -67.058258 -116.754204
-78.603249 -65.494347 -125.356010
-95.719955 -68.095200 -124.126343
-92.414658 -63.186924 -120.581108
-84.044258 -63.479843 -122.575775
-60.879829 -66.150436 -120.740631
-65.425903 -63.278549 -122.155312
-62.040672 -65.971466 -120.943214
-58.059803 -66.331230 -121.240288
-82.259514 -62.913097 -122.475708
-83.767189 -63.161461 -122.481018
-78.937515 -66.322975 -123.761002
-50.569775 -66.848244 -125.357384
-66.330093 -66.025452 -129.870407
-78.803093 -63.463165 -129.629974
-73.187126 -68.005363 -128.249695
-86.405182 -64.930099 -128.422821
-84.743690 -66.670738 -123.945976
-83.628036 -63.603931 -126.288292
-86.257584 -66.838112 -127.997849
-76.871620 -67.949562 -129.063507
-85.922577 -64.387764 -125.149467
-83.741669 -64.626846 -130.545700
-52.285492 -64.864746 -129.422592
-79.999405 -67.831673 -130.365173
-81.517937 -61.710358 -125.256615
-76.986916 -64.879448 -136.208145
-93.818542 -62.337292 -129.569534
-90.411354 -68.422173 -130.427292
-61.373814 -63.408951 -130.834259
-73.908859 -66.265381 -132.004181
-61.752335 -60.835148 -136.984512
-81.346649 -64.112770 -136.039261
-91.947906 -67.293816 -132.315170
-89.833504 -64.901588 -132.997330
-74.559052 -66.008751 -135.742111
-63.038250 -67.163971 -137.135635
25.289383 -62.934200 -135.346481
-75.981277 -66.272858 -137.608994
-82.070526 -65.939026 -139.346756
-75.758423 -65.837959 -134.321304
-61.061314 -64.554893 -136.620132
-57.767899 -65.192940 -140.511566
-75.979019 -68.971916 -139.587952
-91.872749 -66.645790 -135.975693
-55.034832 -62.007530 -139.035461
-85.725159 -63.207481 -138.165955
-52.732342 -62.145145 -137.071518
19.298153 -64.041992 -138.250351
27.681091 -67.358368 -136.512283
-85.965782 -67.155182 -137.891647
31.446207 -63.722694 -140.384232
-95.123192 -66.795830 -140.268326
-96.831245 -65.236595 -136.871887
22.020107 -60.999939 -139.795059
-85.310661 -67.614319 -139.072266
24.513140 -69.266777 -139.210983
-49.405800 -66.700035 -139.866455
-95.206749 -64.637329 -141.124084
-90.075394 -64.796310 -141.214966
-57.925919 -64.116287 -144.447250
19.503918 -63.822945 -145.487534
-89.507774 -70.514023 -142.019348
24.795059 -65.616676 -141.414169
23.624863 -66.386116 -141.279266
-92.488258 -65.449974 -150.054779
16.161129 -63.396507 -144.621536
20.527996 -63.887646 -147.272720
-100.123985 -64.185760 -151.160751
15.579845 -67.436401 -146.024384
19.196978 -66.869514 -148.412842
17.746855 -65.761452 -146.842163
17.286533 -62.294697 -154.210205
17.532955 -65.933647 -154.761368
-101.973045 -64.531860 -155.320847
-104.051086 -63.878731 -158.625198
-97.296616 -64.620232 -158.129990
-103.563309 -65.223045 -159.425232
-99.278252 -67.816452 -162.942047
-100.079575 -64.719048 -165.166458
-104.133781 -65.940269 -164.014313
-109.947975 -67.003365 -167.220032
-99.391434 -66.266747 -169.691391
-99.316162 -64.339134 -170.176605
-102.092308 -65.690018 -171.550919
-100.678406 -64.027771 -169.684692
-107.325264 -65.483223 -169.948975
-101.868065 -67.525436 -172.924637
-104.446434 -66.752579 -173.492706
-107.032646 -63.990662 -171.976685
-104.532974 -63.595043 -175.325623
-144.844955 -65.311981 -174.466156
-141.564285 -67.647751 -175.374603
-107.084358 -64.980972 -176.438766
-140.275253 -66.589539 -180.052612
-109.045563 -69.513710 -177.620438
-107.966675 -64.555176 -174.672852
-104.687340 -66.922028 -181.288773
-151.575958 -65.977287 -181.152710
-111.051727 -66.347626 -178.473145
-142.293625 -64.821426 -181.951279
-114.288673 -64.433693 -183.437149
-152.920776 -66.131180 -179.647690
-113.500587 -65.729164 -183.661224
-105.364769 -68.014610 -188.470139
-139.354324 -63.887066 -188.619049
-149.787033 -64.302773 -188.180832
-103.204231 -64.522430 -188.865829
-152.900238 -67.198425 -188.527542
-111.749168 -67.525955 -190.900986
-108.529800 -66.280663 -187.824097
-141.501221 -66.368813 -192.532135
-108.005714 -65.126953 -195.116455
-146.103775 -65.581787 -194.029755
-142.657135 -64.685905 -192.464127
-112.857994 -64.789124 -191.671219
-143.385406 -65.341438 -195.001236
-124.656342 -68.167641 -189.248352
-114.833916 -64.656067 -193.041214
-132.156601 -61.607479 -195.549973
-130.147308 -61.694130 -193.759933
-137.562469 -65.424309 -197.931564
-111.222649 -63.534821 -198.988586
-136.868301 -64.737671 -195.505081
-120.391983 -63.233665 -195.208984
-120.219734 -63.729435 -197.821350
-124.205536 -65.327431 -195.591522
-114.817635 -62.705631 -198.631577
-145.767029 -67.998566 -197.253281
-136.623245 -63.942722 -194.834671
-121.837318 -65.690727 -198.026031
-153.994171 -70.049408 -199.016083
-114.623352 -66.688301 -198.112534
-111.271400 -64.622757 -195.922653
-145.210739 -66.320740 -197.013138
-146.831848 -67.477348 -200.152679
-115.873436 -61.440674 -202.934647
-122.449036 -67.645401 -202.042511
-118.497780 -65.018707 -202.160919
-134.835892 -66.497154 -207.065094
-117.733154 -66.028191 -202.176895
-114.069862 -66.124649 -202.702744
-143.472092 -68.497414 -205.625183
-131.089844 -63.693104 -205.315613
-111.841850 -66.301910 -207.269348
-130.774765 -66.803864 -203.999161
-124.461708 -67.895340 -207.779892
-120.986092 -68.031937 -204.394348
-124.590317 -63.843399 -204.274124
-118.962189 -64.821358 -203.252426
-147.043915 -65.168289 -207.646652
-144.405670 -64.694618 -220.362228
-149.621811 -64.844154 -224.766632
-154.050232 -61.153008 -226.327545
-129.294800 -67.622154 -226.094803
-134.539627 -65.374367 -230.949158
-135.209793 -67.419930 -225.563873
-133.588364 -63.626762 -226.385284
-149.639145 -66.696297 -225.272781
-130.382156 -64.675232 -229.561340
-114.999619 -62.695007 -231.187088
-110.240746 -65.370323 -225.388947
-119.645737 -65.422073 -227.527283
-119.916618 -64.814590 -227.890839
-116.804558 -63.166683 -230.233231
-110.391258 -64.333817 -230.253372
-124.267128 -61.094315 -229.019592
-119.128746 -65.464714 -230.196289
-123.255440 -59.371433 -231.101807
-114.841644 -63.399158 -230.866501
-112.238594 -68.169487 -226.271179
-124.401207 -63.354263 -229.630524
-123.572250 -66.991692 -230.141083
-134.867279 -62.691723 -230.742447
-123.423210 -64.953560 -230.673660
-117.177818 -66.142906 -235.146942
-116.075256 -66.624657 -229.726730
-133.250931 -64.739120 -232.089783
-123.764763 -62.538960 -231.067841
-118.923584 -63.387482 -232.992767
5.016072 -66.775063 -235.947220
6.334529 -64.058136 -232.483322
-149.994659 -64.538986 -234.931046
13.189455 -67.031357 -233.210266
7.084833 -65.765770 -235.815598
4.489817 -66.050957 -236.186066
3.548308 -67.625862 -239.388092
0.820535 -63.383133 -241.753326
12.006351 -67.491570 -237.818207
-144.823730 -63.282307 -244.163269
8.509860 -66.126984 -245.835846
16.661795 -68.089111 -237.483643
17.291698 -64.390182 -241.279709
-4.237113 -63.515198 -237.878922
15.898294 -65.859070 -243.425888
7.895048 -65.109634 -246.303391
-3.174624 -68.026192 -245.463394
18.356388 -65.416443 -242.484238
-10.884196 -65.313843 -245.225662
-146.103622 -66.470421 -245.337616
-11.402726 -65.031128 -246.889816
49.113609 -67.941704 -246.362396
51.350372 -63.737675 -247.927048
52.139717 -65.578613 -247.498276
48.845383 -62.244492 -250.852478
45.351204 -61.052559 -250.260941
21.071009 -65.636993 -248.808273
43.518867 -62.120342 -250.359421
-143.750351 -65.119080 -251.834305
41.409992 -63.902569 -250.876175
-146.678040 -61.984859 -251.334839
52.024220 -63.803165 -249.724243
38.077026 -65.893105 -250.122955
51.013271 -64.779739 -247.855667
-6.172789 -67.200928 -250.985840
-4.932384 -64.361832 -255.406021
21.887911 -63.177963 -254.907974
33.262318 -64.146759 -249.586456
48.119934 -64.506607 -252.275116
30.242651 -66.226646 -254.124786
43.463436 -64.365425 -254.126190
-150.350479 -66.282661 -258.694244
-129.775986 -65.305962 -256.575073
26.979626 -65.859512 -259.510193
-129.211746 -64.862610 -257.480743
-126.697502 -64.215080 -260.209473
-148.163177 -64.103630 -260.590454
-130.881012 -65.345299 -255.221069
-3.855596 -60.830070 -260.213318
-139.140594 -66.342140 -260.258728
-134.977722 -60.324814 -261.060669
-132.775146 -66.106476 -260.727600
-127.816948 -62.108612 -262.148376
-133.455643 -66.368080 -264.255646
-126.110092 -67.221710 -260.559937
26.120060 -67.681465 -260.629333
-133.536621 -63.298416 -261.526062
33.316277 -64.983337 -261.446075
26.174143 -67.950630 -263.967834
-0.554191 -60.615986 -263.377930
24.932764 -66.857613 -261.539215
25.954126 -63.010597 -264.200989
29.670219 -63.746246 -262.807770
26.671450 -62.727386 -266.651581
-1.344525 -64.698166 -264.987701
0.725294 -65.115242 -269.733734
-149.524658 -64.320152 -269.141968
0.458944 -64.454895 -276.296173
-2.017837 -68.289528 -272.894592
1.255864 -63.385075 -280.321777
18.704260 -64.358887 -276.127411
22.833750 -64.824791 -280.676941
-5.052007 -66.471375 -280.658356
-145.423569 -64.602913 -283.526917
-148.015366 -64.313034 -282.118591
-154.840958 -68.192520 -282.482941
-148.466187 -64.354599 -286.720001
-143.225754 -68.371132 -285.331940
-155.430908 -65.667961 -281.349762
-156.688293 -64.661354 -283.357208
-5.134594 -66.589439 -283.653748
-160.144424 -67.459702 -288.710876
-148.620773 -62.874870 -289.926147
-6.260684 -65.117546 -287.538666
-154.110535 -68.138397 -290.405151
-150.995041 -62.314163 -287.817932
-148.870392 -64.633331 -288.985870
14.972702 -64.148239 -288.280823
-144.043762 -64.971642 -289.848297
11.115984 -65.281525 -290.781311
-154.813858 -67.784065 -293.184448
0.802289 -67.138336 -291.225037
5.267076 -65.014175 -292.895691
-146.004364 -69.263382 -293.759888
-152.415863 -66.554024 -293.917908
-152.594650 -65.241119 -293.630219
32.704155 -69.053093 -11.891931
32.544033 -66.578011 -10.174931
39.035202 -65.723755 -15.788683
45.228214 -61.459473 -17.064905
38.943043 -61.990295 -16.718531
30.669508 -65.805519 -21.047733
44.783489 -63.435436 -23.905737
43.144310 -65.774231 -21.979837
18.438046 -64.920998 -21.930492
45.352150 -66.519714 -25.140039
29.196083 -69.085976 -28.082090
19.527853 -62.772816 -26.999441
-65.094917 -60.610035 -36.858715
-52.834171 -63.399708 -43.543388
-65.328346 -67.594528 -43.775074
-66.741066 -67.968231 -45.671516
-39.477051 -67.506927 -46.192234
-76.737099 -67.286858 -47.073822
-82.970444 -66.183235 -47.136150
-22.504307 -65.950089 -51.068401
-22.857822 -67.695007 -48.581268
-20.170057 -64.580101 -53.917347
-85.333397 -67.635979 -56.573006
-88.222694 -60.900139 -55.207001
-90.531784 -63.249313 -60.036247
-93.088425 -67.337540 -63.067051
-9.265713 -65.218727 -64.956573
95.438904 -62.917316 -63.367954
94.379295 -63.189060 -62.864254
-92.123787 -66.978180 -64.555565
-96.635391 -64.899460 -70.795197
-14.772992 -62.498329 -64.787170
-23.876312 -67.123756 -70.680206
99.778564 -67.591202 -69.107361
-23.781281 -63.386555 -70.162163
-29.071751 -59.874268 -68.466827
-26.854864 -65.237587 -70.792000
67.933899 -64.212433 -72.460915
101.130341 -67.489990 -72.028465
-30.917072 -65.823906 -72.615379
99.249916 -62.712460 -73.402710
-97.664352 -64.186241 -77.120819
-31.939684 -67.043404 -80.450058
106.354515 -66.177773 -76.532402
-33.449379 -63.641869 -76.791473
60.996395 -64.204140 -79.602959
66.532448 -64.928619 -80.597954
-44.450073 -68.079803 -83.289154
-48.177750 -63.231693 -86.142136
-51.138618 -61.931824 -80.946404
-97.712212 -66.905411 -86.471321
-55.128136 -65.860435 -84.261894
56.321636 -67.031631 -86.311172
-57.556206 -59.055279 -84.394722
-98.403763 -65.242889 -82.833282
53.061073 -66.443169 -89.648537
63.406223 -67.618988 -87.508400
51.402344 -63.988590 -89.000977
64.920609 -61.632668 -90.421967
-62.549385 -65.708076 -88.564011
60.814041 -61.155849 -92.098381
101.495590 -66.551796 -89.962387
51.592175 -64.818100 -86.615662
59.676544 -63.102039 -94.321869
103.086540 -62.682087 -93.746979
62.742760 -67.275246 -90.778297
68.904297 -68.179291 -96.584167
63.624516 -60.968903 -93.167923
-98.017967 -63.323643 -95.061256
52.406067 -64.791649 -93.411667
55.741661 -68.438072 -95.975418
47.463463 -64.669701 -95.116852
56.840656 -66.692833 -96.505379
-67.694641 -63.655975 -98.429161
58.361408 -63.402061 -96.708336
50.241043 -65.283440 -95.178642
51.727161 -64.665932 -101.041603
-69.674248 -62.058929 -100.252052
54.603119 -65.147362 -100.062576
104.661575 -60.849030 -98.073792
48.495647 -62.561954 -99.615814
-65.947891 -62.163483 -100.704155
-76.829460 -66.832153 -103.323021
-76.209625 -63.947964 -102.935600
70.374245 -65.624832 -99.923164
-82.745483 -63.524868 -104.034187
68.871994 -65.128677 -106.308052
-72.210915 -64.316452 -103.822800
-74.962166 -64.022339 -101.504135
72.522629 -64.225021 -107.027946
-69.878418 -67.475395 -106.299644
90.694450 -65.497803 -104.723114
-96.631996 -64.292862 -107.340332
-73.503670 -64.723114 -107.375320
-68.898697 -59.355782 -108.140129
75.961761 -68.126236 -105.790390
76.903786 -63.957012 -108.913567
84.578926 -66.233841 -109.200699
-70.999916 -60.052887 -109.337135
-78.168312 -62.561653 -113.348366
-83.791435 -63.069366 -110.325806
-75.265442 -66.378822 -113.494843
-85.170036 -60.881523 -108.973457
-88.807564 -64.124718 -111.951347
-78.524391 -66.123238 -112.560036
-75.245125 -65.628632 -112.615631
-81.823502 -63.656635 -115.100060
-96.458199 -63.273594 -110.745789
-90.079208 -62.460274 -111.020813
-79.339363 -65.980659 -111.595917
-81.334595 -65.373337 -114.659706
-99.583336 -66.154579 -113.190529
-77.782455 -62.370148 -116.691544
-84.348953 -66.320129 -116.673317
-83.785927 -65.136711 -121.420372
-74.526443 -66.995125 -117.722397
-59.741165 -61.690590 -119.112755
-60.791176 -64.712883 -117.669296
-82.753654 -66.398155 -116.152763
-76.171944 -62.418167 -122.152184
-85.902939 -64.588959 -120.998779
-59.442863 -69.358490 -120.610657
-55.814949 -63.782280 -122.632919
-74.900978 -65.897453 -123.126801
-92.317230 -66.967018 -122.292847
-56.432629 -64.170395 -119.823997
-81.082680 -63.815247 -123.676003
-76.126434 -63.634205 -125.593903
-54.759220 -66.498985 -119.845932
-79.137871 -66.090843 -122.204781
-78.649895 -65.403679 -127.627892
-77.661171 -67.406509 -125.623970
-56.843685 -65.454445 -126.218803
-61.993279 -67.426994 -124.613609
-51.702606 -60.877369 -123.462563
-53.662510 -70.004799 -126.094856
-75.792114 -65.723152 -127.780670
-66.390923 -66.309517 -129.678970
-63.054268 -65.665276 -127.170258
-87.499290 -62.750145 -128.676300
-82.396828 -62.774876 -128.755096
-86.265182 -67.351929 -129.546600
-76.334190 -63.235119 -131.466980
-51.300522 -61.644577 -124.937126
-89.413879 -65.699005 -131.833755
-79.166595 -66.331520 -127.269806
-88.543320 -65.299698 -132.405777
-76.615089 -63.978378 -134.644180
-77.462234 -65.941597 -134.171402
-88.738350 -64.387497 -135.625412
-84.173088 -64.228897 -132.847824
34.161385 -64.527763 -133.145996
26.571213 -62.984520 -130.893250
-62.076496 -68.708466 -133.878815
-50.382648 -63.956364 -135.672104
31.635643 -64.954239 -132.338943
-91.894348 -62.778713 -137.612640
-86.048210 -63.024227 -135.423706
-59.735104 -65.844894 -136.956726
-84.906807 -65.238136 -133.062241
25.508335 -64.205124 -133.798416
-57.967285 -63.099430 -135.951599
-50.700439 -67.502823 -136.679596
31.530764 -63.398918 -136.768433
-59.004551 -66.261597 -136.552490
27.723320 -63.722168 -137.016724
23.841789 -64.066818 -134.429337
-91.676071 -63.439636 -134.901535
-87.930779 -64.930511 -133.074265
-57.805328 -64.445457 -140.416885
-54.221401 -63.694572 -139.865112
-51.797207 -62.464931 -141.846786
-58.545208 -64.432014 -137.691864
-57.791546 -60.658188 -138.256668
-56.287292 -65.091270 -140.547760
-89.705414 -62.550419 -140.475830
-90.526627 -62.002968 -142.087311
-91.583122 -66.552490 -145.965958
22.139393 -61.814026 -140.787857
18.961655 -64.625923 -142.721451
-96.482468 -65.743065 -147.363342
-92.812103 -66.318863 -141.622849
21.101397 -68.231056 -149.067276
17.115587 -58.801014 -144.180374
-98.856369 -66.842804 -146.142944
15.772990 -64.818047 -147.811676
17.187544 -63.778332 -149.912994
-91.342499 -68.262939 -146.018616
21.035826 -63.146259 -152.381500
16.433470 -65.918327 -149.980118
19.883358 -65.314087 -146.853577
14.727175 -64.323616 -151.333344
-99.194008 -63.425999 -154.387253
-92.984383 -68.650932 -151.714218
-99.154182 -67.814316 -153.663010
-97.417511 -63.730282 -154.999283
-100.059464 -65.491905 -152.125565
-97.089958 -63.357014 -157.370590
-101.506447 -65.755867 -156.716858
-102.308800 -65.135933 -156.781326
-97.930840 -66.986732 -160.899750
-103.858910 -63.971272 -162.823853
-102.010185 -61.769505 -167.439407
-107.572662 -63.406170 -171.172226
-97.369881 -65.302116 -166.894409
-109.571907 -63.222855 -174.795212
-105.706490 -61.298283 -172.374268
-145.536179 -67.095856 -177.462845
-103.850990 -62.491135 -172.789124
-152.259872 -68.120071 -175.373184
-102.387146 -67.914085 -177.166763
-150.593170 -65.451736 -178.023895
-112.325264 -59.763851 -176.105057
-105.283524 -64.281494 -178.357010
-111.041672 -61.833355 -181.925797
-109.833549 -64.957275 -182.848633
-152.478714 -63.199932 -180.972733
-138.587463 -62.321556 -177.375580
-108.634155 -63.332111 -181.442688
-110.584114 -62.012768 -185.342590
-103.430733 -64.453430 -181.572601
-111.149879 -63.773788 -182.397751
-149.900360 -65.170532 -188.101151
-111.884567 -64.445847 -191.466278
-106.218513 -61.228195 -186.357529
-106.563957 -64.055305 -185.406555
-155.195999 -62.542397 -186.112778
-149.765244 -67.802414 -183.253296
-144.792786 -65.345802 -186.870148
-109.014069 -67.073166 -185.509705
-109.009140 -66.105217 -189.635422
-144.645233 -66.147339 -187.856873
-110.418358 -66.447365 -191.123657
-147.952972 -66.910332 -188.527145
-110.141960 -64.725342 -191.414398
-112.960930 -64.250412 -193.843185
-127.874588 -66.230408 -195.164078
-112.780380 -66.801369 -195.526978
-143.814560 -61.905323 -194.254959
-151.913193 -65.376404 -197.187851
-126.930786 -62.797417 -194.936096
-135.565842 -64.298912 -197.919495
-110.798889 -64.787331 -196.803833
-114.153297 -65.130272 -197.312897
-120.966934 -62.176521 -196.737930
-140.248962 -64.752434 -196.613190
-116.781898 -62.387478 -199.809128
-111.538620 -63.134377 -196.314926
-135.185211 -65.168915 -198.441116
-109.925674 -68.395905 -198.380356
-124.938377 -64.108376 -197.923187
-116.983322 -63.302750 -202.185974
-114.700432 -61.906464 -202.960739
-110.908119 -64.484940 -199.538559
-140.770599 -64.874443 -200.346741
-121.362816 -60.927223 -201.613617
-120.078453 -63.235432 -200.695740
-133.677322 -63.020214 -201.636353
-114.884140 -62.415634 -199.675583
-133.931046 -60.954224 -202.348465
-118.156921 -64.022110 -196.030884
-117.236465 -64.547142 -202.094040
-135.815262 -62.806793 -204.874100
-127.616417 -65.597580 -200.366745
-125.602776 -63.090515 -201.737335
-131.468430 -63.238216 -204.560745
-126.714478 -62.027008 -202.836960
-116.067200 -62.310013 -204.946320
-132.934128 -66.319366 -205.898529
-124.173935 -61.879452 -204.307388
-120.162354 -58.955681 -207.668854
-117.522705 -66.501907 -204.519974
-116.650345 -62.570293 -203.504807
-154.716583 -60.771255 -203.353363
-148.573730 -65.582878 -212.769455
-151.444122 -66.894852 -223.026978
-150.683945 -64.270638 -224.950699
-122.751198 -65.150978 -227.609818
-131.837250 -64.895737 -226.708618
-129.119781 -67.400948 -226.087082
-122.473412 -64.640846 -225.433365
-140.991531 -60.927147 -225.740234
-130.862839 -64.445709 -229.947586
-148.013885 -64.030731 -228.704788
-129.426254 -64.645355 -229.418808
-131.998001 -62.452457 -230.853775
-123.558144 -65.699997 -228.172668
-149.430084 -61.608776 -229.719559
-124.359543 -62.634712 -228.698044
-150.590515 -63.125961 -233.107224
-133.374420 -65.043610 -229.269501
-132.617157 -62.275291 -226.207779
-147.913345 -69.007278 -231.719849
-132.110550 -63.496262 -230.117920
-123.803986 -64.218933 -230.886124
-125.658852 -59.821396 -231.880997
-128.417496 -66.010666 -233.284042
-151.274139 -62.148811 -232.239105
-142.191010 -60.887226 -235.209732
-6.530036 -64.879547 -239.024658
-2.410826 -69.483047 -237.627090
-6.577733 -66.060234 -235.727997
6.160662 -66.514687 -238.777328
2.263114 -62.104256 -238.787659
-2.272218 -62.356087 -241.008591
14.905446 -64.738617 -238.827393
-9.065203 -65.719093 -241.249863
13.108572 -66.802353 -242.901489
15.906188 -63.758686 -242.932541
-0.023395 -67.812813 -243.517654
8.328526 -65.834518 -247.343124
-149.411911 -61.424213 -240.801620
9.332714 -63.364845 -242.302673
22.601229 -63.284435 -245.780243
-5.729227 -66.289764 -244.920349
-7.776453 -66.769646 -245.290344
21.741659 -69.853653 -247.502686
-10.849624 -63.278629 -248.082916
-151.262878 -65.229507 -252.422195
45.325657 -62.077404 -252.406998
39.509453 -64.078873 -253.463684
-6.932351 -63.179813 -250.847107
42.770515 -61.129356 -251.917282
-146.682495 -59.411705 -250.019440
35.974628 -62.833549 -250.983337
42.190651 -66.023567 -253.105103
-151.637054 -67.156967 -254.464310
-143.812225 -63.498947 -252.514450
41.680973 -64.036087 -255.225067
-144.446655 -61.944149 -251.862305
23.961700 -58.718147 -256.931824
-155.400040 -67.183090 -257.071869
-3.603840 -66.751472 -255.059540
39.793156 -59.738373 -260.577698
-154.003326 -66.453461 -257.653809
22.003986 -66.191132 -257.043396
33.915295 -61.866123 -255.004242
-155.471451 -62.160240 -257.046051
41.094486 -67.541878 -258.196045
-151.068710 -67.690331 -258.831421
-144.211502 -64.895966 -260.566010
-157.628082 -62.887836 -260.072723
0.941081 -63.888958 -258.632263
36.416077 -61.876690 -261.091522
-147.580444 -65.598427 -258.750732
-151.633286 -63.628380 -261.283112
-148.742615 -65.916199 -258.200012
-150.877197 -64.610016 -259.408478
-160.338715 -60.656281 -260.109161
-143.009232 -65.144890 -261.038788
29.197332 -65.876945 -261.659119
1.719381 -65.070358 -266.616211
-156.000931 -65.212753 -263.433441
-145.049545 -61.341511 -265.063843
26.920723 -65.833786 -267.276520
-153.832169 -64.909378 -263.040497
-151.393616 -67.288658 -262.173340
-144.362335 -65.638817 -268.204559
2.520777 -62.983017 -267.222687
-149.270340 -66.509300 -264.853638
-151.984985 -64.163422 -265.358582
27.251499 -67.989586 -270.391266
3.529110 -64.118904 -272.004364
-153.025864 -64.747841 -275.657135
-148.920532 -64.745773 -269.767395
-1.759838 -68.395416 -276.855621
-146.666748 -62.745026 -279.287109
-152.496689 -65.008217 -274.927643
-145.176422 -67.807564 -280.817078
-0.512922 -66.576767 -279.750610
-151.236694 -66.776573 -281.837494
17.463655 -66.667374 -280.718658
-157.770920 -63.756626 -284.336426
-147.592636 -62.847740 -280.236969
1.630879 -63.661022 -284.129852
-145.552139 -61.119038 -283.238861
-143.218262 -65.510551 -281.565552
-150.021561 -65.761993 -281.620514
-151.950531 -60.756187 -286.028351
-144.263901 -64.127098 -283.163818
-148.012665 -63.088211 -286.642303
-142.864563 -61.164154 -285.760071
-7.143847 -65.551155 -283.562378
-154.323196 -65.769920 -284.255310
-149.360550 -61.036339 -285.953796
15.363280 -67.436798 -287.102570
-155.537796 -63.492161 -285.399658
0.556762 -62.043468 -288.092377
-154.390854 -64.955124 -285.858978
-141.047440 -63.221992 -286.927551
-153.590836 -66.104134 -285.671478
-148.309814 -62.939617 -285.568604
-158.384277 -64.433212 -289.563507
-150.843811 -64.990738 -285.969818
-152.558304 -64.680962 -285.874817
-151.776367 -64.431625 -285.632874
-144.431900 -65.534630 -289.314850
-147.640869 -67.145271 -288.219269
-2.433050 -62.639755 -290.500336
-151.023544 -63.836132 -290.508362
-143.387573 -64.588684 -287.306793
-141.130798 -68.937752 -290.485229
-153.696991 -65.684654 -291.329468
13.013224 -63.543106 -287.707794
-150.387253 -63.282143 -289.286896
-151.445358 -67.497101 -287.188751
-146.921463 -63.414776 -290.576263
-151.945129 -61.439194 -286.974426
-149.871338 -63.999794 -288.871460
-3.165278 -66.181915 -292.200806
-154.231476 -63.538094 -290.686707
-157.296555 -63.658134 -286.392090
-0.140222 -60.033039 -289.110931
-151.989944 -62.543152 -292.490021
-147.345352 -64.330994 -288.566528
-148.977356 -61.644272 -291.700256
-145.223846 -64.847908 -289.197083
-143.046951 -63.486973 -291.376587
-148.165970 -65.887466 -289.337524
-156.411316 -62.758316 -291.866974
-147.873138 -61.611736 -292.936005
-145.092941 -68.486794 -293.652802
-153.989746 -62.723602 -294.303558
-149.233887 -65.375557 -292.211121
-153.175400 -64.497162 -293.741241
-151.809189 -64.475365 -289.535522
-149.072678 -63.427486 -294.892487
-0.446182 -61.537685 -290.905334
6.557638 -63.386845 -296.504883
-142.236893 -63.464737 -293.584015
-151.690338 -63.565315 -295.700836
-147.708786 -66.002480 -291.791229
-154.721512 -64.667213 -296.990234
-152.035828 -66.004921 -297.211487
-144.885803 -62.829914 -292.751312
-153.468903 -65.644218 -291.994446
-151.511627 -61.588070 -294.727783
-146.967194 -62.809101 -293.641785
-146.832642 -65.557816 -290.884552
-150.753342 -65.391502 -295.985138
-147.008408 -64.270042 -297.239716
44.101051 -65.992996 -16.197800
48.015274 -69.042740 -18.539677
21.109207 -68.466873 -18.511595
41.763565 -58.248363 -19.029852
38.650295 -65.389252 -21.733864
32.011772 -66.457031 -17.730087
43.965492 -67.038223 -19.957706
41.554359 -65.106895 -20.335096
44.649277 -63.382534 -25.523947
42.347336 -62.106453 -31.025200
54.486420 -63.014618 -26.719263
39.314186 -62.043060 -31.581070
27.800848 -61.987278 -34.076286
44.666744 -61.958950 -33.409378
30.289896 -64.412750 -36.564606
38.800106 -60.645390 -35.301270
35.654339 -58.654736 -35.307137
32.863220 -68.543694 -37.585739
39.320858 -61.451626 -39.798027
-56.286163 -66.498741 -44.502075
-50.004044 -63.173817 -45.269028
-67.955879 -63.501484 -44.452137
-75.855644 -65.864204 -44.168930
-30.170498 -65.684219 -48.534752
-18.830420 -66.098228 -56.531116
-15.381074 -65.461060 -58.206158
-12.487893 -64.746460 -56.709995
78.458618 -63.950260 -63.161102
79.365555 -64.556000 -61.516720
79.796265 -64.776093 -59.923351
89.358879 -63.474777 -59.244823
84.907127 -63.452827 -62.166374
92.026535 -67.685150 -62.038017
74.430672 -67.537712 -63.949387
-96.980156 -60.416965 -62.879734
-10.596808 -61.073086 -63.288643
97.070061 -64.219727 -64.139290
64.759308 -62.347359 -63.490128
-18.752707 -63.381378 -69.086929
99.573250 -65.972816 -64.280266
-21.359550 -61.328613 -64.675133
100.934235 -61.195847 -67.055016
65.640877 -66.570328 -70.068459
-28.969164 -63.128231 -69.907471
101.314545 -62.870766 -69.878365
-32.430595 -61.993019 -71.352203
-33.613640 -58.348415 -76.216743
103.410233 -63.867031 -76.500740
61.997704 -62.931328 -77.063034
-96.909370 -59.738876 -72.736275
66.829689 -64.045959 -76.292046
104.901024 -66.027885 -78.378761
-40.069592 -62.004349 -79.200127
-35.943829 -62.494759 -82.884605
-94.367577 -60.173405 -78.363007
-43.223389 -61.505733 -77.266151
-40.171688 -65.797897 -80.790047
107.128067 -66.909180 -82.045937
-43.864307 -59.843372 -77.952118
-52.358944 -61.421169 -84.023293
61.201145 -65.790642 -81.189636
-55.644566 -63.760574 -79.813675
64.955589 -62.820118 -82.633682
-58.827286 -64.195854 -87.347626
59.844158 -62.940407 -82.605103
65.290497 -63.626034 -86.063469
-60.399769 -66.137398 -87.994247
54.586430 -63.153748 -86.910919
57.229588 -68.102127 -89.192963
106.169472 -61.740627 -86.048630
65.366119 -58.681179 -86.958710
64.738327 -62.460274 -85.370461
-61.819687 -60.608700 -86.814575
-98.903511 -64.943542 -88.689941
-62.868916 -63.068428 -86.930153
55.218353 -65.457329 -89.723244
-64.337105 -61.211845 -91.130035
55.226322 -60.983601 -91.444260
60.311958 -62.795616 -91.454292
-63.236259 -60.326515 -94.230331
53.541950 -62.200367 -89.196854
54.792465 -62.064671 -94.341988
67.836555 -65.250114 -95.306938
47.830925 -64.949867 -97.913177
-66.208389 -65.403450 -96.867027
58.662212 -68.236374 -92.411156
52.304489 -60.419544 -97.424026
65.794632 -59.776489 -94.213448
55.518017 -64.275330 -97.914833
101.824844 -64.656570 -96.059364
48.561077 -65.030045 -99.144897
68.254623 -64.177536 -98.169891
103.371727 -63.353233 -101.869934
70.513695 -60.604664 -104.261543
100.590866 -64.297859 -103.973289
-99.047005 -65.068024 -102.267517
-79.852356 -65.197418 -105.794891
-82.329674 -65.452942 -103.420647
-76.175255 -61.923576 -107.520592
-71.426254 -65.236488 -107.910431
73.852524 -62.220024 -109.267693
-75.067711 -62.984909 -104.197296
97.035126 -64.746704 -105.198639
80.960205 -66.494843 -104.856865
-76.457268 -65.173447 -104.875488
73.811081 -60.583759 -108.754860
83.450531 -62.855324 -106.644432
96.627892 -63.673607 -105.607323
-83.021645 -64.752434 -110.840004
-72.547935 -64.718483 -107.021820
78.277931 -60.581062 -107.946762
93.060799 -63.885025 -106.796463
96.765343 -63.853127 -106.804291
-74.914658 -61.934673 -105.797440
89.825706 -67.516083 -111.750557
-75.571671 -62.297909 -109.414124
75.561737 -62.203060 -109.213158
80.952934 -66.000084 -109.140701
92.449577 -60.409176 -109.602982
88.121323 -64.284187 -109.794090
-76.056664 -59.720531 -109.891922
-74.994576 -63.341373 -110.270660
-79.361176 -63.646915 -112.352959
-65.990692 -59.325577 -110.950623
-65.649971 -61.522213 -114.358009
-61.553463 -65.142944 -113.197563
-84.089340 -63.780144 -109.804771
-82.309082 -63.688763 -117.882011
-87.831467 -63.982418 -115.930794
-66.403305 -63.745075 -113.787102
-57.069729 -60.898205 -114.017105
-81.780174 -66.541878 -113.849243
-72.502541 -61.814228 -115.392540
-90.908508 -63.827045 -114.368141
-62.462337 -63.996262 -116.704048
-58.635479 -65.559181 -119.475288
-61.526737 -62.072968 -120.398018
-61.886280 -64.036324 -115.489059
-78.964447 -64.182076 -119.530914
-58.600132 -63.567207 -115.703751
-83.904381 -63.961834 -119.501503
-87.427269 -68.293747 -118.346519
-78.331108 -63.309654 -123.806519
-78.620110 -59.852615 -122.266457
-53.384087 -60.086975 -121.348862
-91.128311 -62.121510 -120.999496
-69.077156 -64.807373 -123.034286
-53.140923 -62.600735 -123.756645
-74.804779 -64.362595 -124.916191
-63.157207 -65.289543 -130.979599
-56.214085 -64.526672 -130.360718
-51.095245 -60.666077 -125.611267
32.322495 -63.093166 -122.091042
36.169762 -63.151794 -128.404633
-80.131966 -63.885414 -129.637756
-80.595688 -60.782822 -133.199707
29.370821 -64.407585 -128.452744
29.674063 -63.824287 -132.456161
-49.675636 -64.615166 -132.882614
-61.397598 -60.734314 -134.811188
-55.722549 -65.683517 -133.902115
-58.623314 -62.462185 -134.893951
-55.747772 -63.698807 -137.186020
26.303656 -62.871944 -132.067032
-87.740395 -63.833611 -137.438583
-53.815872 -61.808323 -134.769882
-88.373604 -62.340847 -138.732849
-59.517776 -60.925003 -137.467590
-53.783638 -61.373005 -136.698486
-49.788857 -64.295174 -135.584442
31.032774 -64.741020 -139.358551
-96.051537 -65.282715 -140.737137
19.680038 -65.283333 -141.383652
-90.692482 -65.245453 -140.046799
20.540657 -64.148399 -141.275146
26.630894 -63.989460 -141.284286
-91.613396 -61.932823 -141.133133
-90.383522 -62.253925 -141.976425
-96.073990 -62.492672 -141.953888
-93.261414 -63.844376 -146.000900
-96.758606 -62.840603 -146.481445
-93.318626 -63.593697 -143.725983
-94.778023 -63.921688 -144.053711
20.318916 -66.840340 -142.028168
21.444622 -63.331654 -149.816025
19.238125 -64.099167 -149.237503
18.105604 -64.041588 -146.499161
-94.031746 -64.068367 -148.233597
-94.684174 -65.138550 -150.195724
-98.097618 -63.848934 -145.957993
-96.053154 -64.439354 -147.560944
20.286110 -64.509972 -152.168427
-97.639519 -64.270119 -148.129059
21.035416 -64.445602 -152.038651
-93.848335 -62.645836 -150.642929
19.822681 -63.577034 -149.922440
-100.144928 -62.512913 -148.362503
-95.128731 -60.066917 -151.360016
-97.885796 -60.966831 -151.960861
-97.360435 -63.597988 -151.397339
-101.407471 -61.744980 -157.293610
-97.649155 -62.469959 -154.301270
-98.013802 -63.012394 -159.385788
-94.903709 -63.887371 -157.057159
-98.192848 -62.448624 -158.452637
-96.479149 -63.302414 -159.453506
-97.706642 -65.199104 -161.114426
-96.606972 -59.750206 -159.818802
-101.701485 -62.931171 -162.585190
-100.872520 -65.198051 -162.735825
-101.230370 -66.822395 -160.744644
-102.465027 -64.888779 -161.770081
-101.327011 -64.264046 -168.295700
-98.694107 -64.996315 -163.564133
-97.183121 -63.872780 -165.437134
-104.909271 -64.298950 -164.734177
-104.035652 -58.726303 -170.250244
-106.117767 -62.673016 -163.837631
-104.382858 -65.154968 -174.919540
-106.279457 -63.405621 -170.129471
-105.955872 -61.003174 -172.829193
-101.076225 -63.982517 -165.773376
-101.969879 -61.787041 -172.986588
-110.417534 -64.187820 -170.341751
-105.442993 -62.030521 -169.598312
-106.921745 -65.210838 -169.745956
-109.137161 -64.754845 -174.027985
-108.393921 -64.872131 -172.878113
-141.660202 -62.746231 -174.919373
-143.503922 -61.729015 -179.028580
-107.569931 -64.450394 -179.616776
-151.455734 -64.449478 -182.662155
-152.502808 -64.313828 -181.774475
-107.002304 -63.270779 -181.585815
-142.868683 -65.828003 -180.972580
-144.644440 -62.795124 -182.531723
-152.977814 -65.178574 -181.888458
