# This PCD file was generated using the MATLAB® pcwrite function
# from Computer Vision Toolbox®.
# .PCD v.7 - Point Cloud Data file format
VERSION .7
FIELDS x y z
SIZE 8 8 8
TYPE F F F
COUNT 1 1 1
WIDTH 796
HEIGHT 1
VIEWPOINT 0 0 0 1 0 0 0
POINTS 796
DATA ascii
-59.724023178693201 -6.122167670185972 -97.410452018775445
-55.015754103716546 -4.430000443199183 -98.028117089076844
-47.118262033388795 -4.849946903284894 -97.638553755606296
-69.706506957730141 -4.838089237066942 -97.128485697577048
-61.876959944948723 -5.419508628122290 -98.509560081713460
-50.948711460868338 -4.460971641972636 -97.898072871770495
-70.890338748689985 -4.465951119660537 -97.951336215442453
-51.192513131739318 -4.266665824961591 -98.028899548964517
-48.191115150267919 -4.389311036131163 -98.627249742980624
-66.736615251133813 -3.816956770471675 -98.446096599509204
-44.193747475140412 -4.679590473287564 -99.044950712572444
-72.687176418165876 -3.430596640659796 -98.483599123158243
-47.462519669566362 -3.937176937173737 -99.220393723824714
-42.408192228317716 -4.506578536513963 -99.417888344004254
-39.831864171074507 -4.007403692433203 -97.970576626204533
-36.991044796417420 -2.989279578235857 -99.301359311393171
-36.376654208628722 -3.024552312217937 -98.430665428501840
-71.493093855709233 -4.142401939282665 -98.874268164088946
-39.296348898148274 -3.336022718736042 -99.084066960063723
-76.231076627514028 -1.449172368107299 -100.750634072432135
-74.536060147525376 -3.001309626342235 -99.352766485040846
-39.486858707311640 -2.881750555499403 -100.483039911141191
-33.780751810377943 -1.642807499368491 -100.337571876567111
-36.507897844464132 -2.892868747088269 -102.021431607528669
-35.020561561926073 -1.606231708711492 -100.901723778759589
-76.606260756610766 -0.597969393798560 -101.489930732799152
-31.658682863777685 -0.558491057204154 -101.359892167899915
-75.238440086525969 -0.552736056423754 -102.957707311974701
-78.897690226849818 0.084232046538737 -101.945379918295743
-78.134519693321522 0.655223412771685 -102.615583525054447
-35.224536908420141 0.777491777339339 -104.104627435461566
-80.435519232728836 0.714859125235122 -103.418352321890268
-79.636019802292395 1.380032886050216 -104.081028320133058
-36.916494645722700 1.609051790384136 -104.539194744877491
-78.109788243867015 2.013319745472670 -105.307710989089244
-36.766406683426808 3.021437216177813 -105.996059894347397
-38.339294216760948 3.142092046544052 -107.549758618373147
-80.895092360433807 4.308617594069775 -105.945983629663402
-38.473461008747385 4.662306959147318 -106.761371546058129
-46.186460176083898 2.373018661194587 -107.266273806845021
-41.318685396932622 4.422685516454921 -108.246930754872324
-82.302623070568060 3.648193450600992 -107.570044605745196
-42.860469919491742 4.899395286590578 -107.970306135934223
-83.006834674581938 4.356967170423446 -108.134754621154485
-48.299919281862820 5.428402719730870 -109.210425055210308
-81.916391408659862 5.676302287375607 -109.380368119923489
-83.403205235325430 5.838087147056706 -108.902950812961564
-49.199483808862894 5.820772156219023 -109.328075832393623
-49.166574269979321 6.335376235163157 -110.134248782948134
-85.096007587302282 7.078274432254243 -110.356375617502223
-49.807737180704812 8.728518606608098 -111.589034044291026
-50.903976562677428 7.842975253381923 -111.723044852414873
-52.118988436457641 8.359611441330550 -112.641811256411060
-85.854509749868228 8.963766358554754 -111.848139336701266
-87.249586719827960 10.265234378997032 -112.059958532239790
-56.444118610437265 10.613417652446927 -114.827273861774501
-85.509185265164064 9.336517492918301 -112.337850002909391
-62.448314042001144 12.138683763300627 -114.652128657466349
-88.221783281532240 11.293886397870708 -113.938880450438717
-85.918603548198035 12.003649962602289 -116.373183250826003
-63.283575888444510 12.762247507061613 -115.171177435064067
-62.910128226729825 12.222164420271266 -116.978781753925631
-87.396065513283844 14.155079142695506 -116.823846743546738
-74.532893801852737 15.379101722206844 -120.047554086028072
-71.157392323655046 15.451611779149035 -118.927373337163999
-75.406440084317595 16.798050033009837 -120.773037476944523
-78.377876862759450 17.321418536697202 -121.410494137184628
-85.555099730140526 18.004772540545371 -122.181774763845027
-78.879359455883346 18.489755085723971 -121.926908127399628
-82.394012503388382 18.848709248963093 -123.786354740055060
-86.381111121520618 21.130360372048347 -123.641961445097621
-82.929567294746150 20.448486838135249 -123.911668267328963
-85.489602807234789 21.287438090701613 -123.839394382400940
40.405312718334152 27.338029475608035 -130.139813980930796
40.525070050620123 28.652315908350936 -131.969942518590415
39.303474012233686 30.209174865941570 -132.813138374236303
39.585756354293963 32.135682072174951 -134.022341810586425
37.278102733556871 31.570771248246736 -134.904755051205200
36.667671898184935 31.532367997792260 -134.138572272117841
38.104578801650490 33.065425791482241 -135.898524060602512
36.718431007623053 34.361189012680484 -136.762784973617244
37.652222807917852 34.629511129547488 -137.511935916324944
35.143707581496784 35.471446374826954 -137.547797670574766
35.310331714367010 37.474937128018887 -140.231611738401625
36.770605152524716 39.518325514075968 -141.547845079201096
32.170170701329852 40.187888697725583 -142.200087049192348
34.789796300175823 37.830092780295082 -139.828247622561690
31.566784488886544 40.352642499186167 -142.093044579920758
34.569210331615444 40.529231813054253 -143.089572410749753
31.941921854887170 43.042219539918648 -145.071286730558882
29.151104372085264 45.616626585314947 -147.318936799990752
31.808458673362519 45.725338968421283 -147.179184696618506
30.430486036626508 47.809999817616180 -149.702714295855287
28.972559843672478 47.086350391899941 -149.503861615592626
30.131988915626778 48.897052616383391 -151.558094213403336
-6.234274137278558 65.167439262142437 -167.886344379097295
-4.874261521882284 66.305295848114028 -168.693384110095337
-8.785054408945449 65.929818570515692 -169.697550470051880
-6.938785834977235 66.037836214830776 -169.664121720589975
-6.124195400966704 64.759712806873182 -167.677684275167650
-12.247163188269569 66.643223362323994 -170.700449464311703
-7.943169709133193 66.930293189664113 -169.092922544915780
-17.374678514377813 68.028593404789305 -171.757448838635497
-56.882014678037756 68.616736687204380 -171.904257349581002
-56.314565617650608 69.538374890020947 -171.564551006202493
-9.012201380277427 69.123384160684793 -171.822150086748906
-18.132435302721955 68.599758003588207 -172.900382862659569
-19.675097896841137 68.314227709488307 -172.910169599738396
-10.406513672964216 68.577759316603277 -171.493176868732576
-12.337866893534507 69.274359011335349 -173.438555635348223
-55.959496768968705 69.850342521245466 -172.997214913713748
-13.877546348247824 70.740560821124646 -175.474713475218266
-56.638138532039328 71.687756426198206 -175.182068142858270
-56.152854018931080 70.351409012374134 -173.077475353216158
-12.802283101870067 70.953031102087706 -174.465718202377076
-54.349050022211806 72.723206015802475 -175.222221358211129
-23.160519338071193 71.576864405205797 -174.984947327817935
-14.955618039040093 71.869328557032176 -175.378800869193753
-51.505227305336859 72.950536343089766 -174.783832962299954
-51.972980345503792 72.517993495213787 -175.254619761922896
-25.869769790334228 73.086867787999779 -175.615400854911513
-15.872646067389166 72.164591985720449 -175.735508995657540
-53.423483925592635 73.915825647810621 -177.586712560250106
-27.130081939416804 72.451457967810228 -177.121589709134867
-17.280097627889891 72.283106853934882 -177.410829798724649
-50.821807390687908 73.858124337759378 -176.614319475663649
-18.635552225159017 75.479760443497639 -177.551752466758472
-28.780629382561632 74.857131415127483 -177.447590273061763
-49.497085744682295 74.667709472891744 -178.047461915431398
-53.412300094919587 76.071140690786919 -178.603006560569156
-147.460283349594022 76.242590685115402 -180.016291024965000
-31.813806710575243 75.927651306586696 -179.268484105631785
-22.906289329977351 76.770599179297847 -178.791054787717172
-144.392094804311228 76.392214199749546 -180.209994840623011
-47.061448643500832 76.007373661521655 -180.613811855671059
-33.651044531739444 77.433456281811729 -180.031091543977027
-25.025157784121177 77.312430575033588 -180.978841576331774
-149.152006448690116 78.025629470248148 -181.315954508024817
-143.873415907068960 77.381233608820878 -180.303021297204765
-50.025507221407203 79.746652589398579 -181.281698576213415
-44.571870984326360 77.944835471998999 -180.935666326639705
-26.466403603977458 77.770948499402280 -181.019350339223990
-38.032821032157401 78.813312077547451 -182.451962682907720
-29.993639956659546 79.566682799133531 -181.937380897447213
-46.485195674421000 78.532160007950964 -181.702333931466342
-40.184460548429001 79.894545115847450 -182.870525128826415
-149.212572203399759 78.794590527170556 -182.851444703814138
-42.740819294817037 79.790177956577651 -184.290923353857039
-144.655068205806685 79.220993415998549 -182.044681239971595
-40.765296398913215 81.312372432506436 -183.986529089522520
-45.096242729102833 80.371002638402942 -184.886864240772951
-45.242745741606761 80.504587574106750 -184.221051138426986
-31.904939821761563 80.622723866743243 -182.991289969485621
-31.658536512152946 79.998944700870496 -185.339712437042124
-42.817675177126439 80.679570631699718 -184.708891439634812
-33.593708668224032 81.389004760527911 -184.428122080952079
-148.676585880212485 79.945838262950858 -184.881058075762752
-145.345257682116141 81.098916445861263 -184.099895938730867
-46.922694830028767 81.317314885054273 -184.767561774500223
-45.492215750316461 82.436288137244361 -185.791964056755319
-149.692612317717021 82.374571858881495 -184.908133670615172
-33.852383314522235 81.756492157051724 -184.887233800710078
-45.033336907470819 82.221541275901330 -185.818816101968736
-150.474602294490012 81.466219453226941 -185.234734499000012
-46.583634016715202 82.865653838837872 -186.596125900670017
-37.753704837677688 83.121863715219845 -186.202042582289039
-147.342126351073858 83.302295839003307 -186.158486537513454
-141.884617724322339 84.511294861652374 -187.447950374744266
-135.662390086636520 83.547234389420396 -187.243560018681563
-47.098763634173814 84.370096178170584 -185.907308909811803
-38.593824666951114 83.048164151513276 -186.686521051779437
-145.401066642809326 83.742375209426655 -186.976004863089940
-135.425407508256342 84.308251009019500 -186.883372055794581
-151.721946739543313 85.097832669443662 -187.293024535812918
-148.010389677912684 84.060195945957418 -186.560537227667027
-39.333117899865947 83.866605900663615 -186.569291082378157
-49.020606577994471 84.118169004450706 -187.286076592080946
-145.012297361299005 85.372992369526472 -188.178179232322066
-39.400829674913432 83.804596037464307 -187.916477089549318
-148.948936560309647 85.545678391024325 -188.661164632796073
-50.310865119297738 85.378934865696493 -187.987482524075034
-41.312755845637369 85.282570506758717 -188.708180981629909
-152.523895848471625 86.230774869515372 -190.102042553174300
-133.968517119523710 86.870807819474805 -189.734213491702832
-44.461900520176584 86.299090766479154 -188.915902891997888
-42.946502888513592 85.485903173434309 -188.211562485134749
-147.732550160210764 86.210049858432640 -189.264426817555119
-144.757399110193745 85.605063987579570 -189.923308637712182
-44.539528819334976 85.978917296870421 -189.720509395624561
-41.636125534880129 85.689641901714197 -189.449687682063427
-136.476691144030184 86.281359182661674 -189.471235898404927
-136.902393786937495 86.902332426614663 -189.202443543297250
-37.657663000914411 85.619782144059883 -189.431509088963708
-40.768556263348323 87.394454092618119 -189.929223539165321
-151.273822686851616 86.363371665099208 -189.616019453970239
-38.361708022965317 87.801677407123705 -190.126488968784599
-38.411591946681106 88.914014727839884 -190.534904200249400
-150.407183601645215 87.787783148707973 -191.212671055373733
-60.443802241538776 88.451760355350899 -190.154028942963180
-59.333592701397720 88.432749308130383 -191.079339346728801
-47.092542733676702 87.924837229537545 -191.233631656851088
-143.931898851817010 88.171549207976213 -190.486794190144423
-149.622722440230746 87.734436567520845 -191.905852142917951
-37.750874139358409 87.834048055866944 -189.708148957965875
-50.023223180871085 88.345352012368551 -192.241191382870198
-61.964347091611415 88.522009242265355 -192.336453354530988
-35.375268246893874 89.062929434779960 -191.721597216398976
-143.964949403470655 89.146841573674592 -192.941562668205108
-54.401411071554037 91.079893349336643 -192.105077939642428
-65.157050191497987 89.485283483396898 -192.342065244513520
-33.902203218820851 90.377501165608663 -193.921212248702261
-53.301675251647147 88.776686561710477 -193.888832969289666
-34.323793783965094 89.093472646936704 -191.409153865625825
-67.951479855919175 90.493955489798026 -193.267078586954625
-55.232833180356216 89.830312462253360 -193.541639803626992
-150.250314939762433 89.604930730522781 -193.280968594718388
-68.648676503824618 91.213316249658860 -194.215373777627292
-33.491885278233724 91.173722825060594 -193.601133833531065
-57.873578758082814 91.367890353345956 -195.184770164869235
-70.769934608378620 91.523051010809652 -193.854133951365611
-58.431582670130382 90.454881337165347 -195.407739015462596
-33.675832452952918 92.179273086541883 -193.672111705246891
-149.478287172091257 91.980745994381579 -194.529624119596065
-60.055416386684001 92.158421246848221 -196.156378300309370
-150.097278523420044 92.298103077442548 -195.867735158444788
-75.493464347241598 92.554973521035393 -195.302966378729394
-62.396299754093192 92.889987113219831 -196.452717989702393
-74.701664383272160 93.147607680971944 -196.484083008753203
-64.614455328631863 93.184353899117099 -197.165272484511291
-147.376636085437127 93.443633259974845 -196.830773911956726
-148.127951487591872 93.566457096388064 -197.917042489540165
-75.935584834469509 93.362637991077307 -197.425332569395408
-77.086443645512247 93.738811085219581 -197.535273976483126
-70.382995555755357 94.518136400102435 -198.666003933972405
-75.080530025413879 94.375389295010294 -196.947885934247296
-72.373095163389053 94.561696384592395 -198.045687971339049
-77.615950185932235 94.728245398077632 -197.538104689903406
-73.719782198072267 95.500628462996460 -199.217091164813070
-145.938582294608381 96.401751395666622 -200.775007846387098
-144.902845872895284 96.655670706730348 -200.516368970944427
11.406298976888840 97.952308188798966 -199.967920522216104
11.469366277242152 98.267877593624050 -201.491769623904361
12.130216274152723 100.016921608954888 -202.969017659791348
13.381025075851303 99.549590049629543 -202.538448905355096
15.289551875322385 101.782085600776043 -204.811805931196773
12.935449005163248 101.461726095796521 -204.153011012053412
14.505737223258663 101.961805703535006 -204.071995707160937
-144.564076236717455 102.260881470443167 -206.812289700080271
12.238156609818558 102.702405106376872 -206.226658391832757
-150.942064847302845 104.025384313459185 -208.202634318952278
10.117220330497149 102.563531257106376 -205.620695182755554
-143.560519953218915 103.113909000026069 -208.278879730271512
-152.692598463972786 103.965357935615017 -208.673750287069709
-137.739028147708325 104.741844756982715 -208.017477001912795
12.069013412115916 105.864748182137930 -207.909396326150613
-152.405339731110075 106.032997288988199 -209.720632435210518
-134.130221608906453 105.033538978147320 -208.558765104422662
14.285999981313914 105.265085447115069 -207.703639055461878
11.237354267784974 105.465120392998315 -208.628379859009357
-134.296083676964969 106.288855358301106 -208.123781193070840
13.349748487147192 106.251496668940433 -209.309937629154831
-149.198975755507092 106.945857314282264 -208.966602115198128
-153.963585276975891 106.270059064328080 -211.118183718126062
-146.573557727298692 106.367427880311766 -209.257904578566780
-148.659733015561898 107.006025777947912 -209.937155321472318
-136.647521299632047 107.494733081622840 -210.992252778203948
15.896326470097707 108.656487993593885 -211.424461618946282
-143.083554291573847 107.742159798648501 -211.996724214023914
9.934579035694622 107.384799258017196 -210.810242122236502
14.870432098282176 108.670381249482219 -212.858700552804436
-145.976451469286729 110.049205532832673 -214.083214429864029
15.997583251700879 109.522589651214460 -213.946265204879410
17.870750645632359 109.907523594113457 -213.517592239613037
12.307932386983648 111.996628448107643 -213.767290231531319
16.899802097975790 113.687032046215421 -217.177648230388087
15.277449534981058 114.089047609924194 -215.769505666197432
19.536378177531805 114.690109520636383 -217.336025468467056
-149.572269693177844 113.652088784563034 -216.978967821823716
18.061575123870803 114.516776610891910 -217.323703767520158
-148.241619101920264 114.365206526477806 -218.267702884020082
-147.584989185834360 113.224397111522279 -218.819454960932546
9.678128156139394 113.584710840213504 -216.076243258592967
-148.833173016310013 115.667396946224656 -218.991591596738971
13.682559275270750 115.532583383624555 -217.412058615002792
13.632313458796540 116.660529350598495 -219.836322521541973
18.413944272591067 116.310034294951578 -220.430217803136486
12.241261168850645 116.093199909331915 -218.579447777805200
16.117560372559769 115.958540907356280 -219.196755433581586
10.919475810832026 116.305448424868260 -220.191458816128943
13.008105186854639 117.141981234635367 -219.429707681480636
-150.106540716535164 117.737130851343451 -222.747530830512147
15.233820228691481 117.208158935790266 -220.723678338048046
10.855514788308028 118.438615318494101 -221.656765012594320
14.439889236376757 119.768666948723492 -221.797344599742900
10.994202125780904 119.041514028996232 -221.759857117180616
13.471804287757491 118.529899877070136 -221.861642191179726
16.621548530723228 118.994645041676648 -221.677503986405497
17.970960015499447 119.776666792841638 -221.550957965351614
19.699260656634152 117.869571500264072 -222.396752820169411
17.018579660166395 118.695009838364868 -222.707301482987532
19.011950924927852 118.854415041641033 -223.137553707864697
-151.055634652307702 119.837565994774835 -222.460852070273802
2.645933786016152 119.612031642007025 -222.616274612016753
-150.218430906964699 119.759620592052997 -224.098952833130483
7.237469422126682 121.223695909683570 -223.934075674220708
-146.041882994725768 119.643050767879387 -225.225594442205448
8.126319562141525 121.075457756890955 -223.678686518820939
0.696093105159435 120.875479561007339 -224.322574417987454
3.066913843620732 120.579645027948132 -223.280705408834677
-146.165862018843455 120.050876955740009 -225.802812432495358
-1.320641493857682 121.549407794054744 -221.941486512872189
-0.270188355198185 121.660620705562252 -225.484339402298133
-3.784163879420010 121.029423473516260 -225.019195239895623
12.221644834673219 122.126891723548354 -224.678464573552503
-145.861061562270066 120.993733224315577 -225.353619384899019
10.383278514548524 122.350273536501348 -225.111311072315203
-145.170853857535803 124.377323006903794 -227.658806041522439
14.925774416722533 123.429835474910277 -225.582949065115514
-145.553324563159691 125.068343741985913 -227.559868353187426
-6.683624704646760 124.420102822527525 -227.445186132791008
-143.878839110289135 125.471227809643850 -229.093501903593733
-6.654553467909595 125.184274632180262 -228.410604086113636
-7.887699669904619 124.624449881735757 -227.043094516346656
16.966619006382111 125.089885100796010 -228.581989501747870
-153.688346865292687 124.896481799680359 -228.543046450183539
-137.119999264576990 126.254991745199618 -229.306285577083770
15.238891639019995 124.636330922012604 -229.960707331470957
-148.767115531272339 126.193413731644554 -229.805217078268612
-136.055608343342328 125.560952467020016 -230.372761809152678
-146.680325232199834 126.294441662246797 -230.566771128237008
-7.513955252881814 126.519832261748860 -229.880929014669505
15.514403647446809 126.276740013549372 -230.865022216826560
15.290230959713949 126.271736335210676 -230.800172081339497
-149.344035439056768 126.806473427895369 -232.556814413472523
15.968562570505689 127.770552792302212 -230.944285651851573
16.577542838283062 128.968124727017369 -231.822094505756127
-153.519728231020991 129.506251304770586 -232.678196061747116
15.703810343662564 130.615032545197636 -234.529445671352192
-151.240169733547788 131.511406311200375 -234.811676235025971
16.316361418221771 130.967247327490469 -233.758466361019174
-145.747657493397810 131.432244127485859 -234.270538305060057
-150.463816488795715 130.895759036192857 -235.659982671000989
-7.172227201396877 132.286159817222654 -236.365244021426264
16.333759165047802 131.619349556183948 -236.055563035533055
-8.974327740842501 132.427719007240370 -235.384412687015413
-7.246365551378942 132.868256657430891 -236.218162955101690
-145.211748383399453 132.562920070472160 -239.829013971038648
15.367797485071613 134.210756692126949 -237.005269690277885
-9.224558729500387 134.327169557283014 -236.769131671450054
-6.849767204293481 135.496427696483408 -239.105268879367657
13.297412671251770 134.247275400146265 -238.777370138797750
-145.285780747093867 137.108699919066026 -238.357966772503971
-150.721396197171259 134.966684780539168 -239.717071612950633
-3.482074380007547 137.724117203446440 -241.018207896484171
14.055866820131513 137.201856263378318 -238.846474495262214
9.334928669321300 138.609012495744253 -242.446910648527222
-149.737363893589901 138.238153317055662 -244.357756599513323
-151.272084937051119 138.159943518148452 -244.763003436735858
-1.361405624816940 139.041308868365945 -242.296360856809315
11.180695331297908 139.133160276592179 -242.252756254919916
-146.236879289187328 139.747601550103184 -243.720407176626338
9.128764116323831 140.202854418337495 -243.771160536001759
0.064821349705047 140.799781886606439 -242.595190987338668
0.757718833941591 140.825250045483244 -243.860808407124637
2.862647876776945 140.403584052122511 -244.526049625133993
6.843813992253729 139.664997138142326 -244.223049713890390
1.432489178975429 141.652473302613885 -244.529128878910456
9.679802426882475 141.894601096199892 -244.112286635627868
4.953634303227189 142.604466006579031 -244.302012354831902
4.055433242236205 142.183901115230071 -245.550865915143930
-146.124567072424952 142.369750597658538 -248.717100064980116
-152.684246581556948 145.718672939506376 -247.390934233270116
-153.951194442395689 145.792452733268590 -249.666563291188083
-143.845347959416131 145.339436032465386 -250.630493703432933
-154.746739424556239 146.839054361864953 -249.997062304647784
-148.872659410561198 146.397580537438245 -250.051773360802827
-136.604626208372764 147.305727306589716 -250.524149670160057
-155.104692994105591 148.105549849159246 -251.897062193141608
-147.847155714692860 149.057964381610390 -250.610476813067521
-150.851664779391854 146.918794429031067 -252.117437588286805
-150.117781169725163 149.087611147808218 -252.142494768633242
-148.861242335399879 149.523369030230668 -253.202726724127444
-155.274136060414918 149.514855678141942 -252.839236547343717
-143.605101102644539 149.310842012206166 -254.308198380746830
-154.517859953857283 149.973283861141908 -253.294013875247003
-152.862274978835302 152.550479321661840 -254.294940888972917
-152.044454388160574 151.007414730711446 -256.759054748054211
-152.736339207354945 154.757094649821909 -259.253484746550839
-146.850384275786155 157.535383289516773 -260.595303016904097
-148.345060501652085 156.224944002644634 -261.845172902121078
-58.455903853899009 -8.068295893440148 -92.455640826039200
-63.954596718764428 -6.223007580198171 -93.241510225800226
-61.303783072692674 -7.180881625588581 -93.340600621064084
-53.014057117530164 -7.560385557144597 -93.929189239246767
-62.404406990375506 -7.415155760703698 -94.856624282056259
-58.332883455356637 -7.626421655719266 -93.638223732951744
-53.447502679817759 -8.055545398915196 -94.184302521354240
-49.207053087359810 -7.465008328496328 -93.610296116092229
-44.540937002441638 -6.469637138869061 -95.153420875297812
-67.506243739001619 -7.302286713182777 -93.111296523448033
-57.841442301501544 -7.524470950022046 -94.812926036480377
-49.968491240748492 -7.416034535079360 -95.491072383460605
-69.281622303572973 -6.887293894304864 -93.881327724902050
-62.664356794199215 -6.899757322747009 -95.297410584732503
-57.225357634727850 -6.161113041544356 -95.247352189452855
-52.315670417571901 -5.826578309362556 -95.327658014271947
-46.073366762101408 -6.153189261489471 -94.831028537099911
-41.556162592210065 -6.633702903770663 -93.968730837198805
-54.228950292161805 -6.164121998762752 -95.429910344470713
-71.626855462911692 -6.556755445980082 -95.240173872544787
-69.071729488690750 -6.108206185733227 -95.555695139994228
-48.056025381495047 -6.552790639697708 -95.420185312870643
-39.431487730185239 -5.797332487955307 -95.057199676065636
-67.080577167493487 -5.821350209510763 -95.072939616917424
-47.504025264258047 -6.853089918400032 -95.586912151591434
-42.191529033886980 -5.511862745240530 -95.732183413023890
-69.902836656185528 -4.271105711889177 -97.329058999111055
-74.178210871771341 -4.649815832639650 -95.620655173991409
-72.517902954882160 -4.965262742849461 -95.961988996904338
-39.865879180129475 -5.445592288848090 -97.665800666721026
-38.844333531348106 -4.332247207360314 -96.333058067422741
-37.869879600182543 -5.377478934476939 -96.237737841439241
-74.897548492240517 -5.981954354977834 -96.510839637718036
-72.171623811172410 -4.495052298321196 -97.963126031421211
-75.913719856239410 -3.378376591485622 -97.197607029591410
-36.106049558184189 -4.451432646136016 -96.122742690681221
-37.833591856369317 -3.778325265658875 -98.138669085624699
-76.167215677667713 -2.593261712862794 -98.715125710229088
-73.963566849181262 -3.730454101454042 -97.235543648013902
-32.430003825107846 -3.316477181543875 -97.096733682458947
-77.585236489975216 -1.809975093098451 -99.088680697523245
-75.127310543893671 -1.773844243872890 -99.154727122569781
-31.762040162816593 -1.878619841107063 -99.002937748540646
-75.943377233804796 -2.908996488356274 -100.815432780849619
-79.963093660088418 -0.674568382369221 -100.244764391079443
-78.620101205476459 0.520856304450223 -101.011525460450869
-31.548616138634046 -1.200911587682751 -100.667160636113081
-30.858176150906104 -0.446614743297141 -101.291950013807792
-80.926022496455758 1.595393708715202 -101.409531401181539
-33.944865978099479 1.060700690189924 -103.323418859282739
-32.868591478039939 1.566720921166426 -103.411612579205894
-83.419310776496488 1.825949787797157 -102.548929779764364
-34.351100324414659 2.703952990509667 -104.302472336195734
-82.436441156838370 2.091484700148160 -103.662459434277423
-81.908077184789491 2.517313032896483 -104.013367096448960
-83.811389198645728 4.238396021249112 -105.096826339846942
-81.327683603768463 2.772689891364017 -104.592919358791917
-35.501155073955729 2.711689177797249 -105.064719079173770
-82.797117627848266 2.564582339215828 -105.397504264088553
-36.797861956452522 3.524362143825150 -105.860542143537828
-46.220263888775918 4.891319856501163 -107.842156224642721
-45.566940158215900 4.452503629459006 -107.278748008578717
-41.773151022582958 5.471652638470320 -107.643581180851427
-45.717563286809224 5.878699884805020 -106.078516667048504
-84.617033415360368 4.386522369927498 -106.678776241597433
-84.685060290009986 6.884762756125353 -108.500252657689089
-87.444706246274833 8.720577898396458 -108.133157764701991
-86.344333968912750 7.765758455794679 -108.950108848806948
-49.764487897841782 9.278579213723757 -109.440058077192845
-51.577295788982212 10.427103709141019 -111.974125704053336
-53.910598932171347 9.978316989697316 -113.312312434514993
-57.864743255532851 12.397158154486563 -112.892855211291973
-55.133280408426728 11.237268786558031 -112.499966325983664
-58.536184807559010 11.138519923801452 -113.751976448558921
-60.661091207691179 12.091578083876270 -114.276073475093497
-62.612209811642906 11.795737450982269 -114.864130985036795
-65.727583857636517 15.657955336856215 -117.247312519535967
-74.977261456461463 17.503348751418059 -118.456373342286497
-72.843336382601009 15.715567060619298 -120.222599071325902
-75.737124486012789 15.947384173318943 -119.923026941067661
-76.539040006622272 18.457176467679705 -118.820088527018328
-78.103326344003293 17.743153262414538 -121.042460800413039
-88.994538146294587 18.999173587950477 -118.786051038928150
-79.002018859634163 19.102276370324635 -120.214633041065724
-87.931118166883934 18.832393559149484 -122.517165927778336
-78.894819319134797 19.178774215159862 -121.475620674993081
-79.775767569870609 20.136770539332499 -121.623008601441654
-88.114777045569937 19.171358784566813 -121.545039394829644
-80.097714629534266 19.547742060197820 -122.818045545742763
-89.137679663348820 21.525706359960076 -121.635752109589788
-86.642629516863380 21.582068134350404 -123.285190356815974
-84.135377348034368 21.559126649287336 -123.779184894210260
45.498764118980887 22.844754027199549 -122.416932040297496
-87.819823040073970 23.431007918988840 -123.638720117068004
-87.982821965593544 22.402488472006521 -123.674998856773897
-85.929459353243800 21.300299397666304 -124.922009065583950
-86.556384242155374 22.312803861141436 -123.932460847404371
-85.156361729226973 22.909996663316086 -124.423252183874979
43.592472825661126 23.668015263083671 -123.742800900445474
43.242519431307038 25.672801276944210 -125.690837499562519
42.336297617443677 24.042786420818103 -125.448790144366370
40.872906270697101 25.872144915251791 -126.119528625747421
40.168101888909511 25.277661807142135 -127.674405512072440
42.602059818576336 24.914673316985628 -127.406633905921751
37.701770351029374 28.359155645734333 -129.884576978956602
39.905900324642289 27.156212438869215 -128.963795771709755
44.656521025802490 27.573985574404798 -128.937643108260431
38.649480008543456 29.431771394809736 -130.987260571397684
36.281389837235686 29.878649314380244 -132.593827077712177
42.688076242676011 29.790326942079467 -131.591308603937875
42.484124843007692 29.423570555120325 -130.047688859386597
42.308989880021954 31.293871036101578 -131.380075653602944
37.093377047718754 30.817906998388697 -132.633655563842893
39.827842697777697 30.473077040141263 -131.606650527990695
34.610411576620557 32.545198734520469 -133.543722336581425
34.848398617227375 32.730211375938858 -136.439856523763893
34.381134287167747 34.901175320082039 -136.941057798556585
41.310561133885727 33.846766777201950 -135.732024396341927
32.219598194882039 36.585037376659322 -137.388797550439506
40.114436826530323 35.066937515832450 -136.399712598712171
36.429278702528642 35.951954456851119 -138.902828671003277
33.568906436986474 36.131160110332402 -139.167932207307672
36.246069638689775 37.463783592145326 -139.664399166292924
38.312330584018284 36.938710700977666 -138.807512200022899
32.934187448297031 37.477777308173110 -139.354152057666909
33.087015783449957 38.625243094000737 -141.248496238916175
32.702807760262033 37.640590350987658 -141.108386382859635
31.168407930846701 40.924407420261659 -141.390649171590127
35.855495877183280 40.688043310316381 -141.318336257646195
29.612634488763515 40.607696088212727 -141.740400818897569
34.297700208759395 42.995763500163960 -145.007329847040296
27.591772977396264 42.309885093586203 -143.312616578920625
30.927046005659165 42.084759512074264 -144.241552529389480
30.097983675608589 42.952331288563514 -146.122390718836812
32.626795908320894 42.097795844168850 -143.598307932435148
34.455995291197347 45.992813499863900 -146.836134102397125
28.611498095080595 43.407153794883847 -145.077513532626199
34.199041172121383 45.199434917660696 -146.802660688342769
32.251210847504382 45.270879559672444 -147.663752567173134
28.299993722234309 46.830765037864019 -148.197446399136197
31.980270637339760 47.976616120009275 -148.814312614945891
28.946675101197492 48.029225705481018 -149.887241694824240
27.783724676690728 49.640042177695008 -151.756939675081497
26.437146040199572 51.831745825163331 -153.328791020665932
29.492631573179423 50.645077458380946 -151.849922971840954
30.015114133785485 49.258343843304509 -151.448111394244648
28.626340536233094 50.273467730766519 -152.230877640454878
31.417920795175220 49.650284116887470 -152.091326055701330
-46.627224346093627 52.398260968314339 -153.685220038638221
30.250036146479939 52.509628304582066 -155.168759794712116
30.720826010339483 51.777124554354685 -153.221783446863128
-43.583381872955677 52.799300320260514 -153.651664603900286
27.763555591640138 53.253296642994144 -154.280210719326988
-42.413265589937943 53.646851012905834 -154.836175065906019
26.641338605841547 53.405929224477475 -155.070884965523476
28.004517846419784 53.983928601470538 -155.057292252859980
-44.079589407463658 54.046621586567042 -155.692744320805190
-39.512726751682308 55.908581554663080 -157.525678593144960
-44.472672832610733 55.998442882309377 -157.833461794592807
24.784237973525983 57.376648809828509 -158.598783289691539
26.695535104682001 57.295269686203454 -158.279627605121533
-38.787167566762463 57.422353222356072 -158.538452075908793
-43.515094325869988 56.609026151900878 -157.294607208566930
-42.133846628260862 57.056257285745993 -157.949075304052485
29.093618610052076 57.399239085055910 -157.980883451391435
-43.069890862780483 58.160251873918867 -160.437119693856772
26.374925735183062 59.887024794634890 -160.349437999110279
-40.820599815433212 58.114938186432312 -158.577357862307963
-38.779888579052979 58.177406043732503 -159.630481918818987
-41.833683336688424 59.980137005705828 -162.601998003261542
-40.978940912571318 58.938865710105986 -160.071231031055561
28.532012634953691 60.299139727596774 -160.322911103241381
-40.512078997129251 60.069473428021581 -162.657917590739572
-40.006957172353218 59.541025803970115 -161.296235086467789
-37.718777288008638 60.392308092045859 -163.578909996993417
-36.701369590030758 60.442095959978850 -162.083466794893752
25.879124541435623 61.062055093428697 -161.912305485226142
-37.462628102682970 62.014182440720859 -163.684552541159945
-40.588332427250016 61.095044851562562 -163.236848082093246
-34.825127209895520 61.212158034835468 -163.043709087390937
-34.064333888498709 63.032566893035934 -163.755314519385109
24.266796363450553 61.481424059373147 -162.730193807171389
24.955861421844705 64.421953879076057 -165.200280883687157
-38.182173782903909 62.164457582069929 -163.678111411600128
-33.621289617999551 63.765997386877196 -164.364822553265526
-4.675953626076507 64.773386216128841 -165.293778452873966
-61.570972076709893 64.173786112572401 -166.042541990843006
-61.063991271398912 63.877494719639714 -164.660012016527816
-36.496537824575398 65.889372954448163 -166.408388627175071
26.237370813316389 63.148312351869698 -165.107768871379193
-36.559724390050441 62.557532174746662 -166.173923927504376
-5.873267798519669 64.328616442282708 -166.018108902121099
-4.108895961835390 64.134956325172482 -165.902786901520045
-37.758416142635930 64.758500423410908 -166.858369756795042
-33.068057176607319 64.154707226804163 -165.543939939871194
-32.338654217323182 65.836503031781689 -165.959066995314487
-6.965919189180486 64.893765677002904 -165.761676843848505
24.178074545417470 65.590525283058156 -166.162144250013114
-60.815155848364768 64.506876056310034 -166.180734721296147
-34.447653051298097 65.272471122258978 -166.979524083026035
-61.678572111725195 65.514282016204703 -167.136438962894516
-5.457933594224499 65.143680204085285 -167.163605288768224
-58.913910792443204 65.572620541220104 -166.684522822773118
-9.707072140117134 65.766523164801782 -167.926286439778607
23.377751099130190 66.007256640481870 -167.203650337335347
-60.914767019804991 64.400555243137859 -167.050002832783093
-35.130975969889931 65.871663180695549 -168.084971269756210
-31.786460248525817 66.606047263913936 -168.359057212562760
-32.726191005874405 66.550308856175263 -167.805992721727705
-11.323817590837093 66.598790093164482 -169.225421453295809
-58.499463339279728 65.358064136159385 -168.371992047121608
-55.183667497742938 67.199669809961307 -169.619016142145739
-32.934149926039147 67.133783180156996 -169.738976855700543
-5.766610761565299 66.891480717515464 -168.964477217365129
-57.756535276212880 66.950725651649890 -168.039317552214499
-36.104846248255178 68.357354833766010 -169.020513729220056
-34.145319090252706 67.355545452227005 -169.397218099721016
-13.632151689768317 66.604928441695122 -168.322540283154126
-61.308948336123272 68.413315048510228 -167.857262941163953
-60.437917937403554 66.331522692437076 -168.879219046919019
-58.325760096709821 67.131390939347909 -168.365892001883225
-14.511813356898392 67.051231696497837 -169.765064608615660
-7.074030303447969 66.488452195576869 -170.139556198997553
-58.324173056304041 68.573470654733100 -170.388291763576149
-57.856589587327754 68.029463914983808 -171.288174686783719
-55.555529246507227 68.436629441968805 -170.418848330269014
-29.390215163489437 68.622208300854211 -169.331335824244121
-15.703874497509867 68.296733352004154 -170.771237742457004
-7.925074167088707 68.221836877248236 -170.532368559654003
-30.379730272759105 69.314924656648813 -170.694207552114449
-34.713575871313523 70.168681372737936 -170.401934350744938
-17.716925600387778 69.687642916019755 -172.128748335469254
-56.846034546174124 68.906630136680690 -172.101028851800777
-53.089715890678043 70.354649850160584 -171.635647698076554
-31.454500109251114 69.924520241572978 -170.959776289840477
-52.531424006111784 71.115920126452508 -174.222674303186324
-30.420298334253996 70.148721170019797 -171.316403345686695
-9.881981448761897 71.006552639132821 -171.458699829885717
-31.359754188230895 71.047011528821429 -174.161352269814017
-28.423995300252585 70.398546072890113 -172.981937938685633
-20.749152052369183 72.067116629137857 -172.426224963954127
-57.236416130805701 71.446286876337325 -172.993028298533801
-13.188696733451243 71.119965402924564 -174.134692448496992
-56.314825625608158 72.388710798916051 -173.416484437158687
-52.725943579156798 72.082935276476007 -173.268207933773141
-30.055372225116511 72.389145000189259 -174.313661734059906
-29.106014575521350 71.954482244883380 -173.436811042610998
-23.250530651093591 71.402593147216237 -174.123354623994430
-26.597858722011857 73.723183229919371 -174.416814121419407
-24.229277858084860 73.696397354547514 -174.515352349055661
-57.070925211289165 74.370248286602560 -175.095693232533563
-25.548596919086712 73.837535467130550 -175.079556395045557
-27.702273094035665 73.090221310553858 -175.585731203451672
-30.273083187922371 74.781866912095623 -176.155898970038777
-29.830932508860517 74.063379632652030 -175.281568752914723
-27.469308904779457 74.597237247939972 -175.918737613925884
-18.498704132171639 74.358722525525280 -175.762658096566923
-55.107015373424552 73.466181811522915 -175.987043970118066
-55.814019820365061 74.497266514659700 -175.620814414471596
-28.922587493721529 75.550701161762277 -176.934591029138659
-53.012145263119343 74.694115428224464 -177.352552627528524
-49.229406672639755 73.379992045713536 -175.637689448502272
-29.318969708777981 76.201717703482970 -176.806126709924854
-18.988379830790795 75.565892012349536 -176.931155271363764
-22.240736034058028 75.424299718801876 -178.330516723188595
-30.164145326690502 76.588575955640749 -177.783073198227868
-48.086743430992449 76.409789929362816 -178.631867376344076
-148.265055180204854 77.138102268536471 -179.576693059918711
-146.553596905899155 77.300311273641299 -178.960686653843680
-54.132683594661216 77.168257494253723 -176.839362554449195
-32.217892193749684 77.010778117729387 -178.688000552224111
-148.775233920484624 77.266864439209584 -179.265776185299245
-51.859102538778444 77.354518892959277 -179.686097439088968
-30.280259260346462 78.672673060476939 -177.976448928721965
-143.957042771408879 77.215502706229486 -179.451799589988013
-32.191374080799719 77.983138379385522 -179.745606021865171
-46.288407520424734 76.860571260321564 -179.544782525424580
-45.894628631095010 78.275039055682853 -181.049633417223191
-32.252439624305744 78.099232980940201 -180.502700892706628
-24.825290299359793 77.686582758901764 -179.579762622748689
-22.854379910369033 77.125740089773913 -178.917394149252146
-34.977907427828924 77.885884791072044 -181.251075337739110
-43.883843271728274 79.964463190657710 -179.508104915859576
-26.184268531800900 78.719823516245953 -179.481509072765249
-34.077008193860777 78.591685968720668 -180.648602285073821
-33.439635049220001 79.406950176686919 -179.492800047406746
-27.617742912310600 79.345764688857969 -180.625553118493627
-33.495468010258875 80.765359819763859 -180.803865489769038
-23.400527165329745 78.939750843654380 -180.774913029145551
-29.155010205106390 78.320862295227656 -180.972870829381804
-28.871780494521136 79.307160461173154 -180.940744720910402
-26.520935548194299 79.598549777144996 -181.595568584705688
-26.858323089968984 79.793204436700691 -180.170479557018638
-35.949684660873530 80.185226104071347 -181.353886634921423
-31.877662293590152 80.394955354066440 -180.165482712867060
-31.159013877271239 79.758535289105154 -180.647933106123901
-44.329044819705757 79.512757448174384 -181.886474408515028
-36.918410740878834 79.449744882410187 -181.756227657662549
-35.426862395989168 80.810180323613608 -182.103718700109710
-31.618051918044941 81.349463599615220 -181.434358375275337
-30.258374421087279 80.363782543671277 -182.460641290124869
-149.176652084689238 79.450868228513215 -181.829724940790356
-48.680950922834185 79.687992576887382 -182.298441781728030
-42.596532300417188 80.818090211935910 -182.732560314127738
-37.023454076861405 81.696867253319951 -181.493031737429334
-33.783656106982150 80.960728259477136 -180.965853156348743
-38.077054531953998 81.368756930223995 -182.985174669412999
-22.109849411544040 79.563338660155011 -181.872060336766197
-34.089924675683498 82.574001510813730 -182.552601722555664
-23.825233159936008 80.864702375651731 -182.172079228955226
-149.836343945886796 81.395883228697031 -183.659507492619099
-47.813649506438743 81.204277598909385 -183.956160736327490
-39.435349660453696 82.115306435846875 -183.458278013678552
-38.312326589098660 81.831708402265988 -183.357369441350471
-35.443428632830326 81.779444823048806 -181.800896474946995
-149.187415578216132 82.012179126782229 -184.675224464344666
-41.718359961513350 82.142904379826106 -183.911891559130737
-41.856379153416619 80.561500618750458 -184.260813103538425
-144.329557300228970 83.284877270350336 -183.883527170270781
-36.710824488957613 82.647804604695210 -184.134498597931298
-19.520024285487558 82.470899297716485 -183.371544561317791
-39.786903443789811 83.097349752494296 -183.225234377109274
-37.488594884064824 82.623785788591533 -183.946728912072217
-23.433041853296164 81.234929922633611 -182.916259915286730
-143.890392106681105 82.152127470450992 -185.342451997330755
-21.262551708191793 81.040402113560916 -183.728190006906146
-46.157971126168697 81.995079443328720 -185.130911136195095
-37.869002635292112 83.256710645702768 -184.684108082632889
-39.038292308686962 84.481415902941194 -185.415681102590128
-141.897984252601077 82.226456529150113 -186.927462790414211
-46.996948125682174 82.913763588752204 -184.637540156463842
-22.988163787010325 83.756991403268742 -185.399981498874496
-151.138320165281897 84.339062615170519 -187.013074892168675
-141.078969314580604 84.049590194107182 -186.950254560269428
-19.517519572153436 83.556113117316457 -185.395521353517182
-146.996861317379654 85.044807215981947 -186.673619071295548
-141.409859024352016 84.422251636457730 -186.453988032729768
-136.742239632066344 83.916489320171763 -185.836505825431772
-38.719291717854354 84.286017602063737 -185.908751548123206
-22.008204816565204 83.847748560866918 -185.816161789252504
-38.561676686644184 84.315770265532493 -185.507905196258747
-47.396106587875664 85.370940748010952 -186.913943579200208
-38.011879266529938 86.061999481278576 -186.999880513935153
-20.283468015089099 85.347812095112033 -187.170266207336994
-48.263463209015519 86.119500220105962 -187.416610019502883
-152.178194156934779 85.969276298303626 -187.045851819155217
-45.707488816121845 85.495330960844896 -186.927468213767725
-20.278658691595236 84.813178449890358 -187.281511853138767
-49.322880950109251 85.390227868338684 -187.462073617685093
-44.479575852150347 86.022594800759123 -187.943141634056161
-145.405721134836796 85.960760364203111 -187.947865196346953
-37.366607480834524 85.626706045050355 -188.797236710112315
-48.331378172629002 85.698142907630043 -186.964051326495706
-43.558585136474051 87.019559839531340 -187.778648597186276
-17.620321175303015 87.814491429636220 -188.854889958608453
-145.658443867353100 87.379377364090004 -188.148793090719636
-52.808926265160771 86.162297169182125 -187.646721817933013
-44.790673083108977 86.617678500229161 -187.470276360932246
-146.992451353590042 86.401312992819371 -188.584081126651625
-134.756340749675076 85.817875952473671 -190.060110067010015
-135.181336314351938 88.452904196303194 -188.202348439032761
-48.104769326705338 86.798230697894098 -188.901559967481347
-56.670432885564352 88.751464200875887 -190.163906708325555
-46.351941711760979 85.965368466950153 -189.887985944610932
-47.186834440303187 87.529586276356838 -188.457206367495047
-36.357119463314355 87.053942988020864 -189.354518145595904
-56.639869310912374 86.128684849312663 -190.064297632557242
-53.489118334730669 88.281191315185694 -189.057329616454723
-49.409670550046094 88.082304450433071 -187.952710481375391
-47.066997237059162 86.196968013542261 -189.787300579516597
-141.979484238744249 86.449464694754809 -190.369141540134763
-52.931712004880090 87.507817715211416 -188.341288761834790
-143.279994982071145 88.868797450650831 -190.571721891443474
-49.181220549603879 88.262776026462078 -189.970298210575237
-33.734176223776245 88.345259808761000 -191.386580232208900
-151.368119154210319 88.723242360803454 -189.099433778778689
-58.894259692987610 89.182403359015879 -190.077391797465140
-50.802514762158275 89.376687390753631 -189.929880934705722
-48.867465502322631 89.463566071216988 -191.755719168818246
14.255134449909301 89.676030958292415 -190.942817233824400
-60.844265435611639 88.435027087515834 -190.805327717549261
-14.340362914807589 89.427870053519527 -190.477048022109329
-62.302646606665192 90.207465855356645 -191.376247047849603
-144.993580946768446 89.158664490763329 -191.459939675976869
-54.647581655464130 89.931456501041282 -190.827731440660045
-52.305646512843062 89.009185662300055 -190.971791418904075
-36.781377119057581 89.521517396596209 -193.089991385177740
-64.248705497310723 90.497265235821700 -191.937527213769386
-53.494342499239302 89.863550695202278 -193.345211594938803
-14.095101848547172 90.015348610243009 -191.541835153511357
-66.054932689022706 89.867333669072607 -192.770493456542539
-33.307343634781880 89.617276617011399 -192.007319090129414
-144.758785552435540 91.132939900110557 -193.269332545703122
-38.862974486447825 89.882727353843023 -192.267671991709875
-68.893497892302435 91.094987359133242 -193.063752242033161
-57.418655969036934 91.870040209428581 -193.432237353579040
-14.446417741723575 91.702155485220047 -191.974798540400542
-29.821697225928752 92.155772696664698 -193.554021304144442
-35.656093380439145 90.942564139941794 -194.699804649810346
-71.681959915323688 92.381716753728881 -195.483691514230799
-36.130972664148864 92.582904090154670 -193.579758970956277
-31.823851463677784 92.878232541648018 -195.046285039520740
11.666914934605611 93.825113334595002 -194.125652458334201
-59.811052010440747 92.370612526584296 -194.685005238308634
-144.508194730892995 92.239758177395913 -194.684868311873288
-60.383802045530004 92.122896976280188 -194.500918916105661
