# This PCD file was generated using the MATLAB® pcwrite function
# from Computer Vision Toolbox®.
# .PCD v.7 - Point Cloud Data file format
VERSION .7
FIELDS x y z
SIZE 8 8 8
TYPE F F F
COUNT 1 1 1
WIDTH 801
HEIGHT 1
VIEWPOINT 0 0 0 1 0 0 0
POINTS 801
DATA ascii
-71.453125740485689 29.900394955859390 -102.383305342630990
-69.677689174320577 30.350212199746380 -102.912326979910603
-68.160087511924189 29.983429047503762 -103.453073027275266
67.734149196149545 29.938024847297072 -103.394094357215764
-71.505662534122450 30.085470026808178 -103.402684328566210
-70.088298039019449 30.706907914654234 -104.122320332187414
68.639161981964023 29.802874444360274 -105.751876507705461
-72.582507237637145 31.736608637513033 -103.999049034107685
69.803030108828878 32.208668710287498 -105.203315426488928
-73.602712569789958 31.771862597760876 -105.482508709921930
69.104861100033986 32.403373639424927 -106.012639480431105
100.913239289423259 31.994692381255462 -107.417716398075356
71.810784383591368 32.100728189818618 -108.145889220731505
100.130921207774506 31.613469363943526 -108.238298261665022
-74.364189661298951 32.162517546405695 -106.821257431212388
99.332167068213067 33.847179100778312 -107.666498942982301
-75.590462226366427 32.902596213003534 -107.356178673411719
-65.624867493373486 34.122555121431354 -106.458695131682049
72.933368071462709 34.115446349434180 -107.676078054607700
73.578840244177485 34.155878570182693 -109.695459243772277
98.336316839672094 33.858435471662702 -106.954137344437925
-63.536447436812367 35.359462691285614 -107.531923726800656
-68.448226113594956 34.989316276741341 -108.618017630271964
-64.913239656580103 34.007691853778077 -108.304989364072952
78.626250839665090 34.906816221399808 -106.801990873177246
98.274390135050311 35.307405946922188 -109.039251125655596
73.448961745171204 34.142644801935091 -108.445079654401511
75.553626754328050 35.780115544194977 -106.852445452422870
-77.751323973328056 35.359542271478453 -109.728298768088408
-62.815769245507816 34.696485630799650 -108.076401479719024
76.490467547716165 35.631367430194395 -109.200226121544347
75.481247236882751 35.850634405968641 -108.142078359910982
79.760102472132047 34.924492995818518 -110.572311520498175
82.023757046779707 34.434156669811564 -109.728239543173729
-70.150352088990971 36.343980811908963 -109.196339005572199
-63.947854541186103 34.779647744215254 -109.266319048432422
-63.340911572768327 35.642021446277354 -109.939238324268459
86.371004296645935 36.259459232227627 -109.787765039124992
-66.588901679297962 36.755592799291648 -109.614169715976459
-60.873121003676211 36.502020550714676 -107.995035897652173
88.984408678828061 35.309221399329566 -111.848465548700489
92.215644297061061 35.464893466639921 -110.053310899325965
-71.893690461886180 37.157911353106087 -110.760102387166526
-65.532951990322545 37.451445220123105 -110.640373955923820
-61.636787848210531 36.329593066986362 -109.712297759341325
-68.339037975761983 37.487146621269332 -110.453036769359699
-65.003539537447622 38.254052212234519 -110.865525075477677
-60.964556992000531 37.361123448079738 -111.682577669086783
-98.060736844545545 36.362146265603904 -111.140519090425911
-65.504849704330368 38.320123647702779 -111.266972845674630
-67.148617363576491 38.275808207758473 -112.304793102381993
-81.518650526123110 38.904444277554667 -111.790454134968940
48.528373449041098 38.923961035967643 -110.827859491936607
-59.544785397007701 38.119826309472096 -112.645087257471957
-83.222922138010645 39.593508287482059 -112.465663192186142
-78.838249128788959 38.753158475777283 -112.343166692851611
-66.974036879348390 38.334774498323689 -112.581110358260133
-62.095296435448972 39.449626003859557 -112.163533126220273
45.542624128645777 38.648499705470705 -112.179516652416268
47.213077936818557 41.052656045855237 -112.487077301308190
46.578437493354130 40.402481149103636 -112.989851073492432
-82.145224435314233 39.847100765027044 -113.832035280062030
-77.769825453487556 40.431367386665173 -113.090884872493746
-80.929627356916470 40.054246383428250 -112.979669932905907
-71.333712852419197 38.959028370399217 -113.571555515487120
-58.453491809582964 39.019988163827371 -114.523938409525741
-80.861524264702979 40.353676589588368 -112.702602730520695
-76.951123127929634 38.860067154306158 -113.715051430793636
45.695899692477497 40.536048398599263 -113.398958769113975
-60.606872257391608 41.121450957992103 -114.457671227603356
43.540028152917401 40.152212371373189 -114.521344086303856
-97.083669461858520 39.508176202622153 -115.267305912303669
-83.984803044893297 40.544224922676044 -113.695643720414154
-80.201612981463583 41.223357009233411 -114.896363731204971
-69.239004319769265 40.836589842278130 -113.879305560074869
-60.679022991326903 41.121319952033012 -113.756884121166479
44.270567500353813 39.875439361069034 -113.982837009524957
-84.038660261984447 40.602987214722702 -115.535366963149670
-81.130915441766376 41.356042285438342 -114.729330217788814
-97.001627429288448 40.393562517208245 -116.049391477708980
-84.308067143741368 42.053082021030654 -116.635231937230358
43.410815137301967 41.747652447622528 -115.542822248195677
45.682211027800591 41.390673645454086 -113.848787531924401
-69.343444651754979 41.814795012347588 -115.186657317871237
-56.226762477986625 41.379803208810166 -116.071263811733445
42.076867906797546 41.857734052978614 -115.663205168506309
-88.034178992559177 42.268120189640477 -116.327637606610494
-77.526426108496537 41.238952033277940 -115.636751768730051
-70.670338557563639 42.853274985407012 -114.511534641111794
44.243792781038096 42.017156450931417 -115.482374344135380
39.811451975618709 42.670531301234305 -116.126613699892744
-83.625892107520187 43.459645695062541 -116.515929002146606
-57.002673181300828 42.878677621539985 -118.169693275515357
-56.670157597306925 43.614013775123155 -116.489241898858666
38.989849546574106 43.733240805113681 -116.478172696571733
-96.953873323538900 44.427724515065279 -117.055751620410135
-82.942517706521215 44.389702779745669 -118.311204756422313
-68.671698818615553 43.094681087931548 -116.904235529134482
40.241043738385677 43.877027400164579 -117.928984742240587
38.880808603816362 43.788130736627181 -118.417560730237426
38.476118716500174 44.860850755805863 -117.708104390738754
42.453636354004090 43.288807670545957 -117.206404178926689
-90.226592495849914 43.833704319079594 -119.079658572677232
-77.080195104551663 44.861357746871271 -117.433505700340845
41.181156561058984 44.202780372788418 -118.736602794113196
37.817221044960782 44.860220543701310 -119.450340295435979
-82.354549904566156 46.009771553637137 -118.668673370922079
-79.407716837891712 45.706937404035735 -117.472143800487231
-55.071369880816029 47.347190439522876 -118.283911947996614
34.947068086419648 45.412292623936338 -118.659017222332409
-95.879255546301877 45.339537338874848 -119.245404473820997
-54.771905194827774 45.519867824895499 -119.392284947522910
-78.421035680150766 45.767051264354428 -118.650233076747497
-67.356940566940807 45.055867372928510 -120.321834650848984
-66.176465370385671 45.408481815100394 -119.107180686661621
-80.859663136781009 46.914644879056468 -119.506155285172355
-79.049604266717779 46.432292756079150 -120.474626839363054
-92.257416875524314 46.102006151562961 -120.771564252827972
-79.862589601388819 45.770040749299291 -118.224503313954074
-78.739299993268148 46.340094769994266 -119.812231068174810
39.635072902008297 45.794864174135228 -120.236610110268202
-64.935436357030909 47.411609777945394 -120.529840812152372
-54.515910663460389 45.668896179585737 -121.270961326986139
32.530645270901580 47.259244842606229 -121.834391313077020
-66.976171405098214 46.064532767495770 -121.521150535461430
-63.432448208392714 48.558113152607810 -121.052506709526710
38.881144577273233 47.414679609483258 -120.890909361724056
-66.408478264947931 47.381879260097115 -123.517376988994670
-65.813717199216100 48.385413816888295 -122.787707397457893
38.293531614138040 48.282289119857701 -121.817570704306604
31.821557017886406 49.089500515142674 -123.027724288370365
-62.878642353387654 49.702152915301774 -121.526545142250427
-55.297818299656910 48.407692016327168 -123.531429393611006
37.322168122894290 49.411004998338726 -123.363247892180595
-64.874671582492468 49.551202765380232 -123.940971755694392
-62.798168863783502 48.863612714227727 -124.132324329178687
-55.444195628211595 50.264735879580314 -123.067966541277343
36.179795655368359 50.785242988324455 -124.255291630793664
-65.277765138342616 50.738173918700909 -123.445568941545133
-55.685736579656719 51.814653214483094 -124.595557740017597
28.850394257265194 50.811724067041787 -123.438960657436581
-64.263802210895960 51.121907781356121 -124.336712250322819
-61.677500364032348 50.249758952754320 -123.913910087710207
-61.130647869007042 51.328662130004048 -125.632293741025592
28.489145588957825 51.977294804379014 -124.489420496624660
-60.264154809605301 52.083740291226412 -127.041161736486032
27.592446619893671 51.337228512394624 -125.774296036937784
-56.620875392053797 53.339910421422061 -126.362384817404262
-58.617420487318547 52.564280297915253 -127.251072410836315
-58.708287215153710 53.319722220876422 -125.434171045923563
33.575920849138100 54.750077274438979 -125.686836244162436
-53.820066341889785 52.785183446239799 -127.185846078192839
-60.941585565812602 53.429826320898073 -127.092288403935839
25.842910000733095 53.221755658879168 -126.784751187530333
-55.215433133318150 54.672075846006933 -127.500068431533009
33.017408294354915 52.391967321301905 -128.196254553714709
-60.088292961081564 54.335481670500002 -126.968030816040823
25.239182075623617 53.981681618641673 -127.315030556137401
32.824571458426185 53.857932375558477 -129.072712290001874
-56.031825711607461 55.645951160682273 -129.013808333289774
32.758161811953649 53.732513702636943 -129.193408618848906
-59.002467293169580 54.831234390576711 -127.054958581691949
24.648760384539095 55.041336074563418 -129.076088794329110
24.367496880466259 55.912392562124637 -128.701552707289494
30.037792234901183 56.011596025853869 -129.485605336178708
23.965718383499230 56.820552923382103 -129.871797286706681
28.889446153018230 56.499405802008624 -129.936103689673331
24.784542398120951 56.934285848037980 -129.621175662921871
28.235566020663398 57.152198009149068 -131.244321810563292
24.138900414678780 57.634518654048335 -130.151188116623246
22.097982781956247 57.150215834379502 -131.772559240897237
26.801241728237063 57.379275335800322 -131.450041372963938
24.155488812540256 59.075181260035080 -131.825406528449946
26.992096777445333 58.944578519695042 -130.517825879065754
23.318737733169698 59.027314861250332 -131.943935725439331
25.141240389106780 58.939042848046917 -132.463306348576367
-145.338778501927862 95.855970573344052 -169.864774194576540
-149.507084692877299 96.245682733366763 -169.621344629303479
-147.634255749273592 95.249449126758222 -170.663559503212355
-150.241652040886720 96.684013949111232 -170.731263007556549
-145.707482832253163 96.036661902651730 -168.477161206479110
-151.335938117183360 97.210390015480215 -170.544569862481609
-147.558417495165884 97.145107765456402 -169.908283896613028
-146.980269900434394 96.694696355236900 -170.768722510255799
-146.306438317655591 96.926789284350221 -170.390646093940319
-145.159301568436746 97.070584477156700 -169.504906827214114
-149.642149400623367 96.763496113489879 -169.362035298498910
-145.328336896177603 97.344406576043468 -171.139443751281902
-150.867470204608566 97.955009164951704 -171.176074945339707
-144.151134459873930 97.418528620931923 -170.193361381302424
-152.275661120807115 98.117041298258997 -170.489154663225747
-142.583772863673914 97.583882140275648 -170.207225280071725
-151.996992802057747 98.096479775911988 -171.219715710442159
-145.506536697091832 96.413940841135300 -171.739767391463886
-143.479599716357995 98.793121747799773 -171.303227148580305
-141.594582354283347 97.276373715126780 -172.138182273856387
-152.678277812156267 97.697602177610392 -171.062296418302140
-149.917493975307650 97.373945562736381 -171.156622749824692
-142.593959414991616 98.771369651590263 -171.888846112532207
-147.910006690131155 98.095114551923885 -171.519488058484228
-147.638859307345626 97.876279898387665 -170.381912519209976
-146.239471290397404 98.909383499954188 -172.013067379373837
-153.856279846880454 97.870519258159163 -172.369038464821870
-148.513529506579317 98.487847710060876 -172.711708333780535
-147.396837803293209 99.501179227647938 -172.036569561192806
-144.361893645335755 97.688573478080656 -171.804306939905587
-142.575604661059913 98.904400302687037 -172.452652772824024
-152.208753036106458 98.852122315997605 -172.792160628954463
-149.359617734468117 99.486483922721789 -172.397837149665435
-153.408709391065599 99.040862423104130 -173.179548433159596
-149.882207772432537 99.422589010403897 -173.108619104535762
-142.805924587847926 99.434096566590981 -172.366115301856155
-143.904067313669856 100.550227920731587 -173.108598697769139
-151.841081132892498 98.996095471153978 -172.963218032593858
-150.592038718084154 99.178879859551103 -172.942539727626041
-145.421684343522401 98.998357921859608 -172.239990257778601
-144.791056190539138 99.747586747323609 -174.299102143634144
-142.208428320959314 99.761216720121595 -172.187496034337329
-150.541832840906039 100.553725787485689 -173.756679246816589
-141.533246215118368 99.112313412003772 -174.627817368260679
-142.888042411983946 100.562843000081983 -173.773815132155960
-141.823931274044753 100.158795671023015 -173.059391937873528
-153.321312766396829 101.047015696438251 -173.685066268664485
-151.002340069858803 101.609779158072783 -175.733709054518783
-144.798288499071589 100.755531756317225 -175.468077505668390
-145.630063747046876 101.826088067483141 -174.709708733130498
-153.601810193482351 101.116360600980400 -175.669555910839080
-151.619083182980148 101.753898225271129 -176.072441026067821
-149.455576255716977 102.220654050290335 -175.895857672632047
-142.178427429211496 101.193955410413238 -173.853302016928183
-145.763764631212553 101.901083887369751 -176.002912656528167
-145.751083283902688 102.163690264044874 -175.376555525172876
-142.133252901167026 102.341921386704428 -175.634111562100458
-141.805613770631965 102.431227059447437 -175.372503731056213
-152.627422197694131 101.811054852982821 -174.758702036858921
-150.986089014356537 102.316260857654001 -176.206333645629229
-148.104011025435170 102.495897425753398 -176.162368329044028
-152.971077834628716 102.650870830262164 -177.146068682814018
-144.200846031078981 102.140777251871057 -176.248469858287052
-147.432903504640677 102.949449248695018 -176.476301701770439
-146.701003568073617 101.268329521841309 -175.287153965033951
-151.214769706634314 102.245109277349499 -177.048750149423199
-143.867415620951220 102.346551820603807 -176.514833270849550
-143.146571405064606 102.668291695453433 -175.937091240581140
-144.365091271922267 103.264955817047380 -176.406874850673773
-149.803941083097726 103.587364598304063 -177.504384530246995
-149.962251112859775 104.807108950878472 -177.447328176824698
-151.835719723409937 102.982598348402846 -178.182686463065892
-145.654764250003240 103.270314863713594 -177.584751908068313
-144.755302693556501 103.988804348856917 -177.189855847084829
-150.846895372271490 103.618803304910756 -179.064031623134809
-149.423836167856507 104.946143916712515 -177.629661499434690
-146.091015625986074 105.125493029884055 -176.801746137449896
-144.994430799831548 104.784485897446444 -177.178158638492704
-145.859605844427108 104.508439013655916 -178.260146694636546
-147.839711069290217 104.237457248896092 -177.614846888043644
-146.379985851758818 104.725344729467551 -179.035632927878567
-149.468724035511940 104.189551413716103 -178.880222402688531
-148.769221348871724 106.905947415328441 -180.166665275567794
-147.575812208368177 108.056737917023895 -180.399847023465867
-149.508150991167014 108.170676749621776 -181.259793661478369
-147.663198249657057 108.533838747129806 -182.223368262025303
-146.827021915250668 107.024491087358413 -181.457760669398112
-148.613929353053607 109.263795818797675 -183.654388294900457
-149.286681209861200 109.132896958088679 -183.060466585780262
-148.319883964131748 111.434965253745020 -185.512049753919030
-0.213343671628894 128.117573189106849 -201.505309885692157
-1.874160903996545 126.637684817441126 -200.657737280939813
1.066192724643479 126.262036274199104 -200.569422126608885
-4.098194088865272 127.797128971435583 -201.416768180334458
15.667796946519301 129.180984549039493 -202.787293756904916
17.617075152534287 129.953384830841145 -202.590354880040337
4.669466226510950 127.960340185997850 -202.445270673014335
-2.554537263577450 128.841732202677235 -206.127789936089727
-3.364671859140423 128.235138567251909 -205.549627485642333
4.653094302751024 130.001158288331794 -204.320370627444277
13.314733183767572 129.229405665133328 -204.093864288874187
-0.815529931719667 130.516287339531317 -204.481464653187373
8.816029981584400 130.707139403215422 -205.047171559210881
9.512045209901679 131.467853986227823 -205.089445102486707
-0.041814179947860 131.315747899938629 -204.385050599380520
6.412186990942051 130.150280707128303 -205.677559705533753
12.535553708020545 130.869906128616918 -204.799199111833076
13.158772526876113 129.365442382370816 -205.327575253351512
-0.458731994173582 132.140790502612418 -204.816784723364066
4.886747323019523 132.030068686933220 -205.985437949738213
4.701871995297891 131.270346774437627 -204.767750539565554
7.892117873608566 131.659510733677223 -203.952682586619147
-0.926824919712696 131.201001902809082 -205.504058045327412
6.568414310175601 131.585042320703877 -206.044123681641850
5.215841679800549 131.945624626737555 -205.921917054428491
-1.167431046924134 134.076113604445595 -206.186652050711842
22.225909415406512 133.714881078490095 -207.970863565562922
-3.524861131187281 133.427430790095968 -207.688729772791419
-1.071196069886313 134.500466870309396 -205.753448735198134
0.553463226250650 135.520210070826437 -208.281835078442555
20.474806825111408 134.829332567593667 -208.024769417474175
21.377533446201308 136.192765534377799 -210.206990176791834
0.315765544304247 136.852299151612328 -211.036659627518588
21.793622411156992 136.467072223452732 -210.902015272728221
1.556366715781256 137.064583991304886 -210.860709276469436
23.815021519269166 136.676108406749847 -212.057922271021340
3.730301880490575 139.736076460129425 -212.932092060308520
24.127511571009070 140.277603824338797 -213.068596433351843
3.290527981161511 138.984257341443737 -213.154690768639483
5.780887386098756 140.831449370070544 -212.490520867762058
24.257303283375212 139.950076056532367 -213.001052605409797
5.770792337231991 140.197225198959927 -214.738709821375238
7.024568305265141 142.417199003199045 -214.768227861999719
25.313929084220927 142.267161765784891 -216.060074085690502
5.811173797480770 142.745515820219339 -215.995426765377573
7.554160565128340 143.603913730766720 -215.920084536152984
26.848539568175664 143.841012798320094 -216.921158276257472
27.093384354595550 142.674154730989500 -219.288610946053609
7.345633386381941 143.846741271442710 -216.663177725052918
26.819759072922754 146.891183730219666 -221.359014997931155
26.108182227003770 147.500126432074779 -222.213997747072256
7.310756508454086 149.173851761535076 -223.685621201116362
25.996624527473234 148.975493379971311 -222.355564976000522
24.754298192929664 150.906188350435031 -224.367861326537678
8.057361309783671 151.605128770937085 -225.492707549941088
23.272157617778056 153.391013026369848 -225.327404305398090
8.009045413334222 153.615607249982787 -226.005245955483701
22.107706689573494 155.807246792988082 -229.304559579053688
7.023145577295272 156.418471873185581 -229.387965578729307
20.463296369436989 157.200473087723054 -231.323738025359660
7.402249267180449 159.749480713942461 -231.886323007412216
19.721251309823405 157.340040507481547 -233.299873029393439
17.875118544617976 159.548423759126194 -232.140416912962849
5.791853643867919 162.841274682403110 -235.537720157175301
14.787938252258250 161.797190063654256 -237.944309444563999
5.153320140521184 161.791117912061367 -235.635351192634516
4.656712901349214 164.746471146163884 -237.177235097118256
8.631464004820417 165.218445486901288 -237.771504325569168
10.232407018304540 164.836950407041002 -238.745857966188169
7.647495783767253 165.495050241125654 -238.205416625343304
38.445372016523365 -33.799861622545428 -44.255198056125387
28.355664850791090 -31.482717921154467 -42.884279374399021
23.020918246877144 -28.133167218389946 -44.249434904459008
35.090052506640511 -26.949075304224444 -43.393885423039436
23.089133886615784 -28.862959375081566 -46.554033801875086
29.704998972154229 -27.044816152091926 -45.278456109452442
48.397713501948644 -25.204065623670541 -46.008375362017304
21.411336046876666 -27.831025270568517 -49.620735940466254
41.992286994434039 -25.975585056628464 -47.428150977718687
42.041692384784994 -23.011346702674903 -47.021984869284097
48.780099907073392 -23.715960203605238 -49.222208789274298
19.891656426772183 -21.812396315700184 -48.422440317011215
42.946756006627496 -20.532438351619231 -46.499332245352562
20.016614257792050 -22.602913775080310 -50.781554458744644
20.598824387871954 -21.958678626482794 -51.871495339888838
20.070410712060195 -19.670782348920532 -51.321719372449138
50.389701098049485 -21.625861885171577 -52.569002851848019
25.816817814622706 -21.792042153664166 -54.047357888655384
42.703107318063907 -17.916466784339363 -54.689117916920566
20.002651352648293 -17.976971174996947 -55.698495240452843
42.095324023914202 -17.369748615459891 -56.232262353205172
21.496854276723560 -18.656568611748028 -58.335712485916574
41.147296478303524 -17.034170270451813 -58.061419845790425
39.222061817504546 -16.135662810578534 -58.272889128851489
33.287263275607081 -17.159345796923919 -61.217978248986498
44.758394421700707 -14.625722329140327 -59.287341528086884
32.580371930116890 -11.181899947529013 -60.121820914938127
36.594880119100026 -10.548233290087227 -61.171467452805729
-61.361234728861007 -9.398837354925458 -61.568414533161246
-65.720913466348250 -9.531304280000738 -61.954469450906643
-54.269954018879240 -10.343382070637265 -62.594102808288909
-69.435135694969432 -10.358321875452031 -63.270164877811183
-70.024916047975367 -9.181299111484503 -61.006887284476733
-52.408632921330032 -9.695165076464219 -61.851095400417478
-75.790809424474148 -9.208586652110487 -63.074712341206180
-70.758447493193557 -9.928004318016781 -63.450711191447525
-51.057453102290154 -9.314143521725834 -62.553346829167893
-42.336704101677100 -8.923737546529598 -66.132818813047976
-38.504093294932503 -7.084399295076135 -65.071887106977513
-35.501350428190534 -7.457721134641320 -65.597936967000393
-37.298333890072065 -6.341854925505292 -64.061764963388271
-33.471515382875616 -6.475340972529091 -65.475141805177984
-32.276619148129363 -7.164696989030906 -65.950892488170581
-85.627117140507451 -6.793549873923421 -68.452826123867183
-20.120276675841072 -4.707337916573400 -68.236582598070555
-10.403176821814110 -1.880645343457222 -70.168868042300275
-92.807094622793826 -0.616505826120122 -72.215168365774488
-93.217323490231607 0.274610933962903 -72.529088504329138
79.187098671680360 0.472694526144901 -74.097171906057071
76.779631455765355 1.676086835867239 -73.360953666752536
-94.756642607984773 1.601040199989126 -73.938964492104390
84.399163653761789 2.680928095639700 -75.026783338855637
88.113261105565385 2.225781955235318 -73.505637861714860
-95.571431860225928 1.939345176765835 -76.697368374299955
-8.487821984481839 1.656477989221325 -75.165811534868524
92.204010128302983 3.142262458623075 -74.407098680621232
73.816894492189178 1.374293718082875 -74.427897430320527
-95.672549207086689 2.894584594792002 -73.142368350093406
70.283267639913376 3.186992532187500 -76.768687641660449
97.134575537116248 3.026870960277842 -76.079006505769186
-10.030688239601416 3.806196360007035 -77.312387275136544
68.998220789911827 5.512494693388456 -76.953816400151155
-19.446001850213968 5.338915505544097 -78.059697889777397
-16.631177108473434 5.386451818491833 -77.392153414863387
-20.279529894549871 5.730072735508454 -75.819297162150718
-97.392454225264629 5.983110482209152 -78.945431779270763
100.199709369793027 5.484569615336062 -78.342304777079164
-97.598054160070134 6.416597134339334 -79.244224415709965
-26.079492261521857 5.781972090371359 -78.137373511962451
-27.427839057775188 7.086604290500202 -77.936618541564414
-98.221664439103847 8.120888788251829 -78.804537395350820
100.610064800010335 7.263491744872803 -80.531125977968998
-29.551246780638483 7.282387891065759 -77.892262300795764
101.196618230878443 6.937774448076996 -82.518381403973351
65.850340350271694 7.118721583893706 -81.061049039901548
101.868634912087444 8.437434310511041 -79.829243385587716
-30.970693666630886 8.019076469339378 -80.817292799055224
-32.609492830217448 8.660637031534060 -83.768466264884438
-98.698925262034493 11.251108968981555 -83.719745364632828
-32.781988840390625 10.424002444521316 -81.631329492539280
-34.505141622372975 11.199886469220466 -82.526499945129117
103.660893923193981 10.582785899830167 -84.570722489299087
-98.603164792138202 10.831856641351862 -86.116739469730547
103.856494382576201 12.051961920236895 -84.048315650501806
-34.205882360126232 10.541526525515994 -84.768063701405978
104.223845784931555 12.896641321218851 -83.791472792630344
104.747259206584104 13.157386579216691 -85.218462001855926
-99.457538072472715 13.231787615619284 -84.120679927329519
105.168901163786387 14.318161589031241 -87.067140014801026
-35.815166456204388 14.543069828624345 -86.659985635052109
-50.220096229848515 15.908379341197481 -86.666395114525145
63.460423918720018 15.174492411320825 -87.345934637613425
-98.932538592563972 14.068819250975521 -88.076521767397551
-52.441019614210624 15.587565348624699 -87.211279051153269
-49.908234819355663 14.818481599812962 -87.513773109144992
-56.009815801577908 15.763567260395140 -88.749172704449663
-49.187163101765819 15.558278535242266 -87.923053058408357
-98.181188448505466 14.486661948712651 -87.737052368771700
-38.842486049754910 16.478266000651828 -88.755511129428271
64.286700188311528 16.050460245797090 -88.839485097115414
-46.511531866167658 16.890758970650605 -88.515187419092726
105.759177558733597 15.418523194664830 -90.155536556742220
-44.540474586601647 17.041021462402412 -89.289950418646086
-59.017856809137754 18.010704444645274 -89.416927363308446
61.589555265350093 16.686849779594773 -90.296219488512918
62.971409979953549 18.358229773790470 -89.998188109396040
-100.555995987361143 19.705539210568912 -90.340431023375800
-59.631346771268689 18.032745176973258 -90.652429976910099
59.109747894838115 18.120689404557542 -91.324376052373609
61.984154419074308 19.324365882891925 -91.518818451843813
62.595561505733180 19.201501278530387 -91.258691173056945
-61.486960638042845 20.155585170323256 -91.996022836730845
59.581406128387904 19.569603667300672 -90.895508107110544
63.096741099113203 18.867934454745409 -91.589536686796805
61.516449553746469 20.344489314227463 -91.281441370425469
60.103023551430120 19.380238396288039 -92.741145869929298
105.348288590030236 20.949684842394010 -93.448625496699279
62.572441458612140 21.658631882570731 -93.216711072317779
-99.566105159626900 20.704231149592367 -93.508044917491532
-62.650534099504540 21.332489441999162 -94.674904943551141
55.756636020233849 21.917789750388479 -94.903598153092545
57.304262058957882 21.970771803521231 -93.196820045304719
59.431231687177636 21.049164078129511 -93.886640686714756
64.286264578022568 20.839161360569378 -93.029266872660088
-62.938189942286662 21.404766245522271 -95.551525525330817
63.388334490712722 22.185975971144288 -92.985695504351497
59.272983809146673 22.134527239255629 -94.416484903047888
56.194660062613650 22.654065759579520 -94.213512575357754
63.973603204834099 22.402486415246305 -94.664615979310099
-65.227862347081626 22.891314198296591 -94.984608726666735
60.094295777544993 23.197793403067418 -94.307677021851660
65.360766418766076 22.259197192044269 -95.757615820138682
63.541114369542683 23.416184111108240 -95.138352334631037
61.742857695072750 23.632657541822251 -96.884754525532870
104.768395510459840 22.610093726420850 -95.649737640328539
56.957975209995574 24.196800499849175 -96.078425824405187
104.108842721711270 24.484619012444476 -96.860126718484707
-66.855069406561597 22.225205943289868 -98.693930101150315
56.947784086295570 25.024651113314839 -96.946227761304300
60.263319231862624 25.315920988019176 -98.545458205990599
58.679852788905023 24.463382383973951 -97.369610080292716
59.812790236860828 25.674294258085279 -97.373973069350754
-67.981756335803183 23.887504365873017 -99.188750893501776
64.948559099933789 25.805723054815694 -98.578342998452527
65.230071228815333 27.232841965865521 -99.119033359701064
-68.254735093840637 26.496315206817673 -100.517628841509477
-68.716855660858954 27.354171324196471 -99.969188885477806
104.741593468108988 27.260097257317447 -100.494051848058888
-69.978356873534722 28.506489278602711 -100.365632834080316
-68.534777692853041 28.866610698396510 -99.992340450367593
-66.596407539403515 27.932007353870965 -99.999012573036637
65.105883261266385 28.036733671025502 -100.431245119302019
66.621223654081092 29.515497667181787 -100.762051392990671
-71.239397231105841 28.996891480769012 -100.521811694864809
67.000286485577547 28.377423468218765 -102.763272588777880
-98.924334365371109 31.754877273929406 -104.790158212376326
-72.443621018077664 31.007422130821986 -104.172214092080793
103.216713316047418 30.007677859900760 -103.630247128663129
69.197266120802666 31.127163447185001 -105.505506459541323
102.197792498203626 31.197663009223827 -105.732701764090322
101.258235830204740 29.941287409271325 -105.958955824528033
101.326589508987865 30.725220450043491 -107.254962243466238
59.093150145675473 33.747960620945335 -104.515871211686402
58.375315668658324 33.158734772665383 -104.514378464164267
-63.057798839034440 33.757202062177100 -106.041437446908489
56.484232976390025 34.031027751225579 -105.588760499154688
79.825256343644284 35.079685736005622 -105.298594589587637
99.190146355581632 32.866063385047156 -107.811057193214495
-67.379199995069243 35.008782201548804 -107.102371249798807
53.826474426415828 35.253147588144309 -106.491635594551710
-75.076469047012822 33.600811489270825 -106.903323653329196
80.434626403897909 35.547758492163197 -107.022235162597497
56.168899387761982 34.349033925459253 -105.290457127210274
80.234816824982303 35.477131098100301 -107.253323334825623
80.113916697390792 35.430493767700284 -106.378471524530710
97.694867357257067 33.402975000376522 -108.916798974520020
-75.997146750632680 34.834465817499677 -108.643734579326605
-68.696996324195595 34.659963370400064 -106.824498795074376
51.886357215731302 35.333539497882093 -107.743242330240733
82.283425531782413 35.554872978243608 -106.442901386281704
-68.008481264631399 36.300917791532953 -107.044620642372763
-65.146091273350677 36.377238793085695 -108.608324629048909
54.088881150983546 35.209144410002608 -107.300633203062716
55.866549951319982 35.711560901015233 -107.252547546203417
81.253393290039710 35.573167684456024 -109.497916772584645
-70.916864529604339 36.689126331059974 -109.031776078658410
-67.574107711473161 35.997640799842543 -107.415241356925549
83.802847414742715 35.026971538400133 -108.510541038351107
96.865914775835037 35.082820682860742 -108.118698284681017
95.564891994509807 35.889724029764629 -109.259451314526572
-77.141684839013550 37.184470266927015 -108.619477109001792
-71.133018765771567 37.880686916851069 -107.492747318348393
-68.226575945300453 36.386230848573213 -108.689246260397312
-66.717645557302404 36.711859307682644 -108.216076339512426
-64.260130168216747 37.211837595920066 -107.350448340959545
52.076887447947449 36.522308805159149 -108.892126070145409
-69.297072278339243 36.271646992912757 -108.005321027983683
49.676802348359082 37.831149634216175 -109.236145871375115
53.022327960793859 36.736671131735974 -108.334252433626048
87.518093795277991 36.756711087337557 -108.872511359213547
94.735970148447663 36.048766265051000 -109.402685852660852
92.238991123899567 36.881372455827041 -109.354120025700212
-63.851731822531278 36.291897588121465 -109.219562371884336
50.805252869952483 37.923429950430375 -109.831761253175600
-98.572008989577199 37.003629482385548 -109.971860099278771
-78.604596595504347 36.319925977891245 -109.482097977909831
-69.456553657675343 38.533160086923246 -108.404720253451359
-59.944516485768148 37.788727879561570 -110.354614629417910
48.303975208142944 37.735223203755680 -109.236257055507537
-67.364608355687835 36.378204236605370 -110.185108761501382
-72.386945983484750 36.780908242038556 -109.109504542764185
-62.610982359022202 38.877964123648319 -110.341075385154511
47.977871280358919 38.202791218774856 -110.721027239615594
-59.449402173852789 39.223724939724661 -111.481528737508299
48.951419882592326 37.715894327592089 -110.265601954162591
-80.340665769834388 38.240697109579934 -110.371086945227276
-68.118615718277724 38.336705450194827 -111.150828334189313
-68.556265488531082 39.031877557092393 -111.039453861295556
46.238755069694868 39.341785818348349 -110.632517165335926
46.353506837543463 38.805186038555398 -110.079831170137766
45.061506812563181 39.966583962652784 -111.801955182418538
50.808502872735097 38.672395030173149 -110.751392015808605
-79.145965582337809 38.908987701903342 -111.284813412094294
-69.004924886812532 40.183767780856996 -111.678615450985276
-61.338095355793676 39.347777653605199 -111.099061582049444
-59.353182832400073 39.202111255781091 -110.783682870467359
45.266646798458773 39.751662977075640 -111.662017137167553
-81.410627651654792 39.663105231974058 -112.184182340536537
-80.158415586208832 39.126870477551172 -112.208119895666286
-71.535523658608611 39.127768616810371 -111.768869793998618
-58.357608139136943 39.445267001456649 -112.666781914125380
-60.963036113252066 40.147590000493906 -111.933676330844150
-69.611974485925757 41.251572433114148 -112.703163190641305
-98.131829786909492 40.156440408220526 -113.255518599893364
41.484592098447514 41.406023807295952 -113.144281229782791
-76.972292070257595 41.160164940493843 -113.856621421395047
-57.034522268581661 40.647219715090507 -113.061606296486488
41.675130251703528 41.331594201321820 -114.033628689318050
-84.223134993808401 42.349837168225584 -114.434187932896762
-56.173414870743144 42.682455357346946 -113.827272098127381
47.411018759736471 41.503150110190319 -113.331528127135286
-86.141970591005133 41.823110962687451 -115.142252575850279
-77.572509108405441 41.503999515248907 -112.871170306018541
44.453402760381827 41.542188111718652 -114.809392830477705
-78.700042287151149 42.580407503809518 -114.902812421295948
40.733240981298977 41.908761330703356 -114.829336759549776
-58.034246932482603 42.510114776908019 -115.850378758364812
44.363467712242283 42.737317784155557 -115.855559296052647
-82.953514503136645 42.869735576619775 -114.752417005717376
-76.943823509202360 43.439780722840297 -116.696229079194424
-82.439638579747751 44.509350108281346 -115.056562196277611
-79.125721971963912 43.709571596323414 -114.706479015451279
43.966765781038895 42.944752533973016 -117.212198700647832
-85.987170470937713 43.492906844175671 -116.296868546312325
-81.671786300533228 44.466929075840028 -116.829710865108723
-79.899973559557296 44.515965798978989 -115.132888726782127
-67.624323293131127 44.947433362446993 -115.946793224440370
-59.645068423596101 43.967227088713280 -116.409673622800653
37.952129154079287 44.755557913968403 -116.215302178910477
-88.566034868293883 44.751566172503161 -117.601612490839258
-82.099017975167726 44.220746130582377 -117.003986108600301
-78.902949528847572 43.533548602191836 -116.562480654818216
-81.183280276746146 45.952263406622926 -116.782667387769010
-79.405157391476649 45.303368681942025 -117.402645930877128
-68.225476490404105 46.095123307540746 -116.046633837190129
-55.401835824985980 44.746480496250868 -116.832520311767766
-66.077995759206630 44.485283301562816 -116.819508615577604
36.403744221317723 45.521522974434667 -117.752504816080105
-89.373919749856242 45.893392087101191 -117.601837013025801
-68.556621665429574 44.979323560258507 -118.367090608939691
-57.145961839613427 45.214215692389793 -118.886468490827411
-54.868370533544343 45.503279416129324 -118.458133091460354
42.947982936075952 45.521855302504029 -117.276342463346452
-89.913243292480033 44.661998179089387 -119.378189854666260
-65.552825198246936 46.847031892411529 -118.986540995804063
-92.054705829092654 45.530768068608630 -119.025599552458885
-56.974639733462936 46.564933662519998 -119.372457206974701
35.294986545955659 46.002586972957900 -118.910392176306942
-92.717760722786707 46.881645502895594 -121.097473554007422
-92.770676006789515 47.204023695893987 -119.078078706206270
-68.178428662551383 48.548308106216638 -118.852339626411720
33.455223619403995 46.838299110041255 -120.162454325889058
-54.659386932378091 46.736759504236097 -119.802697295327675
40.922626817132148 45.809923342363078 -118.954942488277055
-66.795190765445312 45.949988764300791 -121.737065457466827
-56.827088371203409 48.474228462455272 -120.961642221414081
32.429911497685140 48.108340064768520 -120.068045800721904
-66.416553359724347 48.039829515818596 -121.141724923397675
-64.590332470608388 48.694353518839705 -121.018600275838821
31.547192573930811 49.803389101888612 -120.806911343840710
39.477539284411840 48.229493719414393 -120.222467592258511
-66.708005215334637 49.410750496879906 -120.862892782689698
-65.801177833394760 50.013971988151297 -121.458141326080323
-53.417045271174352 47.860863800595062 -122.117874686673332
30.773912319515208 48.509618531372830 -121.039305965312906
-63.607561404871831 49.262184076690723 -122.167597312068011
39.111090523151297 49.921746127141795 -121.523339693096517
-53.079113155825148 50.049332381299408 -123.847461979771339
-58.149109937217077 52.407775094833418 -122.169002628424863
-57.271858208907723 51.725552242220381 -122.884882720302869
29.613668190408248 49.790177747943119 -123.863589374296510
37.404566568998646 51.155855491814563 -122.268266959014568
29.592505160891648 50.854178768391428 -123.705351207492555
-61.357348267762923 50.905242695474115 -122.790610228938277
35.862757791611124 51.623640622693571 -123.757246683926127
-59.261786729834647 52.338686978652873 -123.236918016825115
28.648992623119256 51.284072450969447 -125.015097215524776
-63.399759314632611 52.130350262949342 -124.361026364345861
-60.204404237134391 52.104788210320031 -123.529435825012399
-59.843186345892761 52.386429771460413 -124.959965337144581
-57.324620681065269 52.065700732399293 -125.192401987744063
35.090563820705945 51.525937900350129 -124.663476281352189
35.244882627299205 51.786596822203364 -125.864104614384104
-53.942494131490037 51.548854426841196 -125.053030278147787
-62.514058593931694 51.941323853604899 -124.617561500634991
28.606337167868361 52.730094644250364 -125.526994955956638
-54.141093272029423 52.696392830066856 -125.927517702999410
34.218795766891247 53.207428480247465 -126.006609887085517
-60.580974774560950 52.705322538945687 -126.263130832430562
-55.969384090371847 53.735529102438747 -124.926974839407109
-58.618420607315677 54.018338980628698 -125.769971521579379
27.417107360866602 54.945641136776850 -126.234996981302061
-59.978310706556009 54.447955257227996 -126.710226421608382
-55.515114111558162 53.958760840121862 -126.061556771199150
26.471927915058743 53.664166894724353 -126.307534836561842
33.671184167538499 53.370434126155139 -125.994399779643203
-58.142383107890801 54.893898693642164 -127.126619730598691
-56.557431850181523 54.664113111207989 -127.376583055257555
25.501893978286933 54.944370002975290 -127.249331704804860
25.753447948138078 56.947742774446034 -127.178882804526808
32.025589740875425 54.138213323489275 -127.387014902777167
29.943209334331570 55.825672304838236 -127.674414390256487
26.750174100910694 56.102586675889505 -127.154329433422561
28.880378724891788 56.758587994115942 -127.473458662587177
26.691424489564962 57.310044592087550 -128.465993660061088
29.588441629636893 56.925274691712850 -128.227019713900717
25.874672426066272 56.937068367013758 -128.347883047710127
28.216484867676652 57.100409578928755 -128.805485540853084
25.579900906245971 57.296949581351946 -129.621125231004669
27.375117636954126 57.557386962884124 -130.447985792488936
5.845855743642274 129.736950434800207 -200.721386185893834
5.067346952257757 130.334362619580645 -202.564104192226466
15.860013988015426 130.142460415399512 -203.184538331482770
-1.818145857224019 130.056956819890502 -203.395400665535107
20.224620892821456 129.950121153788729 -204.903406702539570
11.628478345496848 131.817865599027527 -204.175492034828494
4.018692264737052 131.973218478055969 -203.464489761627590
3.581782786784020 131.953687303351586 -203.160967357563749
13.032402025562861 132.889233725573035 -203.890424694684498
22.251615648875660 131.602839972943514 -204.685594683882243
0.884710192990985 131.157156844391011 -204.021450714925834
1.381847083641003 132.187543461824248 -204.365003917145543
7.574361750555529 132.180565978229112 -204.890938910019315
-1.559339741124753 131.721819420730839 -206.648855264369644
1.661545201468075 133.608206299998500 -203.984366884366892
1.234829427397399 133.635494023187931 -204.864310154820657
21.419633264430875 131.833067350238480 -206.004663103604514
21.702822842349786 134.199000317202348 -207.606455260907524
1.888730156292092 135.752503289089162 -207.306990441065551
21.203043501577874 135.914060751146565 -208.949539715564356
0.860620256242538 136.300760844216398 -209.463182428790390
22.159422535289373 137.581675786869766 -210.084286134829313
2.323673146153440 137.238597347844518 -209.344644563330633
21.644800753450781 136.980429276621663 -210.287983407850220
22.709632755169437 137.867652554783916 -211.222761749743739
4.792833849926061 139.110122606997749 -211.476869473258347
23.043644794002194 140.789431423616492 -211.516755409433074
23.233038106026548 138.708221397959278 -211.251895974643276
23.846099731302083 141.394210729340983 -212.283553833900640
5.560370085988552 141.382185982187053 -214.043012909932401
25.048399934317601 141.690510210153633 -214.458194309566323
24.973385802979713 143.045585876037194 -214.874418236369479
25.987627149571935 144.207250413485212 -216.102508969660960
9.877746983638424 144.723102259188693 -215.378133226800230
7.927358775798970 144.342981248121617 -217.035257468614589
27.270920149805590 146.291345389187768 -216.581156931964102
7.642538476981578 146.071447411995962 -219.286602604543134
26.408283505182926 146.807948717710616 -218.772444564114267
-15.654994251173411 148.834748070007038 -219.537953568037693
-16.891888929975600 149.949051622175205 -221.033526851410357
-15.658214416659931 148.768211009803679 -219.603768877754987
9.111833760783945 148.102866951683410 -220.706832110393208
-15.562335754327171 149.812330519971823 -222.533140027164535
-14.205910306607617 150.942640182646926 -221.540573940177353
-14.349786340754290 152.136643849958972 -223.811020050002782
-13.506006570056735 151.481037360196893 -223.190989996105799
24.050637782166532 152.417956609353212 -225.722619831268560
9.267476304816231 152.806936526994718 -224.103830283141463
-13.634189919000111 152.747404484559439 -225.144073977099339
7.147784349041012 154.104046101853839 -226.999505443552437
22.971004431197528 154.468238346608075 -227.365439173015375
18.436120148506014 159.988218293760781 -231.988680514050117
5.586884229235639 161.853210985984219 -232.965430851752643
16.439869635091387 160.587467247022630 -234.165705249883615
8.367473860280244 161.535782174813619 -232.844176955484897
16.010178687847798 162.423644868002157 -235.414543336508160
8.262950428162821 163.464145815123715 -235.347467541943189
6.743848148421443 164.288627626516217 -236.037095079713310
5.314527030711458 164.272139237044144 -236.656899827082015
7.919266065918047 164.964550639427898 -236.435523944746649
11.658755643606904 164.597068082516472 -237.338710361845131
7.206328890743177 165.056960631142999 -238.493483790457077
30.120506824909526 -32.246571670844048 -41.910118329228958
26.144453206097456 -31.513541586426541 -43.655174039918926
24.927136028756760 -29.615322546236111 -43.544234737400011
23.869367952941591 -28.896253736087118 -43.969237410766240
46.414363663429540 -29.127797498041772 -43.750428479892186
38.354608617769344 -28.989709930334520 -45.949808325675725
30.796155421409420 -27.565920831669274 -44.798196540349359
39.440169144147191 -24.491983469357368 -42.342632580019647
30.288398396212624 -24.710515372827352 -44.795054616897751
22.938673409346119 -25.722724742070785 -44.961349825839136
21.296219390027524 -24.772351492367534 -44.688368145176966
27.457719687120807 -25.291793373982806 -47.348344492345106
20.024820553862146 -26.468649228135430 -48.978158542041193
26.579658431304523 -25.153808533779610 -48.793293934077980
43.704685410611361 -23.077153063596729 -50.282645732634805
44.712822256840184 -22.399947364806000 -49.682197377099222
49.626606670941932 -20.843152850316240 -50.236578570400368
49.193919129396988 -17.615528019737482 -48.839412262713289
19.688152104837663 -19.698458399587757 -52.114509530669281
50.127318458159088 -19.154285407781234 -53.488677898143983
26.018553856086044 -17.320463078455060 -54.283278619676878
49.020286997907377 -18.145088322797896 -54.949871831256743
27.211409864197275 -18.748693453079877 -55.594156813206467
40.625476842549489 -16.684848668675777 -57.659309093670572
21.992815410799402 -15.279881772616704 -56.957786237398409
30.466259184558833 -14.936652565133404 -57.624538503192781
36.553885254792164 -14.184235055749532 -57.396911208056082
33.201293499055609 -12.029334987462983 -56.680046492731321
34.371766737234388 -15.197210235718089 -61.025538605705648
33.655830664376964 -12.687649748056103 -58.551034641198370
34.736132532924998 -10.670124678934458 -58.810675336653972
33.283199218214783 -11.202154220464053 -60.324596777992085
42.139545645641789 -13.369237757361528 -59.985071238954035
32.479744167755477 -10.880109598024795 -60.248215235935305
30.393276934226758 -13.260830189588473 -63.034450100476434
40.497760741144866 -11.835159034963477 -61.090981400883862
38.951242055690166 -11.980656420117478 -60.863893963901276
-59.237782781772708 -10.131336113036191 -61.767231872342080
-56.918958471074156 -10.434151762225635 -61.919235012306302
-71.123156524986953 -9.045981755240971 -61.386405173018588
-49.044617592525270 -9.278961045711181 -62.782631053420431
-76.670749591601279 -7.749657141310179 -62.233579815424122
-46.118534531448141 -7.098289259805824 -63.935144955297318
-44.025365095661378 -5.582725457866371 -63.531967361837474
-43.797695570636577 -7.222730131513989 -65.706509253063942
-83.309529326500581 -6.474117914450913 -64.848977375815409
-85.828199715547797 -5.708092794988665 -65.245657591349499
-29.166650289595875 -6.812418419644819 -65.607483547462607
-27.486784574533090 -5.850291221424139 -66.654011760529585
-25.981120397241170 -5.251035700950816 -65.845570498642701
-23.228686024892305 -4.661879150479966 -66.448342805194372
-87.763646245930971 -4.430927324422753 -67.937732017425702
-22.727724435035963 -5.958535136950807 -67.954783933867574
-87.670462874276097 -4.348639637284867 -67.465362252383784
-89.161040337377941 -3.160198987939811 -67.977188250376955
-90.504404009991759 -3.096999331304821 -69.399174902021272
-14.083091344033754 -1.865853268615512 -67.227917436223962
-90.781855838738252 -2.429743666533041 -69.905693710222408
-12.519391949859891 -3.665967967620027 -69.144639076353201
-12.030495438819383 -2.009414168245027 -69.618817938067465
-10.569254409527785 -1.207739541326048 -69.951994510232410
-91.285548157796399 -1.364693419376322 -71.083671436457067
-92.724748158975643 0.651225406349836 -71.205477756176052
