# This PCD file was generated using the MATLAB® pcwrite function
# from Computer Vision Toolbox®.
# .PCD v.7 - Point Cloud Data file format
VERSION .7
FIELDS x y z
SIZE 8 8 8
TYPE F F F
COUNT 1 1 1
WIDTH 793
HEIGHT 1
VIEWPOINT 0 0 0 1 0 0 0
POINTS 793
DATA ascii
-58.858338908486239 43.344876021021356 -128.354140332859828
-55.100574523929218 44.035956200753112 -129.359904667687061
39.343987135404895 44.912227102044042 -130.132679684366678
111.055398902192223 43.535537298676481 -130.094350452332009
-87.779221719184463 44.674399436312967 -130.173119306727642
-59.467050302743800 44.262926858276835 -130.455294745317929
-51.208489816912426 44.786315308883530 -130.333714402169022
114.423775600240347 45.030739676950830 -131.018656271915120
-85.369282239138187 44.260163070380244 -131.003700280311762
-60.166845795348905 44.188480807248482 -130.534825536366526
-53.162209886227593 43.820410598316421 -129.028297227640508
-54.435315205629351 44.827574314544130 -129.479240999551564
38.903459157712831 44.353120866364620 -131.460015322120228
36.241269529564121 44.379226243511759 -129.137612161634593
-73.833294386825500 45.107473124338085 -130.084687340518457
-88.830061326156539 45.999991333774972 -130.013799905752364
-62.201588215396676 45.524418394691125 -131.165411523738783
-52.584113426885317 46.912568173385296 -131.798582139026109
34.277552437357514 44.560555409371290 -129.389497216182633
-83.611788961512588 43.620120501254121 -130.970137660135777
33.426587133991745 45.820383993318615 -131.113155132896793
34.040855321694195 47.283893647974892 -132.000177941245141
35.422202062569376 47.333723107509741 -131.532889434215264
110.398194011927515 45.706049723189963 -129.001872029300586
114.257043760078290 46.290524180809001 -133.322223303099861
-90.108951876434190 46.369795258813781 -132.481999567067561
-79.937634516145820 45.874777189947480 -133.411190464722864
-78.306496479639847 44.966326848064142 -131.620273389208023
-61.438352729159362 45.948056672583988 -130.893400550246014
-54.152775209147705 44.231551465856391 -133.355548915180918
111.797653100319437 45.080826424816280 -131.093162192215999
113.324185599361712 46.421987284251855 -129.784190513623628
-75.964635749633004 47.231540518877324 -131.559874231664651
-59.343292931971270 45.581180083741295 -133.377612230793915
36.328772508054044 46.221970666217331 -130.907106028219317
112.585137589478222 47.172670511694236 -130.577329937450315
115.743896787491153 47.376249761726221 -132.445710850461921
-83.781628855051380 47.827041098610451 -131.725482374180643
-75.299995113157948 49.463828718363359 -133.045312593258956
32.371657951748901 47.069075346560169 -130.212705799232680
110.649165811631178 48.588871711927112 -132.508059156355870
-77.367555314534556 46.518219339097371 -133.199637047571741
-74.325486391302604 47.815582217893230 -133.779723343862486
33.490329431498630 46.809615304230960 -133.308952370516437
35.504913062749026 47.980313952785380 -132.122708328645928
-79.990867887429800 48.419097574868829 -133.155077392448646
-73.575531855786139 45.700760930387339 -134.844705485326358
-61.923971828577777 48.066117905776146 -133.220007983810746
-61.139466305008327 47.458311338794253 -131.962136132394704
-51.360100562203435 46.181383451183841 -131.876376990857921
110.243378380540136 49.329995980687620 -134.655279957539648
-75.683576306449950 47.191591035826200 -133.215046419036099
-48.692125817338301 45.095108503789177 -133.895326714446298
33.166021892581512 48.763808725070653 -135.059200063649911
-90.553997601443868 45.693628422920860 -132.229146003739970
36.974446926905394 49.168201689215280 -133.976802816350983
113.772523078197366 45.797712448372096 -129.739624124533066
116.212679888082647 47.188593596348746 -133.059783976871302
-47.770618500680214 48.090498307533529 -133.182142447270024
115.930995579837443 49.127910671717828 -132.494602806772690
-76.310204695008480 48.324697714425980 -134.748780202661635
-69.395763838655640 46.568539090254298 -135.472733026323510
111.558244986650749 47.647520193383272 -132.894447442397905
-91.681702106378921 48.655083759182311 -134.217257470330878
-92.787165822483104 49.358330744498183 -133.451035248477979
-86.962297726195800 48.809178051205159 -133.863618555335449
-45.813493332620773 47.162955911455612 -135.326893969506386
32.283414819157926 48.950857706443323 -133.772324831586076
-87.920526854151490 46.857564153121729 -134.055853243397195
-62.127685425679310 47.991130022160597 -135.228067226281865
35.978174257393547 48.003305994559639 -132.901957367060561
-90.995848318997815 46.603211549600751 -137.074174085816765
-92.011334383117415 51.493187878879930 -137.380147844619501
-77.723783151506126 48.784068818624142 -136.597525328470113
-73.148412140352406 50.050732154508871 -134.849555027962452
-48.311034134113697 49.815867885960699 -135.660445687073832
-91.298481385146474 50.306082756279530 -135.412486038496525
-75.923655211653156 50.278204728242855 -136.878311305701715
-50.095187811441541 49.839047309124012 -135.314562312967325
-76.030888104482429 49.165581193288538 -136.600011427072076
-58.053061964699040 49.325554810456190 -135.741022885856978
-46.821025833686583 50.512065721407282 -135.773739645190773
-79.936097390506205 51.997498189510026 -135.673700851737806
-73.409944268218140 49.133309279654149 -136.326992647125564
114.310438804208459 50.273708319251831 -131.581509134954587
-88.619219352020522 51.545638658959327 -137.383122479745964
-76.590497441114536 50.836432525709554 -137.499635564146217
-61.003630635740961 49.748251427970708 -135.890220248515448
-59.406102938819181 49.901027292047985 -137.084560344418321
32.010625966806231 49.364469809149242 -134.768348738623388
110.835336271494924 49.603627011957713 -135.851206640442541
-90.471676663210914 51.132826683534539 -137.187043923521259
113.832211928662076 53.282264950253960 -135.053169727591296
-74.387034027519078 51.726193753798881 -135.525749830599551
-74.857493122098916 50.530547639257797 -136.910759770416490
-71.495865772502825 50.337441380794949 -136.966249766111360
-49.637771046049451 49.363167181201817 -134.970908598706842
34.028373139952990 51.097238025068137 -134.616112033978226
112.103214022659358 51.346210058225424 -135.915255160292986
-91.632330412679693 50.820980491344123 -137.072629130401651
113.353356202122498 52.633915462498173 -138.637712366810007
-89.976779863496262 50.369512781657832 -135.979238346484209
-75.911066044798318 51.625061696376342 -135.762433253189471
-59.954802698644784 49.913521369698174 -138.193788855659591
-49.840717191549174 51.276599157530427 -137.904096473455098
30.295638167885066 51.055984421497030 -136.383380211738029
30.128915998566811 51.306965105024069 -133.461107138118052
33.188906429669558 50.989108224112194 -136.935442359814999
32.966240055607678 50.743546510425958 -134.373409252958595
-90.974522964564059 53.033276336682007 -137.346620943478428
-79.095665197710019 51.343125908089505 -138.794515920964869
-60.814518381928281 51.096097598391552 -137.230411682840099
33.131007206535401 51.946372545383674 -138.392611024069254
113.710841982608400 50.899366288581604 -137.043392461679929
-89.179600768851301 54.044641847079092 -137.512333142726220
-79.380365892367138 52.960270579035054 -138.673593445463183
-74.904884968246151 52.694951205377926 -136.380913737066834
-75.076653397079696 51.560419396231637 -137.738073728978947
-55.695558647272023 51.672803624738073 -139.769558938669064
31.217305939328842 54.205138175869898 -139.487869264975103
-90.735378076324452 52.921848313496362 -138.923351832286187
-77.811587965165799 52.725314353155483 -139.008250664151575
-50.332463947249792 51.649494259794267 -137.577409089252768
-91.832503902610455 52.686805257033477 -136.964945315576017
114.284071678544535 53.208317151695560 -139.540182627940055
-70.765464743799754 52.604722639733531 -138.957846214237151
-58.827097952233110 50.606256162014525 -139.365651641116784
-55.071916725299573 52.736474098187280 -141.218844745959728
28.162135613541587 53.458417857834732 -138.055504630654099
33.061568539812214 51.649376509115164 -138.976064295055266
-57.027108933949975 54.021241588508069 -140.255502364005281
29.382868828469221 53.388649916790051 -136.749413929387259
114.152542854831125 53.954574546195957 -139.776756917061931
-94.348462758207546 53.772814859359620 -136.581909836549443
-76.053531874864362 56.155718057975527 -138.732262429115167
33.330188903575490 53.089274877192800 -137.818343226183003
-94.185505144615959 55.654575889293810 -140.543652605554144
-92.289549043997496 53.819576650781507 -139.060535108288292
-91.490496772693291 54.556581875578338 -139.413305878132121
-69.915381391743395 53.601186120633166 -139.921257593969642
-49.715246310700749 54.352732529175448 -139.312234548087758
36.249868299370092 52.561718485522121 -141.283407004256162
-55.332350070130630 54.617945671290876 -139.112290540656829
-58.773872731547314 54.845723617217210 -141.581075363187665
-93.799678832584888 55.278658436303346 -140.519970706583393
-47.513370819837021 55.678039847097217 -140.723458710781557
30.773278066184957 55.563263344925559 -138.239128649587059
112.873459608657399 56.286601653074158 -141.198066298355457
-55.596131401899193 56.060522183356134 -142.219925497494330
-54.329081041492188 54.796931322231060 -141.502057377280124
-50.797863104203614 55.572813942013504 -141.875601733972246
27.826801096013551 55.660593053922597 -139.960573159840294
32.159671766226793 54.756849555680930 -140.284354993069826
-92.532737618786015 56.204127332098224 -141.520864100377906
17.629008029377797 56.383857816410789 -142.436281386225545
18.691836253617172 55.382975774847182 -143.322485378285336
20.380987052073536 54.400310145998453 -140.777329206158868
28.843283277801355 54.683721236076323 -138.729421332022554
29.279630315644276 53.517377157300238 -139.702536215505688
29.199796574031680 58.737777655616156 -141.962242843298014
-74.361462885332585 55.714051955398510 -140.999921869783208
-69.778150075408988 57.518620541547492 -141.201191510804023
-52.833897580040663 57.301182761135749 -141.058263976072112
-53.200910837288390 55.792116077000578 -140.378730816570453
19.169331465388396 55.907370565685142 -140.506078457820848
20.256097354108153 57.439533512575387 -142.069207388927055
32.945999121253330 56.233000170960814 -141.450725886691487
113.760337096370080 55.934869195575899 -142.844247529728761
14.095795014780265 55.965887520924447 -142.847137328522734
-93.230375647419990 56.493017720385708 -142.705869506783557
-69.677746566717317 57.991621415982380 -142.167165507764878
-57.309066269035405 56.400959791737669 -141.878326726340219
-44.695407908447976 54.890080244243840 -141.105315426231698
115.458585948063757 58.979558105424786 -144.269807296525300
-73.527874213927220 58.062825101010816 -143.000792284927542
-54.557384876641436 56.735997715987793 -143.379961054341635
-52.628059713720610 55.030984514708479 -143.554644504370344
-49.657121790745663 58.605502458966690 -140.879113690044761
30.839253279298692 59.040909962045255 -144.178648127269526
-95.300924557655080 56.673797146931165 -140.632128128448016
-94.178189130063544 57.844499172737173 -144.389953669121212
-48.140171539691529 55.875645759522278 -141.247625354371252
12.924446211415185 58.450773160610822 -140.113884484654875
-93.640723059940640 57.913964789561312 -140.788245628678595
-55.935671048551733 57.014432103690233 -144.247390795147112
-49.348853540779693 59.095563214776931 -143.245022988733865
-50.912791757518271 57.178969132524315 -142.215998224017000
20.171920643491216 58.167231951819190 -142.798339112693043
-70.845522763000062 58.547691276091356 -143.066876016988033
-95.639402284664030 57.540159499681153 -144.426352811215025
-95.754727004069494 59.144384220807844 -142.322240804203204
-72.203239067654053 59.914675419727509 -142.718036117187069
12.558839385284081 57.773548994217499 -143.179881817663983
25.886974907241353 59.126032423767448 -143.546320526295546
-75.072592598339483 58.456877929809252 -146.265240020798387
-69.699590350516445 58.057322799602936 -143.362232466286656
20.553208566182551 58.616007940744908 -142.875342726955068
23.821984077478643 59.186763633427830 -144.310843127497407
-95.301478318114548 59.819231090359374 -144.586290602515589
19.333825412393786 59.871121375509730 -144.405153551147038
-97.441660552994875 61.225662909256769 -144.590381203323318
-71.062884648224738 58.827402061546671 -144.772417355371317
-95.482946714425609 59.882296858966590 -145.314061166146416
-70.216418031310454 60.964709894902164 -144.219696300539511
-42.780922144225471 58.362953507856290 -143.298407609196943
-70.969490206676085 60.421414776013286 -145.627116076971589
-69.732131104821249 59.597945571388109 -146.283463670204071
10.746602417006445 58.993484251493555 -144.708679778871186
25.102897591841803 60.939670550766664 -145.455740685008294
-52.346671287256882 59.916518617137420 -148.255692965128134
-41.979918564287303 59.546913729872273 -147.220868054608076
17.233387247001506 60.925270301156324 -146.684324243869980
19.032308724007635 57.929097019788657 -143.952451712991319
23.965863235159304 61.708204035005515 -145.156552036064113
8.394056715748416 60.814926754031156 -147.229582555275584
10.220931513038863 60.938068174668764 -146.543427919155647
31.047080538247386 60.218906446587845 -145.636518871625555
29.312684838455507 62.613299479622555 -146.489863685166171
-47.865492178534652 61.332697899602252 -147.780577950273539
8.915503828273719 61.015822756495886 -149.029788008458922
14.642370438655854 59.801660869210131 -147.753106899115551
-97.311771515327592 62.073622847620129 -147.060957176867760
-97.551068155869928 60.871266061005088 -145.901140611924774
-51.346000945856879 58.875230862938380 -147.257428512576780
16.233894789601898 62.192733218808861 -147.440217120119542
-47.187068078801545 63.399525834799761 -147.099041412126098
-42.600492144408157 61.669658811055704 -147.373590527973334
-49.011223644176319 63.727302491774914 -147.829124586925218
-99.776047259049804 65.036656929790752 -146.422618282974412
9.850050246361935 61.354487243621001 -148.919416400625067
-39.800936643128274 61.919747660117231 -149.230477820270323
15.154989224296056 64.065557011037441 -149.696447753597511
-95.630483164032839 64.388270286625925 -147.493463340778675
31.427597813182850 64.295705217047256 -149.332285724716115
-46.303413764967289 63.983325444905212 -149.325148760899225
-40.950411014203702 64.279747873683505 -150.257696514750393
-45.111675293306021 64.554351994453782 -149.915462744872997
6.386531877445236 62.682059838207898 -149.148733204442891
10.325635438324420 63.420619554172610 -150.217887990541271
-99.559939215633690 65.057894047563906 -150.060575959251253
-101.321963918241821 64.067086672657382 -149.588450884295355
-45.746416378853425 65.115275196555075 -151.119487187382163
8.608348224044601 63.037726368881493 -148.545554918196785
22.571595382022693 64.573125727470043 -148.354400962118945
-97.350406137143963 64.698692262859623 -149.867443075915389
8.720320258334556 63.248679143638761 -151.539816550146185
10.871258607500497 63.481492273661921 -149.086256533233012
21.448968862423914 65.730752194819104 -151.930220553257925
29.092297257355451 64.079380750365274 -150.584831576033082
-38.575886222265495 65.801710052025584 -148.777312324279620
21.197356976328795 65.858317108320890 -152.735165573101483
-38.569327467908458 64.420920008271779 -150.708631483807380
-45.869219812515702 64.710459900406462 -150.017155098534261
21.450390438961815 65.537947925103083 -152.177838210000743
-101.970100938473209 65.291929369476790 -150.758375431656049
-40.692176508205449 68.187610883250528 -150.728976689587938
-99.381309150876007 66.313840342057873 -152.147841462126593
-46.077395442054730 66.948233246702358 -151.545222484618961
-45.684393529065431 66.062194301775463 -152.993578840970059
21.280281401421949 66.553840177104590 -154.912097625478850
28.072350093584809 67.661291459794242 -152.815696649306801
-100.646474186170693 66.412441742747561 -151.969968456375028
30.890150503222756 65.613984457786984 -155.408577908936280
-37.241062140070206 66.137809236685726 -153.542771400130079
-36.964498965505044 67.576938220108133 -153.510612899636953
-101.477109063496712 68.061261935205607 -153.606114879340055
-102.055778684317445 68.380198179990344 -154.589894165568694
-43.907299364204114 69.088931965194206 -151.967594894004634
-41.518161564026229 68.409384143092623 -153.246213788195604
-41.026309004916435 68.957128469250549 -152.645903142390267
-36.375294963815954 69.517040880348290 -153.353481923787655
31.349477575081703 68.804342434541226 -154.609588525320845
-100.075101563380045 69.146846842061038 -153.247797833124622
-102.355789354552812 69.511363143682317 -154.927383028245146
-43.192509121891185 68.947945241518767 -154.647488520447723
28.715154679453850 67.253751198910805 -154.476598368860664
-40.705087512222185 69.577884001550572 -155.395264776322023
-100.031679008390753 70.050327456752427 -156.370315143783927
-34.204585727441128 70.312893127915544 -155.393223720583137
29.180291400631042 68.738616121552639 -155.017364683219597
19.308284604945193 67.873358630794684 -152.171359219578022
-35.209353795690255 70.291501319428448 -156.320412843351278
-38.141312285269301 69.950960399883400 -153.819544079757350
-104.992379810420076 70.270713463577223 -157.194956622741500
-34.232030786648615 70.277600643654480 -156.773557673004206
29.711575367519668 71.021608639393193 -155.614203707532738
-100.395645051001708 70.004953650431972 -152.889528332499680
-101.007103740968788 72.320136906149429 -154.724020091363940
-41.891386740408592 69.816913161507102 -155.512510270705548
-39.089786875118428 69.227533005470022 -153.893298585480011
-35.669027048258052 68.479556107013209 -154.940453556205540
-103.882351289616068 67.058824651414199 -156.785362815784367
-41.675102619979121 71.017108507500026 -157.091570557073339
20.103914917084897 71.195634865597825 -155.496777577267096
-40.504429288326648 72.785222241163240 -156.232271858200477
-34.818450160852052 72.827138948288422 -155.817662759994334
24.973192712672649 69.866155132159264 -155.888786142564470
-103.738397637919618 70.895471450059460 -157.238007782292982
-39.049069960363184 73.270664035503216 -157.082557031406424
-37.516659216322076 73.671485690716494 -158.236954401370781
-33.203378417784386 74.020310101643133 -158.952377178679001
29.627553138885006 73.634019356132725 -157.525591486985689
-105.028527107225131 73.063649851954480 -160.010388589913788
-102.100176730543325 71.128935451438750 -159.569933261434670
-35.820440722074395 74.977531487171476 -157.969963263780642
21.912111324774930 72.840670868051831 -159.266764511839142
27.816496328313310 74.600760410669906 -160.892104209166604
-101.844417637546513 73.960308906732934 -159.742882443903625
-33.025982192211259 72.616012662191054 -159.345916772499351
-105.218783759003273 73.975887257600760 -161.097774204417817
-103.901734647994644 73.357493358882479 -157.850510349692399
-36.530605068202718 73.445904016408008 -157.466695488640312
-104.879306784713847 73.964129962886062 -159.779675950742643
-104.426673809640093 75.542696231653835 -160.293117030086279
-34.418552247992281 74.525887648806332 -159.691486314141912
-28.212331858030684 75.339228448136879 -162.604206124284303
22.576982992361401 74.225250129784413 -161.148148379669038
-108.415476127160332 77.056659930077771 -161.350565785090680
-36.730844496309949 75.611725919845156 -163.709925684941311
-37.852191307013783 74.911090237941110 -159.261500211592846
-31.512772499115911 74.543989146361980 -160.157106788747200
-108.056718806289595 75.557589381976214 -162.935049467351632
-36.645529934148392 75.416346286548929 -160.646695124212982
-28.658397945317528 74.455337304333028 -160.113387698262159
24.361314090845770 76.426556822261261 -163.592515418356015
-34.890531627714608 75.779609418298520 -162.429594886465225
18.425446401195259 75.278722390729300 -161.969229736124362
26.584779941860379 74.821965314348859 -162.458313637221778
21.982712410151436 75.462602673542037 -161.985186609070553
-149.094491563214973 76.594608360062495 -162.487539322196824
-143.648860378428623 76.535931298908579 -162.019121712576208
-106.141086486253187 77.597747248231059 -161.383922207071123
-34.761441869893787 78.622096639099141 -163.130190787409134
-145.560095995638193 78.441254545250942 -163.003809862807373
-108.367805861713336 78.147949078308201 -163.508171499399822
-104.388863615176049 77.198766947028659 -163.347166762997716
-105.328042048689142 76.743844963512714 -163.054663217535222
-32.816440665029759 77.873933850064986 -161.143902843638045
17.918245943280816 76.458884709522692 -162.841913296584920
21.834431679700916 78.636335509641569 -162.893449040583363
-153.376322943092589 77.355615220563678 -165.362825565606244
-107.957298483933357 79.244162898000013 -162.901481120659270
-33.950490085049211 79.662945146723928 -163.079690314777309
-30.608465467851797 76.656543615849031 -163.573864113644987
-26.735532387601438 77.219045347164737 -165.306816388764133
-33.370263763738500 78.978353369960331 -163.257801014459744
22.097532093233266 77.641821140122886 -161.010695460060219
-108.491379813484869 76.728858260304818 -163.750494807182520
17.175615625579020 78.631472069312579 -165.323654346305318
-106.610999662890706 77.907415488215179 -164.449085217277059
23.780153520179802 79.931441556199800 -165.021344532781313
-108.968155371138934 79.972635557475897 -164.377058754672703
23.247624956613809 78.910028649263339 -162.761649985622483
-152.630903168937010 79.346633199664467 -162.748172611073585
-32.857411415147389 82.439483729567726 -164.161688815713404
-28.256913244131098 77.376551171642674 -163.988900855164530
20.472661657251841 80.267237705515470 -163.881890061905636
-140.267184823321230 81.080180773030264 -164.879156699608359
-29.587430885746347 79.302315770551218 -164.140583124828538
-26.772097699951015 80.038543466882516 -164.446745011220969
-106.967509025498657 81.400482513487290 -164.235746141226713
-33.827409744174957 79.871472927035143 -165.843454582772296
-29.427615463201779 83.800820702507636 -165.012626993865155
-153.133560314333153 80.342293823129026 -165.708969599151175
-141.422425764497774 79.028441685748277 -165.012241658715851
-33.344464344231113 80.841706804837344 -167.136688021982593
-31.581166693823892 80.923091472905938 -165.032418654954057
21.946035717837848 80.944709148473962 -165.367321967127339
-108.918140248115236 81.402850718547114 -164.993487695031490
16.617854695245910 79.703205019274947 -165.205341990514427
18.709949230729510 80.367684607968613 -166.644708932311119
-31.003654421932008 80.897151641345445 -167.045186264221826
-26.089826522639409 80.489146168384934 -165.481172407819287
24.302594470432727 81.147517705367591 -167.978405695427313
-107.924206871662037 80.251156732366951 -165.004252840267611
-33.899001931589652 81.889713972582740 -167.755837156340192
16.425893260610287 82.627512393445116 -166.252648235141862
21.875382339120446 80.838931828459465 -166.387182806491296
-141.199626029981516 81.412385875468487 -166.519045106497089
-106.752243911230522 81.085015147333010 -165.704843889188140
-151.678878124835393 80.945651561644752 -166.898656648031960
-34.383128747319063 80.124975286966844 -168.169601325174284
-30.097173374063843 83.050722464199325 -166.169220235374752
-143.297116600546758 81.923296441327281 -170.036807017296269
-107.087899083782730 81.201390885052817 -168.786964853190597
-31.277537261439225 82.666064008019916 -167.491206220014618
-29.636982786990856 83.236961309781321 -165.088291112101786
-26.119725508188839 81.702326468168167 -166.169935375966872
18.815041250139231 84.010867512455079 -169.170260073763984
24.514680385448905 82.118517777240257 -168.143353849028216
-111.312874667813617 82.970865352538198 -170.126777672013446
-27.577952707073912 83.309408627562959 -167.797748089861528
-23.761847721394062 83.888886596340868 -168.391723892766322
21.036604806267441 84.104643154750008 -167.901017338670556
-111.552618565492949 83.578291534441050 -169.660969179264697
15.438929918686574 81.692296922591140 -167.311712264902809
-153.465121222195222 82.902100186603121 -169.100601463918224
-29.169427034821499 85.216778739724333 -169.456159716536263
21.417372086512586 84.893755434578253 -169.300788195886554
-112.145094012343847 82.021727466421723 -170.061882358521387
17.278189914302960 85.893836782082232 -170.579482577626607
20.860419267528837 84.330909493622414 -168.616578650945598
20.705152651747508 81.968103536943360 -168.525797229289026
25.193387709957623 83.623127828561053 -167.553988471988788
-24.183471260202523 85.877165533374196 -169.284509252792304
-30.664366005512914 83.878937314788274 -170.888465482183392
-29.285266174337689 84.094201502336929 -169.967017797636572
-21.071000545202420 83.805000250795445 -171.961408526373020
-111.403584220133695 83.513999630021416 -172.122159808552937
-20.447492409563406 85.538965033254414 -171.821627114993703
-153.483697359500496 85.655219592059765 -171.424998220273380
-106.357300654878955 84.892788687711615 -168.364977232715631
-18.896921310836287 83.373642527846243 -170.532302078810972
12.577370738662873 85.484899233673119 -172.349972170556555
19.592088055270001 87.262173636818019 -171.256171288854603
-140.893957725635829 84.748951587283969 -173.847894943418709
-107.921785059753034 86.420247316216702 -171.355555857873753
21.380629845572329 84.162712778522277 -171.160735383848845
-150.943609580807362 85.368143342827707 -172.694329977428367
18.153179076584859 84.800666158030893 -169.903800170147036
-27.670568123300193 85.940221463698308 -170.864102768853400
-144.056763704199426 85.694475832454458 -173.400822027393616
19.508202624900765 85.641455904126730 -170.732273615244480
14.641039161659339 85.356508091021297 -172.591281786611603
16.041891732493607 87.193599990503259 -172.827968017283865
20.347389021874278 85.583247651204701 -172.668036808386347
-111.837865980246164 87.384706667011969 -172.831189412308447
-108.775165098321324 88.001298056574754 -172.218056792441558
-19.846086433697806 87.082020064972070 -171.961218360362977
17.547626306079771 86.236051455450479 -171.514289483210433
12.255834916508286 86.442242685616762 -172.948299903224807
-27.036826301221495 88.338588777644162 -175.146229245527991
14.378455215893625 87.757302233368165 -172.463698522248478
-20.889760530003365 88.087695585547223 -173.457280487016362
14.955705777017313 87.680829127147348 -174.598590139131062
18.062891482980696 89.464591593067880 -174.496747876848247
23.695433280620147 87.487516285126077 -172.883398510120713
-143.972267111210357 88.489545013242974 -172.553815845104509
-24.853518885756596 89.405958429960194 -173.083067113901109
-18.652117937886860 89.085111685356992 -175.652758475338658
-150.744123328332876 88.342225060468280 -175.680362022702411
16.719950044868540 90.743074582399714 -175.003112296151045
18.293108457286273 90.409222969418096 -175.591168830516040
19.572008869567735 89.880491836645234 -174.297551511722418
-154.693965250500725 90.006900940403753 -176.202487248567849
-142.240936205845031 91.460011160659803 -175.218127978932017
-106.946790543881136 87.305423049898053 -173.243891265325573
-142.152064682592965 90.737554748801188 -176.098883540683659
-114.871197260680020 86.628528208701255 -174.251224872670633
-155.961575162965062 90.918038884598587 -176.836282486935403
-107.184314388420006 89.196113435458713 -176.069901126356626
10.798010448909132 91.116210572016740 -175.728813663218773
-158.190134438206400 91.032931708085513 -175.214064554192618
-124.222829696496518 89.810864138671718 -177.493250602181689
-24.286760574219127 93.430156101381257 -176.310338609379158
-18.478027153711928 89.603554127082134 -175.889694052626282
-131.774749495493211 91.649702678890392 -176.394467019602928
-123.586756728232743 92.684474793180399 -175.978687429823196
-159.028715556206123 90.570580496112910 -175.491521209702569
-140.690147896225596 91.375150688163856 -176.104317770253090
-122.364060280346337 90.933460357636307 -176.609796416121696
-112.868572396698823 91.871722929729827 -178.637410997403890
-140.752113511535612 91.103484028036490 -176.206840280819875
-117.338255242744339 92.121510270216262 -176.779336312122211
14.575611812324027 91.048177060263100 -175.300846681157878
-121.572893065076940 91.066405680227902 -177.872816442818589
-116.873245696022153 91.845608584665626 -177.829246071841624
-115.946806346914144 91.461103051688525 -177.174960618125851
-14.756046886078000 91.272587050122368 -177.180217292366081
15.915868790713887 89.824592479335649 -177.534008814283339
-113.384053904654195 92.044344642634471 -176.910881419738189
-107.307871180008505 90.290006618416285 -175.204394709461212
20.795799926391055 90.975679571480782 -177.414261003942016
-19.250995048223484 91.231351924366365 -178.382001997658762
11.782794223207615 92.270438570166434 -179.922733089365039
-164.205764646599334 92.697798343867731 -178.566858017946231
-108.426382403371051 92.368375574450155 -178.728936405214711
14.171394314006232 91.483767194631298 -176.954647433138916
-163.564940862078885 93.779460265203952 -179.558003553827490
-15.352545963818587 93.761075050922642 -178.234945859425750
17.341145487685019 91.284238499660134 -178.670534927860928
21.364740041825620 93.582870437130680 -176.653598744421430
-108.217037071266986 93.894913408018169 -181.003550604593840
-20.370636338526332 93.881104209143899 -178.669808139363795
-24.230250529471061 93.866271431918932 -178.526212412044458
-20.740715767096571 94.957372525509399 -180.086401161009320
17.255807889598884 94.895990468711702 -179.023945383992697
17.480618959087252 95.567258141488665 -178.832178049062776
-13.981964652566349 94.062913603575652 -181.266477702338335
20.770447932697433 94.374058680372244 -180.842544174603773
-22.921725296578611 95.591016297085403 -180.768351678064931
13.867725146330731 96.338713565365723 -180.872058076977083
-165.658481611909878 94.093429003267019 -180.398206235586798
-109.593635852308466 94.434745602473797 -181.886385486830250
-19.337346821211586 94.890726203238017 -181.217036091146554
14.860652760579049 94.459372352216420 -179.277976152032551
-112.173991288424787 95.851462437893360 -181.293604918745046
-16.644255511011156 94.557501329872906 -180.148315313254102
17.889616283515686 97.293662735528116 -179.147033792010092
-120.649031948881543 97.809636728839436 -183.167636667646292
-115.206142718235853 97.585362654303438 -181.080845212409002
-114.618493097915078 97.283576582784335 -181.978159157266219
-135.346304783695132 95.583091094726157 -182.454492673913165
-121.835308188694981 97.168272949182068 -182.065536288347658
-114.623055676065150 97.271584529899343 -183.778820436368846
-23.361885006583574 96.037646680688709 -184.968579732387099
18.438956280298537 97.256509327363887 -180.805799264213022
-139.741722533381363 95.694358283134775 -182.554067086619654
-18.915932379865776 96.462673962760221 -181.992948253902171
-16.009059718687951 98.363207927290603 -182.914961542543097
-141.605230797851419 97.707373632941724 -183.776759784062534
-134.173678312561805 97.071732072916390 -184.897162756836906
-166.876484820591742 97.497230253050603 -183.071675851163661
-133.128878076774924 96.854312363308395 -182.616224251962990
-131.530473112198990 98.095647529848492 -183.587074245011650
-14.838285151748568 97.948292246040225 -183.294029329592490
-157.774675995329204 97.651681453358506 -182.316092162002462
-18.026970144361933 96.670907187148501 -181.545299752986068
10.513726709760187 98.182130956141862 -183.175117324226392
-141.625706809903647 97.850957561722197 -183.083586167014573
-18.568234896384684 100.994869629547125 -184.602791926240172
-11.990584573596644 97.686030461232491 -185.451094477299051
18.209043114025768 97.001730932184358 -183.459896220130730
-21.643654687740042 98.573099331871248 -184.612731215374453
-13.218595612461840 99.680495478909720 -184.863106421814621
-166.958215657810399 97.681836052263620 -184.081109797471527
-157.975169429477916 99.837524101698264 -184.077576635036849
-16.657954219805390 100.061803063581237 -185.216191179443996
-10.991001012616882 99.627244176696863 -184.126824725234826
-20.088385437669078 99.344174918128061 -186.934875300960556
17.765237840220689 100.115855812495397 -185.505924047966062
-155.871166592057733 101.689974081565921 -184.988312398334926
-153.933089941847925 99.056026876943335 -184.435644592050551
-18.253072595295521 100.882728718293151 -187.272845451625926
-13.607596999546164 99.535963583339736 -185.974063667223930
-9.782183544417528 102.018907831829353 -185.850412926492055
-153.110731394938028 100.163587666537794 -185.442252750656678
-144.323022094952108 100.061099170796993 -187.320029616763350
19.321602839190128 99.816317856179836 -186.875464479301144
17.536272063021407 100.797132170796999 -184.625797281653234
-17.088973872187641 102.192444621318998 -186.310179123280449
-16.021944168008897 101.094187175577062 -187.115549142412135
8.304904113499768 99.748644692135443 -186.285801662648367
18.056494173433730 102.575854695243407 -187.315487884586588
10.898263664855444 102.389818389915092 -188.006160358853634
-165.612053131776918 99.923821396071688 -186.532107048458727
-154.302347050329729 102.661062806123951 -188.306187052118645
-14.285291909536312 101.271274325703715 -187.375807025352145
-11.895946929732451 102.958773487706281 -190.037905110124285
-167.622088437237636 99.530787916621307 -189.739063769200385
-17.478815286511519 101.711511125388327 -187.767909947061355
-151.897131211443934 104.115727905229647 -185.890648395204551
-14.443532542444176 100.310081946130794 -188.664038480522919
-9.194031202613507 101.388136834979349 -187.307018387090352
-14.618249673190105 102.227623424909723 -188.734049190640405
-11.977749714514330 104.932427515286193 -187.224625075108094
-15.926233415002448 102.589469319681740 -188.906968236079337
-12.869980929659535 103.187664443985057 -188.845254889779198
15.983568589320971 104.925239117814741 -189.071477401324614
-159.583208369847540 103.965974790217942 -188.167816355029885
-152.398577646196912 102.852404157622075 -187.312751249766819
-6.440140351561531 101.981807912608488 -189.529913331407613
6.965572384971574 104.151970960072376 -190.928421525027744
-8.744878918685092 103.457922275252500 -190.167244122906055
-166.029387885577620 102.859328798899327 -188.824340952992713
-155.672307903532612 104.880114870757097 -189.102638524144169
-16.490744150841721 106.197669732617655 -192.292279218008076
-153.635718511904031 104.028017855189120 -190.145206202363454
10.265216674579754 105.711050264751321 -190.566191106737676
12.752866209120121 106.792780618486560 -189.992972506272622
-154.383560164541592 107.179388126441225 -191.230310481477886
-13.349697281610476 104.185625504231737 -189.569672969429121
-5.242918085957506 104.407799915534611 -189.431468972638015
-152.757894309137157 104.191466701174548 -187.464024403842302
-12.765322029222396 104.380400958610380 -189.823786764395351
-165.499590926251500 104.979242370010056 -193.109904878518137
-158.875541719794086 105.156826089034908 -188.884487804743458
-142.238118601874760 101.374634844597608 -189.908028497150184
11.448121732691099 107.573899518722882 -192.088473200712173
15.414112337392194 105.589938551311661 -190.172144344645346
-154.571225294757568 104.711330448115675 -191.763853330103956
-11.454485332581072 106.017205236088699 -190.048475443458614
-5.084262958180032 106.276372535141917 -191.079911354330648
16.153192818639997 106.128772704785106 -192.425237902735887
-157.384741851741097 107.234156781028020 -191.631488677898943
-16.255181093212489 105.221743239157746 -191.203953841617988
14.052213647710795 108.080062964091624 -190.947844049447127
-153.459580670421246 106.775022670452415 -191.067110125418822
-9.650878380072911 106.508035935120617 -190.434179872599088
-3.578358232687029 108.006796194886491 -192.659432323751304
-155.804455433095484 107.977116484286540 -192.026169660884136
-150.787577232469289 105.229161669938321 -190.631990876594415
-99.149952424088823 107.016177237657786 -192.257994512053870
-13.852311274507077 105.734711742960926 -194.654977471506754
9.425821257238097 108.222182625806056 -191.657695708718649
-158.585628156081697 107.800280212862305 -192.075362633817804
-96.219255084546162 107.171991073547460 -193.534094906312305
-98.052996907415917 107.551065897144966 -192.537091182227471
-92.874055360342410 108.118188736246040 -192.697902210474950
-11.199387653052574 107.882945432275420 -193.363855819330496
-7.199619940361110 106.969774500127571 -193.254891573352040
11.529450791938530 109.147765222671381 -194.251701638143658
-102.358718915329447 108.190918832941904 -194.277358104108885
-8.363429318614102 108.249123997466882 -193.150504521028211
-6.039942089183211 109.781411046553984 -194.638075016304242
-2.573668281613661 108.990075519069663 -194.256190563247856
8.672517638422667 108.225975545929856 -195.311798964311350
-152.248700273069659 109.202161205909135 -195.062187319886618
-9.686825404894245 109.383675202009371 -193.385865201888777
-144.706489332779910 106.740235882850712 -192.831838363039793
-98.310273600463375 107.832693144572602 -193.502852592322910
-1.763812270658784 109.976334790917335 -194.847954126973121
-167.073305575915668 109.167811222888233 -193.628741846983814
-156.493679705628239 109.638437590303695 -194.158264028552196
-156.344654721725846 108.673923401036149 -194.582906925659387
-99.525860249723408 108.935324855971146 -193.681756268221875
-95.990879506624381 108.748860447482571 -194.567812664810134
-10.360151574431459 109.848434209483713 -196.083261013402137
10.909232850025417 109.238177393969480 -193.321729679254702
12.870456242724901 107.138390573364902 -192.632468928479881
-96.961936278518067 110.305892406160467 -195.435612242281053
-97.281802910333141 111.369063333631161 -194.687711206894505
-5.459066307387542 110.065244633920784 -193.236729054110327
-96.797747483355423 108.852742421320784 -194.154658640334674
-7.268983106812584 110.088358983098502 -194.728662537050184
-0.976888982078185 111.240795435512496 -195.113361168887252
-152.310835942177818 109.860661634394916 -193.703030033477461
-143.592401641250660 109.989039592575494 -195.294470624485228
-106.095108830395731 107.917322307841872 -195.167871813834438
-98.572179767088798 111.378455506026441 -194.095950096077701
-5.932620857175628 108.628650727801173 -196.402657854626028
-156.684926570813445 110.597359547606047 -194.153166707300272
12.755220682043378 109.590262337354929 -195.266533683487665
82.942889692472235 108.743104446113435 -196.887671012814423
-154.089475284925527 109.683903962093694 -196.388156526712208
-151.836811130683742 112.412303123970446 -195.555166738415295
9.436290729747585 110.436613831766607 -195.572926987605285
-157.367632726782603 111.596356732736737 -195.084451831757434
-152.277389686806544 111.388774553876814 -196.668335748425619
-108.406570084145685 112.201574660525978 -196.030325690275191
-10.742053536118885 111.238602380810477 -197.273833446007757
-4.974777334687727 110.728747121503119 -197.330513753706867
-0.851018962327334 111.038334879120882 -196.697157023928042
80.686863803429674 108.093829059993666 -196.303336581648807
-166.519292685805567 109.901131378499926 -195.077308428332401
-141.469570307113685 110.646828204718204 -197.103259007468807
-124.540167966097883 112.484390187670996 -197.482269001842440
-99.318987811169663 110.427167717461955 -197.462874618641052
-6.963704976503916 111.348484726696157 -195.770786311693939
-5.826373381282790 108.620276437172194 -195.011781102715929
81.506617225798465 111.172813908614444 -198.132173906788950
81.310082518095371 112.359993354218233 -195.895160687671250
84.657687131219987 111.968024369196513 -197.043725640027020
-142.527645507889758 111.537854635971314 -196.367644420989848
-97.372067489763083 109.852783928881138 -198.885148684853789
12.109708359892005 111.832455990452573 -197.423542298190966
-157.650808480659094 111.769380923884071 -198.362758172748528
-133.343908810724685 112.825365317884135 -196.717464958388291
-123.521182458538618 111.823838117307545 -198.193376229450166
12.530924491711962 111.466811315266369 -197.315240219324437
78.812943320685065 112.361975647456077 -198.210638823090449
-153.318954898015676 112.067129128987006 -198.248996791631839
-136.035329936736815 109.269360157107599 -198.250885878530738
-98.926365014337719 110.928768175832332 -198.660367368738690
-4.648298525170605 112.600348747161007 -198.935264835638776
-152.882633146198970 112.286245215424643 -198.585695330553989
-109.491329153834855 112.668855876212035 -198.672356313031571
-7.676632910318212 111.688167716221031 -197.897888725231496
-4.071071707858743 113.757216973181471 -200.937129926471812
0.655757572860816 111.789949479231737 -197.212144074627133
9.860732262173343 114.974333291203152 -199.967716033511579
11.550724458237282 114.206807863524702 -196.532221759930735
78.734671041196577 113.436828739805264 -197.481454452370855
-166.600869401116995 111.704336600383130 -196.903118257029746
-133.478038666397850 112.852654238375351 -197.953710137639547
-116.534568069558176 111.811145087334239 -199.343227238843241
11.036575674981446 113.577390885527080 -196.654780639870921
-123.481438193512005 112.953879088012926 -199.011420481052511
-114.990171299764796 111.159845824670910 -199.224863710464660
-112.263111604375965 112.987062161456677 -198.570760549113658
-101.056842213696342 112.989426662957825 -197.989331770735674
-8.749000256700556 114.165682533121725 -198.337610157579149
82.811590832364899 111.287150389070504 -197.257698677606896
-157.306184266762784 112.578030171455353 -198.176957686698671
-3.125634531766737 113.486766601274851 -198.665676496730896
81.205456067170530 112.919290924061926 -197.986623195466763
-167.184345494740768 111.778361090462511 -198.889870209026498
-157.053612706636187 112.466949503634027 -197.828894302816934
-154.990795407376396 113.723948436342681 -200.102300394368939
82.086266093142896 113.022029392550238 -199.274047127416736
-103.611244505045548 113.285471181742409 -199.508950647141234
0.204379166191703 114.412340232398606 -199.528285146692866
77.145984590671176 113.542530874878821 -195.757462439868618
77.962997926111029 113.343284335543984 -199.714751652000672
80.716730702771571 112.492335378925972 -198.521437958295706
81.789224736761653 115.218943463901141 -201.827896755832739
-8.765504745463270 113.436290601266435 -198.264011482424650
2.458660662808318 113.947525953290551 -200.024992537828410
4.597452853338520 112.019112156895872 -199.028753851982117
-5.682802981307852 115.062037488521369 -201.656715324089760
-2.749465444682017 115.210610589880446 -201.937873641073935
0.575986027559852 114.818829498179511 -201.350704862289206
-12.050775716036505 113.543721477687214 -201.435138325130680
-10.393955083653832 115.390334902676059 -200.485639046326412
-6.572685336385690 113.501197932063405 -201.070156119070759
77.217396441146562 114.385911411368454 -200.976791128434172
-167.247616863024177 115.879534765987245 -201.088946058943492
-106.051256131760908 114.589044523069276 -200.627282610740679
-13.337821833821188 113.744432457633224 -201.335519299317411
-10.934302577064134 116.579913914480272 -201.453411547512985
77.330926538895696 115.421423074663124 -198.836220865309656
81.103790657175878 115.671556358860371 -199.769053557296900
2.434893064549214 115.334939651924245 -200.676857368847408
5.641122237148561 115.014795777930175 -200.979029939727752
-12.679053358775484 116.834554005532581 -202.416076813465082
-11.670424291386784 116.318760347974973 -200.731886035212653
-8.953116435066901 115.571861097760987 -202.024152417562192
-7.114885390156362 115.059966337834936 -201.243897701770265
76.648706298785100 114.541033594720034 -200.625538344198247
-155.179555321882816 117.965253849771457 -202.090735797462770
-106.460872202854262 116.909881272073434 -201.808846015622038
-1.315802542475429 115.211921716500427 -200.606763415691915
0.443542549995569 115.997329515231385 -203.269798429046972
68.951851340021022 113.641390463500130 -203.657180665186019
75.806922379674802 115.505489489755519 -198.852884134931912
79.927856364747385 114.094014436068719 -201.573362213804359
-13.450178887588184 115.746264589981166 -200.231561585444751
-8.590844535225127 116.564550376310109 -201.343657839817212
0.893560685915136 118.451430814620949 -202.205653794819710
72.614002968120801 116.398715774983785 -201.949707171025921
75.798064377958156 118.399556800269707 -201.713342872765196
79.709650301413205 115.012114333043016 -203.038018069107380
2.308015783201014 116.190371222969418 -203.644565766179937
8.056591028104215 115.746551046773206 -202.547245887459525
-155.954576838173523 116.051857584856833 -202.099930946277709
-111.754363383054852 116.765739963941797 -202.344388969128687
-9.549853550963643 117.387061499965981 -200.794578908820000
-3.953068078368413 116.429318962667537 -201.498153214544999
77.082661234739632 116.622282537779284 -204.404754887868165
-165.942728931957873 117.134704412060714 -202.628382713031925
-111.998803253230165 116.248011389191475 -203.664314519910107
-3.968983267104648 117.388117155458289 -201.780311623671111
-1.285408058362371 117.143924257303354 -202.960558064921031
7.556107438970564 118.124556631821136 -203.237772288624086
71.681764044381140 117.319076452369274 -200.135676815574129
-158.072204773642540 114.571953445372429 -200.825169333842098
-154.354904635276029 117.049464076811120 -202.354489148705369
-113.091670485923999 117.354876547893497 -203.856103975075627
-12.608655699512504 115.991392792507199 -205.070428116231483
-3.773735805747618 116.297340361586208 -201.475886195156136
4.044186752910488 117.533087872956870 -204.427655760113026
67.899097433439195 118.595357199049829 -202.671050137450123
77.344535141407007 117.324359273152254 -203.090266506970067
-134.849876227230396 117.072544275954726 -204.748387642279653
-122.608494240066349 117.329708517018588 -203.191900923374249
-114.278351549042711 117.892772704749220 -203.875994275901121
4.843201482922537 117.976276866793029 -203.327285487532095
75.700885982767176 118.170570662665298 -204.872688664723199
-141.276396063546599 116.926517937110347 -203.530726811044133
-119.769456955737880 117.883875069782704 -204.181312496552437
-116.456449999025438 118.911271012950309 -204.019874237090107
-1.060577906587660 117.100402493629858 -203.400392758911465
1.694289929046243 119.434225732476804 -203.423507918635693
6.534930617843843 117.499752652342551 -204.382303004467616
-135.141232598098526 118.189813456475576 -202.342105533738561
-124.298947499607650 118.659416266683181 -204.614350110975181
-122.971748877013255 119.764396580433100 -203.635770954446883
-12.343694948044327 117.575171607269908 -204.056767490444656
-9.517556617614344 119.900823011036195 -204.330099493814572
-142.334075603944513 116.317686056315665 -203.950303490581348
-123.187682266570079 115.243915225550367 -206.615069582445699
66.388200161488129 118.379449164840906 -204.194926026955841
75.886845263613793 119.184278515106101 -203.886106949815712
-132.807329291877807 120.446892974531295 -203.394642584470489
-129.691332039852313 115.930241458209323 -205.945037415954175
-2.175641323581313 121.635716947713959 -204.712313354497610
7.564346517964300 117.229920263247635 -203.220878132166916
-151.730845427488674 116.251737053321719 -206.338279749426107
64.575796695886922 120.794931151951943 -203.950474478922445
-166.067704286217889 119.429707939823942 -204.459552590197717
-156.676338966553260 119.686939374210937 -203.458831884041643
-152.492684450331183 119.670263912798688 -206.245428809927773
-141.559878752226098 120.473492840001697 -204.938843852116747
-1.243650472221428 120.453733560690878 -206.336936371934001
0.259676961325579 120.547347989556542 -205.900914918697964
10.457876230677581 118.033272774065537 -207.383711030505765
-4.684597763239422 118.954333200910341 -205.527099655218649
-158.039749629813116 118.814101319415911 -206.078896771158696
-142.623351275728027 120.913392540858396 -206.404153861126986
-2.211664609467897 120.217568270287387 -204.700189715213725
-0.680813373449074 119.566312822805159 -205.948344137299983
7.756901316276688 120.561211120259514 -205.840239597462585
60.899193200887431 120.492041670226286 -206.674463189570076
