# This PCD file was generated using the MATLAB® pcwrite function
# from Computer Vision Toolbox®.
# .PCD v.7 - Point Cloud Data file format
VERSION .7
FIELDS x y z
SIZE 8 8 8
TYPE F F F
COUNT 1 1 1
WIDTH 797
HEIGHT 1
VIEWPOINT 0 0 0 1 0 0 0
POINTS 797
DATA ascii
-67.488407570692431 121.510726524780864 -218.959540714426737
-4.106776432690666 121.307376188319907 -217.830185708955270
-64.364452356313691 123.781588064753663 -220.260646908942476
-62.934208125785439 122.041150634027119 -221.936623972835292
-59.369200948843222 121.705272179471010 -222.842270388387107
-60.910163288894672 122.287763033763284 -218.356174765713632
-6.478418257754940 125.597050734053582 -220.377175664472105
-66.659699077120280 122.096161715710082 -218.088692757759588
-63.240856550851674 121.701787520139845 -223.576326509492844
-62.351514338115358 124.344232523460235 -221.042341938857334
18.797043232601784 125.390832120341372 -218.324406145461950
-7.837552637273467 124.780674398179286 -222.526335826568555
16.296780739786833 124.583881966889294 -221.597094572484821
-151.396908410713593 125.016691504924964 -221.429187941099542
-149.648821475917430 123.609517297481986 -219.948567044790394
16.674426225008009 121.741851289128803 -223.749718390909152
-6.133402006099749 124.863702294906858 -223.599265783698030
-147.592293020588812 126.872644361031377 -221.735245590124237
-8.483549586112940 124.906526853508836 -223.825566912156944
-145.995303162298001 127.170270673937480 -224.897620143902117
18.740286326021334 124.321049485778744 -224.682404379372144
22.888526946374213 127.502221577304070 -225.397994102684493
-145.190598854807632 125.083221017938001 -224.983380809183672
-9.926364174610356 126.995932956834267 -224.265450844359634
-154.372766444188130 126.287083560822367 -227.443412037485075
-143.067577595231398 126.778918078044654 -226.907056282319786
-153.137468561993614 127.109936357774373 -226.529098293099992
-142.262502933645862 129.046832494326708 -226.675315650129420
-148.492587039529610 127.158632715863234 -227.691848523583872
-12.990566627406857 129.562348211220069 -227.335077607133769
-150.161264906796049 128.143397800807293 -230.517218468102556
-140.274760795032591 128.985823395140017 -226.052198216604040
-135.944071235564451 127.647270546566261 -227.417912874122692
-10.981517290674812 127.782669056984588 -228.351900784289541
-140.771032258210170 130.821004577060222 -226.506439646742507
-144.908224372382904 130.053132133789774 -226.051629672224323
-142.681616973262095 131.307786823230259 -226.793207421985898
-139.407713516503890 132.290852446210152 -228.537753095609645
-134.167124235994805 130.028030155365599 -225.656116770853174
-138.649928331117366 129.798921782311766 -226.332440211439604
-12.270158118798811 130.172553300944656 -227.531053649653131
-142.178841028947232 129.726383381547976 -225.586665130790294
-140.461340168359015 132.313654762395657 -230.391840094645403
-12.254896490993247 131.086713894790705 -229.073143681854731
-143.171739775947430 130.360327513212468 -233.665623276539918
-155.956172927567906 128.947052171183316 -230.548554442318760
22.649732318802190 132.973961948603886 -229.670608988479927
-142.116233413187103 132.603304059177702 -229.102440934207351
-152.599090620143301 132.720561320959092 -231.639330616394346
-142.124525981547748 129.551697882564383 -229.263062261409118
21.569583638028003 132.140493995588088 -230.112720293204234
-149.655513712973629 135.850022918682839 -232.800178815106989
-143.864349556436707 134.698297976288416 -232.390683935346232
24.017779739612294 136.235885384521055 -230.721936760961171
-150.411414651391141 137.639267549514244 -233.227619101518570
-143.759977967545808 133.096285153128576 -233.775899256167179
21.751114079024557 135.854028413247448 -233.447822040656831
-11.279074735955961 139.487856921146857 -233.504968638516573
19.880846147402888 134.564043557786448 -233.193605784158734
-149.538013696668116 134.259828410566740 -232.537190940641153
-147.269808377172069 136.443310955446094 -233.412963664467810
-149.894880168489692 137.401908681122478 -234.854109184210415
-143.590709267403781 137.344496614850300 -236.776923588692455
-146.965867369145542 138.138641044010768 -238.702981451975802
20.159001241861198 133.638886908945068 -237.346803652545645
-151.356552369604401 138.584031985623227 -237.539945155174564
-153.596494652787442 137.780676728787654 -237.286157399538638
18.860859789728234 135.558183923973502 -235.236236450192678
16.976084969748378 136.770211274166712 -237.334870869652491
-148.147243326251527 138.720271238597405 -235.284813407337623
-147.910066860596487 141.613572778917728 -239.801479050844421
-146.338706091378072 144.627679259743530 -237.495821429369926
17.424566317800341 141.918205667211339 -241.010253735828883
-7.466909346085520 139.319368868384203 -238.512156328011827
-146.695605333451084 141.516453137982381 -243.410929218094765
-145.895582984343690 144.920217998082052 -243.810130963206689
-147.776992456633934 144.860926819843314 -241.728485577580159
-152.876309095785643 143.508575962914790 -245.058901435939731
-5.173404988963281 143.069115144385052 -242.348005511822606
-150.058662406206309 145.083769510657618 -241.537041328431059
-1.255251665943883 144.207486867601801 -243.300215277838078
-1.882124483640775 145.158513706863459 -244.195101632005731
-145.128775926704492 147.073908786469190 -246.938546939055470
-150.469358181996995 144.816809350266254 -245.455942217783161
-1.439701062744431 144.349920463414492 -246.959325564842175
11.429333969726912 146.751649634480373 -242.533363955872318
-151.339259145898581 145.644894506571916 -247.565455287837835
9.099124858346789 149.523674727646551 -247.548768877206385
9.721265739538321 147.246455695615879 -245.697312033848732
-1.893591454737155 147.542649106822552 -247.054943563287452
0.240865238956203 148.831511239310061 -244.952097147953936
1.144664689434205 147.127376725490080 -245.170077201823631
2.754696945289297 146.635742388046822 -248.383770288973437
9.890841130587395 143.582657260765018 -241.945892719312440
-153.899271786185437 149.873932258531340 -246.906927005376360
-143.601184550762184 144.786216735878071 -247.456058211855577
3.545550629088348 151.161906379775246 -247.847316006711480
6.235825214522158 148.980636903148877 -248.802700271682909
-143.434084167741503 151.718131900234226 -248.674250652293779
6.020433964044022 147.343779847314465 -250.163065806754105
-143.478329780325055 151.595125514314077 -249.403469637917055
-30.615371109934955 152.024340602594606 -245.603631956634530
-47.460436793336676 149.304560861426808 -246.721650989025250
-40.852784470555243 148.168351865503240 -248.769254828609746
-28.706353380556564 150.665895169980644 -244.633919202440069
-26.746687464074807 148.913297474211447 -247.432229714427024
-54.278804138562350 150.357513506520860 -248.555550290197289
-41.587863835450023 151.842114687296913 -245.727903914655798
-29.896096722196820 151.843572791543437 -246.524757578865376
-28.940827557532014 153.511047659028065 -249.759606281938602
-21.358396540365803 150.452029447043316 -248.542186133305165
-128.090555314565933 150.386499181055228 -250.607390610661184
-127.432594327230703 149.436962461919592 -250.377023061884756
-53.035891646852782 149.445997952949142 -250.832326899321856
-44.633691662260375 147.765539567533324 -247.381545476059955
-35.979413317567165 151.911500171385711 -247.165241637241365
-26.343015974610633 148.827839609439081 -248.257211922275303
-19.198362009615686 150.959111084016087 -247.802247821211324
-12.373621853875077 149.465772011418409 -247.619233281689844
-4.799059739384273 150.062340157524858 -248.133182389056230
-127.659801275170764 154.911850903211189 -249.780170281074447
-31.272737916251153 153.610752576596070 -246.659137267234485
-29.912935536615581 150.892766476028243 -250.144354821510603
-24.105534001085037 151.189346629815304 -248.400809248407427
-23.062588249378209 151.334417933813398 -246.522940035474562
-5.094472913012313 150.111315401637597 -246.116083176122345
-156.521243734328038 148.547519226764422 -249.392896121537490
-55.077341659982906 150.512172896626396 -248.694028489315031
-50.902741794835428 151.701515281715217 -246.639344194043076
-45.453089502663417 147.840917133446453 -248.479902145051483
-38.752495750296639 152.140187417552141 -251.256818990110617
-9.853682078164274 150.447162016794664 -250.107945494634180
-4.380058527131659 150.966152311488798 -249.134785619406387
3.911050938190574 150.389026755753093 -248.650309189048755
-130.746323599103931 148.508898112642072 -248.349098899117564
-125.062869016312689 149.292112913662635 -250.377668921999316
-56.999221058274863 151.406317694587642 -248.619413623990340
-44.094149445235011 149.136845323488956 -248.438893320273849
-43.867363251533426 152.270490391822221 -246.685916845886652
-17.572333773270060 151.271958560996069 -249.449099509719531
-11.381043523944204 149.095485329005157 -250.211221356099031
-149.457614946221355 150.687076080107516 -249.211568692548099
-134.028892501455971 151.644826995947028 -249.330636601108210
-125.772012148226935 151.512365634264398 -250.337277204938346
-56.793788546117838 149.095987794879733 -249.083793977732398
-53.918079818369613 151.760036286898810 -251.766622703723499
1.034793733364978 151.283452956490891 -248.924032553074710
4.948117801691286 153.019139172597846 -249.026954147043568
11.567774408342775 152.986751722852830 -250.571141625057123
12.078329400940701 152.818688851446922 -250.734144247748191
-141.696578718640865 152.180568654491054 -247.425611751991426
-128.241173973749000 151.514728685078154 -247.155889641067347
-52.018473398123959 154.481463311859443 -248.165074755850412
-51.743174515300986 151.394077404045987 -248.846711090178530
-47.466993997285634 153.851545836888818 -245.951500897463518
-14.547827004983354 151.123882865083544 -249.490051353694071
10.676726848911027 152.050046180473231 -249.323622002675279
-148.596244179582811 151.930529934591448 -248.551076148130960
-129.894530182927554 152.369650614031229 -251.206851856459025
-45.229270379889634 152.393485991139642 -248.532694204334518
-39.473773691990196 151.902433536016389 -248.963751820974778
-35.037648529179421 152.842259506649583 -247.612420316670011
-33.478868405692104 154.128160978302105 -249.724032188624278
-24.474840798083015 152.935553060931625 -250.701308586252026
-18.714829442424573 153.880271501568103 -251.777273492716745
-13.531785707061566 152.538723337502461 -249.751046887237862
-9.249348299295097 154.300139755574179 -250.429477493990191
-3.339740163317200 151.047094668814367 -245.973814581135315
14.199865593467324 152.413788465989029 -249.440350518595039
-141.787950371479724 153.855319541786059 -250.246712523687620
-134.201130548558979 153.600352476039518 -250.160892442577790
-41.048767956319864 153.983918572220745 -250.813661151344320
-33.315961904056785 152.086016286491144 -251.161920684685867
-31.522534445092884 151.575113702403002 -250.395843718969445
-13.683564040748431 151.725221932845869 -252.960067417608343
-6.193328083310883 152.344786016422972 -250.894671522866645
6.061074750389181 151.707401770458205 -248.716623673741879
-154.514751352541737 155.162139526635173 -247.814226807741647
-128.964546935190299 151.924883173234576 -250.479003202835031
-128.254755150229954 151.389705858840671 -250.542975797081795
-21.535152818667832 152.315414919598425 -252.026908125990872
-6.419614272938032 152.962555385601775 -250.631343256569266
-0.647941018991015 151.114194682092233 -247.732522821458360
1.787020355912033 154.586676830441803 -250.919643818642498
-7.903328019361829 154.945579438583906 -250.437876267074387
-6.392956724744274 152.866923190484698 -248.484318731349731
3.600437795693871 151.053271598481558 -252.154759863329218
-142.405531323934184 155.370391316629195 -250.913061527666059
3.636978751793028 153.124908605554054 -249.968863419627212
8.109470801320178 151.130414347565022 -253.037621791926256
15.575286171771834 152.666597388303586 -251.941763481751025
5.111928249609441 154.023771112750353 -251.077920962117560
12.773554282459667 152.239711324743809 -250.905122802665062
11.729750556016144 153.933060995689658 -250.497052177456794
12.551156386099624 155.345217554605711 -253.500147447951292
-143.875743670621148 155.875261615717562 -250.016807966517661
-143.711676646444886 155.415990527891125 -254.563895124463386
-149.154897013651805 155.674730076171130 -253.170159656068165
-151.172261155191819 153.988004323499439 -256.994257107913768
-148.582214099007928 160.805973743674684 -256.944159155682939
-145.683111842611112 161.418095774102397 -257.934780621062487
-145.446520703488460 164.904167765771319 -258.556596911652946
-150.291390370759075 159.232048790509282 -259.349371315734516
-154.916289018199365 160.707988159890022 -258.507705375793307
-148.971450255573217 160.153929962914617 -262.566863837480412
-151.429475616493590 160.621286687681760 -260.266869340826247
-144.809293738628156 163.480973207661407 -258.929605988974856
-153.753092103178943 160.929295436373536 -259.304798437868953
-147.312731152033535 162.753847491347301 -261.863616656692329
-152.123825967064050 164.316157495232176 -260.812992225946061
-151.687091313731230 162.158599516604795 -261.850319522882216
-144.690079716588485 165.433804680522570 -262.590199438249613
-141.714859966726692 167.606637298723825 -260.623523863902733
-153.360849157802136 165.487625303835472 -262.627417955651993
-152.015257923575177 169.545616433196642 -264.222286017256295
-144.751275248630890 168.985599769450658 -263.491864183288328
-151.848383432413414 166.386396398915934 -265.356177027814965
-56.754613436286768 -12.110002849498857 -83.201096567395950
-56.857038193326467 -12.110801486636429 -83.293067534303191
-50.277336694230982 -12.029282372566572 -82.745958251398548
-66.965298568414397 -11.476942766181930 -87.461556153350799
-62.858900023217601 -11.949002994442628 -82.868571023108089
-56.201289598894022 -12.059951230251556 -82.959978475752081
-54.564306906312979 -12.354132308379283 -87.235121956760793
-48.001404833050799 -11.030456086689462 -83.662838221987428
-45.096489495582439 -11.894050516138751 -82.943220656835393
-63.679131411331618 -11.280440163544036 -88.074346718035628
-55.183976440004315 -11.074370704338577 -84.447973332650008
-66.991254451268304 -11.344314083562576 -83.535618134362011
-48.462232676525119 -11.419986244500963 -85.000121363902537
-44.642631079873411 -13.185748693835498 -83.721461307422388
-40.391931547954933 -14.201573146570293 -88.166435492885455
-71.450101487377836 -12.490821370906955 -84.900157634239136
-67.011669866367725 -10.749658086250534 -83.508478121084522
-63.652110757187394 -12.221428586884794 -86.111528981176775
-40.745891279769687 -8.364937467986955 -85.234186220964958
-72.142003708596576 -13.316849443011101 -85.274288609544826
-70.878482604368799 -12.368207787200813 -83.826891453068100
-68.271003301348586 -9.375455420888093 -86.083909732385237
-40.201139012444834 -11.149417976794219 -85.014117635189038
-74.454343850273006 -8.234402070030912 -85.461627650450907
-70.075445654518660 -9.336256859026266 -86.944870122495104
-43.388689322859378 -10.596801171277493 -84.816581755904849
-37.992624757896863 -9.965666142663041 -84.112099063934195
-74.955276685849938 -7.205720556223607 -85.518027069053375
-39.771010146518663 -11.087295660442313 -88.191190688510460
-73.733832561316746 -9.055086973884416 -85.926905721729725
-37.032595194249893 -7.029942998953720 -88.539901024834592
-74.728471056669790 -9.924374227299081 -89.901687696010200
-76.175316396115576 -9.729168090094328 -85.548881299170574
-33.951160845322939 -7.883435553765297 -89.828059587018899
-76.891457465624711 -5.688107395527072 -89.253981864747630
-33.546373984050405 -8.052443685728415 -87.386930741119173
-79.795154148879433 -6.694365758593477 -86.181073205694005
-32.650508340043530 -7.097533175819892 -85.705572769336499
-79.688081819228842 -4.887245569471422 -85.589492454482610
-30.669015154437140 -6.229911210734693 -88.767758099992292
-27.174378489330316 -5.532859325918712 -89.437230166268478
-28.921447165885443 -5.508301178087039 -90.794970361995851
-82.544435781762559 -7.605277955455794 -90.782209053600624
-26.215416725294524 -4.011838178515632 -90.367803629159965
-24.742289451280254 -6.197682748661380 -90.533796814288579
-81.144884701995650 -3.196019833895673 -92.226483022526608
-26.097679460582079 -6.401819560249869 -93.577933424353645
-23.659725352418597 -5.008059366869388 -91.863168836032884
-80.156779378365613 -4.219631793310369 -92.483559667338838
-21.062729418925759 1.836953777907098 -96.719825697290588
-20.603957341480864 -4.421839505453917 -95.418994149430091
-84.910596321813344 -2.688638923827840 -94.077035036676790
-18.904374020691247 -0.279947465208823 -95.763270828583344
-84.792192749450919 1.016352586654281 -97.062746544033217
-22.681259625638280 -1.130410153859180 -95.106064131591722
-22.735818295420266 -3.007611750520595 -96.120381444439786
-86.655319839540823 -1.348489884432278 -99.367759633729179
-90.459835405782314 0.079750889626850 -95.979325955083155
-24.899230639951323 1.917212409236045 -97.393510490832682
90.612584844722875 0.445503481130482 -97.666109552947461
-27.722835440600011 0.934357757623520 -100.859342974603493
79.196591389355376 1.040701145556687 -96.958418800240835
80.048839298338308 4.076364745831839 -100.849630983755631
82.735986315385020 3.269106287205570 -101.145280634044809
77.077133166561850 3.562689599035741 -99.991260623073373
-29.636185556951784 4.871175501477338 -98.201067271884156
83.033445600929667 4.646999220034818 -98.518277627723435
89.603475671136152 5.027708722777753 -99.407099248966958
-32.574661510790577 4.661145597647968 -100.931468130281758
84.103774047562453 3.465814166191248 -98.309376018149592
86.400562491248408 4.438247446293866 -100.589215230540475
90.091539697459538 4.610794562691995 -99.333638492842752
79.600737371553606 4.095236959797690 -97.933868699818817
85.441581491797152 4.362775543010026 -100.115018270071815
89.639253178394895 7.957964171739667 -100.255673724170350
-35.361954100649477 7.555023234137704 -100.831712442341598
-38.430562585494627 4.933279387366063 -101.788173369986794
79.941548093566382 4.422159033250189 -102.857307002717619
-38.321279008928585 4.606081051052236 -102.192716056813126
88.995327463222708 4.280906849068399 -102.226643822539160
-91.262612833017670 6.978731314730912 -103.876241909925554
79.116754981725819 7.137798110240200 -103.879411175621001
83.762521726027543 5.050721882228292 -100.963872168446585
85.374897401391166 3.117234141211931 -101.331558746845246
86.197242385079861 5.912243829419590 -102.771709701617908
-88.217919901286081 7.221356556390091 -103.112953443265624
79.600901297201602 4.670615488099693 -105.196583027724245
-40.220439665796299 8.802283791624710 -101.715920240599672
-40.981915720496872 7.119978568997981 -101.141139896005157
89.372045122577447 6.716165712436671 -101.732041004579955
89.524141774899348 5.019989293459217 -100.075810266127064
-90.785983872366700 7.660710359913339 -102.859735905252919
-89.073534780150226 6.804418300402122 -102.200117554577488
73.195001373322967 5.478878250865093 -100.862498795304006
-40.711534314278445 7.492756524194387 -103.191884656820960
93.493443190886580 7.091339793534419 -101.701648355401758
90.874419314590256 9.909523761263733 -104.302107791813469
-86.658214149965957 8.640019432679622 -104.757903615169283
-41.886806869933750 9.041282543662350 -103.988548928658304
-45.313349856828800 9.197961098017785 -103.824307363594968
-47.275975290976568 9.923586261408094 -106.076421719165396
77.643749077777699 7.330952297793681 -102.749537697350036
89.621162000735168 10.663539350242212 -101.631283370742139
91.760881081509680 8.083971594810677 -107.447580748031726
-91.126986937690972 9.129121815057696 -108.297409223608497
91.874004544902505 10.786010829533001 -104.283359878295471
77.518508470024997 8.087318200853062 -105.306644978251811
91.451897829379746 11.546757488566623 -107.929603743450912
76.349829854735745 13.469409517178271 -109.595394515087463
78.264554837610760 14.019895473380593 -106.144802429360269
-90.423282369074357 14.834215410084800 -106.486674552465928
94.825827582184786 11.349064553295641 -107.429647593772785
91.084986632089681 11.268915291565907 -107.304878204519568
77.099160398839715 13.546290610426343 -109.062091840559447
-91.473514291344472 10.294201084996457 -112.091415915963992
78.122732864921190 11.436545131973590 -109.908661721787325
75.272121819940736 12.036727375865622 -109.587759543477418
-91.964577331805714 13.810145659531234 -109.644409723723896
-51.938578871810648 14.106604100549513 -110.138062973725624
73.963112605259738 12.760543931650819 -110.859981353928788
-90.097884614125334 11.592371928341988 -111.475103814881081
77.963662752352903 11.573668919833775 -109.116653409884648
91.184565599089069 11.435712240432419 -110.466835736228745
92.884833863777146 13.228125506644064 -108.749882269133764
84.333956980190351 14.269245044894538 -111.795877409450824
83.607099564936561 13.622444242281246 -109.426203261454674
-61.542762022577435 16.825488170259590 -112.921861106879163
87.346775868843125 13.907299066191920 -107.955707159104691
-63.113399663384499 14.144209759160026 -110.489287483078144
80.008497000929935 14.323174699903669 -108.725050495145069
79.951505973332488 11.659659442285783 -108.567526765555286
86.025690833131179 13.283687170180873 -109.739966465271863
85.958901571231223 13.156470866190288 -109.381766727942818
91.780278240748160 14.676495226800345 -110.607216757307597
90.319394725464022 16.772057349771018 -109.513342014188495
90.094338895238522 14.240173528757856 -109.202622101755026
80.439110257076948 13.063563861975698 -110.956582565020682
80.973142456050198 12.675145833285415 -110.540427566371832
52.541493152320953 16.227783885755187 -110.128953065359795
78.327684452690207 15.812087983256637 -109.766505251175118
81.226799042763162 18.986630012610384 -113.103992188023412
86.064965895704830 15.832892690548590 -110.700605191064653
89.612987784575608 14.005084866863594 -112.900473620545057
-90.729464371507433 16.353635316567384 -111.698380562241766
88.431213026241480 14.669667953056813 -110.398999864480984
55.012246251458649 15.360438868073640 -113.538670557911459
85.303575353729315 14.429314067084263 -114.921804439105273
-63.952350367620234 15.816495666984965 -110.658542852532349
50.317785092861712 15.661250064682394 -110.496035909379856
54.442320965315304 17.491523268153024 -113.722335180623972
88.226901843981267 15.761534548326027 -112.414930102652448
49.305486088675693 16.425914116767807 -115.494581271856077
56.784601485678934 18.358751235299664 -113.645203952159946
-66.951024097951588 17.029952234716212 -110.402786107085163
50.506367563290091 18.355168664105982 -113.819081485611051
47.185737046091624 17.786867643043301 -114.359544791049728
-65.914815257184358 18.903216990288364 -114.698879458043265
53.372802705247771 18.644563367584130 -115.107469491435054
-69.955475929502072 21.746709590326827 -112.642062227495472
-77.260850143160638 19.798823892452088 -116.129047234278516
-70.448061281324627 20.096323171373243 -115.070816430553222
-76.121596275520488 19.958802024872845 -115.573929936455372
45.757760339533320 17.836580971974307 -114.265021355013346
55.007439626791751 18.502432787745175 -118.378000837609932
-78.783806445937898 20.070381975795051 -117.177843006801993
-73.689530571352577 18.191537320178735 -117.876540927696084
51.280307325735400 20.653146700768676 -115.688042270029243
53.982432646457497 20.933628708988266 -116.466289206436088
47.454236618706048 21.215458704552201 -117.300821652359573
51.780027958735097 17.245191361104514 -115.722785054707984
51.433375621786531 20.278173396561638 -117.155699905135094
48.250724073659832 20.036637639367012 -121.112635136293278
-79.533197979584287 22.044310046596056 -117.354187284755810
-91.104002068972903 21.038219496941650 -117.909989066143993
45.406374107691789 22.626121484128337 -118.640580199517899
50.968027463231046 24.442105697216537 -121.226920290481701
-80.206059540132884 19.914175988102119 -117.543671311053245
40.955375581130646 20.343390105459040 -123.321164767709689
41.412658132745442 26.080943159589612 -120.778351532162247
39.753307697255330 21.493820245334675 -119.550185430297262
-81.075661752253524 22.615195504025468 -119.285742440520551
50.617281409870280 22.866316904709986 -117.232497606967399
41.643507137740258 24.102354275443670 -119.508149565529664
-83.767268059367439 24.720233625579315 -121.232142356133636
48.147648141167842 20.559129243425755 -121.369016518873678
52.547076689450265 23.216525304579935 -120.401452473756052
37.353327697708714 25.203012302598246 -120.847393456688877
48.839058875227053 23.186287300960512 -121.723066685990545
36.318800872502919 26.013238868686646 -121.450011088093447
41.356112544065617 26.658015012415706 -121.703382986647341
46.760847141856097 27.713171400775305 -123.617098640525711
38.924436959332326 25.528389001592537 -120.551707998811082
-90.526928022315374 28.485253667927672 -126.041218267678772
-84.987128758699967 26.686821039820149 -122.842631478809523
38.489778654903304 28.683240122555382 -126.517931328908389
-90.818464963018954 25.260418080704028 -124.591504164204650
-88.747147416151904 26.062318415330203 -122.291666768350694
45.702257955471659 28.823570191302384 -123.263184059677116
47.865477584553659 28.304663154945452 -124.714821373122788
-94.099783535656115 29.104116049910957 -125.242749724469235
33.404454990437465 27.962091072692662 -126.033426716327881
45.209992043384730 27.676103047025826 -126.403574615838892
45.996431194319463 28.179406455169591 -126.065754192156902
35.958810937459873 30.549604710473520 -127.462619955030362
47.611097693988192 30.566682275253751 -125.584444258564986
31.301547273833766 32.346451390879722 -128.594421280930106
38.617439563912292 31.210576071539272 -124.857078682364971
44.295394162421900 29.621892225645745 -126.432485341091564
37.772200372159965 31.094549515420322 -129.486781195918240
46.676325564923943 30.632485695468251 -129.083818006057726
36.457200385754803 32.201756661229354 -128.990014497598992
41.880703965100928 31.528459584666201 -129.086655979310137
45.312810718653338 33.129094097766405 -131.332454147499391
43.911587163585423 33.557163628453836 -128.185896330429472
32.263353953102403 35.061707667096805 -131.208851925406492
43.776781074637938 35.707221235540949 -129.085185543959710
42.230300991285013 34.613573723545514 -130.673232215359661
32.113331453994185 34.354188397042428 -135.266828673671142
44.946763455885986 36.260953870382224 -131.834590854888660
27.669595510013497 38.115908620346701 -135.042027335381903
32.392955045650936 35.413236928637396 -132.602744196523275
40.224470153041715 35.604756023491319 -131.293347242348744
27.686448663901125 37.031269337969107 -130.160621115296067
36.411440936136337 38.581973558487391 -133.648838686416894
110.297911635411836 41.913336085384699 -135.172724103714188
35.977468099533837 40.833306451368266 -135.861466192730916
115.018418447364297 40.043185900263424 -137.145475131101165
31.857237540148674 39.852901805289839 -136.418060633356333
37.633536656711200 39.108359546662847 -138.203786407242802
111.026121753467038 40.661885655238279 -139.023334994334704
29.864054092708049 43.984809519435245 -137.341196891556677
35.711710517210754 41.491951517527049 -137.438044255012215
26.848192492770700 42.809651684654497 -138.293740025660583
29.518785407881332 41.790360433200902 -140.151299664758625
36.508367872674327 45.177612751810763 -139.535956660383789
37.989096553759254 42.295015437615959 -140.426947708607457
115.085662299417251 43.857088242506826 -137.403526965301523
28.454365888230019 42.715594384160639 -140.092157537501208
115.077656945785776 47.726394572792522 -143.149782410607941
26.937706418117237 44.399152696228086 -141.226582662968326
-51.230815545906388 44.078785188792068 -139.887730906616270
26.084738183894029 45.146323690502690 -142.108845539209909
26.467883383197051 44.993703754106178 -142.304443439958675
26.734867759499117 44.033655906692246 -144.115759610783073
35.485196023703949 44.035146223833273 -140.112760722658976
-53.906907003344770 47.945684563634174 -140.536429755346745
37.649887859216676 46.357883302554200 -141.847913926577917
110.625949382100970 45.438824207086626 -142.463018572221017
-47.734150419946580 44.755565589996927 -143.890741420602382
-51.317438127194933 45.805074207423928 -144.003649075744846
32.766792052072432 48.320603232234539 -145.137310255533976
-56.777088184011134 46.533600688532196 -142.797021969292416
-48.931531564040483 45.152967890679484 -144.901953568936733
35.059482553157387 46.652996840339839 -142.511908528071132
112.827111372101925 44.383907617007871 -144.238374078071217
28.650977779522066 48.084007423841499 -141.988603556908032
-54.562533213567669 45.148750307102382 -144.613886613397199
111.059687015070494 47.296166642051226 -141.442248128828624
113.066689650543765 51.336006819938149 -145.750850131948368
35.443353933579218 49.945768271862335 -145.869538178807744
-49.176546441341465 49.328684322121163 -147.027486884548921
-43.936212736085800 48.488317321605436 -146.698137026226306
-52.137964530372287 49.849383319184625 -145.659214609275438
-55.172614340409240 47.911103039464770 -147.573612374309704
-47.861401160976449 50.752343244315298 -146.230205297099332
-44.413817776148740 49.899899261223673 -146.720855235190612
109.504171059058365 48.155911386552965 -146.510112072375250
-42.840985736568797 51.904920300147495 -150.342375673704538
33.870516529850725 49.726444135340373 -145.501642841984335
27.587774733261359 51.736343645833394 -147.291316583992852
-45.759840132504635 52.423161715507376 -146.187498207882328
-45.865650215991280 51.764269551782547 -143.389309034163034
112.637847518892158 50.618817001679851 -143.926091840438687
-54.586468820035030 50.120785842055469 -146.517743924163796
-48.880669382384355 51.746404699075214 -146.952508667703967
114.560863842777280 51.065378641934757 -150.685450990648349
-51.022261801563609 47.700161763978741 -148.332059874575009
-45.996621566700725 50.832316544695438 -147.817852026607738
34.925774482108039 50.940092701235486 -148.670532619726544
110.962787917760579 50.998214119331926 -145.987567039394861
-45.855380060177900 52.681857451962891 -149.382982655537916
-43.595637706299833 52.160219221988498 -149.170858683433579
22.735024227560064 53.501648136610612 -148.326412537422300
26.760894759984676 50.664210558738695 -148.858101580867782
-43.761995422935634 51.745136901542750 -148.317236322501401
113.178591175029140 52.920468251705444 -148.782574304255320
31.160332857747864 51.170927139166565 -150.622733222073975
23.585624204482631 53.720869812486555 -148.892971901551533
21.024946608630103 50.412557750323103 -147.342031150548365
116.106282769663892 54.452981247970371 -152.964096929948084
116.439644689761877 52.395045480109331 -149.629997491375036
22.826542240712708 54.334986182732251 -148.974457109921758
35.134880604122493 55.972370278247304 -149.835936184808872
-44.940436441549039 57.061932839635610 -155.368056489434053
35.453982179952284 54.566958793233539 -150.143555705750430
-53.082998531186064 52.621546053783213 -148.084407172947408
-49.076476052501867 52.697175657625763 -149.804328002094081
-42.494829262698111 56.532614921098137 -149.932881638677003
-69.901627246682068 55.658129507576476 -147.797875453706922
-70.988247999763004 53.624931807336111 -151.658420296069039
-66.861530908799935 55.604531051837725 -148.582979998275874
-51.264125238189344 55.235650662287824 -152.676669616084126
-48.600106837042873 55.225520265494836 -153.292012836480041
109.287040569471245 53.639675111294842 -151.278707596967138
-49.983747470438438 54.932610159107178 -150.993991056808881
20.285676794549921 54.538711596352307 -151.319409941588077
26.692292243912920 56.805059527683966 -153.713064032922375
-44.228667727994598 56.192265751153343 -150.952292604773874
115.404203555370671 56.453812859068478 -155.092448659603093
112.790759294166605 55.893549925111543 -153.562806841432916
-41.359055406928405 56.857780040488166 -152.190003380580066
34.716329103553740 54.543604574206483 -152.241963015990706
-68.235391618093175 55.037712003180651 -152.061395764680071
113.632529600580099 57.189515170522156 -152.834996046589680
-71.480462154370471 55.402933777846052 -154.621124632513812
-70.942089747516789 55.288724678907705 -150.797816555844264
-63.867789188375689 54.831911363874603 -154.701015051682674
-47.520572425268909 57.908753958250330 -151.341965638992320
-39.626897366056603 57.783938874662802 -152.531544424561389
30.292992104998000 53.654062291129023 -152.075354546717165
-51.758564537205679 52.524073221029532 -152.253359139832440
116.904258763537896 58.301027695751266 -152.854189912831799
-38.530696724141791 57.872566971073581 -154.254911184169799
-69.853713735926590 57.654510020801673 -155.416376118891918
-38.449967025405364 54.540220559185542 -153.908213698121102
-64.252618161885508 58.809603621808989 -152.658563881941433
-49.408749790002403 57.071759733849333 -154.006119028655263
23.969468719288642 56.889366658801521 -151.602879377472732
33.287927923737044 56.779973883418840 -153.662197465672733
111.074276396685292 58.151355356003677 -157.252846032778280
-48.407487671960546 59.571888028316643 -155.190161214625903
-62.306787932918510 58.648087786115639 -153.510864824110655
32.916429164291493 57.033801069342424 -154.056994164355558
-47.959829506356535 61.575146734019313 -156.186343997374308
-36.711499758471327 58.108856187235517 -155.575257025145419
24.973908967837474 60.028461406794221 -156.641637386924259
110.996182903013349 59.207354922060759 -155.455790391466280
-69.735279099318390 60.173947667206981 -157.456827225572084
-66.488652374986216 59.526099245147051 -153.763990043400099
-63.889773374336947 59.633341790239420 -155.844263180607015
29.583539267252242 61.194659031237528 -155.847095404873983
114.786126197594385 60.261497248574983 -155.336688011673061
4.613475677499201 57.700760846024799 -154.464783585361602
8.378027623717063 59.314396950506186 -156.174324057243041
-37.834523009456234 56.689329795900761 -156.809298638257928
29.771955908364948 60.593247020276124 -156.790186732999331
33.967834936604973 58.573324125336846 -157.381544805597088
-62.851310597634189 60.586595833936194 -155.717374224096744
4.207419828319732 61.060008094806662 -156.649967614813846
-35.504662902265210 61.582188935080815 -155.518057983178721
6.894326134353774 62.137259374792336 -158.835698540462914
22.086350023089910 62.891167633786644 -157.343920687999770
112.007895056647058 58.339471016874505 -158.705422921400356
110.905489247881974 58.945030964335892 -158.836706749883234
111.283270149618644 59.669966031261772 -156.748712334387506
-64.320606984603344 60.162670703574499 -158.092495092122761
-38.415941718427199 62.690766973789970 -158.559957320776022
-33.955162420494624 62.965850174034799 -159.066672161373390
1.786380199835415 59.542282453119547 -158.153598555601519
-62.622185481956649 62.120057522203346 -160.595015327959061
-44.824833807917422 63.761402209285933 -156.824375342305785
-37.029225894019369 62.270294043049226 -158.612359124240527
-0.487328139728167 59.743254126248765 -160.691464839044528
0.152412747773171 64.329769313333088 -155.340936326237482
33.898421670187766 62.466281424310978 -158.690024985256059
106.429287730024214 61.950485080044345 -160.087910389624199
-63.376697936074095 63.090434094531098 -157.918265347642688
30.327134805080522 62.017284596985881 -155.802282104676863
110.248248101088720 62.941556791254449 -161.250489489266812
114.474113374692578 61.655422568949376 -156.603457877855590
115.543337522362293 62.827565491226572 -157.504631637983550
-63.935631788728358 64.127399023150133 -158.525002774544475
-45.913922101414627 63.194547744708522 -159.701312004493445
-49.055875667479285 64.412755517643404 -157.447241896446002
23.411533556054966 62.979755091656600 -159.650689967262480
-69.195327049579120 58.753891172563549 -156.363980959991750
-32.862264334603026 62.488054082674971 -159.587182544841141
21.995060888688080 63.067107201739610 -158.979847966041859
-60.841816500288125 60.833280412827143 -160.963150571048885
-41.242870323793746 63.219412560795526 -162.011452061322700
-35.961720510332356 61.525304747434731 -159.869422449084823
20.788381274573073 63.747277072373514 -159.686494038869654
-66.391049689786286 62.303501560323262 -160.100091402760597
-59.866100706117692 62.499881868033548 -159.117210652084793
-33.276077575835579 65.207378413146756 -160.516976431266812
-4.958311626748086 63.121166525472873 -160.292215200275791
-60.636293323715314 62.839506555278369 -157.540207229971230
-62.659703928712887 62.784426397889845 -161.957113237672388
-44.841340673194466 62.700657522104549 -161.020427909602148
-33.975858123735733 63.496617000802821 -162.351192267036339
-32.080938570552981 62.806080403286643 -161.212772352631134
5.991744822083880 65.415201560945405 -158.925032994672364
110.457470323544683 61.931707411580390 -159.248766535022412
115.161556409559012 65.692628722248486 -159.137281293923081
-1.854979794458799 66.837731719856976 -161.183845615763914
3.292515001308017 63.115131681070466 -161.286115564835143
28.138046036910417 65.863743358817402 -160.506169615284989
-67.164467066574616 64.208005209506211 -162.652618570681767
-65.147820476724121 61.812285672953237 -160.416371822727911
28.660868303714295 62.581771610334769 -160.155797441165163
-63.508238881427246 65.429701549010673 -161.732961308068866
-43.299352911130214 62.751293610664533 -162.469895560110785
-29.038477402282002 63.861694518766249 -162.057219411420363
-4.168245385652627 65.500822773301238 -161.351095588514141
-33.415138959690104 66.518974019011665 -162.196585687521321
-30.814050296760918 65.118621402741894 -162.799042127782513
1.180895736880535 65.732055894398485 -164.160028390387623
26.899860609204925 66.525995391154225 -162.955519945246891
29.702666820730325 65.558017760759654 -159.804252745257486
113.813328082036506 65.314686623527280 -162.892493578414729
-65.714821578550399 66.300421197614767 -162.797447916787462
-62.938382867660536 64.536022117590477 -160.463207532013683
-31.852245530296649 66.879478890609207 -161.950567011829634
18.173165360511174 64.105404017196122 -162.156393069767859
108.982479980055771 65.637027306826354 -161.204889599610084
-58.970523805845211 66.430473735829366 -160.204067708942205
-59.497054156445067 67.282368435941819 -163.033089935213241
-30.777862429249598 67.891407202260041 -163.106033363554275
-29.227669312320796 68.590847705855595 -163.027537672091796
-7.804910754189843 66.506145505140026 -161.787894683603270
-66.577842317593408 66.191605091915761 -163.248557455871492
-43.068053738451354 64.497823269300497 -162.255487387279487
-41.413905364830576 61.809024155148499 -162.079206962320399
3.035727526157194 67.167777843352965 -163.825490184940094
29.116770845942476 64.431793389081434 -161.946562048402882
0.347157282483056 68.041833919274424 -163.203295363274066
-63.016854746649912 66.694586010949948 -167.100391618279758
-57.107748854973039 68.020638519140974 -164.854941981275601
-39.830445895284285 68.328782708361956 -164.352402092469788
-10.908044916465887 69.028277149883863 -162.597595561098473
0.513508216669528 70.430951973237526 -164.050972111275911
22.558401531296475 68.553239174426920 -162.385822527186377
-63.692684134040505 68.307710363316389 -165.732691370352484
-57.694532387596006 67.281173250827877 -166.114238069456633
108.806027564039766 66.599624860090245 -162.045472432947463
-56.833666784096998 67.638002412296558 -163.640064310664826
-56.992435018994385 68.172497830240360 -165.968674599438714
-46.118418988863986 68.899472078412344 -163.123809784511479
18.636667060872735 67.685978875116973 -166.355840595022215
-39.019727711389137 69.500965433280413 -165.807091608029054
-28.313292480067293 71.316723888318180 -165.693519368579501
-9.706350117292782 69.382542343219555 -167.076623091722354
-1.608750255714221 65.608585839532907 -164.189911538467811
19.510487101613446 67.544404284545422 -164.190557758739828
19.697336535159991 70.705475731460439 -167.347715653929384
-12.681262228527489 67.950068468032811 -167.207361805411779
-54.080626586332635 67.416724838813366 -168.018884654355702
-25.670872866005695 69.805218011819463 -166.276561149408593
-5.687181420726432 70.819720280904178 -167.166657931395633
24.280208947491563 70.218349691600466 -168.662041826933518
107.359420648515481 68.389051571595417 -163.288437799993716
-63.919611875294294 70.924441969439528 -164.682205776974769
-62.665304787172666 72.572939299055221 -165.404478719533472
-55.688069078085057 69.815680718016367 -167.444130795772679
-43.749205589256697 69.272012457425731 -162.888731543354595
-12.270835701209247 66.258042958417406 -167.552546164611982
112.784274163974530 69.852059827310043 -167.715825224480255
-54.741159030229177 67.278226131092367 -168.865270671940038
-13.169605003118928 69.270004638829207 -168.229482366980989
-11.873097285236948 70.054647795454642 -167.070605687531469
20.284565521380259 67.118257277579104 -166.192673573466777
112.844267792214822 69.729281628926501 -165.895370546677526
-59.209209114314291 70.214570852979804 -167.913308017408923
-28.456798935202919 68.510224983303260 -167.801324788027728
-5.983631839263076 71.387783958591896 -168.964297742784055
28.416972170919479 71.314943453438801 -167.489896565345589
-11.236574942864319 69.635975216852088 -168.104179539695991
-38.621035812994464 69.763696137070625 -168.256294106090337
-38.632007253465801 71.622476421928553 -166.180428274780695
-26.174564089743495 73.103323561736687 -167.587736225883731
-13.462592057707012 72.412009086375818 -167.402892535390237
-9.906166795287000 70.083629327742457 -166.432741579425169
-41.269466625885194 71.775309578678616 -169.110224189976179
-26.941896531748426 69.240533442836323 -163.681930542638497
-13.271849965832850 71.565420265161080 -167.306020965986761
-9.968965453497113 71.976890286017536 -165.791685673984063
29.047779653833071 74.200222138938287 -168.931478964856211
-58.734488990346293 73.055371792922401 -165.749200333729391
-56.699936636981512 72.906724838504203 -168.858058706452681
-9.964438566132266 74.282429098625443 -166.551752733808200
-8.538784163135288 70.692456625070221 -166.674415052211884
18.685982820894850 72.122472467521675 -171.138261806511622
26.084278201614087 71.105088931680399 -167.265077792716880
-54.380809572374893 70.081290743841095 -170.463933484890816
-52.748965387049729 72.796482810362903 -166.273442693964370
-25.354132155777158 68.325419909214716 -167.866433499319726
-11.415961004749436 71.544596773994911 -169.325577068862458
-9.402286083499286 70.912988231992045 -169.721532826333515
112.171077389597571 72.805594118983237 -167.126223943103241
-27.038824882689187 70.790746973859967 -169.694223674850548
-24.348094419537361 72.447211142036622 -168.712717085170169
-14.312218355625642 72.747625832813526 -170.073425295169045
-11.872297756665963 71.771550526110417 -168.046595844405459
-61.715157684092368 73.776330627781761 -166.592128486323048
-36.478121972066567 73.032423242837353 -167.947764471163481
18.986251418513799 72.256952647195334 -168.346166457915501
108.102904366831723 72.633858362144423 -170.317271516879885
-52.136582480576564 75.435847941539606 -167.681228485581642
-39.474275966774627 73.065864626697319 -170.210520698978740
18.586861532984557 73.185421251615409 -169.455855304819238
25.091317065469202 75.148254315174853 -170.130956904784142
-59.023421205266473 71.899481623590503 -167.425227470979365
-55.879505354331044 73.648957011768147 -167.082868661740179
17.822747261522640 72.486924388226569 -169.820397636205996
22.116708359268969 74.864378093416263 -169.765575339429375
111.342236309681098 71.770037474462569 -169.668433321570205
-53.376433569818182 73.410535446597976 -169.520266931684461
-27.090444723325188 71.523096551986796 -169.642080387025004
-24.176201900750200 72.274894177176861 -169.980200967607942
-57.862645318986260 73.846769931987438 -172.352105879881066
-52.645946970370495 75.043109404802976 -168.918947334013723
-37.378402350938636 72.349632976294373 -168.244427715714039
24.554348654586239 74.656267804333353 -169.571099383536080
-54.204215751158834 76.136121234759571 -173.716528102900014
-36.142174313624032 69.703759359069878 -170.576912254883638
106.608712637457401 73.005463588614859 -170.178899211093835
-36.031548211349119 71.998374884607742 -169.937692725792232
-23.894035750139324 73.066470051047958 -169.186379285643369
17.129213631808408 75.199829154344599 -172.325198292523396
25.669406730053783 73.029689190241498 -170.020033493947153
-56.101519441819370 72.463584895621580 -169.994960390224691
-56.011130826421571 73.989921926720370 -170.178042915204060
-33.463637259612000 71.297476384010920 -171.977368214565701
-58.320733068710389 75.844173464468440 -170.977605411724085
-26.260166890595862 76.866960517711959 -171.374859546293237
110.650741352564808 70.549069419314804 -172.090322747259250
-54.709937277684887 74.413388280937298 -172.876240175466648
-50.892149995274643 74.366944993142113 -173.844404955872619
23.916898645562156 73.981477779095300 -170.968253542391494
-58.111641465997586 74.611004255208044 -172.439508895743444
-36.084743419530206 74.295515140672336 -170.434211735120556
-26.006387009433336 77.105892766186557 -173.086377184032784
-23.381766745783516 76.364385293169576 -172.840043040825009
-52.968441700082067 75.052878230164183 -172.364547533034425
18.749223359488340 75.211143894315427 -171.084315313940465
107.033814078296658 74.980995856130463 -173.343039647922296
-56.284855112794567 74.476618965064375 -172.752988511608947
-32.520901553465137 73.681101486707988 -171.601443981396955
14.567565382963215 73.592298334675093 -173.600215451360896
105.111298095320365 75.249301844437767 -173.227459362752256
-59.113922982492738 76.789246053801335 -172.941831644203745
-21.395504458206808 76.557817237906946 -172.353606674060529
16.573506286309449 76.182981488056612 -173.844518391185318
18.988954550220274 75.265903652132153 -172.301306160402277
21.735720474909932 75.205585213684955 -171.784706477408179
24.955402318074125 78.405960467687564 -173.487275224725266
-57.250300777425721 75.672318712055358 -176.000668537812174
-55.534245458214905 76.267430182467237 -173.347212625705225
-36.063754338302068 77.518315645021076 -174.729451591027271
-32.102131401046655 80.177376669019836 -175.057195090493622
-54.668275578475239 77.700657732780058 -174.204337140755626
108.740634227373249 78.025042434060296 -172.773757608856641
-20.404840791692820 77.925850874112825 -174.256512792759423
14.855069171001722 75.408569138181534 -174.503201189644443
103.749100069494915 75.409658255535078 -171.963958299715529
-58.722461519996266 76.597130176196870 -172.337801924914999
-56.494931070861107 77.907345128345440 -176.678866488730250
25.185004684695546 82.442816669938338 -175.556876663975032
109.072040862289441 78.817287610343897 -173.957821237083550
-21.795666427122462 76.243781760233858 -174.168893898249337
18.399672268905888 80.664693825790280 -175.435228105995975
-56.596145184706522 78.269289384719443 -175.671373063514523
-50.406556089409605 78.990267801775730 -175.679409195132877
-47.152744566395995 80.267046458643051 -174.133263232908320
20.650607699528013 77.440486690783715 -176.120668471338746
108.665978886111517 78.864023925850702 -174.690235507301395
-50.508809865914877 80.543513773749908 -176.037493323532942
-24.220050090779328 80.243754280067975 -176.209016312896466
17.665236781223864 79.543417600647146 -175.870375231204491
105.835910166570770 79.067383833332940 -176.631581845264691
-148.680166138634434 80.597044498861322 -175.152122964603649
24.096841029652936 81.035960283876022 -172.891589870387776
-45.795030250161261 80.351255591778767 -177.228172622978917
-19.945152223730709 79.781632572526348 -174.930448018951523
17.148723831865503 80.164059464490521 -175.280293773342152
-143.073294758962703 80.025484423370003 -179.837956258980995
16.037256904236518 80.596021615268910 -175.866491047274110
22.056567048133587 79.113998911104048 -175.257742592920295
99.010705331531625 81.373536780488834 -177.500171290936862
-146.857585886414086 80.769382315492280 -178.180514400886068
