# This PCD file was generated using the MATLAB® pcwrite function
# from Computer Vision Toolbox®.
# .PCD v.7 - Point Cloud Data file format
VERSION .7
FIELDS x y z
SIZE 8 8 8
TYPE F F F
COUNT 1 1 1
WIDTH 806
HEIGHT 1
VIEWPOINT 0 0 0 1 0 0 0
POINTS 806
DATA ascii
-31.593849803101381 0.025166606616666 -61.795515792818335
-28.396235419474234 2.500576879046938 -61.289238864291121
-23.438292927928092 -1.391458106920549 -63.791663806608611
-17.659918028939281 1.681015050357460 -63.433024762453897
-22.310210902819588 1.998882962408308 -63.089238862738696
-16.460272002697874 4.058299436038120 -61.881927189867824
-12.502783287543675 0.606159314961846 -64.001270930544123
-91.010463955034098 1.289967472364068 -64.673206350826234
-10.810903794044977 3.091653860910688 -63.588616853383868
-5.632206638297382 3.857359608852367 -65.038411668992524
-92.089950540820837 3.020772518178711 -67.273116413664383
-94.434251507500264 4.012017809320513 -65.325415433919559
-95.105110767720262 4.318203200553965 -65.159697694567569
78.755658555388280 4.631225869358712 -66.333058262516587
-61.901896267173065 5.120043744475813 -66.358777186979694
77.214135993974438 4.818453162302863 -68.285004873343738
-96.943552771628859 5.913823939596480 -68.647580098988669
-63.508134853356857 7.338304319814031 -68.281266225183330
-9.204511396014150 6.722926697810603 -68.938267820307033
87.319871276805515 5.183472701225640 -69.449461815495610
86.852459038007936 5.101628623595279 -68.591652487618205
69.960160285814567 6.879574562778075 -70.062870316875234
80.535753322607064 6.927863752260124 -67.441427006277294
86.268266726710024 7.366596235616367 -67.379869618058109
90.653782495936994 5.789745982189993 -68.577667837725059
-10.463096419330521 7.080616328879547 -69.744854102181847
-63.908795762953417 6.361331760388750 -69.127825525014913
-59.736169181253260 8.754833759775766 -68.515075262508844
93.458629989167804 6.067648761567224 -69.138798572485911
-64.558255851441544 7.446105139835048 -69.537353310094531
-19.630960656228140 7.301850979409399 -67.581692924508445
83.967641270294706 8.091277523188644 -69.182844247752712
94.402367096622882 6.428435030188544 -68.638342246037581
68.807353498524037 9.488181438460511 -67.975028297094411
96.180179845382469 6.757375263160417 -69.917297981369359
-98.093667025521782 6.495534395558932 -69.988379478502452
-62.411752324271966 9.659824015617982 -68.485045888888891
-65.640820939272160 7.672427509498228 -70.869920384093263
-99.605575736559373 11.086462809314117 -70.880240015491111
-29.406436684694185 8.682637383121840 -71.090119376732645
-98.264000235738976 9.380296389944897 -73.085117471731365
-61.412481431274742 11.756470092951234 -72.985704770094728
-65.184127868015793 11.228559128697428 -72.247024988420321
-66.670543692833846 10.528996584817936 -74.181033632635021
65.988415980466755 11.600800546686061 -70.933834978854961
99.176287252151695 12.102594420479138 -73.855211963381322
65.466575227329898 11.825140818486352 -74.767882267154206
-65.039245915483164 11.591759837857509 -72.879132888011512
-64.310797436396058 12.984917181851868 -73.595916213080272
63.983842399778744 10.626098440485061 -73.476633690087851
-98.044594477119659 12.362869268558894 -72.569505367039611
-66.516537723901962 11.781686750566763 -74.781157682385427
-61.325622253600663 12.339853249471906 -73.646973949399580
-61.979028203477213 11.929884156658172 -74.738757896181724
-101.789757224812263 13.198142530827084 -76.111909065671469
-35.594408465372929 13.790494913035337 -73.738245869922949
64.893940017916009 15.126791961084393 -75.710319517377883
100.872541262334366 11.581266060376366 -75.290712380599487
102.665972454533645 14.570344419106549 -74.943191821270233
-100.064279163470360 13.781665472673446 -77.368656511335033
65.610350249848878 16.445695708018558 -75.687934653411958
66.414829411537212 15.728828403987904 -76.125636366027464
77.943488185089350 16.193746018947472 -76.884142842323953
-37.839938658190206 15.834329451633909 -77.206122385238885
72.067006711358971 16.755339654158835 -77.240886646981664
78.728385811961090 16.981586138409277 -77.586798173125672
103.553803552716417 16.880827711925924 -76.739092853232776
69.197635849943623 15.081070620760777 -76.230628459059261
73.199098863629771 16.758024838424440 -77.788935349910616
79.603066209222334 16.883937604039460 -77.785998276966481
76.091566510067665 17.396269443984909 -78.558969118958743
65.699087973628053 17.732944587862043 -78.602131459015638
69.665870046104615 17.061608936817230 -76.704837533829647
85.436599121261992 19.174250605568140 -76.526064216984338
65.360664527499452 15.306475119256847 -76.950882742351538
68.181462551065380 17.873494186120368 -80.139508244206908
66.727765088196634 18.897385062425595 -77.020975795232630
85.323609149529773 18.203387155612230 -78.954880534336596
87.232009158851369 17.202617566546891 -78.995746227846425
88.516903276994128 17.368372395756317 -79.178820258874055
72.205203406815784 17.591176004373157 -78.718640969338878
-38.506026850150320 17.355375483056683 -78.301163601574444
67.382550510402908 18.722745896167744 -81.557168279093830
85.497482285705686 17.941691166514865 -79.341690865639080
87.424389129446084 18.223147260475365 -77.199670648496934
-38.523148547669514 17.997551129387674 -81.199121024812868
67.812613128105056 19.043450539064523 -79.546053663017986
89.816976601230266 18.894345899454493 -79.957326994759143
103.863049566642175 20.330747063204395 -81.493783488770433
89.749747316688328 18.449316123461784 -79.647836548140901
97.486614444785573 19.150099192445673 -81.053874327787767
-100.650127230684475 19.105043003242695 -82.384705714757757
-40.105671364563044 21.808803405193821 -82.285569647226950
95.313731927300793 20.727065163741532 -82.502639532317716
98.859587862684904 20.859811159464215 -81.195712844986645
93.884174483361619 19.700164798125893 -81.309062979172992
102.455241943769479 21.118007268620669 -82.041615132834252
-42.551046574954384 22.700277104550381 -81.152895216163074
-44.803432744813264 21.436530634973114 -83.469176509114021
96.072790989904448 19.859216598437982 -81.711925095103467
102.981516886420351 21.957434174125584 -82.879337830218759
-45.306409704682338 20.789308438024349 -83.609315385695950
98.308894662608978 21.615150164714002 -84.778684270282611
100.344510423546566 21.448210616380546 -82.030047536885064
97.080491669665648 20.712452887252606 -85.192326222409363
97.848407577808430 22.944993787440030 -83.026162723323921
-99.411622101497656 22.608974142883223 -85.766385016776098
-46.739455658909542 22.266151425145864 -83.357557063580884
65.017447474850314 22.842586896211099 -83.606777631854300
105.219781790387145 21.344371929901268 -85.575357542337343
-49.234415304493965 24.486645989614185 -85.485542602545550
-49.662223771656464 22.492439767798260 -85.934489135434873
101.631430596171853 22.980793454282836 -84.487409816699895
101.148704038214092 24.253521768043729 -84.505933632639440
-51.180777873076536 26.076450366957129 -86.046621922897003
98.778022688834795 24.175295987789646 -83.872222342080306
102.002599144173743 24.812162739418618 -84.302288064203552
97.878017006179689 23.613947880796072 -86.164981461953687
101.951112117825090 25.575436121188957 -83.437873363632050
-57.099032788396492 23.540235543740078 -87.541874795683952
98.774199917113904 26.794806012159469 -87.390846080169084
103.495865745381650 25.774918560157218 -85.547184322548162
96.181727527115228 25.122956847143715 -87.215492297076082
102.749978230327756 25.300274621143124 -87.688511950492853
101.689020233227723 26.691637264921603 -86.838270960574349
-99.577072798221707 26.905864302770027 -88.482331629876526
63.514384130185888 25.737182667508005 -86.094440560929257
96.549467356499179 24.643892935774851 -86.393744981244282
62.806890022909535 28.032191567629539 -88.585378024861328
97.884415870786242 27.940096229636648 -88.475036685132864
-99.921110776893812 24.165650093276504 -90.563102582755420
-62.098654068926095 28.939382866979027 -87.293382296486016
103.094127360378721 27.554505717574905 -87.969493521582052
-61.469688582886150 27.740285512090061 -90.565171909584663
65.053525872094269 27.715245565709420 -86.258849676055291
95.484447572919933 28.333465942242860 -90.681103292445940
101.968854665480208 26.858544460694564 -89.656918851617064
62.783679581425815 30.111062202157616 -88.206156685511672
104.310482769044199 28.998563109802316 -89.703523005677027
98.433991281537274 29.871351532054454 -88.979532377457531
104.285313806957433 29.416858300761152 -90.387645376846834
62.969427305900275 30.931546969639513 -91.430212088574592
103.816778815736029 31.689575882744979 -92.924238344377301
63.498153582512231 32.475131813213380 -93.087335286092767
98.835552868944745 31.822744196059290 -92.011098718000738
101.465866162382852 31.896720240928193 -94.105287255535345
101.691627194291968 32.041658284390998 -93.821331367868837
100.651989091039255 33.758840756204762 -95.702995245908824
63.791860224150362 32.026760961314743 -94.311081761917777
101.709711141629128 33.252300386947113 -96.734897224818496
64.052268189959264 33.537750519660321 -94.083979114418057
-70.086406093643149 33.610276478202096 -96.503611091799456
-72.746501060647162 33.230335766168167 -98.450881205977282
-102.557436042574551 34.990774110843731 -95.906404629231915
-71.799122316408386 34.298679529279454 -100.616312797635544
64.695458287316484 35.878843299361314 -94.708756660980200
64.049348705181515 38.462508065679096 -97.901001940244797
65.392312844354464 37.662835220680236 -100.096058317208602
-74.297420141561744 38.348892150703321 -101.712315293177781
-62.802844884763353 39.195290310185761 -103.485755204559879
-64.488923073034272 39.468801334545986 -101.642017279064959
-62.753641827330647 40.253435957097665 -102.861394693775850
-98.985998459182795 37.832601108098714 -104.686557664624019
-78.590911816556812 41.336663816397966 -101.714074669041509
-67.519247616099918 40.254447749272039 -102.956910865556964
-67.857255482215834 41.573145680446004 -101.931007760474145
-62.984373515307993 40.332052974433758 -103.412386981685700
-76.527805599390632 40.771472681194084 -103.697616572039010
-71.779076651177760 41.264922819002507 -105.303333682158623
-70.607785014249515 43.022276104384822 -104.543193968083841
-76.318256347453300 41.927524167074473 -104.238014769475001
-62.287733395700101 43.997279561523719 -104.041035291691429
-78.863576001705525 44.322465296245170 -104.406298199247459
-68.786683930553608 44.245767632176495 -104.499784800050591
-64.357975393389822 45.683242920188945 -107.239407277056031
-77.663895637477026 41.703721382286595 -104.947397870091734
-69.326881606981630 44.684055401165459 -105.161683049595396
-80.761728339143659 44.976000403158174 -106.421837977123914
-61.535390858526405 42.630002273227625 -105.612143370172262
-96.624314755346589 46.106861858007228 -106.795122672131171
-77.216297584486909 44.807639404514980 -108.960137679619848
-69.672804590009619 45.664031085668640 -108.434936406930802
-82.137733336807756 46.217569877198621 -107.571780965197078
-64.315923681305534 44.390355906149658 -105.622227040653911
-67.979271491661876 46.062259272843242 -106.751116347522867
-82.928361106376599 47.912006514588391 -106.865907509345263
-66.373673199484173 46.554660130587635 -108.533286142547425
-64.108866666611846 46.971507258688455 -108.028375839268080
-99.091569703128869 45.986695409560546 -109.173625394351902
-96.563559298098198 47.657110214877896 -109.425712302375118
-95.242752624845494 47.414979049668851 -109.903643375722865
-95.215556825663384 46.119623140177623 -109.453628730908335
-95.796835546277364 49.880661693540354 -110.004314688238210
-93.517059732921325 49.092661981421010 -110.579490116871526
-90.142769209311041 52.207102311444956 -112.099243527529040
-91.472392491627147 49.637364164978599 -112.202582315903300
-4.679064077258902 132.967805588570968 -193.306827914685670
-3.093360263185022 131.844011562527385 -192.380826784428251
1.266764537240580 129.933183713769381 -191.712631599966045
5.604494544336406 132.182526042091723 -193.648424937080733
5.441593547410822 130.881244899752460 -192.461115517444171
-1.227485420657977 133.007116335867835 -193.901041225104223
10.102045329266273 133.142714466360303 -193.032218782085664
12.568795014965938 131.972181404598160 -194.640435745697829
-5.576128659065182 132.152848854557334 -195.334216103538552
-0.519885707686089 132.947787587160775 -195.333119131227676
3.022871304432532 133.369519339872426 -194.697098659987802
6.774339855035193 133.514130072953776 -193.150569564314026
9.663573767320905 133.443995857142710 -195.563417894702837
16.309869799267631 132.138815441734380 -194.840839510050756
14.393501793534474 132.005012572740611 -196.573524191575387
4.028561093152396 133.657702097995553 -194.434421016715646
17.739352625054099 132.279211170099870 -194.940216851546779
3.033203916841225 134.461164080460975 -194.945287247603773
6.083785009361222 134.566777700646895 -194.815424723694832
9.115386276953846 134.314454583251887 -193.820237023288684
8.529721641294225 131.511306476563107 -196.307736949731179
4.600002746287936 133.862074924721469 -193.000303822838021
4.928974203904636 134.781890170545125 -194.328052712690948
7.996053330597434 135.558307038973084 -194.172078193205209
6.711186863054276 133.192242894699348 -193.945847945042601
7.235023863196989 132.732089795673829 -196.517160344791563
15.466539715526514 134.643619348970816 -195.227741083987468
2.603703568753853 133.502169075076381 -193.146913253619175
5.373543719109354 135.350062644238477 -194.863418379104814
21.250482080293938 134.177510474700341 -197.150142579589897
3.077480959379725 133.490628282505696 -197.123957809358160
7.341667224255870 134.697740781621519 -194.957518427233111
3.963360919788684 133.732413403114577 -197.222112760329537
5.638188827677295 133.979009021111494 -197.504183454866421
21.017691082545831 136.067556918331661 -196.926528066957104
11.580655009798885 136.306054259156127 -195.824767190985938
0.977430350494838 134.052476521160173 -197.180702864837173
3.594288159095485 135.571452893598433 -195.708245830188162
13.336500046900904 135.446488045368454 -195.953516263472864
16.887309739339639 133.769330926872215 -197.170505601819002
23.370210285303632 134.413829900904830 -198.311314442539668
14.318409026434441 135.577013932960597 -196.093630404041136
16.207373520986220 136.234979263419660 -199.218165139284878
-11.821771558386077 135.566852144565161 -198.725446109762288
-10.590111390818135 136.288573235125170 -197.050996018460864
-8.454634961662215 136.818682682295560 -197.864695771691743
-6.795153707882140 136.067301309800797 -197.643827120357855
10.004523473760754 135.660031577147407 -197.283190717036490
-15.491882116153718 135.209226637437922 -197.374215441628223
19.932723047762700 136.450189478248774 -198.534208812764746
-4.314677012382230 137.390421970402400 -197.036414135332166
-1.195292922633658 135.127094228948323 -197.190878685546664
3.286080467799932 136.787233299519045 -197.680961522367909
20.417505272175241 137.153525242951645 -196.766641036935198
24.564238296685666 136.802494241981805 -199.758199204678618
-9.379198055880780 137.965213259660374 -200.033470337944323
-10.057038430571893 137.755000578983896 -199.215969933569994
1.789210851327889 135.029519657371111 -197.736506249703837
10.738253535451276 137.131930204695408 -199.396647750047919
21.443688440929435 136.915121579281390 -199.168199826723026
9.231752129433385 138.030771269392943 -200.161022592432943
18.592276183468798 136.391333922278761 -197.970699124276450
-12.236165469504822 137.038034931386761 -198.739958155740254
3.815230497040833 136.213400330101109 -200.542636049694835
17.350384696946108 138.230222360924273 -197.562508149528242
18.542462671636773 138.310602914002288 -196.764864146324527
18.518160949375069 137.181372844440375 -197.586626500786878
23.434210947276796 138.875251205606446 -199.348418148930222
17.941440547831640 137.731548627573034 -198.983260526247648
19.189602580066431 137.181495131961839 -197.463550489912166
24.378683525771997 139.009273460759772 -197.805094306308888
23.193643731353468 137.846775816066213 -201.257320452125128
14.895861648613078 137.755493162855913 -200.907393562723229
22.267301492305204 138.216970048955204 -199.856575753795966
21.689395974174694 137.277885138642688 -201.849898626106977
26.510367533104041 137.961461977493315 -200.947350313164691
27.593072551747184 139.405119657042178 -199.346913521066909
20.732431155896368 140.344351815310574 -199.993783882638127
-13.110557343111676 139.230237615554842 -201.461102009169394
23.425979596067709 140.666227688486543 -198.947556933196239
28.494423761456204 138.681683490932642 -201.339002141080215
-14.519393702205534 140.160008801130971 -202.331272818476634
-11.249529148689758 138.084171774258778 -198.862405530898997
12.772041150712628 140.312095499379836 -200.720129074942747
25.874998445499156 140.576298950159781 -200.415084824582209
-13.784258656122265 141.469634117267873 -202.478083361149345
24.022256928857200 138.890285938751902 -202.601557931157515
-10.881299050302356 139.655756694978038 -202.835072524799216
13.746448593994716 140.436852132901919 -202.471781814381245
14.967892118968287 142.444511395913423 -203.361227703207078
30.409465094042794 141.165333966191781 -202.588280016910801
14.956629820467356 142.015539608149169 -204.330195153367669
23.711984010147898 140.095077531869492 -203.778142016030785
-10.354263897594695 142.582394416988734 -201.848901170960659
27.688497387932749 140.593578977995662 -202.565139229353179
29.606648599088999 140.126235003160872 -201.565010676739718
-11.968492763153286 144.102671674571894 -205.576658871957164
-12.449005044728429 143.161943590903178 -203.268689661414243
-12.721172078326154 142.939837944972567 -204.162159231276547
-12.938726050374626 143.284502726583241 -203.741882617463716
-9.641682780404343 142.761101494880194 -204.858196608962118
24.086233731615081 143.080906077124098 -203.477096325066839
29.951534628150362 142.190459585838738 -203.439753953899157
-11.609157773723251 144.640943971868097 -204.389152583571075
-13.202014346922491 141.570472207649516 -205.280882512693637
-12.506346723991836 143.714773411542694 -204.388032701356622
24.998384057184431 143.738864566180325 -203.679581126668211
27.994250246760956 143.918676622085115 -204.060963178007285
-14.129120460070421 142.952197027256091 -205.221326595193489
-13.707927360259228 143.694656356272219 -204.054837823970331
7.379786066513167 143.406603692357635 -203.701499692228339
32.010796839368638 144.712583426345788 -205.002626874256208
-13.548984988501827 143.212363518603922 -205.153547547065756
-13.223212027286216 145.444055904855276 -204.064978396676878
-11.929503511374081 142.451383809325819 -204.325095790827191
-12.388933467553256 145.308974724831245 -205.304864352222609
-12.636379784518132 143.471085609084469 -204.868707476681948
-13.030515453719129 144.016678976511088 -204.435357891025660
-12.954364188433056 145.216068086289710 -206.653390353876546
-13.584351276413686 143.447165213790583 -204.886589144595291
9.395017794054956 146.343853842819470 -204.302509955837621
11.412183455646451 144.423593612412049 -204.755083916794206
26.828139544346147 141.943805227629724 -206.016338387051718
28.198827920923865 144.055420174163572 -203.855241263428042
16.909704412607351 144.251922320711941 -204.454921335395454
-9.624507722685388 144.386385434447192 -206.457260246662372
-14.716700358236222 144.596442408707276 -206.779897303811453
7.667799850644504 145.716905475742607 -206.364189795302451
-14.876810179889434 146.245034142181538 -206.602539310140941
-9.143021036434005 145.316776947690755 -206.340315917021172
9.580606844396504 145.659018915775818 -206.626140614137540
11.439153990172288 146.708312987752151 -206.057283043738551
-12.576212497255375 146.716951578055244 -208.550581610179989
16.826066649690681 145.829446674292484 -206.733223891603984
-10.793851377444152 146.243665847675345 -208.090850158649033
15.757281363154913 149.233841261961800 -207.128469916208388
26.189361912862498 147.392115800255397 -209.344539495141703
27.553084166742629 145.306330666257793 -205.897603881828701
7.050617678987351 145.355371099427714 -205.210202314024968
11.222614366899847 147.990101867635303 -207.952336543889658
14.630587843638363 149.107266051727748 -206.125259582833991
17.215388786760993 146.023847456489847 -207.290261160163965
26.248821677244493 146.088345475806392 -209.553805038238039
28.994449951982581 148.033811190936746 -208.405692631704511
-10.954135700810809 146.834154258676591 -207.431287686902749
27.744217207934003 146.484728990646602 -209.766766777936482
12.185273452542726 147.185748783778109 -207.977275051302570
16.719998881372614 148.231937279060020 -209.528364040470109
-13.898007433513174 147.376682609363769 -208.434349912684155
-7.938559415330934 146.452972769452629 -208.701293920667069
26.851683019534772 147.543942027881599 -209.237716189578521
-12.795624690712632 148.553839985437122 -208.661668077447615
-9.749435972595258 147.177682746288212 -208.758607446907575
10.693327165633338 149.749327437322791 -209.884579001857247
18.731515583438032 147.299480833994295 -209.347180217627482
27.105891816480657 147.835966621229630 -210.095359804833407
29.084867968693867 146.789898668520124 -208.935519521536122
26.129810226098456 147.985083839013754 -209.290358407976868
12.957723262730941 149.816692660773043 -208.167035576664972
17.900671829552255 148.719646646737147 -208.008636714841174
25.655928542655605 149.263062097664630 -209.848462477609274
30.148159430510617 148.503184556594789 -210.105387604557279
-7.512907557583636 147.625844322890259 -210.179709562974978
-13.710111566137495 149.176215628015370 -210.500199807830256
3.737125324488519 149.608767900076316 -210.350168001081101
6.761280090177820 149.463294323945320 -208.820431462403178
28.692797939292682 147.019754834924612 -209.908455302728839
29.083861415625787 152.657112487112414 -209.741194430260720
-11.861094450058561 149.028369814217569 -211.460467362387107
7.240181399866676 149.252915416160675 -210.274185790887259
10.814279529580688 148.096583198828284 -211.955474483514280
16.763289219310842 149.011739324920200 -211.008307722619861
16.702185140686421 149.568847255556733 -209.616227765080851
2.333944626654566 152.249868480597911 -210.776777473955406
10.626791817577292 150.264124943406500 -211.014573568583984
28.618837571538062 149.037353740735995 -212.073090008065577
-10.672868627961034 149.972790528089348 -210.543610190186968
-6.446125426521228 151.593987951492011 -212.716550372290868
-3.685071616221489 150.402317638852821 -211.561276153455907
6.676360365821360 150.957330647857731 -210.073448579737658
-8.204043028829275 150.887858850298016 -211.326834535647663
9.452152441457692 150.236150807689882 -211.105286179137607
15.195337247765382 150.076740818427794 -211.432056229672838
17.678184049015002 151.241997840238980 -211.539635454363804
-10.765852177020969 150.688533389198454 -211.763922582463664
7.034548023630038 150.771859744548465 -212.133757718647217
25.519721815865449 150.068763943342276 -212.070446239896569
9.795950134319042 150.219808035107434 -211.485887769748160
16.449584442182626 151.969826590490840 -213.738513352931506
25.791476985650654 150.430635373602570 -210.868534313766958
29.149992296340880 150.741257939296872 -211.893633865157938
-9.152477520440254 151.186903564278765 -212.521037125283470
-5.441766668320684 150.867942228696904 -210.927385787828115
6.526579331909143 151.565369398812692 -212.807864957485720
16.769961863986055 151.321759037561492 -211.726101130693394
4.315481571305542 151.188932970539867 -211.219087756055217
-5.442260977872137 151.400072461087262 -212.460047737077701
-2.066618216946952 152.718341874993200 -212.618486575665543
1.849297826955846 152.806663819777810 -212.949249011177045
10.550938032644741 152.897195470795538 -212.628581051240417
11.459034855184381 150.721489690392389 -213.472502568642625
26.591892347525725 150.159760015740460 -214.626465892871181
-6.821324416905008 151.261809637419674 -212.383596576237437
-0.478370350712449 151.377363751670771 -213.130281531054095
4.427165936155534 153.122450457471643 -211.587711084536636
14.799498847460375 151.649071575656365 -213.421308294277736
18.100653880776971 152.783816868928966 -212.576253951682730
30.617235302483266 150.816249414941552 -213.035777459393074
-11.000662983391910 151.173451582563899 -210.831545281629587
2.238830855135250 151.274090853907438 -213.736839999299917
26.730574480363920 152.176558145499627 -215.076711873666170
28.281576515061133 150.471509386691451 -214.060364741228909
-8.899505129609713 152.965774138936865 -213.386973519326432
-6.129498317006635 152.032232569575569 -213.961621580266382
-0.773831688195034 153.803945385091652 -213.812866472632976
6.983904705868301 151.767316903225833 -213.689056949198118
8.514738053558052 154.835177865799295 -213.251588302733154
11.768550309986319 152.059865209630175 -213.434462943646821
27.232891998305888 151.887411434439571 -214.437520421763253
-5.489282316379899 153.094731380447143 -216.003880754517581
5.172527451430204 153.256593288529416 -214.007115555879352
7.721743395050033 154.712579405340449 -214.806564825230680
-9.643083476561458 153.205617622141290 -214.712246381654296
28.364473122931891 152.535889236456654 -214.770801418990516
1.647643034595842 152.416536023397072 -214.344365490503606
7.543570581476954 152.790133192531613 -213.467761372446489
9.502324441868069 153.283696453033059 -213.621479678124075
-3.273147956867140 153.790621400203548 -214.119398090081489
1.993068557208542 154.285137575595940 -214.949659320429845
-1.903980748955686 155.141267539719962 -215.431569528252737
6.762872900869376 155.177986376765347 -214.167209841312967
2.608181445887367 154.186415672305458 -214.989750231349547
1.584183778072510 153.796320974853757 -215.599371340788139
25.737237540930941 153.389815607697471 -215.704250381026782
26.959402899283983 154.418964679813428 -214.470416157356510
-10.515280821377159 153.249715385022284 -216.527942768907621
8.533131695398895 155.113802561381704 -214.770223990394499
27.666232314561029 154.459422566598221 -214.967193900778057
14.256654224910505 154.101254839236873 -215.926312506330760
15.235017146130371 153.466140008514174 -215.596806814015451
15.590936917926806 154.451848476874943 -215.855161307472628
-4.352630576723077 155.664129408343712 -215.429035404106571
17.020688981008959 154.187127819995283 -219.140383633289701
30.370860518487103 153.516738129696478 -215.789291789402057
-7.742210772388020 155.663287994260202 -213.882251076869920
15.223463781229423 156.384010158858871 -215.507714994844207
29.079833454442262 154.093560101295282 -217.938602969517945
-0.275239512894591 155.927764966428668 -215.538151064108604
4.203897083704730 155.011757772077345 -216.110156220759961
7.302703992606175 156.609491583474181 -215.894777457038344
-8.083651495851120 155.930487138895074 -217.322149705927160
0.888739929649083 157.100729530143212 -218.901463770371947
4.124087273628646 157.044325814431318 -216.174894414229442
27.200400860320823 156.783862768986495 -214.613750208571162
27.776445239271503 155.701927183458054 -216.661884514340329
12.550269896779628 154.458835313136149 -215.339337439262465
-5.649536592559239 155.642138788608008 -217.047499790260559
-3.617411106690403 157.296559351236169 -217.898338441616261
-0.688015906625289 156.288584408589799 -218.203643914742372
5.921694074172414 157.126286024270257 -216.619754095582095
11.397877857436253 156.908409863613912 -218.559521355432167
16.754197049735943 157.809368034796563 -217.447615554751820
-3.070772837660128 156.763998574269806 -220.879682351951118
-2.452623237496073 156.007764216935954 -216.456440665116276
25.544355044180687 156.627780420204033 -217.417137673944524
3.241792599891337 157.783106155016668 -218.500162455292582
6.681804627554143 155.968564957947621 -217.784231581147822
13.175154049215882 157.281736833077503 -218.287110886028699
25.040682689464834 156.084467166357570 -219.761738617947628
28.439441633152157 157.415467764320027 -218.235972492532483
-7.613279297129123 157.155313801308068 -217.941296251996533
-6.587909268440523 156.996461879151525 -217.441663235469662
1.110912274897264 158.627367416220295 -217.294433642403106
3.418823757108056 157.616395387772883 -219.534229758233209
8.979032198577151 157.133947148137850 -217.763114080592260
18.885833640695370 159.739459659825428 -219.816045545800904
28.471415265431798 156.332241685983348 -218.768843312799760
-0.189502502575261 158.309649882439004 -217.827931420906253
10.698661249788227 158.694346039362642 -218.383467357201994
15.022545579576247 158.014478684339338 -218.362261744468981
1.407965141540175 157.757040744231688 -218.440579810268787
7.782944022302658 158.503184974787558 -221.185871976120211
28.760103881890355 158.167455357705165 -218.632700981197331
1.057250872964140 158.482356861052949 -218.494723496047982
7.287257236980245 159.854723064479060 -220.087641761176769
25.234732115046665 156.681266979795225 -218.249971482983682
-1.215449283632966 159.763437900948105 -222.826340433842404
-0.698576443019138 157.704113967026160 -220.127804423351336
10.960694159791757 158.828111430466890 -218.919673171371755
15.177393224792837 157.524832863659867 -218.655571763286218
26.985789893297106 159.019040139601771 -219.197521980712878
1.271463424636809 158.127544196318297 -220.064982457209595
23.944439389222005 159.241090012553570 -219.115496803832315
29.081807766962353 159.254851058978744 -220.519233769750429
2.321552567876678 160.934872749081023 -220.894447808031913
7.436428440437117 159.581884290562641 -220.416838145676309
16.132001705019906 159.304735626330711 -221.474621845558858
20.209485677385853 158.426564988138495 -222.726375640792043
25.527472518033708 159.255513520475887 -221.277007351246681
27.801492596700797 159.779860707887991 -221.246755763838109
27.078284657718324 160.586595102977498 -218.987558549517644
8.477110148175710 157.857373946512439 -219.557376411724192
23.667389651276267 159.161687315483960 -220.650124116938599
24.699076535301213 158.572912890581108 -220.947120213554228
26.861204730037066 161.147226408307972 -221.489034747644126
-4.737171081241534 158.986257446301920 -221.909342218266545
14.984759408284294 160.300827905480759 -220.879353237564629
22.029231155388302 161.114310724777823 -221.048094992958255
1.460089854321329 159.344398847068504 -221.488826368751859
25.205867016020161 158.782165290693882 -221.226283069736184
5.861636813435483 160.325027665697576 -221.068258045168307
10.484960443394066 161.509638340982463 -221.312376687252936
19.043308960356249 161.722199578281192 -220.743945548810785
14.651479347331179 161.287859797951910 -221.744939580488932
16.160094451067565 160.658475027361789 -222.589604259703918
10.391681249773537 162.919133265288281 -221.241969220096820
16.523648674343644 160.771246731747624 -221.172699373269552
20.242961557552057 162.726809197995721 -223.520661261780731
22.870203896686412 158.782956385601153 -222.175493287960563
9.547379870224752 161.259021188755924 -221.048123731894918
26.980807270913186 162.389491268588159 -223.964720811496136
26.499679519812084 161.801036921618959 -222.328908978425147
-4.680991376756895 160.862168760424055 -219.980990302855048
4.504815528425585 160.709571109904942 -221.678572017978126
13.114167355498616 163.080907495982245 -223.535413467810400
-2.921884279437028 161.608284865598506 -220.576651774793248
6.035074958793234 162.930868488034918 -223.533642933821568
16.394680857704859 163.467584296923889 -222.680594742144677
18.140429599182152 160.521104156581288 -222.479667873172872
26.158569883322581 162.111347291111628 -223.894920322819303
25.663948248380226 161.168996230582280 -222.117832400002811
0.304303753517456 163.196395840310316 -223.381248300604739
10.359381377789132 161.985575588941884 -225.118899250356492
9.059824654204158 162.597777101530568 -224.937380581811539
14.338467493906277 162.328209836088064 -223.906578707156115
7.604137364688143 163.271178453829521 -225.189571293143956
14.040435550516010 162.711627392393922 -225.008701762986874
17.510672693537337 164.298981528844763 -224.395297536153890
18.769644724455343 162.780808234698441 -225.260537800353404
-3.428341697113044 160.522648900846946 -224.078851131377576
8.996187817124593 163.978760652710633 -225.079990074964229
24.057782654827825 163.924525247886834 -225.907469500159408
26.311924269642439 162.882160175841648 -225.202149887450474
9.444724796272784 165.533900578900102 -225.985702822080810
14.375533091992340 164.731249552450379 -225.721466186175348
16.539265631416065 164.098083742752635 -224.567742487423828
22.072469861215833 162.961821093113286 -223.415645790736818
-3.686967366816279 164.551993107715333 -226.023020833058411
19.781253397050932 163.758848547978147 -223.841607353807746
24.776291660027827 162.353378451995582 -225.100594865518758
10.850438685413515 163.565521908565728 -226.867233743801904
15.492369615990000 164.468669983655104 -226.111045788392005
18.300163134668495 163.875785236049325 -224.717653873133827
26.102123306546506 165.337591369207672 -226.601340350875262
12.550403421420826 164.313866719581057 -225.475015917916238
12.961259970420929 164.040472222643302 -226.939761403792659
13.373902387374223 164.404967510772025 -225.792306684315150
17.060652343289306 164.303810009827828 -226.530566203503128
-1.812020955992633 165.277650890504049 -224.770407465510061
-1.758579583498455 165.394943643528563 -226.006157925806633
2.072134785814554 163.069643969232771 -226.407393520335660
20.377144856310302 162.222495500827137 -224.659691581595865
25.359787798792112 164.537827263816979 -226.134990420683863
3.668835746762906 164.164971376781409 -227.526745953649936
18.897532632528417 164.574098009507537 -226.769405205379513
21.131883340745883 166.515938015226794 -227.017847911647266
17.567193170999037 165.897712529274287 -226.005452249958580
0.697813927833852 167.241631562850984 -228.549843257019432
1.714450401073610 167.495106132974001 -227.381536110309781
23.142255017674977 166.389183797207494 -227.086652594278377
4.214741361913185 165.691655481059115 -228.096171310002433
5.919846630650948 167.528116100062732 -226.571384093379464
21.451600248460011 167.568358084175742 -228.525070562025945
1.452250188932657 168.598072115486815 -228.752171626922660
4.716313047006505 169.015317093247177 -229.373305171827752
18.772964851674008 167.999021792056709 -229.301216832969089
19.686979959418771 168.361187998045153 -228.827355147997338
3.190812993215056 166.932097190154821 -230.565123654217274
4.907767306554011 167.751775256246475 -229.887545519822396
11.919473469454353 168.600146009806366 -228.531437607361084
15.609614901340201 168.361912620357515 -229.096496237161006
22.340721610095901 169.009725663970755 -228.412116930363226
14.869746222986041 169.099861352151606 -230.583224256049135
18.786550806867698 169.425576905026332 -231.144139613983526
-0.340704899678924 167.812703616084548 -231.123284380040218
4.545632277294942 169.066190893203327 -231.871938884400009
9.514188713006984 169.331774212830794 -228.939574927374565
13.242860250758943 168.909109658497215 -230.558832479657781
2.276073467171746 168.675572009639097 -229.697312612305694
6.562255245475642 170.885393134918559 -230.789292964379683
17.550117480784191 167.444490603561320 -231.369752630256187
19.170201222796116 169.763079014536345 -231.009822698568854
18.574325085871052 169.749932806438636 -230.960621532879145
9.965111432637848 171.369033895118662 -232.503232858494897
12.911622388819662 169.417142895437678 -229.947891911211229
17.204489387264772 171.771219075531661 -231.148497571768530
1.889030018672505 170.016635168229783 -232.147631293912468
13.247392741484333 170.618603880292682 -232.092556058352187
2.478829103508066 170.059339594166175 -231.241516649426785
17.005725943533808 169.605374050470971 -231.923705514691363
7.962383729453348 171.202163764989194 -231.110365826229980
9.706673265720958 171.555096264733322 -233.137466186081610
7.924941856027479 171.538223921467733 -234.169197333245990
11.335970692306418 172.003323554603696 -233.096797762973210
17.649775630947754 169.268124519285408 -232.960790839689764
15.705625206899354 170.553638160096114 -233.433620025061487
14.721291505570431 173.643490158352336 -234.259314388639439
8.484242727009951 174.561231977031383 -234.905182417763228
3.131741226928231 173.501862212133716 -234.733474409613933
4.456723506315901 173.373190264929946 -234.224787512358205
6.455269723210502 173.281204635757405 -236.181745536454599
12.649558772801322 172.213375008240263 -235.919671692567078
4.669851014194766 174.678413432072432 -235.741798819246156
6.407626920278984 173.679376916952663 -235.595116235318045
10.430886334701045 172.582657919937731 -236.003650042096382
5.770266539703912 174.150738710666815 -236.676078936947249
5.713367034067489 173.637659327414411 -235.017948262011828
8.047135607811285 173.973180595652849 -236.533368335555053
33.987687612150573 -24.814908869062226 -34.247715307251568
34.689212388500607 -24.754239293077624 -34.271526367943430
32.156645786634535 -24.647209865986206 -33.644160378968955
34.604069439527812 -24.707287822610283 -36.776152299818257
35.905897004971912 -24.086435889038530 -34.877095009068086
39.248597924502796 -24.403663969135398 -36.636101329933020
31.155327015365877 -23.493974455529834 -36.734872713167732
32.209142311174070 -23.947580335098372 -35.104156368551557
36.975053348719882 -21.989209453666643 -35.470712868561861
39.196145325492047 -23.003068598961750 -36.468544893712398
41.337441277489063 -23.634966498384060 -35.288124944659970
36.103009271207462 -22.303246946340249 -37.202944583864074
39.151778959739303 -22.208897139892876 -35.905267025753581
41.324012583136266 -22.838521593038312 -37.043010776592276
24.730032738167250 -24.764719749472977 -36.738527382167305
30.598692251035157 -22.843466119892653 -35.036168973579635
42.400933783434319 -23.075708946363036 -37.102112787861891
27.744675905030029 -22.243466973195602 -37.957440780076247
31.295805062730160 -22.206590126984075 -36.644562354821176
33.700594794298311 -21.745280238919221 -38.290135390017838
36.221087103746022 -20.778822948778231 -35.862009358947191
36.613226127979139 -23.966578043907564 -37.733731647076297
44.075532987601470 -22.768824231919233 -37.141904077823291
27.590506448916010 -20.556884197512758 -36.903745003917152
42.314521898451176 -21.800210258190294 -37.857328806143286
43.141026879886546 -24.269210668258079 -38.025484807541062
28.754833791924142 -22.164204051731442 -38.723841555893166
32.103496179807948 -24.501044612081788 -36.135109736790099
36.176961249667031 -20.615671055771461 -36.274153007217166
40.104256165773442 -20.338955712783854 -37.122455557584203
43.035539072980718 -21.435520223935548 -38.546240529032453
27.498768955944872 -21.886155419314299 -38.020891668635961
32.618278675147216 -23.009076412998212 -39.758201765614537
39.622829282771484 -22.591529155407642 -38.577538108566607
45.243245937798974 -21.019410579459404 -37.327271362791329
46.570132125743079 -21.671778035968323 -38.733443106183515
25.690644461651473 -21.820425478411007 -36.224562247810717
31.606218299038925 -20.869551345873116 -39.110981942216988
26.094240710644318 -20.664009190247150 -38.483739229031251
40.709801227938037 -21.148599939286918 -38.571998637123443
39.495740717845827 -21.587667844942121 -38.592593957265933
45.786660016012803 -19.938926492147324 -37.592388695791520
46.711216820198537 -21.100827198026291 -39.639404631624721
39.503787012771383 -20.957370978051031 -38.817309398605538
40.236377586347459 -21.117058662644119 -40.061594938425849
45.610932462377939 -19.984044756432819 -39.128404974489541
47.782660350565983 -19.545811488221130 -39.045968410281560
26.328188423198522 -19.974283303479208 -40.578716004803738
42.819147007428882 -18.933841081589055 -39.037178614713063
47.054967181872563 -20.240991599021683 -38.232949213334699
42.667604450427753 -20.426674505770158 -36.893006348757055
23.998890221635403 -19.791875189148790 -40.845011161004336
48.443802683727725 -18.788064174395195 -39.392586880264268
41.517906705083369 -17.797945308519225 -40.038144015153421
43.086455571813474 -18.704309777787863 -39.303792861251175
43.262787911583906 -16.444338458304486 -41.047260986891146
25.833186579821643 -18.164929146595703 -41.957428445085569
42.814767769973088 -20.255262211757437 -42.098155156294119
48.858396460062458 -17.984056213057151 -40.802402141535850
46.709566405232152 -18.560920467580253 -39.250582675134758
22.242781766916149 -16.949848010064137 -44.135524289095116
48.615875978586324 -18.366875312611253 -43.354782006717755
48.207578089265851 -17.650428267519292 -42.660178121183456
45.002147018397565 -14.892010648864545 -43.142008928344012
47.490025901831920 -17.784958500995469 -42.107626002988624
50.164207111904389 -15.444684116739396 -45.283547221075850
45.064658965154322 -17.532180843913306 -43.279467962987788
45.267649172693453 -14.385251913758335 -44.962855940644403
48.909288638200195 -15.435244159004604 -43.710308549672519
50.018429367122856 -13.481437973287994 -47.164085594387736
45.407798836514033 -16.203232688544411 -43.571435648719913
45.096318078619824 -12.564781168441311 -45.717058418238516
48.436091982453021 -16.163026869911462 -44.798259331138013
43.997534247430842 -13.865963356245686 -46.248125399343678
43.917385913240707 -12.228445932147553 -47.972374437076915
48.112071810544670 -11.265772191602295 -46.443812512736372
48.410141888067812 -12.747439534655575 -48.051939591833452
43.569536182241116 -12.436106005075562 -48.710130669124879
46.911664216764720 -12.821643936718207 -47.670867299999891
43.693769106146881 -12.925487614393647 -50.087500332776287
43.344736110769354 -10.318296569107883 -48.309512509754775
47.168038375087370 -9.568957406829714 -47.288104056518215
44.623415828149831 -10.488839973281163 -49.143333820307106
46.610690752882647 -9.472126852110330 -48.704405077855604
48.531047756440920 -10.515786896686942 -48.637696227131144
42.328453424803833 -9.778610677025643 -51.734511530659304
44.745643937448079 -11.389567180173030 -49.855395414626116
48.502029706163526 -9.553536447563818 -52.629382594533077
48.201867315236726 -9.760931392718703 -49.378291903053963
42.470871587429599 -9.063627781663570 -49.545305238592654
23.721171976593606 -9.066111644491444 -51.120708309969480
41.250195370680835 -9.397851071967782 -51.060302986789274
42.885636563392765 -9.201618909340084 -51.365349281490374
39.206019089087157 -9.290606915122606 -49.893198706192372
40.887263320553302 -8.691729063362263 -51.010981341069261
29.352354981929352 -6.868982860286504 -51.699750130318634
38.046172007633437 -8.184232009599999 -53.269072509154825
48.278720296155640 -9.072927317833189 -51.532119449087496
25.461199378043368 -7.797702006763938 -53.332973582265552
29.919266735926357 -7.049227462611398 -51.009751274592524
32.662981717732890 -7.628864916655649 -53.173786961720353
35.386421341735094 -7.961262161602214 -53.101165827676255
43.004677045573203 -7.365091982697793 -53.013583810735589
44.431208677384433 -6.742431428918859 -52.184361304442838
38.266064267415928 -6.601921377511147 -52.172506548625776
43.136179748639492 -6.928100595441578 -51.489435754417926
27.992311082075329 -6.521454116058475 -54.115433995166214
30.741841590194316 -7.933004152073975 -53.320512055769392
31.675888869134926 -7.589198604152569 -51.943972366298773
42.417341636420922 -6.960319685499037 -51.801665980910265
28.770377905245425 -5.810642561703697 -54.719862280235262
31.603910631565075 -6.632164372319274 -52.374373055434916
38.093909025415783 -6.324025783718469 -54.312635627821095
43.018010172175799 -8.542920048616775 -53.444563125782025
42.126174324303506 -4.980800099794110 -52.571097159776244
29.275810030250824 -7.382474586497933 -55.142299254720911
33.209560096713666 -7.225657788773901 -53.083826115060518
32.055492594445255 -6.923238070351701 -53.326860506171869
42.415864486360562 -6.901736573538585 -53.822670753762559
32.633562448870727 -5.426026732215854 -55.841612859128404
36.944225195690827 -3.839182034386918 -53.738407534094115
38.487301615662453 -7.428053866399901 -53.782655594029883
35.454177408720781 -6.724341263086320 -54.368031403750109
36.887994548425056 -3.995897418821313 -54.289047978963509
36.546570234481585 -4.143621409625936 -55.456375897602499
-67.061468669965507 -4.587811839917666 -58.393282312476941
-61.248823396488866 -3.959477652177704 -56.607874512817844
-79.034892334483459 -2.203813708711318 -59.799955910102327
-57.824184363575171 -2.806422058184224 -58.167898210389140
-49.899258603187533 -1.475270087082920 -60.210943855071719
-87.833136159402500 -0.293452200484503 -60.175754921025515
-90.173712885820990 2.680040356733933 -61.367392656637023
-89.441171058878638 0.746003847368582 -62.084352247267447
-39.129197005837248 1.137583349194137 -59.296870460098859
-37.396893971762992 0.166212718172401 -61.133251560905492
-33.433917582511832 1.720342390177378 -60.032826691430103
-20.183152156150712 0.510507881407937 -61.016451319190210
-13.805872799416507 2.123664256203629 -62.711481517757747
-93.624873269750779 4.107736592089549 -62.710369105204350
-10.600116218193513 4.259223618059751 -64.392126182260355
-9.083682572787170 2.240816393591413 -66.298094874175760
-93.516830507692546 4.562674427816337 -66.183840049584262
-62.523151433540370 5.196355907836995 -64.305316747659077
-62.195163215232299 6.671787998446663 -65.810319790386387
-8.424434474029363 4.495389588049764 -66.298652200453049
-94.520017260102051 4.711039383261094 -65.238047351551501
-62.904361907388470 5.417496459641601 -65.379724901058012
-59.810739659604884 5.528593129027227 -65.194338057811052
-8.027511858101578 5.243351573198394 -65.982423942518082
-96.714561835345975 6.423371847421120 -66.291145606935643
-8.646401852695309 6.138379472807618 -66.277147657353780
-64.379525515381189 6.944142353885517 -67.210814299757672
-58.789805174044190 5.641007801173259 -67.005362412813113
73.993286784794719 6.620775086711096 -65.321526261616555
87.354422822131085 6.399470577007592 -67.717486326634969
89.620651548384203 7.112324719770859 -66.624190412079557
74.614927883094751 6.705956060575295 -68.229334733102647
91.920393187222004 6.418656686323205 -69.235888230103726
-14.866803052282251 8.012967831647844 -69.077097881391239
-8.410807835178883 6.375749955453121 -67.523429414188925
86.152098031855544 8.902997780020801 -67.855023281855324
-64.065401061066467 8.240868523986011 -67.572229869072999
-17.253312344483771 9.577319572251270 -65.449639927588478
-61.283810890091559 8.470583312533819 -68.951653155598748
95.059746651138454 8.407408214895018 -70.246576464000242
-22.944864442484032 8.139870726205888 -67.661100929889329
-98.938698365007994 8.608622578578608 -67.717048758300891
67.815346234742023 8.799115456567829 -69.456749577719904
95.973080403127511 10.005833720520693 -69.100578244680690
-64.771781827824654 8.857376745646759 -69.015156700779798
-28.504983147933075 9.475416522710246 -68.684197831667845
98.643074267391015 10.612545156853420 -70.091136513654007
-61.027273326560966 9.906320783720812 -68.687705776470125
66.007358401661207 9.239934417390803 -69.843028687754469
-62.293594582746728 10.414514292367278 -70.584516419360611
67.080322705722907 10.220715493022569 -69.720684399569194
97.260198939924592 10.182214627188127 -70.404767629762091
64.709894843374798 10.361766575694219 -71.952047946958999
98.455593680187960 10.946421151529723 -70.615742135466817
-32.649731027452248 11.086378960039553 -72.410651537073619
65.554808674289390 14.147949682737549 -71.450044736330454
-62.378939552595035 11.589462990835843 -72.404178629192856
67.987978140302317 13.243573678347097 -71.930018448692820
68.319584221712503 14.736389251486402 -72.666817355146790
-99.578413538635260 11.319895040050953 -73.859284911333290
67.756224458412248 13.091905365919253 -73.034273063312469
65.843270564948611 13.367758158913160 -74.812329262904598
69.446313850942317 14.480902776862981 -73.623041608383801
99.552271325288700 13.421425945317893 -74.278449257666523
70.275628215309723 13.827928954879537 -75.694584727191682
79.173684817853371 14.197967915787642 -74.075530128088374
101.603427378867565 15.630352109747072 -74.339759371620545
