# This PCD file was generated using the MATLAB® pcwrite function
# from Computer Vision Toolbox®.
# .PCD v.7 - Point Cloud Data file format
VERSION .7
FIELDS x y z
SIZE 8 8 8
TYPE F F F
COUNT 1 1 1
WIDTH 805
HEIGHT 1
VIEWPOINT 0 0 0 1 0 0 0
POINTS 805
DATA ascii
24.691349174889616 -21.546914169324168 -39.414373556720193
30.660647074395357 -24.015184941844396 -42.048692800499424
48.138320589740097 -21.437391911252377 -38.774819990366211
24.680639869702762 -24.567676136978900 -38.075898182514941
21.470792403101171 -19.929833146199702 -41.634997946630179
40.944403637478850 -21.603342987931047 -40.113065067179306
28.470196862413047 -25.712044234723113 -40.889842437361104
22.317078029648396 -21.390089182492297 -40.051332310254558
19.384789168740795 -18.646562059734716 -39.937119139999595
27.002316198492331 -20.153380389544704 -43.660926629436986
48.409312775373031 -24.183023864206138 -42.242302176463305
20.614481864466661 -19.003002847037639 -40.685612687633778
18.283788659696963 -16.994478162019419 -45.156343978471419
26.739476139522466 -19.718801800001302 -45.179843531559300
27.309150011180790 -21.072356749611394 -45.231820377201707
44.514934578040538 -18.952971777518719 -48.290908049422001
20.861626574339773 -16.924497824097532 -45.582380938598931
26.476396527993757 -17.111944667203502 -46.813950723351354
51.457762761835319 -19.205890383519201 -47.190855172441466
41.021347740630681 -14.649995533002070 -46.081782234144704
19.236774776533956 -15.102491759030510 -49.738712588791500
26.390199928299552 -14.944595709954893 -48.453423364066417
25.385182908747616 -13.711624167478181 -51.721391599165813
21.766634992029058 -13.911457295785103 -49.001564780351181
25.208036965520602 -13.794544374842182 -49.939677502423379
21.093154892336074 -13.368723142975073 -52.146688258745748
19.348730879607263 -10.291152572516253 -52.319390169941784
47.742315941298720 -12.105522121359815 -53.068042602466676
27.617389326677536 -12.921342878683642 -51.310900163901835
30.279071800968790 -10.372540838202212 -52.467947524547100
49.678915992297775 -13.857716679020031 -51.610971857185319
23.687279737516331 -8.359494174202304 -53.719107999211843
31.444420560592810 -10.282431138424480 -54.091677439877643
30.650770464770410 -8.193429564030383 -53.395018783130119
34.516404799684480 -10.101898317568111 -53.459068446795364
35.625552934689054 -11.806228668953191 -55.508800206554568
32.470019687109229 -7.919575202014833 -52.436117157921892
22.057527157520450 -9.084779281077832 -52.922281119490059
34.867731677746271 -8.796741283341944 -52.179412075659066
31.380122007358402 -13.065418569810108 -54.733936918478676
34.460440347248621 -6.873706302019261 -54.719551882449622
26.235329058176802 -8.230120593121899 -53.791037178834792
27.670500410768501 -7.211513056522898 -52.554044370184705
33.113382628383832 -9.573421401697024 -54.256907811534163
45.286502785281478 -5.481175279774387 -54.375510466541982
27.464099972444711 -6.674484766004479 -54.188921351189620
33.352728500825037 -8.693448965013403 -55.662314607809407
28.035833718569926 -5.616554713022081 -54.545936638871524
34.602865939139647 -5.976860704375996 -56.117250118170418
42.676229560310944 -5.640019621494623 -56.014455664636998
32.675254150558089 -9.593768024829192 -56.095777840947008
39.869367828000513 -7.467805109675687 -54.808545814522262
37.178489028749986 -7.114896500597149 -56.132323733195278
-64.922851293689590 -6.366997325965693 -58.585904533092346
-69.923644859152020 -5.331465700699103 -58.555218777009841
-61.484698758386912 -7.575934781589300 -59.694062680656756
-73.754766464699514 -4.617890848391360 -55.470451559220592
-72.974139322966707 -5.045073555312665 -57.008193332059008
-76.312526710479801 -5.357328376424041 -57.765643393743062
-78.589722095967630 -4.240799646365195 -61.498546544429757
-53.332593832645657 -0.840618079780123 -60.721357516465858
-48.267839959111193 -3.592963054226470 -61.772520818657142
-85.625549956864361 -3.651195111474669 -60.379322122911745
-47.699346094409947 -4.003530461403455 -61.767010118532880
-44.630114870334786 -0.816478340603615 -60.710131237030694
-89.058864365496120 0.496110965774957 -59.315302464359505
-42.150145336637863 0.835567643035012 -59.734552950744913
-39.049758037647834 -0.736249611669301 -60.123701598656368
-32.487172454623661 -2.691465531053764 -65.280024847602434
-31.257663197566124 0.405411984157425 -62.907622656075461
-91.941161532104161 0.045379730974266 -64.992356998085071
-27.272600304275031 0.597487852068079 -62.675784221637301
-22.180919666243440 -1.119776869359227 -64.094396261166935
-14.115348873237506 0.033540693945608 -64.443512697090853
-11.582371282320130 -0.154966830377300 -62.489544152675592
-92.241964858746726 2.974911553160668 -64.575228291260089
-8.535721887982957 0.554584444681192 -67.060788640074023
-93.663311518570808 4.270995743859682 -67.698586456903300
-94.739493254430172 3.447174368494306 -66.731204533655784
-7.991130374902670 4.936481887943406 -67.845803034627721
-8.020144273893679 1.876650843295851 -71.643959870723080
-9.854914349754781 3.895813505509734 -68.425840193183205
80.418952496340012 5.959812840503014 -68.232591540269937
70.288366897624840 5.430260520859246 -68.342101673590122
75.908965843566733 3.383510925279219 -66.597348544707614
84.869055723001409 5.407274594629890 -67.415237692796495
-9.376287296794143 4.326458362014074 -68.090120705635897
82.926574596712058 5.780147623012522 -68.263462187545329
93.391117650494721 6.425466002502716 -68.337847325597323
72.052403236361755 7.469378023461142 -69.312622739676556
85.307935720561957 5.105695153580464 -67.331022546877406
-98.446122121429156 4.246245208147631 -71.417092709800571
84.889597574027377 6.842091583759919 -68.674699888060260
97.010793614750881 4.726343354508703 -70.762188713727426
-61.834365926041087 4.606320653655372 -71.096784236704195
-17.318602442243204 10.283016534383707 -68.546146920189813
-12.153658850170880 6.646080209737367 -69.195553707755252
70.337457955858170 6.209064058450616 -70.083451559611021
-96.247737315316982 7.313842656120440 -68.232693011842755
-16.265814811760354 7.471820848217612 -67.639035076290583
-9.809702696278610 9.578444827688957 -71.758967850725483
-63.570596390021812 7.218429816043185 -69.248469098655477
-65.276974241268164 9.633879902946241 -70.414598773418362
-22.871709624147613 9.491610110857705 -70.994728839687014
67.557224445332707 9.184830842808232 -72.619813916116911
98.343413361441321 6.168024377398616 -72.955533518961929
-62.394612875955417 8.249680655354055 -72.239645267891348
-27.414753741838091 9.141500086032412 -74.992539457019063
-98.592599767774246 10.184252279945868 -70.624431530127552
-62.068420272680548 9.477352447176436 -71.534868633337169
97.953212496602021 7.690376975886173 -70.451713357587835
65.191297512051122 8.142817486790506 -70.208534844209296
-60.518258313640267 10.301126407971761 -73.879887683759918
-63.912668749292656 9.611544144113660 -70.297871917455666
-30.933366445750636 10.000801213991849 -76.152781070094036
98.335134377504531 10.964133332424929 -72.024661347456259
-60.520309175614301 11.455145575420033 -73.082279116873281
-67.181906712716497 10.350159409773564 -71.433291216584493
101.481425681518431 10.795881762768184 -74.098885793652997
-33.080920240791919 10.816595923873798 -73.927046654809757
-100.244251129658863 10.005213337295793 -72.081142478799407
-32.765055081793385 7.074679235793839 -76.261447787718168
-33.731161215549328 10.843595888315495 -74.063092310621528
101.050616220520482 9.722655953784679 -73.396733170498038
-66.154960946583529 11.994112832477242 -73.725486934598266
66.594623409412335 13.967600465777309 -74.355850794924962
-60.876976926724204 11.126538056967092 -76.727343406549210
-64.557034083539250 10.476995175682475 -74.816930846772053
-66.670814310809732 12.366656066387272 -76.828471265312885
-37.598646867474059 11.538963032226256 -77.394452048670345
66.255853312661088 13.592263343622903 -80.644709406866852
-36.808259869429023 13.303480156082530 -76.690701160426045
103.513954785971450 15.090117090125911 -76.670811183522119
64.157579330975295 14.604649822817821 -76.594862533557645
64.833528948310388 15.680796149836059 -81.820285109312223
103.141903891537723 16.206533107979020 -77.817359280687270
-36.581960422732983 15.547728510969153 -80.898411935426310
104.609602932985695 13.368974245503493 -76.134842806657574
75.576673982605925 17.097643975789367 -79.826431351389118
78.527388842240811 18.950499801097767 -78.255204395069981
-35.806792046615620 16.310804918752829 -79.777598478029162
69.129434482469321 18.473037538349512 -80.254527859538982
75.773454796673775 16.683546517345551 -79.610497899198435
80.363257269854827 18.359106978413486 -80.962742918761933
75.361101317955928 18.519184786377064 -78.322041699113839
81.204326561859261 17.326993296916275 -80.192329329235690
79.742366693417594 18.046861771284096 -80.467912230263977
84.399202412514697 18.034422943469224 -80.573601885993327
87.603885651751298 20.253100109688479 -77.148614238279862
64.598801023952149 17.078283963695000 -81.146832109875717
73.270185887541217 16.409701709668621 -78.675071254846756
65.164349016879711 16.747811889474569 -79.626360161352977
73.642508821020073 16.276840133090033 -80.846739448735036
85.061875872490333 16.539318466470316 -79.096060661336111
88.528155320757065 15.816213752658008 -83.886134596700870
-38.432420603877297 18.876687219728019 -82.474556705850674
70.595203581500044 18.157024574587567 -84.102991028812525
106.302374911954246 19.240826743097742 -81.662240799584936
-103.360923577593567 18.095979636597303 -83.070102497300340
64.698007767366079 21.149445628223390 -81.268439657863624
68.076259715491105 18.686131236145933 -83.320123128486657
67.065197847740265 20.342519729820772 -83.809386041679630
72.743526604634908 18.191120028357222 -82.055792504006590
91.534584259549874 20.494402710574711 -79.614635775509740
-42.658191481931446 19.866995267457526 -83.008568856808054
90.325892683765474 19.580526539435766 -83.986529416324473
94.130008994892478 19.327534998763767 -82.467183956170615
-45.742667510030167 15.695969056455354 -85.972009751630296
-45.049521608917516 20.049474898325652 -85.193575723219396
63.701316268328249 20.584274030079271 -84.475025582939509
65.081446133192145 19.956262365861136 -82.315558296815553
67.158806773545010 20.443401427398335 -82.493629867016452
-46.955925770890829 21.302743741493838 -86.258129267866067
-42.632272042602352 21.628752718991166 -85.234195287920770
93.221938233108645 17.798739608016056 -83.582150860760891
101.497681544171513 20.551450319105584 -83.605701232183932
-45.803202259645161 21.217244568712292 -85.469922417786591
-48.935889814594866 23.655498547039493 -84.108052970390844
92.599871194664843 21.434537884412880 -85.169303642759559
93.782391585189572 24.055449482287983 -85.366520653493964
-99.342667623046893 25.505669750490554 -86.936906236907063
-53.092818045214393 23.090129735035926 -85.439033134620658
104.109792076022003 24.301026650887689 -86.394918399079614
-102.874960329004537 25.218847614646634 -88.710331680368753
-61.799963866655361 25.429353717475369 -90.450913910619889
103.027247210360926 25.608723693896199 -89.386558693635365
-99.225728561108141 24.885504171338123 -89.556848811394275
104.430291148898121 25.349732088962121 -87.720836342759341
-99.986738690999687 25.372935033658798 -86.365342882998505
-57.709767965885518 26.874763386656916 -88.781446357742198
-60.770601096274369 25.470956396699268 -88.735485020674133
-62.381105929981800 28.923628454509736 -90.022557210344345
96.450786962324159 27.590161575558902 -88.081949646795081
106.063267703621079 27.084273704677379 -89.975220500390492
-98.677769096560837 26.239312736536021 -91.724336695313781
-61.559186541780988 24.891519780903980 -90.019266729766329
-99.357978173094835 26.067069451395184 -92.073673831863701
-66.423323762260566 27.461118633068118 -93.795144984109953
104.675794483856663 30.960259907053011 -95.641273994777634
-67.798425435746566 28.841483861363258 -94.283523638725953
-68.429191792435688 30.685925263947109 -93.657973500609486
81.285528783088537 32.478735609222575 -94.372679532298633
80.172928615382773 31.140751626889447 -94.033814688880028
-69.194726901239136 33.792720519355726 -96.239529606165391
76.285953882918150 31.111451691571816 -95.486209283831968
81.086852198436588 31.280350406596924 -94.276377198930035
84.907309438395231 32.216164242966713 -92.340794116891260
-99.421374317551667 30.819688999109218 -96.588224087796789
-68.800973619716714 33.477989907517610 -94.775530017804172
77.235801250659094 32.011036503734900 -93.080736116984795
86.356511859384014 32.968460879613232 -96.520996729375767
90.569305176201951 35.699195329279149 -93.974377060511159
100.698546787122496 32.467616292067405 -94.319355050467649
73.867499849134035 33.460505709508709 -97.294064175863070
76.083365349502230 32.721521466368607 -95.934215727483249
88.995419588628025 32.126715796126064 -93.926777395846386
-100.435914809252722 32.467609679115654 -95.496518824123356
72.692544680505350 32.809658713922900 -94.599710046546903
80.570753264225402 31.291213968789211 -93.797612310030772
85.711652872444759 33.551181263116945 -95.974092190056041
90.060123512866880 30.945467703225333 -97.607144009404308
102.386449463155984 33.555959307309983 -95.416178066859942
-69.264770411504287 32.102235316679071 -93.840387363782284
74.528417898912963 34.148854794477160 -97.054746532794553
78.898348659467487 33.756884144286751 -95.398890708178868
84.810934811461138 33.221828169278552 -96.639517382008648
85.346051937623770 33.981138985169920 -95.624230445910641
92.330931961170819 32.674554749494789 -95.388140627593927
89.612915175157411 33.257683299078522 -95.512354140041950
68.279155778313751 37.582330747242800 -93.896734317447851
71.713020733041219 33.032199647207690 -96.485151282323955
70.843733105106878 33.308066075314024 -96.257735539134572
74.472893725473568 34.041925579267172 -97.580561660251036
80.096254338159241 35.561707895572773 -95.633787913980228
82.529926421307465 35.575227435133385 -93.982960283370943
66.041858976363613 35.578987220590278 -97.388495461491473
76.412746288012713 32.389089056484544 -96.286532793698484
77.409853329661885 38.174024383819699 -98.443042966440217
82.385242873841037 35.068719990586651 -98.320232275602820
70.149947707778409 34.490304199176762 -98.007830514882357
73.933300838842129 36.586306556694531 -96.024741556028630
64.729001716232133 34.005056763239594 -98.253331876158768
69.366772514203049 35.853168423347682 -94.372655785882316
72.487676468744866 34.323536257297633 -95.709052093211056
61.877034528034493 35.947064141613389 -98.988439358998690
63.996963086239234 35.272338172839696 -100.810713306529081
67.076821979318069 34.999303121940756 -97.610390534947499
69.010097408356430 34.777610635628484 -98.848376333857885
70.993581414048379 36.994429679615187 -99.003502901925174
71.040135326930880 35.179555294477076 -98.343557893318390
61.737660814107436 37.890936251127862 -98.421452154157137
62.822537502094555 35.497037249438051 -100.068590793449289
64.546791743603492 37.004817793618585 -100.866773090414029
64.791926408017815 35.122823312326439 -96.232352744316543
-70.945144422451946 37.668232570637713 -100.293960995536850
66.071321681674931 36.331646572448307 -98.911328833053901
59.627675427448324 40.059923138152158 -100.592546941639895
60.405779593843789 37.261226572425308 -97.289712127354903
64.028261192202947 35.879557492854339 -100.075583605228488
63.326027484192707 39.251278920734464 -97.725235231244028
62.989352159327908 35.518025632523546 -100.658169404766980
59.185449423442300 36.289124759579579 -102.206117011817781
-98.028160650185171 36.625215418741270 -102.577319430229906
-75.648648771989798 39.153629066848247 -102.830323778614542
-60.917749499101085 39.713168627550644 -101.762919623006027
-70.434353772217179 41.933751453989110 -101.909073740289472
-68.683260289771368 40.201638964142532 -101.186038734852517
-62.329281812455960 39.705038052219749 -102.549282662936420
-75.466319943928355 41.222789660037549 -102.994956139877075
-60.351459495731952 40.247621072638943 -103.152352268043956
-99.006828920635058 43.932295361897282 -101.783617104835272
-69.963796708120753 42.239760835325811 -103.712590746491898
-96.773865147837668 41.713388606256146 -106.789048067175827
-72.404278335337779 41.906556560391621 -107.270837808111807
-75.777284115577430 43.290189297725476 -108.024675648940857
-69.359380353497215 42.125661484804219 -104.693291308785817
-96.069317620775180 43.155964525512360 -105.163691059874353
-78.774904355269314 43.618630488703040 -104.438960484712979
-61.553162026012210 44.313104472253315 -103.576885773500123
-71.873311705848138 41.569591017533931 -106.278777003034946
-77.716608546884459 42.949785520385198 -109.465609713376267
-69.924347063357857 45.110978020545915 -107.480669008617440
-61.512747121765592 45.287896246841292 -108.466300979407762
-64.036164432235296 47.292258185138529 -106.936590137082845
-70.334724021324206 47.731694712543046 -108.966042081555841
-58.237378240404013 45.210443052200844 -110.920550169798972
-80.449678631262145 44.440727269322309 -111.552138728399228
-68.600024277905760 47.785136275990062 -110.582108779847360
-69.602887944552833 48.520723014160893 -109.128556840032545
-67.287114660658247 48.448054601032837 -110.677475798943362
-64.596608649935661 46.368965385084572 -109.663576948782733
-61.475108169024629 45.060684154088463 -109.570641037481352
-62.789295254963818 49.372241426204596 -110.965305315939972
-66.236498354267042 48.843534986486389 -112.322439570564171
-62.808407797852837 45.784178754374572 -110.873156124210539
-65.005777374440598 49.811591977747923 -112.924413510423634
-61.757000574282927 47.928129272210143 -110.146315560709638
-61.885607849346592 47.680799200350990 -112.472217256898375
-62.984552033766768 47.828115537892280 -108.756929132723656
-93.104552486602557 47.903398236752459 -112.937091105723539
-87.751502590381534 50.297085761517742 -112.884776583854730
-92.558312562060721 52.261004533760456 -112.817492615447819
-89.275928348278924 47.374281811598834 -111.746328357905242
-92.563323995600570 51.656580841410772 -114.208304312913967
-92.148225191296021 49.406009704272208 -109.591720235847561
-3.708667781102128 131.618902824874397 -193.512513132962937
-5.239954749478891 133.172558461206364 -191.938704420302173
-3.249454172496784 132.172021961463400 -193.335208356456093
0.917139566793713 133.579703422742369 -193.495875966631331
5.211042257912300 129.453995625662571 -194.197451809715517
-6.904990803029515 133.064453791942128 -195.879309605298062
2.552103454829005 130.078617148024762 -195.404010335587941
0.096470076136264 132.412829591820071 -194.856236962255480
12.175204204748429 132.973580981800609 -194.597310062597842
5.233269008864126 134.328544564422600 -194.535679849294695
-5.891267170507589 130.702671611475552 -195.422744697036222
-7.052892540348243 130.976652908558549 -195.789668287433500
-6.197130981028605 134.776027895701901 -192.974118202795381
3.223697263846424 133.808548817578554 -193.921635228008086
5.572795838401877 132.374035674450454 -194.508546348850274
16.836968160293964 131.345410741867767 -196.824962942564781
-8.578265316911880 132.886215194992076 -196.246540247364322
0.411027830194522 133.050793741341920 -196.129233186755357
2.326109873198678 135.218887919748738 -195.626625367842053
4.232384392087120 130.893383798596545 -197.378053855531448
9.147244710617029 134.637259901818311 -195.147677303089580
12.904993022214754 133.932240343673641 -198.175536631342027
-4.011157048715986 133.550640491208497 -195.827336400096982
-3.605515987730183 132.742580647318647 -196.636893247293955
2.523855808054641 135.156943578412267 -195.528755651478917
6.316887494308613 132.771069300876263 -198.112290477638965
8.225317849006046 133.176643663635616 -196.016587373620979
9.214180630784659 132.527729329605137 -198.775412034146143
-9.011735250645101 133.550853931572846 -198.989248317375655
-0.455564683603093 131.841274894516232 -195.647826581128925
8.245181492812998 136.884065786997013 -197.659742474788686
11.214188030866415 134.666225547773848 -196.045577925793509
14.601948289876654 134.845180630802247 -194.295906157770105
24.551705662124483 134.936588883698079 -197.441102334308482
-4.736863188352194 132.680305033017106 -196.289731769367847
-5.877710368347143 132.957328998628327 -197.682939406117839
-4.323374933791080 134.121453676738639 -196.955922213210215
13.572878978189145 134.296990382904170 -196.102441335752758
17.593610228831860 134.078172242106433 -194.609612299059137
-6.091756044075296 134.948387781010979 -197.496393420548628
15.540173429953393 134.758342220356553 -197.715706940457409
15.021342553415321 134.239865682986078 -196.749268063152897
0.296350515953677 134.929056313502315 -198.671009754344141
6.593059042315541 139.161236421561171 -196.617661293542398
20.558817456999940 138.182447431188223 -197.684474659686543
-16.969322202966616 135.799344776398897 -196.408430363027037
-4.426990240964443 134.083202683749676 -195.898915293064277
8.010727364408973 137.057240105856039 -200.176415604338388
14.516249894645222 134.486667728025225 -198.131416831114791
13.943294462792258 135.181865989165033 -199.691253950064748
18.980334403032430 136.495423807115912 -196.233386530416112
19.533099349524132 137.069664365534976 -198.504692297673245
20.752212041214278 135.732042877246471 -196.030008562427270
-10.951253489644031 138.912987577286543 -198.573515403531559
-10.498979207090112 134.038318029213031 -196.070112745041172
-5.242448871081533 136.082401198476049 -197.006521796838911
10.400200053158578 134.549672528143702 -197.979765459646842
19.295932697111386 135.629065271921064 -198.526929429579127
-1.835817305667997 133.596849077694031 -198.235099667959389
6.428461108873106 135.216597693637652 -196.518262368287253
4.575490215170899 136.125860459636954 -197.804416002048328
16.408064374880855 133.744969635925230 -198.397077541670541
22.289049125479643 134.129482944397125 -199.749161652190196
2.759846531100287 136.586248142958482 -198.998172527198278
7.401457078873888 135.571938341421998 -197.117941370240572
18.234280265237246 133.904036662731443 -202.121938997993141
21.891136964687924 136.804179392877302 -196.509611694698975
19.858412468744113 136.033319700114845 -198.268835510311078
-8.033527026102339 137.096012260228662 -200.303628347676636
17.335810425165146 136.115035396047517 -201.594532610408891
-12.488862163381416 136.249171316391681 -200.188163017231204
24.441900749587198 136.990270891717302 -199.120610415894447
-14.118657282102857 136.831703956832740 -200.771340955621440
2.830020760283960 137.210496450470430 -200.033413702501974
2.609527928457861 137.359218241426873 -200.863349443292208
6.281689038044482 135.315629395891335 -200.781298521178115
16.828074320642145 137.317411202752254 -200.725797732603866
15.839575912731032 134.241307188188443 -198.323661058491069
18.667714139977292 135.395292455102350 -200.595742505197308
17.321044933603666 137.507659436308302 -199.969276909550473
21.442143380155187 137.776015161625764 -198.812248471303548
21.502870279195740 136.116168212569448 -199.995713623102233
15.844904481628792 137.202874078004982 -198.719791128770368
-11.613058005774391 136.353986447547356 -201.621423028732352
-14.031453252522105 135.862539072929792 -197.605992274698480
13.261275051488248 139.727486437471526 -201.382390646947101
26.513557700659337 135.394715051402272 -201.776250716657984
26.170655903420187 138.492506382099748 -202.043735076646897
-15.013814827298518 136.945977748270593 -199.471905528294144
22.472024523765370 137.141473655613169 -199.008629895396354
27.329895267176429 141.302730744389379 -200.590869469179466
11.742384671187343 138.967779041621355 -205.785316162385982
20.877008318293544 140.998637771125658 -203.589351847818705
28.928876518657997 138.129258276873202 -201.416029845811920
29.124753488601833 140.165412365377392 -200.883957718073617
23.759772670003759 141.930054975921308 -203.439355970295509
23.879984889288192 139.897421061007947 -200.929866524626533
11.776590623415732 140.518244120759078 -202.172936115626385
14.075702881304213 141.753325425929859 -203.786465085907281
26.687588747986098 142.915825026787985 -202.810317554518861
26.277263086481913 139.049476346803743 -205.558229872148189
-12.534391403421107 140.258067873125384 -203.298798352328902
-13.557218681155449 139.878765290964509 -205.805932992121939
15.326161292480180 139.614284639333874 -203.326277693787574
26.547721007936911 141.786110116464044 -204.064653941583089
-11.998414306043170 140.699538454475004 -204.257020252909257
26.526739750847860 141.887201174078058 -205.493606229775395
13.102599614594798 142.761281420432624 -204.052218161609403
-14.503843272730501 142.769935561288463 -203.997285098422111
26.002375914119135 143.579627760670036 -206.053983779600401
-14.521902529378293 140.862153358282853 -204.701145068488159
31.631143336648300 140.661977064858775 -205.231097464199024
14.287395365967662 143.649103694115013 -205.933951480433791
27.809985668551853 144.790080248193561 -206.981887837179102
-14.735664069440029 141.865820549216778 -204.818848180769521
-12.303511520564932 145.814205962168643 -206.196816157403106
29.797779280691756 146.037950555546018 -208.259065650139320
-14.483143302795833 145.232916410551610 -205.018068841342000
15.203005202742810 144.454897749870042 -205.564796286174669
27.295329643228818 143.528758178433037 -208.115904670212473
29.269320037920956 142.652146355290256 -206.146675180133741
28.773909132451415 147.223183704417721 -208.336848453436602
-12.706183637289719 143.863201669380317 -206.527341399610208
15.118986769825764 145.575012040270593 -210.822737948564964
-15.755492997139660 145.305581739015480 -209.323782420990199
-14.067348034857591 147.695734882588823 -206.355141343878444
-13.149760154095700 144.722144561191726 -205.567704296698281
27.803289590533851 144.708581401984389 -209.688149188542042
-12.725550685177261 146.612859019504839 -209.846986994817627
-14.751544485273266 147.283457624196984 -209.898487447326886
-13.665950513832545 144.697130876706410 -208.291525449215925
-12.753743704489541 148.880026511992384 -208.129864294887938
-11.818484366599655 146.301690097106501 -207.753293496228849
18.810464983404970 145.660001278284682 -205.099256817100752
29.832356645310874 147.234149451159851 -209.676441783687295
-15.106758393710631 146.404191249258332 -207.422079614339935
-11.911206833653043 145.613427560268036 -207.494046215442381
-13.886599090640471 148.233449447258863 -208.947974898943272
-13.286567676783521 148.364530933643323 -212.838079732803266
26.558510173334074 145.782472953177660 -211.146777575118904
-11.681650208810321 149.288623742910090 -208.370374087902690
24.784521847659587 149.250157108639740 -210.956867285023350
28.779501602034365 148.932332967416869 -209.618981320795086
-15.185426184802052 150.643297943136048 -211.103398224460761
28.309941174268175 147.572040283633015 -212.374316412282496
12.883994600370020 147.521938974268238 -211.600624221216634
26.723993065468868 149.569628150198895 -212.037124727542022
-11.829608594259708 146.678305629685156 -211.390987990397463
-10.589543898126944 148.520487561427075 -214.195356632200202
26.047405415657156 148.502371517067076 -211.435400571464186
-13.854329774316758 150.049509560039098 -212.259927502206438
16.784811166304365 148.257546657744882 -210.386772390700713
-12.926624238853709 150.184115966254808 -214.642199132255769
27.715774022220490 150.992335535973865 -213.932357514516383
-14.206609900254731 152.287104395936353 -215.084773656765634
-12.100692465192736 150.811513425779481 -212.814330155739981
-10.043995200508530 151.654553928825464 -209.710983062590799
17.535180600179817 155.637808659283053 -211.129625383958427
-12.173127449880802 149.664546814171871 -213.393645058499828
25.187602200812094 150.968105302429962 -215.664091655074458
28.309677182936571 150.648303672425470 -213.265553135531150
17.670794475470277 153.267023123023279 -215.042901459042241
28.564065640299440 150.743376896100898 -214.029768288862471
-10.285912192001630 150.743087603735916 -212.780904617561760
25.447471975938008 149.848176240524850 -214.230261195484530
-10.353305768874112 150.119585124251870 -214.604795093033630
-15.325608601304964 152.000042757035686 -215.306117684000668
-12.883690950689452 153.614700579550373 -218.147414993755007
-8.771957444609017 153.737144780174475 -217.506590425841409
24.868273156125817 150.475096393637671 -214.154729554831590
-6.412877965344345 153.495410111975929 -212.818525498951487
29.775150963802126 152.730719591479016 -217.135517758032307
22.412423620319583 155.269872875645831 -215.308363529209146
23.941122658580060 154.078338171770724 -216.419956695902044
22.467041748021106 153.301863727544344 -213.806447455560061
27.007393845932782 153.192709069022982 -217.430995328900934
23.889102307700266 154.523076354976155 -214.790496723179558
26.357792423695035 155.247594195166158 -214.666841313562230
-13.459580060598755 155.446168727837915 -216.891071176846765
25.698230090330689 155.613754803483374 -216.033586660302319
-7.175033450682573 156.039263056117619 -215.529665406504165
-6.770211188717737 155.162170324778430 -216.900526912685592
22.695783517563754 153.668526718700150 -217.352073956347994
-8.789437771421708 155.640348398222557 -215.711587675580148
15.342590883714562 152.974445712992008 -219.245760612019552
22.164872076561849 155.864445754108402 -220.289760467746845
-6.864909021429393 155.359077948134370 -218.545862768378441
20.925413421160449 156.025541457952841 -218.993123660282095
23.106571794600800 156.590257152769937 -216.348106180868143
25.134377120480163 156.947214289496742 -217.372869459958082
-8.099274736114122 155.235208544529598 -219.705688458269833
-4.774807260428952 156.582035920535873 -219.117583057109272
23.057140180373104 155.400282414196369 -217.352343998326575
16.658434393814783 156.690158232899222 -218.702972692071768
24.536840561730287 154.331778032611453 -218.411095116013286
-7.881096205893548 155.445496903407673 -217.213814698267441
-6.114063940340782 155.216564143732825 -219.226258644787436
-9.462397850152136 155.007615753664567 -220.137182851948353
16.014059568025633 154.594182425760039 -220.428103988815309
20.822101023929026 156.354590239032376 -218.498920772714712
21.052617074704919 156.718476190353471 -219.466624205895215
21.274084841264649 158.758929963503817 -218.129298532797350
-8.138497208848364 156.820352951552564 -220.496145248650890
27.905740043960531 155.099426215955106 -218.080832975440217
-5.811816424776571 157.460843952071826 -220.293023000772337
-2.999696530010902 155.184143757874409 -221.025418676100941
23.779909257055746 156.120872469262451 -218.776442767268236
28.380325226362253 155.912605556496970 -220.430846397539398
24.785438833187218 155.948970447193147 -217.333397469223286
-5.360208650815668 158.448761710542129 -222.275810801009527
27.023075973519095 157.534159134068830 -220.616629015816699
20.505087831166186 158.402730408265342 -219.407621819274880
24.140428872382124 157.402196093778400 -222.461798285258396
27.613907359340580 157.698807575386013 -223.361296896013471
21.594239412981253 157.039511042332549 -222.210339275768547
20.666889859237422 159.340670521889336 -222.174414108098517
22.839827888463923 156.267195351989500 -221.591737263471515
-8.446039264355466 159.539999594277390 -220.703665349660866
24.450056430171031 157.558462238381281 -222.358507784161617
26.507992753171255 158.372680207902192 -222.236977245312232
-2.795956535110065 160.540433618864625 -223.483920634203059
-9.734710303788869 157.452515411801500 -221.319559741051364
5.613715881480825 159.182986888245011 -222.880845702122087
24.054054337743171 158.753271474652706 -223.154868161017760
26.802995426379901 158.202794667955487 -222.964732509214542
19.800285425347724 160.283516337233692 -223.431271305206053
21.811866867750236 160.173680160445741 -217.625849105766292
-6.221884882849996 159.348645920640251 -223.076910120333878
-4.445558359822985 159.031150363389116 -223.023175753078618
-1.282411545421780 163.550730111934996 -222.664830762122506
0.732372427443611 161.687071095885386 -222.927439941228528
15.685584280631815 159.726861167388762 -223.466729778553827
18.557543112739427 161.341475568386414 -223.236304242251322
19.920385380220864 159.800595368913861 -223.562890601562742
22.886909903259152 159.671067250833573 -222.076172632882930
24.257916562933463 161.015163041538131 -221.166683234861182
24.368368481338180 161.246211923704948 -222.137584295050516
17.201369479188962 160.424294995253717 -225.039834393137681
20.433607413416915 158.946919940251945 -223.659659473590409
22.653670821732913 160.824841115036264 -225.297251358483550
23.980640381359088 160.447801377939300 -224.405871091884222
19.655549147391611 161.989714432409414 -223.012329957388062
14.639286224243287 161.655222592175932 -221.831838908423293
17.558306097264598 159.278452843199887 -224.728371379556108
20.468500248796097 162.795073890535548 -224.153964821150595
22.402053960879780 162.501474273718429 -222.654635379803750
-7.586400423043563 158.563968847324759 -223.889270204437963
-0.421953589289458 158.640321234339609 -222.496038957749448
5.230563222057814 160.471362559965911 -222.452417933086366
15.140538059266939 160.889440000466067 -225.806594702389560
17.151530294909456 162.026337556269198 -223.639020607730714
21.253716054538440 158.918758039213628 -223.065756444738497
24.508411252170312 161.174566744027715 -222.798796668506242
24.731483519287991 158.286977773959023 -225.232003675742646
-2.226895735572129 162.373487878022900 -223.285976864966102
1.045585694302061 162.752820034031515 -221.084508658739139
20.292832432315592 161.037539564814949 -222.796089726802904
25.273527138442955 163.462346760915892 -222.512281513275980
-5.672290235961079 159.961365107609225 -226.598161408197029
-6.575037038281121 158.807495027144057 -224.372095534704215
-3.184138551423836 161.739549919928209 -223.443645431193431
-5.653222507830478 159.321599585264920 -226.071001494797827
2.433981980595117 162.172226976547080 -224.783900928660671
21.081645393835608 160.687844371831943 -225.708010508704149
18.268064881029563 161.949674422211046 -225.048379019530103
23.609686007413522 161.924717841393630 -223.555523896702709
-6.510067469951064 162.079431597492800 -225.828313009614845
-2.398673447761253 163.747936097374264 -224.365766496896612
-3.757896128117176 162.098568685048264 -223.166376527283660
-0.653739052896709 164.068731881518261 -223.423935216024717
21.455576401837337 161.678897391099184 -226.677048423297379
26.795143745179402 162.750803985148622 -228.187578466237909
-5.778785100182851 164.491975102131988 -227.000796357365800
7.775644539781150 165.449710025776625 -223.111627838102635
20.733353027163027 163.997374390633581 -223.733451992876837
1.413731790665155 165.341343259047818 -225.825609522580862
3.055563763517406 164.238031050024745 -226.419393259785750
24.002077032654167 163.228328430498408 -226.736504416862743
8.233297403726064 165.878632594113014 -228.517985355342006
-0.004379290008613 163.134705433174247 -225.931602213170407
17.601725399275196 165.569063088068816 -226.106755662892795
16.880471577744913 162.752678695612531 -225.996952604672657
2.262942389614948 165.190043734071310 -224.137599968462638
12.757330496269129 165.592309562145488 -226.481559484117639
21.598929877565098 164.172576723784886 -226.947930239524197
22.561269081710730 163.280855550735481 -225.646047792908661
-1.779197532131443 163.805170801710631 -225.113784874983168
5.162951311421051 163.345010033775424 -226.923479850446967
13.688928757265204 164.543342863077925 -223.772942698554772
17.252760598139972 167.909700218049863 -229.348445840790617
16.582038983853508 167.033838595438539 -229.304879665624753
23.251211637746351 165.110448811262984 -228.027125380448126
-4.660705812053212 163.823283047056123 -226.790785541218014
1.537556009361552 164.954703525912890 -229.666641225894921
10.914279935958604 165.564477183100138 -228.729110491337877
-4.059900304031974 165.136889201547120 -226.841617981103070
15.136720656512258 166.048298703989872 -225.981570995805669
17.957912247701646 164.927531567517406 -227.604801409177355
21.712208782269187 164.428888722905498 -231.681908013614901
1.731969522350583 164.147660898759881 -226.279774675303230
3.832900870955275 164.953857056692158 -225.461404260054991
10.326550269635304 165.041581890643499 -225.200559560473124
8.932565100353072 168.500982682445994 -228.695302970104649
18.714663676139867 166.563457195338060 -229.626922939375561
18.142067645533277 167.463976778818278 -229.855622108353600
23.079473016774912 165.951707969701175 -225.271092640389810
1.530985714606429 165.741767532062369 -229.535988274457821
12.149774742259037 166.130291546723953 -228.151019747621234
15.587395244024785 166.115557281280417 -227.323156840324543
-5.706845864103543 163.868222298065348 -227.701481882386588
-2.475253925074617 164.718618656721986 -227.125422460961175
2.902377932666908 168.185756835630627 -228.798686272195283
11.709311695409273 168.878051210814050 -225.770611364184873
19.162862443208457 167.133529401239230 -228.789388714995539
5.876843653143778 166.564363020145350 -227.889831836175603
11.200276871452319 165.568405736781273 -232.014090466007417
17.504739541621500 166.007889287646577 -228.847111181749483
18.584397971085441 165.876321472752096 -228.033608701004596
18.984841132311590 166.111825376427134 -227.961629675017605
8.482267759819278 163.991601079811915 -230.900202856691521
19.077354316331444 164.739514682251837 -229.704931705519186
15.708554250998098 166.609635349369995 -228.420447101471638
23.214137436561561 167.828276731614807 -226.926238026771216
-0.427740589840397 167.296338851289391 -229.889640925150758
6.802276458978869 167.028013446879811 -229.434157538697121
11.185567528157778 169.830035732333556 -230.418540391473869
19.731840802617093 165.485394824767752 -229.462606995817794
-1.665404850856634 165.177410139984943 -232.271336393808184
10.403633233176937 167.091962161801945 -230.406966382996274
15.816937187892187 163.575526137572439 -230.748043490191378
17.952253367229904 168.401883072576737 -230.467119436986167
17.753348096635676 166.485060947225293 -231.866810923642333
-1.016739055228521 169.463589952298037 -229.939330369359283
5.198304500293047 167.942715098809316 -229.072680641838929
6.293181080533635 168.551146621727099 -230.240173691438486
13.282226842637163 168.012122494457174 -230.377443920429471
17.968255552757597 167.001350234502183 -231.532074631588955
-3.645167846265104 168.420137668348929 -231.630159253309444
5.238511808659620 168.662639473281672 -230.546378776879322
9.286338529169907 168.050384677459306 -231.857875474739529
11.418270065423840 170.455879098325511 -229.997113663564022
14.246307214957817 170.909272967534122 -231.841303294045844
14.425351709845526 165.749771676615808 -229.610639304968117
3.072012563831422 168.563238624726665 -230.454607747135839
15.523535568291452 168.848664256900065 -231.696588157483234
16.887202014884657 168.474401237533698 -230.864445959809672
17.434108338288045 168.580488391248849 -232.135674082908508
18.547091700621017 168.387934071421029 -231.955457636176419
-3.063420328479110 170.660319883686071 -230.716682519482362
5.845211933644205 171.733290096343296 -231.469542446525367
14.203534882707283 168.974354292201468 -229.153153960918672
14.823493828213861 166.119189319325471 -233.570442756548857
14.832751233936644 167.490106240241118 -232.604271359388463
1.648137984726177 169.190343302728905 -232.607353738001876
16.245525536258047 170.259133871874127 -235.709970933006076
11.400024219795984 167.969472527396363 -231.841737431658004
4.823922059508739 169.490289204830361 -231.707856610506269
12.451070480765464 169.454444250347677 -231.190275399157969
1.315295634612180 170.175350242480505 -235.292590304136525
1.702175621721732 171.148761149372405 -230.634742320110121
7.255716274476515 169.599354497227893 -233.972875509242755
4.316475941044274 168.771506685252717 -232.892460245595657
13.458012593357244 170.212096159880105 -230.349151205172632
17.583051437913682 169.489091813084599 -235.892756828120753
2.451283885079332 171.896320851388680 -233.118693346773739
5.305601231573412 170.140634499399653 -233.953361822550193
7.060655100359600 172.154270252648814 -234.735701134281157
13.989194146262712 173.094202736538136 -235.171575048081536
4.835246861633998 171.055351139620512 -231.728578659221057
10.695155702352920 171.373016221226663 -234.682675413847420
0.661291532295042 168.621550578193023 -235.393477001970780
5.318085412018211 173.719630533865086 -233.212715382200571
8.198891559156262 172.884076724320693 -232.534059292424445
2.573085507793991 171.216823752055205 -235.798097331343968
-0.101792432470274 170.579638791658397 -234.360407068706593
11.524980445921187 171.470999325341097 -236.402132733985013
14.914534961161550 169.458782208787341 -236.595156559136171
-0.624773167457028 170.664472545351742 -234.892547211103818
10.175427496837735 170.650534646800821 -236.175055525474221
-1.281146025254529 172.476525497054297 -237.416920290533341
1.952062063615378 174.960614963609629 -237.465244208010063
12.334953032008345 173.589965580673436 -236.898913091708181
2.561131591805404 171.978172412491347 -237.589770675012147
6.074059596574781 173.758852853582624 -234.423017990478144
3.436439431292967 175.387394316029486 -234.549294157763484
32.373527282198459 -26.670020856366062 -36.042404711763616
34.680970359373262 -27.383091953206211 -34.788532163592521
35.272434128512273 -25.884821521397804 -35.500736378696431
34.725982112761514 -24.260838441158114 -35.147744842139012
31.145855936854062 -25.439181352361878 -35.909456781047382
41.376473055329740 -26.293369866706520 -35.827045788531599
27.288742808207076 -24.465190684814189 -37.311369072806222
43.502524789147067 -22.858788166500140 -36.470578569445848
26.701385634801831 -24.790069375503613 -36.989333094855390
28.231647782274703 -23.668364008141090 -38.497147150253610
41.502599312763309 -25.876948942323430 -37.021158353276768
44.625441756971817 -24.628858833442589 -37.007503996605102
24.225628171142525 -24.698931367766704 -37.141190221542914
23.562208385330454 -25.026579787383664 -37.725373770930574
21.594604215552188 -24.394066512940132 -37.625688992076824
45.665016456794483 -22.765382896795462 -38.068436307960006
24.629210568117706 -20.941152522476386 -38.443077466709731
31.826329394489171 -23.084579780909809 -38.367122613063401
35.787659181599409 -23.527845201317529 -41.264656729773094
46.056580305062639 -23.026084722236359 -37.105893689995071
25.844200040406200 -20.693819378024962 -38.039475513692480
37.086836663999549 -21.668137197158227 -38.139350564528634
38.340172191692226 -21.690546147221191 -39.903644075003335
29.785654234986836 -21.989007458956046 -39.751035588386110
23.878403248218127 -22.940161916059363 -38.879282451796549
40.993541186067525 -22.631320000508630 -42.032724773030488
46.001728945243528 -25.177487808158684 -41.607006639275312
20.968774021079962 -20.838935975348754 -42.054811275329470
39.374959482983947 -22.186626128062670 -39.929505742573120
48.748162872223155 -20.192101998465873 -41.928754570046003
29.256126313371848 -22.390059360138594 -41.528499701342433
27.167178908940780 -21.296392650783972 -39.938507985136958
20.477059986184884 -19.255397031533981 -40.891380978974574
22.231704469507260 -17.817691099024078 -40.388515122377022
27.780617932289367 -21.909954169122262 -40.335717787442285
40.701208486407246 -20.625966769333843 -38.602663918270601
45.716755065758029 -22.522525618290615 -40.118135034115596
19.730357322087183 -20.297713989685374 -43.270485543959836
22.638770132027702 -18.012560881955569 -38.400986913208428
26.324438672089112 -21.464454250728583 -40.275656135271639
49.313647738955218 -20.262028847798074 -39.819603865936585
25.973200033816305 -17.144595268197168 -41.684690304003396
40.721783987028459 -21.629454185623963 -39.698627505779477
47.587572945036896 -21.904289046547635 -43.163600643452646
20.749846011077441 -18.108462536598672 -41.651418193131640
25.589253420003306 -19.965020359912469 -42.900124484098839
43.977998420562180 -20.247790889124893 -41.802469794917428
50.977553536283388 -21.063230188449491 -38.059321070634496
21.249352369998441 -17.845266988679107 -41.239255339302382
44.527387769343513 -15.810846309213691 -42.869782034385018
21.065822645372045 -17.505621671667889 -42.312461386148080
20.320455048093912 -16.564250188316567 -40.803006704599859
25.191642368718288 -16.529108149823628 -41.855582391099460
51.105042831172568 -18.649586610840217 -43.938249829695039
23.168784114860941 -17.292972062630358 -43.000726761518628
27.309241936005467 -18.532920779439195 -42.527846393990842
20.460698240493755 -17.076690664462561 -45.577458232990445
45.131773945775969 -18.028757240701456 -42.885112944676699
48.376951533192134 -14.984588555355710 -44.709007970148207
51.164886831763937 -15.703998678307329 -45.069026944486843
23.378347963970793 -17.044173517019644 -41.446446849691924
42.566102089454020 -15.838406145295842 -46.745116583322371
21.338208283234206 -16.033911920805480 -46.183434349872080
22.045058333069978 -13.444316815458675 -44.263931531192547
49.285673047487883 -15.012118822125860 -47.946664110424848
20.918618748117034 -16.701566528625701 -47.285827633284754
26.988837908848488 -13.023050552245776 -46.923706045082582
26.205549569480215 -14.151566558520102 -43.467594555100966
22.853880583945891 -13.709027340188650 -47.384540568883153
19.935489133576656 -11.911323954132552 -48.420294141522582
24.314277023220662 -14.960478603400198 -47.618013503963319
45.738275304296735 -11.159960117501361 -46.818348774181523
23.136315781995069 -13.797553799974889 -47.034062128157288
25.774359426614208 -12.235940821480801 -47.863916532713034
25.583796003880430 -12.902189095566406 -48.502764780199939
41.160273546686504 -11.785123265898266 -48.104693158040661
24.656164326545458 -12.277535643779951 -49.370897103421783
47.952674235460798 -13.281767231758334 -48.122588369739333
19.130554002353740 -13.013048560263790 -50.207838508299375
22.169557471541275 -11.574394112813048 -49.582336573861483
25.842339809822239 -12.446821622107967 -46.661290002758541
47.511810010874008 -11.206782435654029 -46.335481545217029
22.028213510197478 -11.074727023025060 -48.556757758676653
44.410174158739132 -11.802357478466204 -49.404608749427858
27.722408767354473 -11.747631355306554 -48.801467223141380
42.256771497059624 -10.130411265351297 -52.828176018558246
22.810459785941227 -12.187282122340349 -50.291715998096677
27.907286393041840 -11.912223913908852 -53.287324330380024
27.980880479962433 -10.806119278817151 -51.096128828209018
26.761788750637074 -11.286061410138359 -50.931437165035447
41.840145567548113 -10.174314470254306 -51.784600638916288
45.954441152045689 -12.682989426730568 -51.911356421365596
27.610826036614618 -11.696087263814555 -50.427561787763885
39.942310338621809 -11.139613398049182 -50.972258893727506
21.513687526274925 -10.728555396482751 -52.531578908856090
27.619839348351469 -11.543304639264523 -52.554339807577861
40.518741740731038 -11.028703146730717 -53.064363615821073
25.865252319338882 -9.140584061477616 -50.451022669831808
27.274893978185052 -6.314216211443448 -51.707346858373519
37.786927533398703 -10.200180232858671 -53.239940052965551
49.276995356869172 -9.786106169410097 -51.806441716168450
24.240116983728665 -10.856730008633958 -54.486419134995003
25.342761132897515 -9.207283252982705 -51.195414944296559
30.260659493706651 -8.830770940670122 -50.250414451179886
38.002569594243184 -6.634086591513400 -52.712387941806682
47.884839109315926 -10.485593480237910 -51.206404892435692
26.107575402668672 -10.639676074053620 -52.880969802032588
32.134197364604312 -8.356628342616103 -51.747500019690818
35.535010241248159 -9.508336788050039 -50.574407643873862
48.038090170360469 -10.818154950062301 -52.125775147657983
24.040036261970222 -9.650521762518066 -52.853085500355185
26.537617914685562 -7.700929888137296 -52.601716303354337
44.888465841225802 -6.021682470208701 -53.066431008363857
29.167231982998423 -7.005573430301792 -53.854243149312843
36.542489212781881 -8.700851675853157 -50.971478783025724
