# This PCD file was generated using the MATLAB® pcwrite function
# from Computer Vision Toolbox®.
# .PCD v.7 - Point Cloud Data file format
VERSION .7
FIELDS x y z
SIZE 4 4 4
TYPE F F F
COUNT 1 1 1
WIDTH 1460
HEIGHT 1
VIEWPOINT 0 0 0 1 0 0 0
POINTS 1460
DATA ascii
-43.420387 172.969330 -72.044037
-3.535599 173.415253 -74.282288
24.893446 174.017776 -73.094414
-61.671955 174.309067 -74.905632
26.303907 176.159286 -73.116150
-64.206512 176.525909 -75.569588
20.171299 181.810608 -72.882637
-9.769930 180.215698 -74.120552
-58.160320 179.965530 -75.100174
-3.003673 181.110382 -76.135803
-37.684280 178.940536 -72.464104
-13.637322 183.149902 -74.287788
24.273327 180.546631 -73.361435
-13.017035 179.213791 -72.022003
-27.258465 187.817444 -74.653549
-53.955036 185.129089 -75.508842
-35.353943 184.188019 -73.081802
-60.029247 189.057297 -74.622864
-7.957679 185.441620 -74.969818
-31.852264 187.933975 -72.815773
21.029278 187.297882 -74.736771
-15.127752 192.318588 -74.302933
-22.632109 194.959351 -73.795555
-57.824081 190.287323 -75.370628
-28.944338 196.014725 -73.027908
21.031294 192.415863 -73.130493
-50.874260 190.930069 -74.143654
-49.067242 194.048218 -73.893593
19.323757 197.152466 -72.514595
-148.149506 199.473602 -72.439148
-28.526226 200.743088 -76.561600
-30.872719 200.493179 -73.134521
-45.505627 201.932724 -71.993347
-53.944111 199.317368 -72.841873
-50.948524 198.575668 -70.771088
-42.731464 203.783615 -70.252243
-152.060715 204.371567 -75.358734
19.208090 200.526245 -72.338730
-22.587416 204.819489 -73.928329
-151.807495 205.668915 -76.151566
-50.126259 202.911942 -73.738297
-42.460072 207.413712 -71.539932
-142.242188 205.333954 -75.723122
-45.332180 206.475723 -72.042786
-16.061296 207.410492 -72.446869
-152.971054 208.542297 -73.311264
-148.054718 209.104095 -75.601608
-36.393250 209.421097 -73.605469
-19.764765 209.062332 -75.020134
-15.545917 213.074142 -71.925926
-142.438095 210.520432 -76.052124
-49.526707 210.641678 -74.552559
-22.408083 210.445541 -71.369370
-52.739124 211.615967 -74.935493
-44.123711 209.081543 -74.282372
-56.188316 214.513428 -72.757889
-18.732468 213.927979 -75.506660
-60.215950 214.066833 -73.281990
-61.865780 215.502701 -72.601234
-147.606262 218.319244 -76.430534
11.938318 213.933487 -72.739861
-56.180744 212.877121 -73.807022
-60.050304 216.959686 -74.065193
-31.696329 217.055588 -72.901451
-17.513126 213.055206 -74.264442
-75.634018 218.900436 -71.610603
16.373756 215.874359 -74.597427
-64.032120 220.618118 -73.704025
-36.601288 216.118729 -78.028290
-74.999367 221.637085 -74.691177
-149.938217 221.642807 -73.122375
-147.348282 221.755569 -74.179398
-145.675537 221.462082 -75.428810
-30.962984 220.610641 -73.576828
10.853400 223.217041 -75.221420
-65.429024 221.124908 -74.369255
11.764561 217.584091 -73.278236
-69.792374 223.663605 -75.210144
-27.865164 222.171982 -73.414566
-75.096519 224.412720 -70.871834
-85.017311 225.158676 -75.821732
-11.963734 221.526535 -71.788940
-79.084648 225.183716 -74.410553
-5.693262 229.652023 -75.420830
-150.044388 225.913422 -76.233681
-23.023355 227.496719 -73.082878
-18.427877 229.993393 -72.182854
11.027111 231.130127 -72.338387
9.800874 226.989868 -73.519173
16.145849 226.903351 -74.649040
-150.398636 232.688629 -76.009880
-1.022587 233.475723 -74.409592
-8.029679 229.633301 -73.814522
-153.898422 239.269135 -74.325211
10.431981 240.906830 -74.208237
11.612405 236.014526 -73.220055
-147.373596 236.650589 -76.121384
-146.247635 238.053558 -74.001945
-5.332269 233.972916 -74.000648
16.989561 235.958633 -76.261284
-133.411850 239.738739 -76.954872
-133.475784 240.100525 -76.326385
17.679846 241.352829 -72.698296
9.845731 241.079391 -75.350891
-151.808716 242.850235 -74.379913
13.915250 239.373642 -75.250717
2.311640 240.211609 -73.049301
-145.744003 244.414490 -76.030235
0.335644 236.909454 -75.308853
9.684038 246.870071 -75.245560
20.383169 250.327896 -70.755051
-28.972181 250.589249 -73.163147
-145.966537 251.280975 -71.400230
-36.217678 248.444016 -73.081032
-22.919861 250.129044 -74.893417
-40.291679 251.612106 -71.109642
-43.152157 252.615219 -74.358566
-26.818863 253.517471 -73.018440
21.934797 254.567932 -76.376617
-46.217705 253.023468 -75.632668
10.755189 251.754623 -74.429665
-50.484924 253.021439 -74.053917
9.373681 248.790497 -72.248573
11.497074 254.905289 -75.200470
-49.426010 254.536743 -74.544167
-43.121178 254.877853 -73.607941
19.373470 249.514877 -72.986862
-53.126278 256.244934 -73.464996
22.178505 257.004242 -73.984131
8.454288 255.768738 -73.853416
-143.764755 258.610199 -75.344299
4.424185 259.735992 -72.697754
8.266250 258.473511 -71.956879
20.620262 259.234558 -71.940186
-1.261413 258.967468 -74.191185
11.037748 258.346527 -74.720406
-152.236176 263.675690 -72.512772
-136.923096 268.368469 -75.778206
-147.057526 270.049957 -76.999809
-142.346161 270.313049 -73.040527
-154.556046 272.255157 -74.137917
-146.014023 275.845001 -71.173027
21.269138 277.657074 -73.041756
-9.592675 276.333862 -72.955940
-6.380563 281.024414 -75.068359
-150.678833 279.318176 -73.155342
-146.484726 283.036621 -72.904808
-6.260736 283.156006 -75.705528
-3.909269 284.626892 -72.555000
-149.180374 286.518433 -73.713585
-145.907745 284.676300 -74.657433
-153.205475 286.606110 -75.053947
-151.398895 291.384979 -74.969757
-154.239227 296.512665 -73.651665
-148.929260 296.889130 -75.142319
-136.504456 297.063995 -75.073875
-152.777069 298.871826 -77.576393
-149.914063 300.505615 -75.616821
-147.867538 299.053925 -78.928299
-144.695099 307.224335 -74.105499
-152.058868 303.502045 -77.683502
-147.835114 306.526337 -72.943398
-154.134827 309.295990 -72.919456
-150.059860 312.918549 -71.295891
-146.491287 310.188721 -75.253525
-151.146912 311.771912 -74.941528
-51.018696 69.526154 -72.720322
-56.704956 70.274040 -73.368279
-60.517200 74.070244 -72.840088
-45.198425 69.611679 -72.338013
-63.394711 70.865181 -72.841431
-46.100082 73.347145 -72.292961
-69.164696 72.969261 -72.193878
-53.772423 71.707619 -72.682434
-40.916523 75.121696 -73.030899
-41.856140 71.374077 -71.615059
-31.975321 77.700798 -71.051178
-74.806267 73.475601 -70.446640
-32.137207 76.711044 -70.693405
-77.520515 77.356178 -71.946373
-34.037025 78.174500 -72.608643
-28.469177 79.254211 -75.270599
-28.244610 80.855003 -72.434387
-32.069073 86.431602 -71.109879
-50.902435 99.933052 -76.200768
-90.355927 102.578934 -75.187988
-64.729500 102.922173 -73.821190
-86.072449 111.042091 -75.225090
47.631123 114.750702 -73.075478
-79.514549 115.714165 -77.016197
43.530739 118.873535 -73.671074
39.754059 121.567993 -72.172142
-88.483063 120.636894 -71.220764
42.102684 125.399147 -70.624420
37.809689 126.070496 -72.528923
47.350948 124.608574 -71.178200
38.281139 127.522232 -72.867661
41.068459 127.025970 -74.025688
42.839985 134.464417 -72.856285
36.410568 131.340973 -72.030464
42.808243 141.977249 -71.966400
37.034767 142.295807 -73.622421
32.407616 142.192780 -72.924896
25.637791 148.099747 -72.834404
31.307005 149.339981 -73.628319
35.195313 142.388702 -71.139259
37.366718 148.620132 -72.108055
31.131296 149.829285 -71.238228
31.035374 151.641724 -72.319984
29.853474 160.435104 -74.447914
-45.636948 157.643677 -70.147430
-42.616680 158.745514 -74.419701
23.377518 162.826675 -71.523590
31.417961 157.886230 -72.879135
-51.511501 158.947922 -71.544991
-49.334702 160.319641 -72.687607
26.418678 160.897903 -75.407600
27.008076 159.073212 -75.007057
-47.745743 163.343140 -74.353249
23.768051 172.962341 -76.148048
-65.683708 165.147217 -71.563873
-39.122551 166.737091 -73.896194
31.030792 171.546265 -71.637825
-64.501175 174.231415 -75.490753
-63.992870 171.306229 -74.713066
-43.344139 169.288788 -71.789391
-37.493450 173.608917 -74.327065
28.662832 165.033768 -72.129013
28.069477 168.479462 -74.820297
-0.228082 173.085938 -71.797630
-32.535225 175.317795 -73.676445
-2.060220 178.914490 -71.568787
31.755167 173.872604 -70.833817
-6.177561 174.820770 -72.875061
-59.331905 176.373581 -72.876884
-38.541515 177.920181 -69.955551
28.779858 173.967911 -71.891632
-33.643093 180.928406 -72.590080
-31.698452 178.722321 -72.546730
-36.481792 185.159561 -71.886566
25.942020 182.507065 -74.459511
-61.382824 182.984970 -73.706886
-7.199567 182.604324 -71.630730
-40.102692 183.893356 -71.675934
-55.857613 182.775253 -71.948479
-55.949673 184.915192 -73.481537
-24.693159 186.246140 -74.214111
26.497396 185.318939 -75.115646
-58.952587 189.626694 -71.443886
-21.907223 187.947266 -73.287529
-50.648273 191.948212 -72.042557
-28.740303 190.365021 -71.980972
-23.155741 192.661331 -73.065727
-21.990059 190.966248 -71.834091
-15.997825 190.004028 -69.727737
23.552410 187.582397 -73.660362
-24.736143 192.966232 -73.532516
-50.864426 193.535355 -74.502701
-32.764427 190.224152 -70.988655
-25.849463 191.615601 -72.091759
-55.318104 192.485077 -73.223869
18.656458 193.259567 -72.528900
-46.397713 196.666946 -75.402924
-31.611229 196.574326 -74.668983
-26.363554 195.259628 -74.448578
-50.591003 198.878387 -71.618408
-41.153889 202.958389 -73.243233
-29.413744 198.549057 -73.496407
-43.342808 198.274506 -73.684021
-43.482235 206.081421 -75.171021
19.548260 200.787857 -71.994583
-142.546844 204.634216 -71.927803
-22.928959 200.560501 -74.214310
-25.148008 202.978104 -71.541786
-137.030563 206.629181 -77.139122
-25.436058 204.988693 -72.719353
-145.212128 206.855881 -73.479164
-152.430771 206.897049 -75.930069
-134.496918 206.997116 -75.888214
16.611870 207.229935 -76.484283
-134.613708 207.216110 -72.980469
17.845772 211.722610 -71.327225
-22.144169 207.011566 -72.052269
-17.630121 206.260941 -72.136108
-37.637623 208.734283 -73.769119
15.786787 208.201859 -75.466904
-152.807312 211.946854 -73.240883
-140.710236 210.588593 -74.325653
-15.164788 209.795425 -75.625092
-33.654255 214.053665 -74.735924
-150.158142 213.569244 -71.622482
-34.612762 216.009094 -71.241562
-68.687355 216.812576 -75.217262
-37.685818 215.037643 -73.380074
-67.118187 218.335190 -71.240128
-65.268333 218.824692 -72.082687
11.824564 219.397217 -75.563400
15.076101 218.315704 -73.257309
-82.675110 222.697815 -73.150627
-27.757690 222.696121 -72.096504
-26.423481 220.396530 -72.296707
-37.498260 219.406448 -73.057259
13.904361 217.846405 -71.687256
-84.085297 225.334488 -71.634666
-29.838245 223.930206 -71.612343
-14.762000 222.346878 -73.343987
-8.496137 226.642471 -72.447166
-23.639105 224.860519 -75.677124
10.907392 225.212936 -70.823303
-81.256180 226.270248 -72.954971
-87.438232 226.635651 -71.617264
-82.050117 226.043869 -73.798820
13.862129 222.494598 -71.072800
-142.940460 228.149734 -75.591728
-6.254255 226.880844 -71.779007
-4.180251 226.111069 -72.700546
-10.633012 226.361191 -74.778557
10.338504 226.315826 -72.168335
15.739284 233.677078 -73.189095
-4.978355 232.143372 -71.830368
10.314728 235.395508 -73.619766
6.092829 237.528000 -71.223808
13.571246 240.211502 -71.982925
-143.693893 234.527832 -73.095940
0.975954 233.778122 -74.830246
-4.671773 236.316315 -71.962692
-133.308609 238.268570 -70.402435
8.685823 237.300919 -72.307396
-147.320572 240.033371 -73.589470
-147.930481 240.999634 -75.801826
15.621747 241.639511 -75.828819
12.456647 241.628006 -71.289177
-2.980391 243.126389 -72.232521
-0.584179 244.765747 -72.155403
0.910756 248.079697 -74.751480
-25.622347 248.031830 -72.291702
-21.123882 250.468399 -72.483383
-36.356209 251.126892 -72.065941
-150.537292 249.232101 -73.198097
-147.411880 251.097427 -75.609863
-148.811600 252.349854 -74.398666
-22.609901 251.664215 -72.208656
12.302803 253.098328 -73.071472
-28.122740 252.814362 -71.783913
19.563972 249.028122 -71.762627
-36.181957 255.268539 -73.880913
-54.376297 253.998367 -75.272896
-46.206589 256.278076 -73.202217
8.904798 256.366882 -72.952698
-56.148853 256.725189 -74.954842
-47.438595 257.598938 -72.756851
-145.564926 257.299896 -77.519394
-58.013138 258.754272 -74.417343
-56.970737 253.241409 -72.534271
22.624794 257.895020 -72.209099
-2.766538 257.403442 -72.370636
-2.861233 259.641022 -74.233925
14.715292 260.072418 -73.773605
-10.049526 267.717285 -72.794548
-144.360489 264.414978 -74.960365
-137.411148 265.750397 -72.537209
-148.890335 266.023071 -79.105339
-135.296371 266.700043 -73.112160
-154.192749 270.588409 -73.720604
18.893332 269.026337 -72.229187
-134.722687 269.282745 -71.545021
-141.520355 273.510010 -70.636574
-138.570602 271.243164 -72.284897
20.491915 270.901093 -72.139656
-12.446131 270.585083 -72.424355
16.094809 275.118134 -75.349319
-146.379868 278.154297 -75.182083
18.000084 279.845734 -71.604446
-149.741791 280.246582 -73.031296
15.848815 288.844391 -71.985138
2.182484 289.400970 -72.895081
12.343945 291.599548 -71.447105
2.742894 290.019897 -72.824196
-146.444885 294.765533 -75.210503
2.941103 294.320160 -71.989960
-153.419434 294.126709 -74.233261
-141.967621 296.437012 -73.124832
-142.790649 296.073242 -72.436913
-32.660107 298.326569 -72.523872
-137.794281 297.427734 -73.140167
-30.994072 298.099884 -72.509995
-20.458832 297.227173 -73.656876
-148.247482 301.021118 -76.269310
-139.130142 300.674652 -74.987595
-19.725264 299.566315 -71.831894
-142.737732 299.959839 -73.474129
14.400058 300.692902 -73.597351
-154.478378 302.785248 -75.043800
-151.627533 303.525513 -73.128326
-148.731155 314.227478 -73.422188
-152.902252 321.230103 -73.101059
-150.236740 318.102936 -73.146408
-58.266544 68.339417 -69.758438
-53.581623 67.851578 -71.304169
-58.855907 67.296265 -73.140404
-50.620636 67.077736 -71.713074
-43.147282 67.172867 -70.517090
-68.540314 68.604469 -71.663338
-37.868011 72.576851 -71.777695
-73.390610 69.575745 -72.746674
-39.143108 71.455650 -71.076859
-79.049721 75.684875 -71.194168
-78.516083 82.647453 -72.358093
-24.201946 80.106178 -70.667252
-29.012510 77.556145 -70.500992
-26.753099 84.753105 -72.504860
-84.843765 87.659592 -72.950172
-26.684916 84.240837 -71.917259
-30.330444 85.761108 -74.611801
88.882431 94.081703 -73.355164
-33.804001 93.672256 -72.424431
83.350212 90.611259 -72.333374
82.148911 96.259552 -73.795174
87.269463 96.947525 -71.078262
75.911339 97.284340 -69.698555
-87.035210 96.155571 -72.312698
76.468849 96.150436 -71.201805
83.900665 96.210716 -71.349525
89.166901 100.384171 -71.881462
84.258179 100.350098 -72.319481
80.823647 99.692444 -71.177017
84.737991 99.064217 -69.829239
82.633751 101.610176 -70.538528
91.818649 103.637680 -70.585541
-91.766815 105.739136 -68.463661
-63.845665 110.100594 -70.539841
54.652325 108.621300 -68.775475
48.364223 109.238579 -71.326965
52.556332 110.588593 -71.557419
45.097115 110.741203 -72.922096
50.972992 114.192978 -70.804230
51.414074 118.976669 -72.333412
44.181618 114.226700 -71.081642
45.473522 118.415665 -71.659981
35.480789 118.705673 -71.603600
-90.129097 122.160225 -71.146561
41.937855 120.551498 -72.227158
48.496563 127.479164 -71.344917
37.828049 125.618988 -71.413750
45.712078 121.165749 -70.884178
29.309895 131.962921 -69.673782
41.167358 127.628700 -72.041878
31.158916 137.783493 -74.227982
40.544739 135.994583 -70.756889
33.021294 143.561020 -72.994400
27.949301 150.772308 -69.845764
21.859947 157.696243 -67.175674
31.725410 156.296494 -72.049820
28.514055 151.949554 -73.810715
-52.381340 153.252945 -70.810844
27.362043 157.986832 -71.159134
-44.656998 162.024277 -71.138466
-50.115170 164.551437 -71.885986
-66.551826 163.721756 -70.432091
-45.500328 162.494385 -72.528885
-40.784317 163.283218 -72.113495
-48.362335 167.699402 -71.450081
32.164845 165.581528 -72.358009
27.073235 167.322037 -71.939049
30.910912 164.484116 -73.714394
25.730230 174.323914 -73.502182
-69.139534 166.462540 -71.869392
-36.567276 171.346085 -72.675827
-65.991684 177.611618 -73.803345
-34.604893 172.028793 -73.318504
2.601871 172.894974 -72.309860
-44.686478 167.255646 -71.339127
3.964156 170.128677 -71.885201
23.743725 169.496811 -73.330971
-61.814144 172.202972 -72.790634
29.784536 171.642609 -72.270737
-61.849689 178.807297 -71.926224
26.451689 179.395645 -72.231407
18.480280 179.971970 -71.919113
-47.701817 172.350327 -72.351204
-5.275018 178.788300 -70.809586
-9.877862 178.471527 -71.804031
-1.407251 181.312149 -73.863884
-55.192707 179.188614 -72.184288
112.770111 178.308167 -73.912994
-58.877457 180.126068 -71.271988
-0.943564 178.320602 -69.697647
28.411522 181.467514 -73.413208
-58.349537 184.758270 -72.641037
-40.909752 179.536469 -70.114502
-33.921745 176.966919 -70.918640
-36.626549 182.108200 -72.472702
23.513102 177.809479 -71.938957
24.916601 181.565536 -73.431183
-17.839491 185.804611 -73.478531
-9.824571 187.123962 -73.038124
-57.154606 183.628662 -70.030235
-35.995136 187.551804 -75.149734
-63.936634 181.397568 -73.423889
106.065948 190.026596 -72.344345
18.467096 184.463379 -71.248932
-12.881850 187.527237 -69.933624
-49.289539 188.190369 -73.552444
-27.939835 187.626038 -70.797554
-52.347191 193.008698 -69.807808
-17.513279 189.475845 -68.914993
109.530212 185.766403 -73.354668
-49.950951 188.592804 -75.159630
23.436501 186.236465 -71.685181
15.835258 195.228714 -72.163696
28.021812 190.051926 -73.080368
-55.239887 190.694534 -72.290268
-23.108994 193.688736 -71.145737
106.352325 193.165604 -73.533447
-53.017365 192.328201 -72.238449
-29.532608 192.588181 -72.162476
-28.714088 195.175507 -69.789864
15.570680 194.903320 -71.609970
-32.764767 190.305206 -71.342323
-29.119373 198.141205 -74.487305
-147.350601 196.980164 -71.734940
-52.870777 199.008408 -71.589607
-51.627796 195.751862 -71.758263
-47.193050 195.358719 -70.890869
-24.349831 195.926010 -74.604568
22.690830 199.085312 -73.540215
-150.429779 197.377350 -69.965599
-48.455643 201.200897 -69.772911
18.868500 199.482498 -70.230400
103.909828 199.380188 -69.532448
-147.157730 202.283646 -70.083458
-52.811100 202.735107 -69.301331
-43.795364 201.871078 -73.961403
12.692524 203.988007 -71.674919
19.557585 203.428772 -72.405273
-145.216721 205.139053 -76.212852
-45.513683 201.093445 -71.873062
-23.385405 199.738785 -72.262619
102.736259 206.682999 -71.967216
101.057976 204.393188 -72.911346
-47.975861 202.530609 -70.470856
-15.645463 205.053207 -70.051262
-42.916294 205.313690 -71.055161
-147.397598 208.842926 -76.191078
-46.746944 208.850372 -73.599289
-144.311142 208.321289 -76.185951
-22.515747 208.002853 -71.248566
-39.887089 204.779205 -73.826691
16.743130 208.152298 -73.371712
93.795853 212.127945 -70.440285
-135.861542 211.837830 -71.445557
-13.846008 213.528854 -70.142731
-40.274158 209.062271 -73.178497
103.252632 207.653809 -72.046989
14.047330 213.956635 -72.162735
-34.554379 214.951599 -72.245514
-20.736567 216.076035 -71.727905
-17.136158 213.020996 -72.177940
17.552526 213.354111 -71.118660
95.975479 214.832947 -70.581017
10.110107 213.624496 -71.062019
-35.447239 212.385529 -71.889458
97.555237 215.452957 -71.595337
-9.336948 217.090820 -73.234741
-15.627033 215.036194 -72.476280
-41.532108 216.706558 -69.201378
-12.118103 219.323227 -71.276138
12.795864 220.287125 -70.493996
11.161250 215.877945 -70.486511
-73.598923 219.015274 -72.954666
-71.181953 217.985306 -72.065842
-67.464188 219.257126 -72.310944
16.067036 221.926895 -72.100906
-61.816647 222.501160 -71.651108
-79.459076 217.248108 -70.734299
-32.086189 220.990005 -71.998550
-143.971024 218.667801 -71.295570
-37.894001 220.530136 -69.750870
-145.307251 222.749039 -70.532242
93.682259 217.396423 -71.164009
18.066511 222.489594 -73.421158
-86.783058 222.273529 -72.379890
-72.173859 222.919281 -70.706406
-88.072235 225.148560 -72.618698
-30.144468 223.255737 -69.392845
-28.041201 222.010651 -70.029861
-10.563116 222.398407 -72.963066
6.813773 225.880539 -69.716141
-23.641157 225.570435 -72.889946
-27.323503 223.591644 -69.584938
-91.916611 226.829605 -68.856720
-147.051102 227.493622 -76.870987
-81.670319 227.699097 -71.950851
-87.650253 227.160080 -71.320679
-84.897148 226.464294 -71.970581
10.961448 225.414078 -73.198257
-150.026428 227.251816 -71.179848
-31.508368 227.468964 -73.188934
-11.863793 223.581360 -71.333618
7.749681 230.650146 -71.086182
-147.065292 226.603333 -71.014526
-24.409380 228.075592 -74.211197
10.377490 232.536026 -71.813606
14.986553 233.866272 -69.478569
-7.616611 232.684372 -73.424500
-19.625145 231.018951 -71.195885
-2.155210 232.413849 -73.087570
0.755832 231.935501 -73.009209
15.233813 230.088913 -70.857292
-152.575912 233.668945 -72.442268
-142.242905 234.795151 -72.440018
-17.740587 235.319427 -72.218292
-140.214355 237.310181 -71.536713
-5.857626 236.328522 -70.600479
-12.358123 236.016144 -71.614388
-145.181961 240.493347 -72.759773
19.399044 240.404816 -71.486496
-148.658096 237.549957 -74.122147
-0.500114 237.527313 -72.806885
-139.288742 239.400787 -73.793076
11.767072 244.206345 -72.040802
3.690995 243.548782 -71.376022
15.490494 241.846512 -72.418663
-2.224017 239.106888 -74.059830
2.438033 246.998840 -72.754562
6.935812 241.951492 -75.165550
-150.232178 246.878387 -73.106651
6.783726 244.029984 -70.492371
-19.429773 247.791611 -72.054359
-31.614134 248.656479 -75.238701
7.250358 248.355560 -71.639191
-35.379856 248.243256 -71.008476
-1.094332 246.471298 -70.604584
20.535431 250.656662 -69.799347
-18.171192 251.068268 -73.527069
5.773436 246.280396 -72.564453
-52.585876 253.921982 -72.991722
-147.034439 251.589294 -70.666748
-39.352985 256.034424 -71.516258
-146.036560 255.251953 -72.118660
12.462551 254.762299 -74.128174
0.232056 254.585373 -73.833778
-152.409119 260.363129 -73.000160
8.396143 255.495117 -71.707283
20.006987 258.744202 -70.863029
-53.094654 257.202026 -74.471428
-66.678711 256.781494 -73.259666
-60.902138 257.960052 -71.613213
-58.369656 257.935486 -72.726532
-66.345543 258.136566 -73.446587
-62.029682 257.922302 -70.508347
-63.152428 261.092834 -72.059875
-7.454772 261.424072 -71.163239
-146.333969 259.962311 -74.297623
17.119602 261.980774 -71.097961
-144.208893 264.021240 -72.697571
-152.125488 262.945679 -73.352570
-155.209061 266.995758 -73.049400
-149.357529 267.037842 -77.235840
-147.369812 267.225311 -72.291161
-138.822433 269.510132 -71.327003
-136.198746 267.344482 -70.144104
-136.643753 269.902130 -71.851196
-13.819751 265.679962 -72.280167
-141.460495 272.839233 -73.764282
-145.188370 273.967499 -74.973480
-11.478828 275.201538 -74.267082
-152.024811 281.213287 -72.905510
-147.823883 285.847443 -71.037003
-148.294174 291.452881 -71.732651
-151.912659 292.309418 -74.016815
-3.546117 289.945587 -72.021385
8.905809 292.604431 -72.752075
-140.793060 295.087860 -70.767601
-33.279232 296.683716 -70.893677
-29.261026 297.410339 -70.008392
-50.594051 296.844910 -70.120239
-23.894423 295.381073 -70.535797
-33.731819 297.751831 -71.100502
-18.174149 298.663818 -71.440697
-151.915604 298.328796 -73.028282
-37.855450 296.742249 -74.180511
-4.559655 299.758148 -69.517090
5.528615 298.075745 -71.653809
-130.880859 298.821106 -70.353493
-54.686527 297.941010 -70.085999
-127.343811 298.950317 -68.385155
14.283050 301.462372 -74.172585
-123.537621 299.118134 -73.144646
-51.823681 297.976624 -73.696899
11.599160 300.400757 -71.374229
-126.104462 302.719727 -69.825905
-40.192787 298.887238 -70.216537
-21.401899 299.572998 -73.080299
-11.508291 300.529480 -70.473694
-41.319275 300.975616 -71.097343
-34.644955 298.049927 -72.755440
-4.926513 300.284882 -71.505760
2.323045 298.807465 -72.094048
-10.597858 300.609161 -71.120361
-142.668503 301.750336 -74.216888
9.068778 301.113129 -72.901405
-153.817154 308.598694 -72.565025
-149.372055 310.945190 -73.414436
-154.063751 316.694397 -72.109650
-150.379990 322.891968 -73.714424
-147.054184 320.623901 -71.474876
-57.497223 67.320389 -68.497879
-47.413021 65.784172 -69.211243
-52.579315 65.350159 -71.761642
-63.598713 68.202911 -70.509186
-43.731651 67.512947 -70.120399
-38.140930 65.891586 -70.078110
-34.815639 73.768669 -71.264893
-28.473192 75.077217 -71.609482
-80.743446 76.446014 -71.461922
-23.325045 80.248878 -69.824364
-22.540949 80.947800 -71.050148
-28.400331 88.178490 -71.192322
82.120277 90.189285 -68.970711
79.154175 86.796524 -70.304611
-36.441261 90.623047 -71.244308
-86.369995 90.215218 -72.770813
80.796829 89.595543 -71.877739
87.473320 89.644180 -71.263138
89.183716 94.480980 -69.253532
-43.303566 93.861382 -69.816109
-48.956879 96.847343 -70.585518
92.850342 96.251282 -68.049622
-91.402931 93.595802 -69.694382
92.585602 96.613068 -70.950745
92.267097 98.731087 -72.537590
76.128082 102.774597 -68.634727
78.228790 102.424088 -71.284637
-59.116371 104.005684 -73.379234
86.135040 103.764763 -69.659279
79.680115 102.235123 -69.997162
87.422592 102.093018 -71.694000
-62.162045 109.109009 -73.162918
54.566917 106.806824 -69.672508
-69.331505 111.589684 -67.316292
50.456009 111.853241 -70.699959
48.246937 112.285812 -70.650421
40.902287 113.424576 -70.281586
37.207893 118.907585 -70.465149
48.100990 117.112656 -71.280380
-89.177696 122.272423 -71.186409
37.693081 123.617996 -69.266769
-84.308479 119.259727 -72.168137
45.497818 124.581932 -70.177986
33.737236 129.640976 -72.138382
46.065315 130.402328 -72.024727
35.950615 133.908737 -72.186676
32.249466 135.465836 -68.622520
40.392288 136.628799 -70.523071
38.901882 139.334137 -71.539177
24.710234 147.458344 -70.029900
-52.006584 144.716919 -66.973938
-47.290726 152.110977 -70.130592
35.414978 143.267395 -70.933044
36.621281 152.183716 -70.523201
115.375870 149.468170 -69.871002
-49.898262 148.922577 -68.190422
-45.494774 152.024109 -71.187271
35.082863 151.923447 -72.034767
-46.457096 154.328415 -70.610542
111.350075 159.178848 -73.181831
-42.738815 156.647003 -69.794067
111.343391 149.116852 -72.002342
113.501129 156.647446 -72.014900
27.195826 157.362656 -69.804993
34.084690 160.964874 -69.880676
-40.908348 159.704712 -72.067680
-50.044563 160.031815 -73.096642
113.490959 163.058914 -72.850304
24.050577 158.809311 -72.747810
-40.447498 163.609375 -71.438217
-70.270088 163.676926 -74.589561
111.339066 164.229431 -70.162895
109.476028 171.629425 -71.895195
-47.720917 168.324829 -70.784317
23.685511 163.515671 -71.655121
-67.228363 165.954620 -71.191124
4.856491 167.381943 -71.309547
-37.875614 170.288620 -70.163040
-34.539001 170.067947 -67.044060
-0.038030 170.474152 -73.197411
112.551537 171.095093 -70.698883
113.581306 173.372971 -71.413597
22.254524 174.508316 -68.639679
-62.251911 174.577286 -70.897987
-35.419281 171.096039 -72.375298
4.290818 174.246597 -72.939552
114.233269 176.550827 -70.915245
31.634140 168.610870 -72.687408
-62.810467 177.283417 -68.085571
112.617271 178.711060 -73.442390
-62.601173 175.069580 -71.180702
106.075806 177.001709 -73.200928
-31.609085 176.124222 -70.920403
-66.210968 176.985764 -72.045235
-62.479790 174.961151 -69.578560
21.415480 178.460678 -72.045433
-54.885387 180.935074 -70.963120
-36.728470 181.500214 -71.626877
106.177010 182.101761 -71.073708
-59.913216 181.401733 -69.662476
-37.765850 183.334579 -69.671165
-14.612458 185.748718 -70.256935
109.660789 183.123581 -69.008705
-30.962355 182.869324 -70.589554
-60.641903 181.517517 -70.363663
-10.147645 184.960541 -69.744080
-9.563545 184.802643 -71.616295
26.211971 182.286087 -69.942856
-25.496920 184.512497 -72.010269
-12.355430 186.484940 -70.495186
-14.139204 187.363235 -69.597191
107.775902 182.660980 -71.345917
20.609875 183.438766 -72.366508
-55.360123 187.041458 -71.311943
27.887417 182.566269 -72.283646
-25.782351 190.368591 -70.237000
24.446358 187.991196 -72.284538
-55.126442 184.927628 -72.353127
21.098932 192.798386 -69.800499
105.103935 191.249100 -73.039467
-55.253323 187.485489 -69.420074
105.103889 192.005768 -71.207764
26.569511 191.367508 -70.984703
-51.413528 191.680588 -72.088905
109.094719 189.739044 -72.162025
17.182905 190.871628 -70.503616
-57.065746 191.551941 -69.766304
-51.374218 195.740372 -72.180977
-45.581051 196.043015 -70.675438
107.615883 198.720490 -72.436279
21.072895 191.996307 -70.027306
-142.666092 196.143234 -71.151566
100.908119 199.064056 -71.446220
-31.346014 196.801773 -68.241089
-42.394417 202.358627 -71.224144
20.067160 198.346527 -69.186150
12.922405 201.230347 -71.464882
-18.097422 200.651901 -71.568504
18.280083 199.346146 -70.536125
-20.025084 199.537140 -72.761681
-26.764639 204.521851 -71.653900
-47.464756 206.495880 -71.962021
102.555206 203.313873 -70.126175
13.992719 206.192825 -70.276268
-136.999954 206.423645 -73.974403
-146.314316 205.079346 -73.045486
11.813250 205.987503 -71.648117
-41.108631 206.577271 -70.443451
-36.947552 206.692184 -72.924339
98.486916 208.046112 -69.621735
-148.546249 210.171402 -71.874146
-148.817673 210.257401 -74.274620
18.158894 206.275040 -73.518921
-41.474262 212.594879 -72.280006
-31.453684 214.481934 -71.121155
-23.092184 210.723236 -70.313889
22.940205 210.281937 -70.349091
-153.193008 213.086853 -71.761757
-40.683598 212.138092 -71.182533
-38.774147 210.701996 -72.493256
102.529961 211.914841 -70.056198
-18.317087 213.709824 -71.260422
-150.531113 213.934891 -69.428780
-35.024132 215.360794 -69.272301
16.895691 216.822113 -70.678024
-147.102219 216.183990 -71.167747
-36.239986 215.668915 -70.631973
92.056160 219.924805 -72.806274
-29.014059 219.158936 -72.901619
-78.433228 219.766739 -72.697510
-149.836945 219.966278 -71.636391
-76.065071 217.093948 -69.312683
94.307846 219.031876 -68.869797
-32.265823 215.621643 -70.824722
93.935265 223.365036 -69.760239
-69.940262 218.796280 -71.360298
-31.074896 220.951508 -70.729851
-13.753315 221.632584 -70.373833
8.002316 220.965240 -72.327332
88.173042 221.390396 -71.015221
-77.847168 224.303696 -71.564575
91.214211 221.966324 -71.611099
-74.657043 223.580811 -72.692337
-26.409502 222.958389 -71.456001
-3.086614 223.226120 -72.760605
93.114601 224.448151 -70.371178
-15.641685 223.184158 -71.313934
-77.307098 223.843323 -70.976318
-11.537283 229.386169 -71.199738
7.107886 222.915436 -71.687332
17.324020 228.054504 -72.011490
-146.447632 226.817413 -69.056335
-30.824934 225.361786 -71.328064
-6.719216 223.541397 -71.702431
-28.232817 225.156326 -72.787941
10.175100 228.162506 -70.274910
85.263298 227.086807 -69.003113
-6.820372 225.340988 -71.273209
-92.581291 227.830017 -68.871429
-24.999718 227.262207 -71.077026
-92.404945 227.440125 -68.753960
-23.972702 227.397171 -70.935654
-19.514338 227.730515 -71.952766
88.449234 223.814804 -70.167419
6.451157 230.004852 -72.777771
16.571663 227.926910 -68.572067
82.640945 231.853745 -70.192299
-0.167080 233.487839 -72.447395
84.376015 230.729874 -71.638321
-20.380156 234.154785 -70.142960
-16.559645 232.960281 -71.635101
14.133788 230.545624 -72.113586
-142.405487 234.277679 -72.794022
-154.261200 237.301102 -73.069893
-17.048746 235.330414 -72.047516
4.050132 238.733292 -72.085464
16.938370 237.674011 -72.291626
-153.710663 238.200500 -71.575203
-134.010681 239.224884 -72.436142
-148.926468 240.144699 -70.379692
9.332438 235.896973 -72.152885
-6.621120 239.828064 -71.553406
3.120913 242.231079 -71.666122
-11.074907 241.878983 -68.925064
-140.423981 239.891998 -71.110527
-134.646240 238.772476 -72.912079
-5.154507 237.985641 -70.396240
9.067075 244.029190 -70.432426
-135.234589 240.644531 -68.446991
-140.966675 240.151642 -71.812462
4.317533 242.785568 -70.146919
-145.220856 244.314316 -72.788467
-148.420349 245.984543 -71.052849
-144.224213 243.220688 -72.110649
-0.132620 246.297592 -71.599770
17.845341 245.542740 -71.240227
-146.562759 248.024796 -69.846390
0.285566 248.193359 -68.920746
-29.570461 248.116928 -70.781822
-146.858627 251.391739 -71.274734
20.103241 248.610184 -68.082329
1.144911 250.802399 -72.019226
-150.745499 250.831787 -71.228615
-148.802048 251.275757 -70.595215
-44.316963 251.576492 -70.384079
6.758405 251.678955 -69.469818
-45.486366 252.031876 -71.810013
-29.787045 253.266678 -71.103630
2.645401 251.969666 -72.306152
7.249330 253.762573 -69.174194
8.059134 256.503723 -72.441734
-42.658253 255.847321 -73.275749
-37.770733 255.956345 -70.673721
4.452527 254.572693 -70.631615
22.558830 251.301880 -69.556389
23.634079 259.264740 -71.073662
-46.635986 257.814941 -72.026184
-4.297719 257.666656 -74.382233
-149.806305 262.894775 -70.312767
-53.696354 258.938232 -71.708237
-6.576756 262.768463 -71.587265
-147.227676 263.913330 -71.899559
-69.940498 259.658936 -72.547745
-69.210564 260.735199 -69.829887
-11.214123 261.989258 -70.149307
-151.155762 267.709503 -78.374161
-129.335983 270.544861 -68.830673
-150.266113 269.588593 -69.121300
-14.723841 276.267517 -68.533287
20.770481 273.414337 -71.517502
-145.872345 275.826233 -73.652618
-150.409576 274.255249 -71.114090
20.700670 277.941986 -65.804306
-9.559616 280.733521 -70.660095
-146.429489 281.728821 -71.643425
-3.747864 289.503845 -72.331352
1.091051 294.816132 -69.870552
-42.067734 297.086090 -71.124641
-134.588013 296.896423 -71.971573
-132.823959 294.273102 -70.626160
-125.629791 296.325012 -71.582115
-52.473537 296.520203 -70.312126
-15.395598 294.548615 -71.342697
-62.454525 295.324707 -70.190987
-11.874668 298.319275 -72.375641
-127.511917 297.465027 -70.506531
-67.723541 297.703003 -69.079605
-147.626144 298.105164 -73.349152
-118.227547 300.925690 -67.369614
-75.636826 299.420593 -68.140686
-63.876938 299.167389 -70.947372
10.468115 298.047791 -72.982483
-60.561077 298.402069 -71.115898
15.533301 301.226563 -71.262352
-142.546753 298.948242 -70.627846
-118.837753 297.000214 -71.860176
-61.241489 300.513763 -71.424339
-140.471573 299.401001 -73.092438
-118.768898 299.806213 -71.056068
-48.670856 299.676453 -71.647026
-33.452797 300.122864 -70.114304
-25.234543 300.258575 -73.457764
-133.370941 301.051819 -68.971169
-125.759460 302.125122 -71.744225
-13.989359 300.662354 -70.755524
2.399331 300.840851 -72.378555
4.700709 299.132324 -71.200897
16.847561 300.975098 -70.493401
13.958299 302.608063 -72.536812
-151.403152 305.488678 -72.492859
-146.632736 306.202881 -70.903549
-151.398819 309.152435 -70.489410
-150.451797 308.461884 -70.414642
-147.544617 309.575348 -68.655968
-146.992905 312.039215 -72.961685
-156.880051 315.443665 -72.675865
-148.083008 316.218811 -72.678856
-48.953350 65.396049 -67.036453
-57.910404 66.589470 -70.639313
-69.474213 69.208199 -70.217987
-64.625923 64.380562 -71.307930
-38.373264 67.876869 -69.095673
-80.192574 72.384399 -67.408569
-27.763653 73.561249 -67.929321
-21.781891 76.665665 -69.058884
-85.878143 79.128761 -69.633911
-88.638618 83.547569 -68.791695
85.536308 84.369354 -69.452301
87.808670 85.264038 -71.709229
80.460030 85.293739 -68.880333
83.777359 85.020805 -69.015404
85.974464 89.230270 -71.157867
-26.844076 86.072701 -71.777031
85.161575 90.720428 -72.108475
-33.011902 87.900528 -72.038948
87.436684 90.061249 -68.928314
78.816246 92.180145 -71.602501
92.942253 94.124542 -70.639778
-89.235954 94.390717 -69.968231
-45.903168 96.393417 -70.524292
96.901176 103.557381 -70.243668
-61.042301 104.139183 -67.534019
94.368149 103.459503 -71.047348
77.857483 105.316490 -68.574020
-65.008644 104.441574 -69.119621
92.060547 105.000229 -69.275459
79.493286 107.045944 -70.390251
88.219559 107.147911 -70.331337
76.426765 105.920807 -68.188202
88.994072 107.288345 -69.167656
57.818684 106.036674 -69.598534
-75.026337 111.818214 -70.070076
-77.489777 109.300293 -67.828804
44.975628 108.253578 -68.906464
-73.533775 112.951347 -69.827477
54.385506 113.036835 -70.200546
-90.426460 109.458885 -73.007729
52.430000 115.484566 -70.311401
41.477142 117.941864 -70.511177
-82.632645 118.474991 -71.299652
-91.353737 116.855759 -70.643372
36.096321 124.897919 -71.976295
-87.498428 122.961723 -71.150337
44.418682 127.434380 -72.020187
112.046989 138.678909 -69.616096
35.092869 128.992294 -68.425804
33.105656 136.407196 -70.003532
110.281868 129.668137 -71.670120
113.703743 136.662857 -70.710579
109.717827 144.075226 -71.829384
41.371956 138.362579 -69.602440
28.069340 145.122696 -70.451950
112.408577 139.308502 -67.780472
28.131985 138.571609 -73.031570
114.347733 145.508743 -70.919579
-56.558163 146.580475 -67.593872
38.715458 144.342957 -71.041840
-53.362667 150.745346 -70.995178
34.255119 151.102646 -68.921585
-48.974617 150.239136 -67.426910
109.741699 156.912979 -70.012207
-50.417606 156.877029 -70.405846
32.953136 156.760239 -71.200485
-54.642918 150.438965 -67.824402
-54.655640 157.484848 -70.831642
114.325996 153.702240 -71.500740
-53.445934 153.393448 -68.326805
31.918468 154.915390 -69.873909
-71.025246 157.821732 -69.920380
-51.966190 157.099289 -70.831520
31.770832 160.697174 -71.397583
-43.670132 157.511932 -71.253845
-66.454590 162.160126 -70.450294
116.335823 159.295547 -70.792717
-38.259815 161.688736 -70.543404
-51.800545 164.086151 -70.727676
-48.642700 163.268463 -70.574776
110.429848 160.252533 -68.794296
-51.445370 163.235168 -69.904228
19.802870 167.092422 -70.620125
109.498230 169.950989 -69.211998
-67.963951 164.566574 -71.282608
-69.736542 169.927322 -69.976654
-45.817486 169.406494 -68.360359
4.884655 166.780197 -68.629646
-67.627464 170.368561 -70.231377
33.230610 174.631668 -69.785248
115.429298 172.666412 -70.150063
-60.741707 170.606583 -70.788155
-42.809620 171.830566 -70.244667
-3.640368 175.324753 -68.687347
-46.636459 174.081573 -68.340691
-42.390636 172.163467 -71.056877
21.030823 171.571793 -70.206619
-32.940098 170.891800 -72.123718
31.829960 175.040588 -68.158119
-61.882427 176.042984 -71.175865
-56.637466 177.536499 -68.604683
19.122824 177.882645 -72.311203
-61.249031 175.734787 -69.038803
-33.368065 179.436401 -70.534790
-7.833564 182.007614 -68.493050
-28.239428 181.413757 -71.972649
-38.447922 179.508606 -70.592621
-61.266167 182.362900 -69.068733
18.308584 181.283600 -69.271614
-40.191162 185.269333 -68.627533
-13.480190 182.002319 -70.836388
-57.146439 182.738907 -71.970375
-6.982009 180.216354 -69.819275
113.953178 181.764374 -67.772949
15.835104 186.019470 -69.728096
16.970186 183.511948 -69.547371
108.076546 186.022583 -68.865608
-56.676754 190.329987 -71.237000
-23.076733 189.034836 -72.052246
26.056932 191.195770 -69.322098
-33.187420 189.984039 -69.652756
113.005325 186.788559 -66.702576
19.918482 192.472519 -69.144043
-23.068455 193.672028 -66.329514
-48.883785 194.526779 -68.115822
-31.076176 188.228973 -71.761108
-57.266800 191.248505 -69.262550
-146.492020 195.351791 -71.327599
-21.799488 196.249786 -68.640129
-145.287857 198.156906 -70.486519
-17.311100 198.220367 -71.064362
-147.644272 196.292145 -70.445869
-148.628510 199.483261 -70.927208
-42.663818 202.780792 -69.844528
107.393227 199.513977 -69.397049
98.650780 200.396027 -70.017921
16.383280 201.255463 -70.652710
-144.504074 201.553894 -68.426331
-142.498032 203.719635 -70.863884
-142.732208 205.082321 -68.714348
-154.855194 206.838974 -70.901337
10.296042 204.846039 -70.521080
22.823711 200.275024 -70.915405
-134.915237 207.958191 -67.385429
-135.131104 207.581589 -74.426086
-24.759657 207.316895 -71.275780
102.624535 208.112885 -67.691612
21.349125 203.934570 -70.913521
-140.552200 206.356110 -68.266716
96.437737 205.968048 -70.913048
-42.313095 209.404648 -68.507004
12.748858 208.852219 -71.734955
-136.267807 210.105011 -70.988670
-133.840225 212.166443 -71.533661
-7.746792 216.127670 -69.929016
-40.672401 215.911514 -68.838394
-22.798174 213.052673 -70.567131
7.241294 218.428741 -72.460632
-150.278244 216.278534 -69.089645
92.485474 214.265793 -68.290855
-10.437373 217.114639 -72.350182
99.032516 218.348724 -70.201950
-30.246119 217.165222 -69.194962
-12.825602 221.176895 -70.120628
-8.851140 215.263107 -70.620255
-75.968658 218.959717 -68.960777
-148.059814 220.742065 -69.404167
-77.060081 220.243835 -71.931686
-32.160240 218.036774 -70.592262
-19.390408 219.097336 -68.910759
8.763226 217.947205 -70.335258
-82.273506 220.589661 -70.018837
-79.607933 219.978699 -68.185005
7.830113 218.934784 -68.523849
-146.074203 222.031708 -71.628387
-30.656427 221.232635 -68.682991
-87.663643 221.453110 -70.706459
-29.579868 221.566727 -66.857994
-25.105158 222.079788 -71.428284
-76.816887 221.315994 -69.608398
16.931217 221.675568 -69.725807
17.945614 224.410370 -70.437836
-145.971237 221.136887 -70.025246
-89.191093 223.237137 -72.068321
-28.535149 225.016098 -68.987137
-27.835735 226.917908 -69.584114
-12.408557 227.296509 -71.734886
-80.262505 225.781433 -68.277832
-26.455750 224.976944 -69.179779
-83.039398 226.692535 -68.603935
6.440570 225.227646 -68.641403
-84.854065 227.290268 -70.695007
-95.617172 230.888336 -71.182297
-27.300747 228.853348 -70.834740
-21.522270 227.494263 -71.495735
-3.164136 230.513840 -69.931419
-147.681732 227.915710 -70.450325
-2.297375 230.791519 -71.488701
18.095350 230.334213 -70.225815
-22.461666 230.230347 -67.311768
3.028127 236.321625 -72.040657
86.203651 234.587158 -69.196259
-21.524038 231.789215 -70.469788
-144.613358 234.424072 -71.328812
-9.455807 233.656967 -69.986694
79.579506 235.586456 -72.511024
-141.062073 234.330612 -71.135712
-10.969657 234.935516 -71.577682
18.299356 238.164368 -70.075836
-146.814224 237.311218 -69.698212
3.277739 239.616760 -67.852478
-9.699906 238.235611 -68.046471
78.737312 240.247025 -68.815506
-146.235016 239.672638 -71.123978
5.342935 241.128510 -70.434448
18.847208 232.197098 -68.802689
-140.925323 238.842682 -71.292641
-13.723659 238.546387 -70.267159
77.245758 237.828262 -67.362625
-2.671076 244.673508 -71.515526
74.490128 242.965668 -70.207237
-152.235611 243.028854 -75.200417
4.773391 247.892731 -70.501373
10.015755 241.487473 -70.695381
69.991142 245.451843 -69.832108
20.874632 244.356049 -71.413895
-27.078110 246.111176 -70.470024
-148.205063 251.378662 -68.429558
-18.417416 252.081177 -72.424065
-47.065762 250.469467 -69.495750
-16.063650 251.937149 -69.897377
4.818969 249.421036 -71.259842
9.793258 247.237778 -68.189606
-49.426224 251.820801 -68.133957
-24.440090 253.307922 -69.588562
6.743733 252.952332 -70.780067
-54.573402 255.434631 -71.764359
-26.259695 252.858368 -69.107697
-59.024544 256.272034 -70.192627
-30.948578 251.769073 -69.832855
5.705085 255.479156 -71.957970
12.983033 254.017624 -67.758881
-63.802460 255.020950 -71.772820
-41.225468 255.055817 -68.846138
-43.788944 256.535553 -69.911400
-151.313400 256.684296 -73.974777
-47.479576 257.864227 -69.832024
-73.322327 258.153229 -71.811981
-53.389645 258.067413 -68.757713
-63.777275 260.550385 -69.361176
-9.794554 259.285187 -71.989578
-76.310127 261.559601 -70.975693
-79.194702 259.841492 -69.742729
-80.494850 260.641449 -69.404007
-78.850716 262.465027 -68.074287
-80.411087 262.692200 -70.805481
-155.457840 268.672302 -72.901085
-142.177277 266.378204 -71.421768
-148.521637 269.235870 -69.196983
-11.438418 271.550995 -69.626808
-140.857483 266.591003 -72.046295
-130.604141 270.593597 -68.993263
-123.265900 270.831421 -71.484215
-152.468597 274.966644 -67.494713
19.639778 276.310333 -72.059555
-12.880514 276.119293 -70.750504
-149.984619 283.416473 -74.055740
-150.499680 288.862946 -74.438171
-145.417465 291.720642 -72.187202
13.203928 292.986938 -67.527657
-33.021648 295.378387 -70.252396
-156.057831 298.998718 -71.124710
-48.836510 296.790924 -70.302002
-38.118309 298.033264 -70.943115
-28.390425 297.620728 -71.995811
-12.120555 297.212158 -71.562111
-66.331497 297.269012 -73.139023
4.084743 297.400452 -69.317139
-76.088692 296.697571 -69.481781
-5.079662 294.546234 -70.034752
-82.255623 295.015961 -70.682632
-4.593596 298.941925 -70.792847
8.984166 299.222321 -69.920731
-147.067505 297.078979 -69.820435
-137.759598 298.352661 -67.071648
-123.281258 297.512909 -70.982292
-88.273003 298.529846 -69.971039
-78.076347 296.867340 -71.558601
-147.136490 297.447021 -68.867912
-157.221420 298.110931 -67.024544
-79.913643 298.549500 -71.907028
19.171602 300.392639 -69.181511
-94.250359 298.789307 -67.217262
-69.280411 302.070251 -69.762573
-91.542473 300.504700 -69.035576
-135.080872 302.189667 -68.988739
-80.456627 300.545044 -68.680740
-61.579926 300.069702 -71.288055
-42.180031 298.950653 -69.903175
-143.831329 300.997437 -70.678673
-26.654051 300.953491 -71.932465
-17.847134 301.876984 -71.360367
-11.568981 302.472931 -70.412880
0.057215 303.711792 -70.033890
-153.772934 302.730438 -70.510719
-153.813614 302.221191 -68.503899
-153.027161 307.977234 -70.297539
-154.920013 309.507843 -69.512268
-147.608521 313.185028 -70.596092
-154.440399 317.023010 -70.759285
-56.587891 65.316589 -68.396133
-48.461357 65.574371 -68.854637
-63.835896 64.938400 -69.409737
-70.252350 63.891129 -68.098808
-39.375687 64.333961 -69.481148
-46.147072 64.273506 -70.049126
-37.839230 63.693378 -67.449425
-73.634476 69.287498 -69.127487
-34.055656 69.918472 -70.050369
-29.153194 69.571678 -68.283089
-23.695715 73.752480 -68.653290
-21.980192 77.992722 -71.136658
-19.504921 80.447212 -71.676758
76.632912 83.145256 -68.053856
86.146240 84.638374 -71.370766
84.535042 86.042648 -68.376785
-32.339363 87.959846 -70.492905
76.202553 89.761879 -69.543404
97.037422 90.218109 -69.347794
74.015907 92.247429 -71.516998
73.954453 95.188469 -68.928894
95.893547 98.247314 -68.648415
73.713371 98.597519 -71.614937
54.180931 104.194824 -68.995476
54.355312 101.865059 -68.791901
49.256035 107.200111 -70.502785
53.371410 109.350502 -69.373779
-64.419235 106.789490 -72.246376
-66.052467 109.555122 -72.892761
-71.541405 112.151680 -65.307320
48.193752 111.307671 -68.943665
56.221653 111.449699 -68.088158
-77.826462 114.744698 -71.828896
48.829098 118.577805 -70.437233
-92.618683 123.561714 -70.674362
107.079170 116.224663 -68.001045
-84.092735 121.764473 -67.382553
47.268116 120.176270 -70.655449
45.393593 122.088287 -68.254601
109.126411 122.393051 -68.686218
106.553673 119.337357 -67.233200
46.556980 124.779732 -71.470863
33.288830 127.248741 -70.915985
110.527718 127.664871 -68.813713
45.143299 128.090683 -68.177498
45.364384 138.198380 -70.752319
30.504805 133.892746 -68.895035
111.804749 133.070938 -69.165558
111.037727 134.135696 -71.341324
41.385036 137.324844 -70.873199
38.052650 141.657593 -68.988754
-54.908943 143.081680 -68.000130
29.499022 142.266937 -68.641617
110.331940 143.180832 -69.243111
116.137657 143.673767 -68.465561
-47.684917 152.922836 -70.152847
26.747154 151.141037 -69.800636
-72.989716 150.000793 -69.935822
-71.098785 152.920715 -68.715782
116.557556 151.803665 -70.018860
-72.469742 154.144775 -68.948860
-54.058662 152.211349 -66.662209
25.533329 156.028442 -68.907204
-44.429996 156.032028 -69.226906
-40.563175 156.570602 -69.231789
-72.600327 158.784348 -70.188339
-70.049286 155.201202 -66.560158
-40.781097 159.629456 -67.059174
-67.508476 161.357040 -67.698158
33.779327 161.724304 -68.212891
109.699005 157.310272 -68.429146
24.066801 165.086807 -65.456993
20.459845 160.590790 -67.699150
-72.715477 164.731262 -70.605408
112.609169 168.261368 -70.384300
22.991768 164.313675 -67.699966
-39.636574 167.776154 -69.563705
112.617989 164.233734 -68.044136
8.014194 167.799835 -68.901863
33.146240 163.537827 -71.838554
-65.241936 168.938644 -67.905586
-62.106293 167.893173 -68.950523
117.538902 167.372177 -67.067375
-66.702957 169.632217 -69.859100
9.832518 169.782837 -69.864555
30.780380 165.254791 -66.202484
-65.170280 173.130951 -68.297539
-63.334290 169.339096 -68.279701
-47.235813 170.476608 -68.938301
-59.924427 174.426483 -71.060547
29.368895 173.175415 -68.730736
-68.536736 172.725922 -68.927086
-3.730564 174.682678 -70.268463
19.545609 171.849472 -66.801758
21.089928 177.711624 -70.972954
106.301781 174.740646 -69.211807
-61.860291 174.831711 -68.394974
-65.710167 178.911942 -72.167618
-30.964573 176.973557 -70.048042
113.032448 170.567123 -70.056381
106.896065 178.783813 -67.993927
-7.760079 180.673416 -69.273796
-3.110152 177.878189 -67.892868
109.115303 177.171692 -69.483688
-6.596330 179.697784 -69.724655
-30.135700 181.876785 -70.074028
-61.101089 181.900925 -70.285149
-27.281914 186.132172 -70.508118
-54.125412 187.771255 -71.237656
-53.534840 187.043488 -71.244804
28.198334 183.851654 -70.654907
109.130501 180.952988 -69.807991
109.762871 184.725830 -68.562981
109.887329 189.364807 -69.950943
13.237072 190.863251 -68.181816
19.960619 187.736725 -70.334946
-38.033623 189.873016 -69.555969
-51.129467 189.965881 -68.790825
103.474777 193.349503 -69.361092
-19.009682 195.681473 -70.356400
26.848900 192.920502 -68.598145
106.048615 192.632690 -72.216805
109.740776 193.922546 -69.336815
-148.933578 196.225357 -66.252731
106.477547 191.239014 -68.675362
-50.902355 198.466064 -69.553169
