# This PCD file was generated using the MATLAB® pcwrite function
# from Computer Vision Toolbox®.
# .PCD v.7 - Point Cloud Data file format
VERSION .7
FIELDS x y z
SIZE 4 4 4
TYPE F F F
COUNT 1 1 1
WIDTH 1459
HEIGHT 1
VIEWPOINT 0 0 0 1 0 0 0
POINTS 1459
DATA ascii
-30.256886 86.709717 -75.215813
-78.673119 90.938202 -72.733971
-38.954556 91.891479 -77.188629
-40.585602 94.415558 -72.739342
-59.194942 105.155968 -75.114021
-84.073776 106.862289 -74.231346
-75.347504 109.616882 -77.243279
-77.032913 113.549347 -78.597237
38.731735 138.862915 -76.258232
33.774166 139.097641 -75.324158
29.454039 142.099808 -77.269112
25.561583 157.487503 -76.280716
-10.153135 181.863983 -70.464767
-9.632494 183.532730 -75.216293
-16.095346 186.458679 -75.751572
-14.045849 181.043381 -78.402229
-11.337622 191.387604 -75.199699
-22.419615 186.781754 -79.401070
-11.511742 190.414429 -77.482162
-26.949043 195.319458 -77.802490
-146.190140 198.296371 -77.764053
-39.004074 200.882431 -76.156456
-52.208138 200.584717 -75.992493
-23.627552 197.299347 -76.606201
-146.313400 194.105408 -75.516541
-151.088348 204.611618 -79.613556
-152.256317 206.365112 -74.568855
-41.736767 206.131882 -75.245003
-48.907806 207.294250 -76.505981
-142.380753 204.772736 -73.813446
-152.887909 208.389313 -71.266617
-40.794189 210.226959 -78.740440
-33.196926 211.925873 -76.035789
-156.482727 209.687195 -75.801216
-150.178711 212.181931 -72.910767
-60.712242 217.410767 -75.944504
-65.821106 217.156433 -73.847275
-55.397373 215.594803 -72.495346
-64.783539 222.704941 -77.197739
-148.015289 219.294708 -79.177948
-67.334511 222.407227 -76.225281
-77.615616 220.645065 -76.811790
-75.837677 219.712494 -75.126175
-82.677994 225.894974 -76.099159
14.806274 231.086899 -76.701714
-141.767395 232.255630 -72.802132
-149.197311 233.233032 -72.499825
-141.380600 236.560074 -71.533897
-152.104584 238.622543 -75.760086
11.385471 234.654785 -75.400955
-148.017090 238.476563 -76.750870
-143.439529 240.110413 -79.456444
-149.036423 242.958420 -79.616745
18.724581 248.837479 -77.935631
-147.536209 251.119568 -75.185883
9.095250 255.800369 -76.672768
-150.289047 259.529877 -76.562302
15.619165 254.639603 -75.305496
-152.041748 256.456879 -77.034714
8.406730 262.364532 -73.557991
-1.837435 260.823364 -73.465935
14.902493 260.395599 -74.792450
-142.426575 263.076477 -79.137894
-138.583145 270.599335 -76.228264
-151.164001 263.698914 -79.485237
-137.352295 263.271454 -84.188759
-7.585717 267.570068 -79.308868
18.255949 268.713013 -81.851852
-154.272644 275.394592 -74.908165
16.773998 271.525665 -79.342575
-153.205048 273.840515 -79.677872
15.550742 276.953339 -81.207855
-153.513092 282.502380 -74.958427
17.318707 280.125885 -74.103172
-148.271866 285.546204 -74.975510
-4.128708 279.390656 -75.453537
12.358312 287.444366 -74.176895
4.858512 288.326538 -80.338455
1.219774 286.700745 -74.217491
9.802842 285.843597 -77.515556
-150.466248 296.693176 -77.475174
-147.299835 291.300537 -76.464294
-147.388550 313.343079 -75.372574
-50.249100 78.657784 -74.735405
-62.507248 77.368034 -73.160522
-54.131226 77.745560 -78.292999
-69.780449 75.023888 -73.114403
-58.173599 74.916992 -76.389870
-46.117897 79.499031 -69.211601
-43.625683 78.817482 -72.983795
-68.685776 77.028252 -74.908897
-40.428837 83.473145 -76.150902
-73.316376 77.766853 -76.806839
-45.317429 78.480133 -76.753166
-30.929256 79.315346 -74.014343
-74.262299 82.399780 -73.459885
-78.280991 90.622879 -79.092934
-33.440395 86.938538 -78.098366
-34.189373 94.225349 -72.754486
-85.613884 93.290771 -69.775566
-46.480110 94.796555 -76.018120
-57.035587 106.534454 -71.393242
-64.018593 107.537560 -76.891914
-65.884979 111.311699 -76.188446
-75.584602 111.497063 -73.150780
-85.803528 119.969063 -76.240814
42.238392 119.942719 -71.547989
40.167393 130.852036 -78.339241
40.640324 125.448929 -70.258476
42.826828 131.291611 -73.446663
36.353470 127.956604 -76.607109
35.493103 142.615143 -72.813660
33.648346 132.618774 -75.508102
33.171497 149.539627 -77.476738
28.768909 155.101196 -77.048744
24.231039 166.136581 -69.998596
-44.619759 171.712402 -74.905716
-42.078072 174.517715 -77.701378
-38.447411 175.045181 -73.982635
-59.433441 176.425598 -79.174683
-5.129199 179.828979 -75.274712
29.259581 180.010864 -77.768440
-5.918504 179.760117 -81.181290
-61.549435 178.617371 -73.247231
-57.013199 181.609222 -74.201241
-31.322510 181.807846 -73.767769
-8.582807 184.595337 -76.164139
-20.303968 190.994476 -76.333176
-53.989838 191.892242 -75.493607
-60.479523 186.690521 -71.417732
-32.635887 178.798233 -72.460617
-10.971358 194.615051 -74.638771
-54.496334 195.000534 -77.218147
-24.288227 194.063324 -75.550697
-23.998520 194.886841 -70.962067
-26.022314 191.993973 -75.886612
-28.467613 199.698456 -73.894524
-47.011829 190.163406 -75.564781
-146.405624 198.164139 -77.209679
-48.347446 195.648178 -77.511459
-45.563885 204.714752 -70.875626
-19.642656 195.565186 -74.865494
-26.093361 196.011322 -78.150230
-27.154181 201.906403 -77.899597
-28.702085 193.901855 -74.843300
-39.335571 199.829422 -74.198326
-37.789890 202.284821 -75.076988
-35.918556 202.896515 -74.296974
-42.703030 203.038910 -71.565208
-21.940327 199.555695 -73.459213
-45.866646 200.897507 -76.412628
-142.784897 203.708130 -73.751518
-21.243559 205.105621 -75.859375
-36.482018 204.859497 -74.197044
-23.798216 199.933380 -74.352989
-42.297642 213.059372 -75.212105
-46.535656 208.976990 -78.948326
-43.934338 210.514984 -69.078674
-135.753311 204.224701 -77.438141
-134.630646 211.941528 -71.543083
-46.867260 212.335037 -78.777977
-59.323315 211.650589 -79.532860
-46.976852 206.801865 -74.735481
-45.495621 211.364685 -76.837868
-142.294479 217.314301 -78.146606
-52.194893 212.934296 -76.151588
-51.660877 209.525681 -73.897285
-48.159401 208.133713 -77.882347
10.943661 213.406982 -65.504852
-144.330322 217.616104 -73.796860
-54.607471 213.534241 -70.610512
-35.570099 213.666412 -77.736557
-37.598988 212.007874 -79.053268
-147.109619 216.391510 -79.310669
-68.011131 215.644318 -70.274376
-76.667389 221.029816 -71.564507
-29.574833 216.545715 -81.609489
-12.148234 222.183487 -71.491745
-77.474701 215.270950 -70.727242
-59.124977 219.050232 -73.704826
-141.551239 220.475739 -75.669044
-39.806377 221.668732 -71.605911
12.874705 221.016190 -75.114113
-150.419342 222.992065 -75.967361
-80.591087 225.955368 -72.361671
-71.352470 223.512009 -72.193901
-31.609152 222.887924 -74.323929
19.140551 226.520920 -70.049194
-25.427626 227.265503 -70.193863
-12.852246 224.618423 -70.281998
14.137398 224.074585 -75.716652
-9.451685 225.662170 -76.898811
-153.512360 229.702698 -75.569817
9.372517 233.647995 -73.459175
13.263793 231.765533 -78.092415
9.433212 233.197083 -74.135437
-9.161018 232.304459 -77.516441
17.757254 240.373291 -73.317696
-130.436264 233.386200 -79.151978
-148.848984 242.538132 -81.243988
16.453918 245.192413 -79.108559
-143.503387 240.605545 -77.880501
-133.439468 244.764450 -74.798439
-147.814133 242.342148 -74.329681
15.156307 246.521149 -71.588173
10.297832 243.070862 -75.426376
15.749557 253.116638 -72.843231
10.394974 244.900742 -76.883995
13.808298 247.595474 -75.245941
12.912062 251.997955 -76.056320
-151.550079 246.154465 -76.128288
-145.165344 247.618011 -75.372925
-33.758595 254.491608 -75.452415
16.443094 249.943497 -72.756958
-36.829418 249.658020 -73.372528
-37.419815 249.944534 -69.381744
-33.242558 255.300797 -74.261925
-51.619560 253.586304 -77.467865
-37.956543 252.737350 -75.761482
14.257147 253.440933 -78.553314
22.092550 257.558167 -75.877586
-37.735111 254.954407 -73.559662
-150.709625 255.332443 -71.023956
-150.818542 253.305145 -82.801041
-144.140564 260.823730 -78.309685
13.734465 265.198914 -79.611565
-5.557216 258.407196 -73.625366
-144.654648 266.548492 -77.991890
-150.729370 267.179901 -75.563400
18.471630 266.038788 -73.508949
-10.506662 261.253479 -71.500542
-6.652020 267.394287 -76.020142
-11.758842 271.108276 -75.405457
-137.774139 265.394470 -76.520164
-142.400253 267.377899 -77.882172
-153.151398 271.690582 -72.500000
14.270553 274.413605 -74.362587
-145.094315 274.230560 -74.173111
-149.814896 267.947205 -74.186295
-151.198776 279.326843 -73.760307
-2.542636 275.248840 -75.431107
13.222796 279.450714 -75.554733
-3.876542 284.118988 -80.263283
13.172577 280.714294 -75.132790
16.890383 293.304657 -74.103752
12.182992 290.405945 -77.103043
-150.062820 288.348083 -76.047440
2.915137 296.390076 -73.038147
-143.867950 293.906219 -75.386192
-138.160019 295.638031 -72.402817
-150.286835 294.186798 -73.854279
-136.580048 297.209625 -79.049248
-135.033264 294.233734 -74.864792
-135.180298 299.690033 -71.368561
-139.875519 301.673401 -77.231735
-152.535309 304.588715 -73.753296
-145.968124 308.520355 -77.047043
-154.904388 310.547424 -70.749527
-69.634521 72.793129 -71.343758
-61.050259 69.818687 -72.116096
-52.229851 74.561584 -70.850227
-61.938992 71.600922 -71.997437
-46.597702 75.478806 -73.135139
-52.860641 70.856461 -74.362808
-62.755653 77.892838 -70.837708
-43.457432 74.797462 -70.308403
-39.720074 80.315140 -74.362747
-75.763069 78.478058 -70.751816
-71.847794 76.197327 -73.162537
-46.800785 77.716034 -70.189171
-34.297272 78.061577 -71.104042
-75.684380 77.152672 -75.344482
-38.205448 79.857483 -73.937195
-80.167870 82.487228 -76.613777
-27.025286 83.392975 -69.052917
-28.413321 85.632751 -74.805969
-80.828133 90.034164 -72.277420
-34.580494 89.915016 -77.308891
-85.514778 95.161987 -73.101616
-42.090199 98.214928 -76.709808
-43.115292 94.264458 -70.640213
-46.804565 95.705215 -73.802834
-84.893761 102.864861 -68.111031
-51.417839 103.652214 -81.904243
-76.790718 110.410896 -72.209312
48.313202 117.251625 -70.742706
50.826710 119.415161 -74.659500
-86.337166 122.238235 -75.431122
-83.198944 120.334595 -69.321426
45.863537 121.358788 -77.252777
42.256111 130.139099 -73.397972
35.264462 134.123169 -71.505554
40.646915 136.397797 -74.256439
36.063114 130.348419 -73.068047
32.859077 143.418533 -73.781761
37.334236 142.885773 -75.327103
32.396095 143.788269 -73.082718
23.908854 158.976425 -69.794670
31.223452 158.266510 -78.429520
29.242226 148.472824 -78.857864
33.765259 162.409973 -71.656380
-55.703690 153.811386 -69.508995
-47.166538 162.700043 -72.324471
28.003632 160.873779 -75.468597
27.899582 161.756226 -75.324051
-47.814472 168.225586 -73.795807
-37.965492 163.029922 -74.466225
29.974957 164.629059 -72.011787
25.746296 166.802139 -71.872749
-42.041340 167.037582 -78.341789
-44.179813 176.857376 -73.084846
-2.821539 175.315872 -71.386765
25.032906 174.570709 -69.809952
-60.308132 172.621140 -76.155319
21.976952 173.003662 -75.475922
-65.384712 173.592224 -72.143852
25.437939 184.733185 -71.524086
-8.264166 175.114227 -71.893211
-63.629425 181.659729 -69.252060
-10.022222 181.980911 -78.736839
-41.426189 179.852692 -74.551849
-15.184819 181.640396 -72.467125
20.152729 185.992157 -71.305550
-9.296393 185.664337 -76.900116
-25.909813 192.153336 -73.299278
-55.120319 184.090012 -76.626091
-34.523190 186.700638 -75.329124
-57.448856 185.896179 -76.050163
-15.548919 183.907776 -76.625694
-33.581612 186.304962 -72.478668
21.979841 191.316895 -72.718025
-17.835161 191.225479 -70.704407
-23.568604 192.762756 -71.683418
-59.446369 193.016998 -75.046204
-28.568817 193.958664 -74.468513
22.379208 192.423309 -72.779800
-47.955925 191.784851 -70.736320
-51.220486 193.398544 -75.813446
20.169764 198.608795 -72.006653
-151.330887 199.028610 -77.881844
-27.130659 202.215073 -75.703796
-37.201916 203.138214 -73.491257
-46.896042 201.427185 -71.583572
-50.722439 196.328857 -68.185463
-54.417160 201.425476 -73.386986
-39.190887 206.908463 -72.302322
-146.703583 204.601990 -75.408066
19.993101 200.406128 -72.807510
-18.749945 206.531860 -75.315163
-149.142990 202.351761 -72.035698
-47.357372 205.699295 -71.821953
-41.719154 205.150482 -73.055145
-142.169556 207.605286 -74.859375
-48.478649 205.289902 -70.657967
-20.636902 208.954758 -72.028481
-152.256317 203.132629 -75.339729
-150.281311 212.886398 -76.974014
-37.357159 209.225128 -75.952286
-21.793297 209.804703 -74.309151
-11.764039 211.822037 -76.907906
-137.473038 213.428650 -74.581879
-53.826530 213.155823 -75.644867
-23.702789 206.549576 -71.900650
-52.919258 213.261429 -68.887299
-39.084869 210.070160 -73.090416
-57.242950 211.824875 -77.411201
-20.814167 216.703400 -70.472481
-61.445976 211.607574 -71.312210
-57.023041 220.720093 -74.660278
-149.244324 219.849777 -76.280342
16.182081 214.757706 -70.556953
-58.035942 213.486542 -76.684334
-61.220936 216.114975 -69.619011
-29.558113 217.464783 -71.990784
-17.585884 214.993057 -74.295006
-74.029167 216.550751 -71.959671
15.355186 217.374954 -70.585030
-61.408524 221.038773 -75.626564
-40.063583 217.270508 -75.411606
-77.117355 222.017426 -79.010254
-151.009644 220.592239 -72.623741
-149.570374 219.156357 -73.896629
-145.269455 224.365082 -78.528061
-27.740662 216.710602 -71.286041
9.901137 218.928787 -75.353714
-62.633801 224.901520 -72.426254
18.389027 223.074692 -70.633331
-67.704094 222.287598 -78.036148
-26.230797 223.940521 -70.936134
-69.108467 223.011322 -71.592674
-83.201439 224.148438 -77.026253
-11.754930 219.991089 -75.708282
-79.613594 219.091843 -74.305023
-1.445705 223.169113 -71.966377
-149.149155 226.495758 -72.319145
-24.516275 226.257019 -72.523872
-19.899385 228.648239 -73.936790
10.240812 231.513245 -69.359818
9.246809 229.958603 -76.555611
18.696785 227.058472 -69.185394
-149.578064 231.312958 -77.069176
0.877186 232.792191 -69.616447
-7.194828 228.490646 -72.714371
-155.626892 233.563965 -75.458405
10.132342 237.973770 -75.382507
14.807845 237.338623 -71.855225
-148.872650 235.571823 -76.782928
-147.340591 236.541885 -77.814812
-0.593083 234.805328 -75.323097
16.808247 233.901337 -72.141251
-140.047150 242.679123 -75.853203
-135.138519 238.765869 -75.805206
20.202297 240.052017 -76.493019
14.594870 242.490829 -73.381126
-155.658768 241.909927 -76.349396
10.656434 237.475006 -75.468445
-0.427781 245.336807 -72.721725
-146.612579 241.776749 -75.152107
-1.676503 236.846085 -75.855423
7.241799 248.094711 -72.095009
17.213959 247.427322 -72.802086
-24.908169 248.995850 -75.948860
-146.855423 251.601944 -71.231812
-32.673687 249.248871 -78.374268
-24.945791 251.023270 -73.458412
-38.349308 252.409409 -73.670555
-39.897739 254.314972 -72.566826
-31.168327 256.480804 -69.202759
23.034286 256.139587 -70.693893
-43.903954 252.666428 -75.348305
10.372731 256.508270 -76.606140
-51.876469 250.461136 -75.882301
11.914124 252.966934 -75.821571
10.165726 256.149139 -76.219131
-51.858383 255.519669 -68.644531
-44.372608 252.664703 -70.017395
17.083828 248.734543 -69.664459
-54.887321 256.966400 -70.341644
20.463543 264.666962 -75.954529
9.035637 253.075974 -71.526314
-149.323105 260.371521 -71.017288
1.361854 258.757141 -76.581841
8.904334 256.891418 -73.413757
20.319796 255.341293 -73.270462
-0.608504 262.936920 -80.093460
15.056769 262.791809 -75.458893
-151.199585 265.202087 -72.498375
-129.548767 270.124237 -73.220230
-146.265640 271.579346 -74.988487
-141.245422 267.793427 -77.503426
-155.689423 271.570007 -76.356308
-149.186310 273.138428 -77.393951
23.149910 274.054230 -74.594635
-9.795176 278.914978 -75.469795
-13.506524 276.446564 -69.033859
-152.598083 281.033295 -75.474152
-143.681335 286.233917 -71.651939
-8.361778 284.044830 -71.126038
-2.314141 279.578247 -74.695129
-151.042435 288.695282 -76.258865
-145.056839 284.255402 -72.157562
-150.977844 285.853882 -74.705917
-154.017822 295.198425 -77.990631
-153.652786 296.771454 -73.979568
-148.058487 295.679230 -75.264053
-133.019516 296.811249 -76.284615
-153.026764 300.631989 -78.991615
-149.346039 297.493347 -77.388741
-145.626007 299.056946 -73.947708
-148.611374 309.433197 -73.634308
-154.381287 306.166595 -74.654015
-148.202454 303.401398 -71.222702
-151.448730 310.750519 -73.835121
-147.086090 312.639435 -74.307144
-148.156876 310.785980 -76.303482
-149.811310 307.346893 -75.329483
-53.578506 65.085228 -76.464439
-55.957573 69.940315 -72.332932
-56.236267 67.331818 -70.837570
-44.989716 72.836502 -68.050270
-59.592136 71.935432 -66.957558
-47.919086 75.914909 -72.675812
-64.852112 73.403679 -74.263580
-56.918262 75.133041 -73.439293
-43.225315 77.120041 -70.658043
-42.802837 72.823631 -76.007446
-33.864544 77.055580 -73.971458
-77.062469 72.674805 -71.715210
-38.626167 82.405327 -72.088905
-74.103249 77.100662 -72.061646
-32.388710 78.299057 -73.605385
-26.006796 83.963562 -76.221527
-27.004053 81.808632 -71.653877
-28.722290 94.104660 -71.808830
-49.410645 98.094978 -72.847420
-86.999084 98.139542 -71.081154
-67.853958 105.795586 -69.084961
-84.454391 109.206390 -73.614723
50.231792 113.319527 -72.701279
-81.634270 119.645943 -74.966713
44.072285 118.183121 -75.773590
42.757435 123.494522 -74.239197
-92.041382 119.524597 -71.316116
41.291302 121.382935 -75.499344
34.256687 123.646858 -72.219536
46.468838 124.105309 -73.874863
40.633751 126.372375 -72.289474
40.543694 130.441650 -71.305725
44.208118 134.437469 -77.134399
34.112392 140.035217 -73.337219
40.454021 139.900955 -72.872581
32.960911 143.621536 -73.298492
35.317791 139.742065 -70.618347
25.842669 149.370743 -71.194611
30.562193 152.399338 -74.858482
36.447216 143.749298 -72.852638
38.769485 149.168411 -74.645737
36.216324 148.105713 -73.494118
32.424179 151.862183 -70.921455
28.178343 155.591934 -71.754860
-47.559052 156.509384 -75.435936
-43.277729 165.996170 -78.398262
21.938942 167.993973 -71.272629
27.516926 161.828644 -72.873169
-49.012135 158.746429 -66.772476
-53.073238 164.660110 -78.193642
19.448092 159.501160 -73.843590
31.071922 157.170258 -75.814613
-50.023670 165.769760 -73.675385
24.004679 173.124664 -71.339417
-69.563049 163.067032 -70.571350
-36.844669 165.485886 -69.662292
33.723648 166.637466 -72.281197
-67.302811 175.705109 -73.271690
-63.194828 168.838760 -71.024643
-41.264591 167.834900 -69.297157
-40.444942 172.671783 -70.520485
31.023653 166.169388 -67.325768
29.682356 168.963379 -75.378464
0.170248 170.888107 -72.011055
-36.619122 176.267639 -71.139023
-1.464785 178.383804 -70.726189
28.664385 175.869308 -70.139771
-7.121270 174.506699 -75.505341
-61.422115 169.610153 -75.889648
-38.268330 177.617950 -71.187317
27.490976 174.446579 -72.118088
-33.017574 177.672226 -72.361473
-29.608133 180.732574 -74.954323
-36.637600 183.600616 -68.433228
27.828426 180.016434 -72.511269
-59.967442 185.241058 -71.746857
-3.912247 180.390930 -75.820007
-39.362965 184.140564 -74.714653
-57.557812 184.869476 -71.190720
-55.217281 186.810532 -72.220078
-25.416979 188.676239 -68.569237
23.156628 185.460892 -74.387787
-58.434097 186.343384 -74.962410
-21.889017 185.192352 -74.657356
-56.734879 192.991272 -74.171265
-31.414694 191.828201 -74.648575
-22.441351 194.764053 -74.407669
-21.361893 188.939407 -75.438477
-15.998180 188.016693 -67.810722
19.192179 188.771225 -73.457176
-23.822067 194.012253 -75.072258
-51.422340 191.822357 -75.788727
-32.228035 189.541000 -71.871727
-29.260042 193.325256 -70.898331
-54.534420 191.482727 -73.627411
20.852465 193.794434 -68.172653
-39.742676 198.945023 -72.068123
-27.684021 192.032608 -72.268036
-24.967455 197.502808 -71.023109
-49.696045 193.218109 -69.671600
-40.835030 201.434769 -76.052284
-29.378521 199.810440 -72.697128
-47.676971 195.208313 -71.645607
-49.871719 206.571381 -69.806618
23.553549 199.800110 -75.536469
-139.796173 208.200516 -70.200172
-26.262480 201.649002 -78.935837
-24.966867 199.805725 -71.864174
-134.262161 204.125824 -76.843124
-25.114912 204.124161 -75.488609
-145.218292 211.173798 -73.257523
-153.700439 211.341949 -76.047073
-131.504028 208.920715 -74.264542
23.100986 208.571243 -69.120811
-127.699059 209.518616 -66.826355
17.920322 215.275208 -70.143845
-17.841145 204.795593 -71.336807
-19.666157 206.291641 -72.500671
-38.541725 207.265411 -70.988632
16.573748 208.425201 -76.161537
-151.827759 215.408554 -73.438316
-143.126068 212.400940 -69.895241
-12.412631 210.296158 -71.795876
-32.088684 211.867233 -73.342186
-149.474182 213.596390 -74.899307
-35.438564 213.346420 -74.560783
-65.214226 212.531784 -69.009346
-34.513550 212.157532 -74.167740
-64.445198 216.038574 -70.364578
-62.443527 220.413742 -72.214386
10.563008 215.695953 -75.583443
25.140413 217.655502 -67.894707
-79.455055 217.725540 -77.076820
-28.743168 221.408752 -71.641792
-26.892691 223.101273 -71.315239
-36.527843 216.346634 -76.885880
16.248047 216.407318 -69.684509
-87.664680 227.699356 -77.821335
-35.611217 223.813156 -74.144363
-13.826975 224.003433 -75.375473
-9.418061 226.463196 -70.073517
-23.306843 230.680817 -75.885460
10.881495 226.657104 -77.794220
-77.808472 224.940247 -73.987701
-89.691521 227.445053 -68.095810
-81.976044 225.170700 -76.204201
13.124828 223.337631 -77.187004
-146.046188 229.947876 -74.753487
-6.156763 225.712982 -71.026245
-6.327053 230.698761 -75.028030
-16.071901 228.376251 -76.017838
9.871718 221.552246 -71.565987
16.583542 232.861023 -74.470955
-6.685029 233.794586 -73.294411
9.073891 234.023026 -71.238892
8.567729 234.677963 -70.565826
13.242940 239.013672 -74.568878
-143.882416 238.332886 -76.988228
3.670026 234.565201 -72.424965
-4.734285 236.400101 -75.898445
-136.493439 238.945541 -71.886154
2.630817 237.805054 -71.201675
-150.240112 241.178009 -70.278816
-144.155777 237.325394 -77.738365
17.926910 244.653366 -74.054413
9.651649 240.977066 -74.322327
-5.271736 242.998047 -71.675461
-2.517352 244.136841 -76.254234
3.107081 250.682877 -74.133949
-25.980196 246.976746 -69.562462
-25.947758 249.442200 -71.753510
-34.137623 245.438080 -73.642021
-148.022385 251.845047 -71.520111
-142.080566 249.794922 -76.757233
-147.867218 251.071411 -75.147827
-24.719316 250.134995 -71.685577
8.058916 250.687347 -70.595573
-29.133945 248.122818 -70.717812
22.742624 245.277939 -74.519806
-34.690014 251.882050 -76.696907
-51.051975 252.926834 -74.327072
-43.950718 251.963242 -72.722496
10.892919 256.053711 -68.999374
-57.313477 254.908310 -73.894440
-50.666943 254.583160 -72.265198
-147.018768 253.834198 -74.204208
-56.380928 258.800018 -71.626282
-56.079071 254.742813 -69.776192
19.341946 260.230499 -69.139763
-5.002913 257.102234 -67.076363
-4.684713 263.668396 -75.620232
13.251203 257.949677 -74.488564
-9.694337 268.249390 -76.351364
-142.514999 266.624054 -65.245087
-136.876160 260.599060 -72.022392
-151.170181 267.228394 -74.645325
-138.960526 271.735535 -77.515999
-154.426895 270.759735 -76.025696
18.016226 269.380981 -71.593681
-136.541641 274.317230 -72.338387
-143.054657 273.330933 -70.943665
-137.290283 267.022736 -73.413269
17.683088 273.387390 -70.368248
-8.647866 266.806549 -76.864723
16.496113 278.322693 -71.593803
-145.872787 280.112640 -73.929749
13.915365 280.240631 -73.764091
-150.192123 283.892731 -75.049881
14.348864 284.784027 -67.037392
0.492594 288.287262 -72.874420
12.495443 291.621490 -73.360855
2.606718 291.481720 -74.541870
-143.611328 292.732391 -80.460793
8.310733 295.193909 -76.982002
-157.512909 290.959259 -74.020927
-142.526367 296.063599 -76.568031
-140.655685 296.477386 -68.942429
-36.146347 296.920441 -72.084732
-139.992599 299.620270 -68.264282
-31.601833 297.722473 -72.498428
-17.965174 300.661774 -74.892708
-149.982513 299.837372 -75.016022
-140.765274 307.818268 -74.244217
-17.974922 298.472778 -73.791168
-142.733749 302.736877 -74.691582
11.530323 303.483826 -72.726799
-152.348312 306.112183 -74.548874
-152.438828 308.889740 -76.111839
-150.179688 313.533936 -74.156708
-149.187088 321.046356 -71.263779
-146.949417 326.091461 -68.526207
-60.808979 68.396072 -71.821182
-52.228348 64.124802 -68.883148
-60.984138 69.388496 -68.781143
-49.108212 74.080894 -73.082336
-40.526752 68.428406 -73.418259
-64.642517 65.296104 -70.367935
-35.960487 73.880417 -69.454041
-72.947975 71.242188 -71.729660
-42.034267 73.252312 -71.653145
-83.149590 70.139839 -70.614159
-82.266380 80.539764 -75.229385
-24.574909 76.596535 -70.752983
-27.086164 77.054924 -72.234276
-25.673956 80.277695 -77.924728
-84.984222 81.375763 -72.894638
-25.380892 83.121918 -72.225685
-29.431484 93.113029 -71.984856
93.543518 93.337303 -70.953430
-37.398659 91.265137 -71.036507
78.365158 95.812973 -72.368050
78.946175 97.182144 -70.779213
91.168922 101.322296 -71.609581
78.407242 95.997444 -68.230965
-88.739227 96.198441 -75.406006
79.105431 96.627968 -70.937904
86.632851 98.445427 -70.406044
89.428108 98.785263 -66.469337
80.655449 101.136299 -68.112839
79.945503 100.405319 -72.460571
85.900856 102.452858 -69.129807
82.987358 100.150513 -71.207611
95.865921 100.164192 -73.093895
-91.457184 103.649773 -68.989891
-64.426552 106.481270 -74.159271
54.419708 109.413788 -70.332275
48.115692 109.113289 -74.336945
47.238850 111.449318 -70.318779
45.879356 113.600220 -72.741798
51.731049 114.400124 -71.017433
51.644428 115.765999 -69.317696
45.740566 113.391510 -68.537514
43.740944 118.744720 -72.117363
36.599186 119.875549 -70.771675
-86.504921 121.912491 -70.062302
38.305889 118.700974 -73.661690
43.552357 128.275177 -69.153030
39.576015 125.666016 -77.739471
45.765274 122.602028 -70.616287
30.827835 129.898895 -72.675812
42.392838 127.768188 -71.459328
29.980726 140.103027 -71.339027
41.238209 134.062836 -76.480270
32.949886 147.341354 -74.472839
22.461269 150.904572 -71.850670
18.955839 159.901733 -67.281807
33.472897 154.911652 -69.851875
26.931698 153.729935 -73.936256
-52.811604 149.436081 -69.854095
26.810644 159.531647 -70.867470
-42.996803 155.886185 -71.347885
-56.023136 163.978195 -70.633698
-67.393456 163.419830 -72.734901
-43.271587 161.114761 -73.115768
-40.451942 163.432892 -74.968292
-42.409443 168.329391 -73.551910
36.098492 163.396927 -73.726639
22.407223 165.493622 -73.429581
28.254288 163.186890 -71.931633
24.694199 170.499161 -67.467659
-67.984734 170.907745 -73.381027
-39.034138 164.740204 -72.552361
-70.779854 175.817612 -70.918961
-37.301018 170.362244 -70.450798
4.194971 173.345169 -73.016602
-43.810726 169.973541 -70.245453
2.583526 173.215637 -71.388283
20.830143 164.868088 -75.068184
-57.615406 172.614014 -69.525055
33.724018 171.339081 -76.658859
-57.989685 177.274994 -73.012352
25.433788 181.974274 -70.221405
17.744095 179.908096 -76.631409
-41.512691 173.570709 -70.465569
-8.049609 175.818695 -67.937408
-11.577621 181.450760 -72.023277
-1.011277 180.107162 -74.854736
-58.193836 182.635178 -75.208832
109.163887 179.961761 -71.526993
-55.055794 177.486572 -70.439117
-5.112518 183.013611 -70.324127
25.181803 182.225998 -72.871437
-59.829792 183.047897 -74.144997
-46.149017 184.852600 -70.928032
-34.871006 173.754272 -69.231239
-37.574875 185.695297 -74.332619
20.824135 180.075256 -70.785080
26.493073 181.443192 -71.804993
-16.961788 185.183868 -76.034348
-7.178996 187.544128 -72.605240
-55.066326 181.572433 -71.603149
-39.349014 186.364304 -70.327499
-61.087666 183.969543 -75.193756
103.408325 192.291351 -72.503128
19.978392 183.593063 -71.992676
-3.767133 187.288803 -71.422379
-48.117641 186.414871 -71.418732
-28.857090 186.118439 -70.727478
-51.483097 191.304749 -68.759544
-17.971075 191.806122 -71.470436
112.436569 186.343750 -72.364174
-50.569778 188.493484 -70.437683
28.474972 188.491898 -68.003624
11.745328 194.772903 -72.302422
24.685843 190.059357 -69.979416
-58.756062 189.704330 -68.744057
-25.969341 191.670364 -75.046402
104.457993 194.539047 -69.432678
-54.237991 189.685715 -69.224335
-31.167383 194.584778 -70.410828
-27.938892 195.922302 -66.677933
17.564272 197.423065 -70.133896
-34.125389 192.862213 -69.147476
-25.065779 194.009018 -73.201683
-146.226105 195.002396 -72.324036
-49.366249 192.157272 -71.836357
-50.261265 198.317596 -75.206749
-49.577503 199.239441 -73.829887
-22.171492 193.454422 -66.965355
22.361147 196.055145 -71.013229
-147.792023 197.264908 -74.353096
-51.362354 199.187622 -71.814957
21.117985 202.873688 -67.653183
103.815994 199.301804 -74.159752
-147.117325 204.954956 -70.355774
-50.870506 197.429672 -71.517761
-38.746094 203.584885 -74.926796
13.620212 205.798935 -72.736053
23.897644 206.795227 -66.224609
-147.885162 206.227737 -70.539421
-49.231640 203.444626 -70.318588
-20.385410 199.838013 -75.771912
102.069046 207.606537 -72.149048
100.833275 202.351364 -71.189583
-45.438427 200.106461 -70.943634
-18.947111 203.151123 -72.735977
-48.181011 207.556427 -69.658722
-148.889114 210.708893 -75.155823
-45.414253 206.431259 -73.918274
-145.152084 209.790955 -74.658646
-20.860849 205.820236 -70.737549
-43.027134 212.361649 -69.006981
11.847996 208.125702 -71.688408
92.438217 210.323242 -74.234253
-133.870880 216.646942 -73.944138
-18.658554 214.197983 -64.977028
-42.404930 216.747757 -70.386955
102.153908 210.339813 -72.272423
13.191314 214.333862 -75.795082
-31.972765 215.432312 -73.206268
-22.119711 211.018417 -73.054161
-15.991922 212.536575 -73.234306
14.586104 211.234695 -73.349792
99.251488 217.774078 -71.504684
7.706136 209.085556 -69.733231
-35.528549 208.202118 -72.012115
99.002579 213.096924 -68.182381
-6.804902 212.804886 -76.929970
-14.119216 215.270386 -66.159508
-42.866783 216.542755 -75.373840
-9.933142 217.629669 -73.711159
10.878445 218.719238 -70.711136
12.241060 215.857361 -72.680161
-73.042015 221.479843 -77.940300
-69.735855 220.386780 -72.451042
-68.527840 221.383774 -74.473892
15.335810 221.557526 -75.584373
-64.419739 221.050278 -70.318039
-79.143768 218.535568 -72.894966
-29.202431 218.618011 -70.298393
-143.584732 217.556030 -72.645470
-33.860344 218.085510 -69.970589
-147.008011 221.365601 -70.528954
97.728638 217.048096 -69.663658
20.996130 213.199997 -74.608597
-83.939430 223.967728 -71.932373
-69.258209 221.812561 -75.278549
-91.153137 228.778625 -73.743134
-32.076904 228.692917 -70.374748
-30.377951 224.652863 -77.177567
-8.872146 218.714493 -73.612053
6.550080 221.448334 -72.187042
-18.688904 226.114288 -70.026398
-29.554064 232.109192 -70.478889
-90.685982 227.658691 -71.928864
-146.082672 226.104904 -75.893990
-82.007607 227.526337 -73.353493
-89.052155 226.675812 -69.228241
-82.796478 229.018158 -76.346199
10.689454 225.936386 -76.237587
-149.141953 226.816910 -72.546410
-34.327885 226.311707 -75.085716
-12.207717 225.836075 -73.011971
11.034991 229.671555 -68.793678
-147.108322 227.134659 -72.994209
-21.766182 232.356323 -72.395981
8.918245 232.568375 -72.796181
14.210712 234.120239 -76.870476
-9.442590 233.356003 -72.117615
-19.220860 231.356445 -71.687340
-3.067215 232.053772 -69.476181
1.121060 230.918365 -71.385063
13.072662 228.900681 -70.557999
-151.555527 237.877228 -70.171722
-141.672821 237.125015 -71.550659
-18.154591 233.860657 -72.645271
-132.830872 241.131271 -71.108994
-5.418514 238.818649 -74.831528
-14.971165 236.065475 -68.580193
-144.669739 235.237991 -74.851181
17.363049 239.537842 -71.227180
-148.361145 235.485886 -75.023766
2.216319 236.485703 -72.019997
-140.700836 242.253738 -73.519012
11.418118 243.416458 -69.776314
7.895689 242.356750 -72.194412
16.672543 244.730972 -69.735405
2.596555 242.602173 -69.583977
0.077586 245.831970 -70.527473
2.164763 240.653915 -71.364441
-149.739975 249.949295 -73.170914
7.397777 238.656982 -71.682579
-23.755203 248.014099 -70.085686
-27.696106 249.942764 -73.459915
8.020423 245.724197 -68.238472
-36.796894 248.837189 -74.963997
-1.701860 251.464523 -75.691086
20.085365 245.557251 -70.523270
-17.084532 248.440735 -72.818420
6.469266 246.793091 -69.148094
-47.140778 255.153198 -72.128677
-147.874634 255.551300 -66.657608
-38.448864 259.054626 -73.295494
-150.923431 252.817734 -71.594131
16.383877 255.496689 -71.436142
-1.190572 257.545471 -72.849762
-151.741791 255.477020 -72.912613
9.956792 255.828003 -65.529785
18.315449 254.428162 -68.574974
-50.858021 258.879181 -73.930725
-65.916809 253.985855 -68.576447
-59.286861 258.474854 -73.410782
-61.037189 256.724121 -69.312958
-69.866882 257.011719 -72.537102
-56.701195 260.678284 -76.074425
-62.495106 259.672272 -72.664970
-7.998656 261.962280 -69.226273
-148.607437 262.631531 -75.165466
16.917532 262.663635 -74.361763
-144.220413 263.455139 -70.617409
-152.660034 266.080383 -75.945190
-153.609848 264.536530 -72.870064
-150.759018 263.779694 -80.752007
-147.646133 274.735138 -70.899803
-138.824631 269.900818 -69.553970
-139.102844 273.374573 -73.955482
-138.738678 269.451752 -70.742119
-9.949458 267.614532 -73.157845
-143.127869 267.752716 -74.208908
-145.044037 274.738007 -72.045311
-17.421423 278.528137 -72.186104
-153.283966 277.860992 -73.932228
-149.772476 285.034515 -71.900452
-149.388748 290.659668 -72.893394
-149.439606 288.883453 -72.100266
-2.858412 288.502716 -70.970078
6.674253 292.605438 -70.372810
-141.448792 293.592773 -73.634064
-30.424200 300.754547 -72.726524
-31.656626 292.816803 -68.295807
-55.509293 300.667236 -72.504753
-25.748766 294.065338 -73.436340
-34.950958 294.320679 -71.917770
-16.380079 295.355774 -72.159714
-151.330185 298.415405 -75.008934
-38.659107 296.973755 -73.013268
-5.540343 298.627441 -74.293625
7.439707 298.798553 -76.451561
-128.531998 296.201172 -73.840706
-53.191414 301.062683 -73.671120
-128.076431 297.906250 -72.960037
18.139034 299.974487 -69.132545
-123.885757 302.080444 -70.414528
-50.248604 297.330048 -71.657730
8.769890 299.350250 -74.160263
-125.150330 301.108856 -74.003326
-41.170105 301.253082 -72.170341
-24.242895 300.971588 -70.044235
-14.105513 299.969360 -77.044159
-42.960426 301.790955 -71.038887
-35.352943 300.117279 -75.506393
-7.243251 300.066193 -73.677071
2.107975 297.715454 -76.909500
-6.096348 298.596832 -70.357941
-144.687531 301.710297 -73.717537
5.824610 300.440521 -70.415085
-149.681747 316.116302 -73.365692
-149.433731 308.418976 -70.185715
-154.877060 315.773163 -76.138145
-153.529953 319.428223 -73.777924
-145.121323 322.092133 -73.085289
-59.275673 66.098236 -70.633011
-45.490391 65.206551 -70.234055
-50.539463 65.278152 -69.733437
-67.390221 69.263237 -69.304977
-44.979355 66.665619 -70.787056
-41.818089 66.722229 -70.347504
-36.119709 69.293915 -66.545395
-28.107555 78.142365 -72.562195
-79.146584 76.034431 -71.431404
-23.157295 80.458069 -69.804321
-19.706440 83.167297 -71.480713
-26.747784 87.990349 -67.134010
85.574265 90.871788 -72.157616
77.403336 89.443184 -71.332893
-38.413795 87.156082 -72.102852
-88.675095 93.895424 -68.412224
83.762947 89.232216 -70.651039
88.204147 89.968292 -70.615814
85.098656 94.557350 -67.910583
-42.780197 98.480003 -70.712486
-49.799034 98.360886 -75.925156
94.937790 95.181702 -69.635025
-90.209663 98.373238 -69.862755
94.627472 95.717278 -74.319550
92.294479 99.467590 -70.083580
73.975899 100.546967 -71.023537
84.038849 100.768600 -72.646011
-57.011600 102.430656 -73.833847
84.826157 102.248344 -69.373161
84.664169 104.835930 -67.655762
91.163116 105.143600 -69.857124
-61.528954 109.540375 -72.046059
54.559620 109.565681 -71.246452
-69.338760 110.601151 -70.573837
50.574970 112.455658 -70.255943
48.145866 110.215790 -65.823860
46.404865 117.765503 -74.161362
42.960594 121.877060 -72.277313
52.265087 120.009216 -71.350731
-88.857597 121.961395 -72.029877
36.664509 126.493858 -71.425552
-83.807068 113.919380 -71.138649
45.175758 121.214340 -69.765488
35.827946 129.674698 -71.811287
42.635952 130.940598 -72.575249
37.498226 128.642654 -74.979530
33.566742 133.862045 -69.717148
41.618008 137.803665 -71.627037
34.081509 140.426544 -73.311623
23.151253 147.417511 -66.849831
-51.949448 147.494415 -65.840668
-48.543880 153.344406 -74.131104
40.323269 147.237411 -74.515656
37.560223 154.843307 -73.948952
119.280083 151.462540 -72.292366
-49.975349 143.979782 -72.200981
-47.558029 151.932632 -68.573929
38.284561 150.924881 -66.505867
-46.318031 155.435303 -69.752800
112.730644 155.518707 -71.634796
-42.476383 158.665497 -67.432755
110.780693 145.013458 -69.498550
116.210777 160.611191 -73.035622
24.775404 154.271942 -71.739525
35.039921 162.999588 -70.543251
-41.119247 160.245880 -70.359825
-52.305683 159.744965 -70.124542
114.334358 165.346344 -67.427803
23.372005 158.020584 -71.447029
-42.549957 165.740692 -69.802132
-70.071274 158.918243 -68.702980
115.082474 160.843979 -70.429184
116.650497 169.407181 -76.382744
-50.840744 170.419189 -74.516411
27.000158 166.750626 -67.707588
-65.566422 166.980545 -68.012306
0.178878 170.021454 -70.596031
-37.437679 168.224335 -72.571846
-32.147629 170.831299 -74.480637
0.206357 169.233963 -71.534409
113.958603 169.428436 -74.408661
113.450241 170.363373 -68.698982
26.597864 173.782639 -73.779541
-66.220695 179.587723 -70.646866
-35.049591 170.087280 -70.118958
3.776850 174.297684 -72.940628
118.016090 177.638763 -72.057281
28.727158 170.766068 -72.512207
-63.979855 174.687180 -71.024048
111.570007 173.494034 -71.327789
-66.420189 174.476379 -70.995323
108.533112 171.061340 -73.689278
-32.645329 175.204346 -70.580475
-70.992844 176.100159 -73.585617
-61.535439 178.155823 -73.474876
21.855906 177.857590 -75.102272
-51.252365 182.740967 -75.047440
-38.161812 182.486862 -72.177856
104.503662 181.925400 -68.865677
-58.682571 181.980576 -68.897629
-39.901173 180.213547 -72.918419
-15.464104 179.438599 -69.053848
111.012352 188.624817 -71.745110
-31.494770 178.602173 -67.739090
-56.149750 181.143127 -71.425629
-13.088743 184.744965 -67.599922
-11.229639 186.186111 -69.502647
25.396494 181.445374 -69.027466
-25.462072 183.376907 -71.019760
-15.508547 184.529770 -70.923096
-13.628611 185.188126 -72.125671
108.751060 180.980560 -71.447952
13.992136 185.365692 -63.628239
-60.291939 188.194611 -75.934448
25.768921 180.671646 -72.828697
-22.995234 191.299225 -69.552673
27.403761 192.331833 -69.704132
-53.351673 179.297592 -71.681587
18.540483 193.079300 -67.816132
102.601463 191.758560 -69.257530
-53.918022 185.752731 -68.502724
104.195862 196.582932 -68.207657
27.134207 188.298050 -72.922600
-53.711552 196.197617 -69.930000
107.591560 193.405807 -72.367393
11.335730 189.878922 -70.355286
-58.492470 193.567078 -70.150864
-51.503960 194.991486 -72.244362
-48.291298 190.479752 -72.091789
108.003853 195.291351 -69.795540
19.127100 191.807007 -70.626495
-144.079651 193.107300 -73.948669
103.896172 195.866608 -70.050377
-31.946939 198.424286 -70.999969
-44.387520 202.372513 -73.466850
18.736059 198.402817 -70.305420
12.153069 204.103256 -65.543678
-19.387882 201.312561 -68.816017
15.691725 202.480484 -74.187225
-16.673960 199.219681 -72.918808
-27.517248 199.961472 -71.220757
-50.018814 205.917480 -73.232002
102.116432 196.903824 -68.446342
17.797567 200.099365 -69.755653
-136.474091 204.367310 -66.697205
-144.722641 207.673462 -73.354393
12.178334 210.142288 -69.995537
-46.774132 207.191544 -71.498390
-35.964607 209.515228 -74.822601
98.706009 207.274414 -74.104218
-150.206131 208.855972 -72.274376
-146.140121 210.403168 -80.589622
16.903931 206.896545 -71.401215
-39.552235 211.418686 -71.876869
-28.048182 214.475845 -72.968666
-22.428774 213.295044 -71.809929
22.635036 208.366013 -71.169800
-148.923843 212.950439 -73.817543
-40.545506 215.924362 -72.264465
-37.330009 209.762924 -70.599838
101.468689 209.792419 -72.388039
-21.061232 213.251541 -68.971077
-149.451324 215.581116 -68.585464
-36.460995 214.211258 -71.714531
16.947781 217.279648 -72.215164
-145.514633 217.271118 -70.532471
-33.109917 219.425018 -76.618484
88.842911 222.112869 -70.222664
-27.985229 216.401443 -74.491325
-77.034332 216.692368 -71.764748
-150.287766 217.161072 -70.057106
-73.722832 218.967972 -68.340836
98.531425 221.472229 -72.109383
-34.256790 218.660614 -70.060913
95.051620 228.337509 -74.883530
-66.307182 219.654510 -67.231094
-35.463108 216.783508 -74.835457
-10.328680 219.236679 -70.441376
9.856081 216.360016 -74.112305
85.852203 219.105148 -74.340317
-76.914894 222.214066 -68.341827
92.233635 217.782745 -71.450912
-72.572197 219.379990 -74.770294
-28.949190 222.648514 -74.125229
-2.154878 226.875519 -72.566879
93.576782 223.281464 -67.031982
-21.059732 221.493073 -71.738182
-76.012222 225.063049 -70.703377
-16.517420 233.301010 -72.544235
10.754828 224.084488 -74.257713
16.168373 227.599884 -71.855835
-146.359222 227.327637 -67.399796
-29.290592 225.584991 -72.019791
-7.496512 222.072556 -72.102104
-28.777386 227.558762 -69.607033
13.592510 229.390945 -67.953346
88.689133 227.194717 -68.394669
-7.943556 225.127640 -75.058891
-95.720436 226.901901 -68.847084
-24.041435 227.449875 -70.939651
-89.295158 227.569275 -68.813156
-20.491184 223.204102 -70.843445
-18.145714 226.169128 -73.608467
91.352814 231.270370 -69.724731
7.230834 232.980301 -71.909279
17.887953 225.804398 -70.996918
81.036301 230.993927 -68.834106
-0.507004 229.679214 -70.144653
82.871101 233.718536 -74.306015
-22.273649 236.223755 -70.057220
-14.645621 233.878006 -74.257584
12.978193 236.366241 -72.151863
-144.513092 234.051163 -74.512192
-150.103500 235.446259 -71.122932
-16.361795 237.884003 -70.940315
2.640757 233.358078 -68.531342
13.932651 236.057083 -71.507774
-155.039825 235.895996 -71.074165
-131.490479 236.444275 -70.717896
-148.232864 240.949661 -67.285011
8.050755 238.320160 -69.744881
-4.709079 240.792175 -70.697258
6.953031 242.624603 -72.624710
-8.799854 245.594711 -66.888611
-144.695023 237.335129 -72.070183
-137.332718 239.929932 -73.094856
-5.490191 240.078384 -72.163353
8.414047 240.575348 -70.836967
-138.090576 241.789978 -74.400620
-140.945175 235.983734 -70.448357
8.568518 248.324905 -74.250374
-146.192459 250.497025 -74.396515
-147.185165 246.438278 -68.062469
-144.211960 242.555954 -68.055344
-1.750418 244.530090 -71.318710
19.101383 247.494980 -70.392403
-146.179337 247.321625 -70.182838
6.028425 247.541611 -71.127678
-34.889198 248.178253 -68.492310
-144.899750 251.812408 -68.187462
21.896509 249.210373 -67.925255
3.878463 248.735474 -72.135208
-151.478928 249.260986 -71.834778
-146.440308 250.484253 -73.559402
-44.723492 253.008713 -71.939636
5.741656 249.059235 -72.222046
-51.235302 253.971268 -71.170212
-30.273836 254.682220 -70.698792
5.011935 249.712723 -67.502594
12.271194 252.556274 -71.803894
11.118829 253.786499 -72.200844
-42.873150 258.680847 -72.241554
-39.258362 252.423859 -65.703262
5.435114 250.760406 -70.033707
21.429787 254.547073 -70.844414
19.200825 254.892944 -69.499283
-42.360077 257.165497 -71.650146
-6.014618 255.582993 -73.779381
-150.479568 260.216888 -69.941917
-56.006954 257.889954 -72.942200
-8.104105 259.017975 -72.283295
-146.144318 259.474945 -75.232033
-68.633339 260.092896 -70.896667
-71.582222 261.635040 -74.572914
-9.946952 259.814392 -71.448044
-154.724197 270.912140 -72.065918
-132.231018 268.340668 -68.569824
-149.641663 271.551666 -71.804291
-12.178415 274.632782 -73.322815
23.577116 271.847992 -70.973541
-147.588852 276.245972 -70.574005
-150.514496 275.070801 -74.690269
21.522129 279.231537 -64.028099
-11.170382 283.601654 -67.888428
-145.421478 279.965149 -72.517220
-3.321338 290.660583 -68.739410
0.659256 300.475983 -69.124298
-44.316666 295.172760 -71.710930
-134.570206 292.920044 -73.307106
-131.903442 295.041382 -68.376694
-124.044388 294.016968 -74.145821
-53.486118 296.512543 -74.674278
-17.970692 297.479706 -71.847649
-60.561203 294.113464 -69.641289
-10.184167 295.815765 -71.432030
-127.266342 293.913116 -69.448433
-72.066063 297.959442 -72.299995
-146.839233 299.335663 -75.951996
-115.343102 297.461792 -73.184967
-74.754578 301.095612 -71.534172
-66.194115 298.465363 -74.356064
11.305893 296.336121 -68.891701
-61.486870 299.006683 -70.769592
18.971201 295.612396 -70.990906
-144.257416 302.329529 -71.036087
-119.313148 299.718994 -70.296509
-59.039593 299.395325 -71.011452
-142.028580 299.511932 -76.707138
-118.353584 294.376587 -72.105698
-48.240761 299.987274 -72.434814
-35.321819 303.873505 -71.196510
-25.603811 300.226349 -70.916229
-132.384430 302.360504 -69.108971
-128.748260 300.504303 -71.568916
-14.699223 301.116608 -69.313583
-1.651685 302.473022 -70.232460
7.358677 300.453491 -68.138290
18.281879 304.329071 -73.463554
13.916700 302.178802 -74.967628
-149.589890 302.683075 -72.684998
-151.196136 302.860229 -73.623047
-152.959427 306.894745 -66.490280
-148.472183 310.660767 -70.215942
-147.164642 303.596100 -68.844879
-145.257904 315.859283 -72.890976
-155.046158 312.880920 -70.935715
-151.188370 315.023773 -72.976822
-49.034870 58.224751 -66.737099
-62.476723 71.414459 -72.665642
-70.028206 66.013100 -71.316956
-67.255104 68.371620 -72.675835
-34.581833 70.921928 -68.163445
-81.117439 65.361595 -68.284775
-29.682291 72.666283 -69.630768
-24.215305 77.608391 -71.275185
-81.406601 80.000198 -69.492058
-87.071144 85.628929 -68.480049
83.585785 80.220177 -65.656433
85.541954 82.138390 -71.392250
82.734169 83.254158 -67.668228
83.476044 87.737350 -68.100769
89.562721 88.372963 -69.935913
-29.003632 84.201775 -75.972404
83.581161 89.299034 -68.898186
-34.704258 89.301559 -70.257698
93.551971 86.703758 -73.395576
77.725441 94.395561 -69.438469
94.788284 90.406105 -75.541382
-93.058647 90.361916 -69.715462
-47.896900 96.358650 -75.069862
98.771561 102.273636 -69.791687
-61.343803 102.014450 -66.476166
93.244667 101.697075 -72.720253
75.893471 103.519814 -68.623917
-65.993210 104.328926 -67.494553
95.394943 103.273834 -71.156174
79.295952 105.173225 -68.586357
84.048599 108.130684 -72.206551
76.878983 102.803230 -67.812790
91.221214 103.116844 -70.343193
53.146507 107.042038 -69.265106
-73.054565 107.447655 -72.953217
-81.571632 112.191406 -68.147209
45.207317 106.901276 -69.294426
-78.267151 111.030594 -69.345276
56.706219 111.259239 -67.637962
-90.150314 108.910675 -71.232941
50.525566 112.929871 -65.596916
40.431271 121.733818 -69.293808
-82.561707 120.942711 -78.028893
-90.914841 112.551369 -68.789993
36.841949 121.082062 -71.373146
-91.524376 123.318184 -72.623756
47.819878 129.013000 -72.344498
111.331635 137.078918 -73.032310
34.663841 132.256821 -70.337997
36.796955 132.905121 -72.572662
109.188316 125.160461 -70.064140
116.569412 139.603348 -69.869186
113.171394 141.725967 -73.293228
39.782158 142.002106 -71.624931
30.010559 144.951416 -69.070976
115.100410 140.481979 -68.519890
29.526768 134.518280 -69.839813
114.267197 146.001770 -70.127106
-59.559093 150.004105 -68.483917
42.444717 149.130753 -69.662186
-51.268177 153.612366 -75.027008
33.559692 148.271698 -67.959824
-51.738846 148.436340 -68.359894
111.152245 154.306854 -65.213699
-46.207203 157.759811 -73.503922
31.877054 151.380173 -69.079521
-58.667259 154.066833 -67.448418
-55.766247 153.985275 -70.653587
119.338005 153.426605 -71.642227
-56.666874 156.743942 -73.705154
34.299194 154.843582 -69.113663
-72.213333 158.629959 -71.141556
-52.780220 158.199753 -67.741104
33.607910 158.991333 -69.700027
-44.319454 158.612793 -72.606331
-67.161652 162.089310 -68.897720
115.873894 163.860992 -71.102280
-35.480110 163.667938 -73.248161
-54.005249 162.830048 -73.345268
-49.679535 161.601746 -71.010048
110.876015 161.709793 -70.830513
-56.551712 163.525589 -69.296432
24.021427 169.329681 -68.667984
109.038063 171.670792 -74.630516
-62.834614 165.019165 -72.857109
-69.059547 165.386154 -72.887978
-45.982075 168.741058 -69.613449
5.556177 167.874405 -69.516167
-67.814560 166.586105 -72.385246
27.383369 173.489120 -70.880272
113.353912 173.925583 -67.015305
-60.268070 169.623734 -71.125595
-44.469303 173.027359 -68.124939
-4.093497 178.388870 -75.674026
-47.594490 174.801971 -69.955421
-46.903679 172.417831 -71.398048
18.900520 171.198898 -71.843704
-34.303864 168.977188 -69.002533
30.551931 171.570267 -67.843109
-59.719608 173.182327 -70.271431
-57.841206 179.941055 -72.153984
16.569685 178.194916 -71.792809
-59.207420 178.739288 -67.683609
-29.815519 178.559402 -73.054893
-8.245825 181.387436 -69.538132
-30.653830 177.021561 -70.511162
-37.262314 179.004318 -70.017036
-60.965874 181.381775 -73.171120
16.993147 178.673141 -69.991974
-41.851555 185.522964 -70.834747
-14.799509 189.228333 -71.066078
-58.794846 180.173706 -66.014572
-2.726952 180.217728 -73.356857
112.139931 181.198898 -72.365265
24.784883 184.411331 -74.737076
24.044167 184.399033 -67.236130
112.090584 183.738785 -69.918678
-59.214993 191.262543 -70.297249
-23.840523 188.659546 -71.153450
20.570152 192.062744 -66.904266
-30.618124 186.965942 -69.207031
110.908073 189.193039 -72.219803
23.234692 186.375671 -77.238152
-23.112556 195.706970 -68.066139
-50.056206 194.682053 -68.958611
