# This PCD file was generated using the MATLAB® pcwrite function
# from Computer Vision Toolbox®.
# .PCD v.7 - Point Cloud Data file format
VERSION .7
FIELDS x y z
SIZE 8 8 8
TYPE F F F
COUNT 1 1 1
WIDTH 785
HEIGHT 1
VIEWPOINT 0 0 0 1 0 0 0
POINTS 785
DATA ascii
45.767777037525633 -58.942691679900847 -30.678908646692832
67.319613108402336 -64.357370324153692 -29.587752632693224
48.449495841776042 -69.492985245063466 -34.939349283047257
57.217503728995808 -65.470043833757998 -39.777981136360687
-40.929160111512701 -53.287329815642828 -35.079590591813520
101.153443489923646 -60.616928795560675 -75.726548331010306
102.413397203144342 -60.063059507839675 -67.444574556665671
-71.216340633273759 -59.508555441897229 -44.883378535770440
-1.164105954987441 -61.121132842021609 -63.177111099065115
-74.789472587139571 -59.148899097720744 -56.522567437419724
114.103340167393711 -65.982784941566734 -75.861588347086624
2.181020954473290 -59.016638410259525 -60.663927702799597
79.719493910457103 -67.799340012193468 -77.550880280977850
-22.162732861173353 -72.432521775505307 -65.261241508889370
-14.494077500620548 -68.805339655686083 -70.929659997669859
70.628227651620676 -64.506609984501026 -90.725559493475060
-31.048114673162928 -67.812572832160470 -75.039420990075399
82.171572738245956 -62.234177586673745 -89.853250761195710
70.631207595637022 -70.716335857717326 -94.793324926122636
60.135983665051221 -63.547490237195660 -94.083740117059449
72.225999409508560 -64.246350713184313 -92.638836793259131
70.104493992754698 -68.133401018199720 -98.036037626520738
104.950484718998425 -67.109765836475859 -98.695341877464443
113.302881862487141 -69.797548474886241 -114.364801490112015
65.407442087139003 -65.549624194878049 -105.957396078819770
124.455743725339559 -61.380501884611611 -104.521269033812359
-64.851463118859428 -61.701689447251091 -91.294433191021653
-63.341655562139280 -58.056044839430044 -81.962067011340508
115.961803417850319 -64.073414870624319 -106.438321745087563
68.580558379653226 -64.127243930883779 -98.498099980013407
83.657433779708072 -66.298311563719423 -98.976700473781307
-59.395074492664691 -56.640018953196538 -95.210308537758550
-74.005507841323762 -65.427726525800750 -88.062241985059131
100.108397618771747 -63.902447268754145 -110.431371217106133
51.490225889599621 -59.784574550504011 -117.171679753163531
117.276151601125605 -61.315142232782009 -108.394722432574142
51.867280766487760 -61.362786108301691 -113.607139974030872
117.371560897486660 -65.474812285254615 -121.456136406802145
-70.264354022816789 -62.894008289183034 -91.577578368570443
119.310279012335371 -64.184224430849810 -113.660917121425555
-76.638612404923137 -57.452347858785181 -104.972089011545165
-50.574309687051823 -62.444310112458638 -119.222237001979508
-43.511283833638615 -63.647803172374303 -111.455131443432009
-66.407101679679457 -70.158650863293374 -107.757216111109102
-47.955875873389630 -64.033108044226921 -118.905451554745142
-72.488524031715684 -57.369993864599209 -115.691232477973031
-66.751927192411870 -60.188815938981726 -119.248728712859773
-68.778753040932685 -55.587605320242623 -114.000854725359858
-49.471856495517585 -63.180622551613396 -121.896404959790388
-66.614108888055256 -67.992932477450097 -123.978744615648608
-50.244259424822829 -64.216113689032369 -125.185191299902201
-54.172793738920234 -63.747753613153961 -125.488664936625710
26.494838561078122 -67.540805554718474 -141.907369087403112
-89.012395548419377 -62.692821216512556 -130.811391526221882
-40.421640925729193 -69.097497360699947 -138.272503528950267
-92.187032911402966 -60.368403613478982 -136.697446773316329
-97.382207428322957 -58.672438051559595 -138.626719255690375
24.395499740809331 -70.392248149627861 -156.809392455215061
10.389514185984794 -65.369862200046526 -153.994511178919225
-89.537959549561194 -61.404962279075178 -143.071743621185789
-97.572799262507019 -63.113953706826855 -141.751894093990245
-98.759415521261090 -64.711297797929831 -153.924102555834054
26.955154132173096 -68.360586318308506 -164.840894725444713
-100.209362392711725 -64.549513417633221 -154.673086036675471
19.709773664962142 -69.552280074991728 -166.246590739739844
-144.335208627780275 -61.950751894855983 -152.828237669528079
18.835767922454686 -72.336502454538078 -167.084076050386273
29.143135272391383 -73.837747978043581 -185.994605999498276
-153.021085173471647 -55.742767894073324 -159.244507296059112
32.553006406771630 -67.848523652897285 -178.761374438866142
23.079269261507232 -66.259476388708777 -178.758830174449372
-133.103849645407138 -66.690727239335246 -163.319925823638584
-139.188600175032491 -68.070908312178318 -168.773242576092400
21.143824045927726 -60.407618587173133 -194.962948294659213
17.354727035220947 -62.311550341473776 -183.252960274836227
-138.208677196611234 -66.291815681858907 -164.802278273580782
-107.882600780584156 -63.309734825139259 -181.704339013363523
23.710160479689776 -65.560841187794239 -198.949678394353782
-122.842028640034655 -66.597495047720969 -173.224556403063474
9.397674584834192 -61.639819603329713 -192.929565208704673
-127.140219025428920 -62.401050563016305 -173.654189806064636
-153.879746414725844 -59.157106495760900 -168.995495484198926
-165.057254138532073 -64.786560820030203 -165.842840398456786
-155.965746394607663 -61.046732631931292 -175.166931727272328
-17.060937342315668 -71.055536428708876 -191.530131243025949
-171.396539427695870 -59.822137252463769 -167.208794032385867
-21.129029755277344 -74.015701263484630 -186.416916370874759
-13.109827322419250 -73.283806810682478 -193.335796649458018
11.188182182888177 -66.036293622260558 -191.164692855768180
-159.437393577198407 -66.158821667492106 -172.737691325659284
-109.670868897980469 -64.513322979868335 -174.415239663180643
-18.617135880785966 -62.900747629191407 -198.767454947192732
-161.255155495924043 -61.942987588206478 -181.055881163098348
17.208978692900132 -64.906383484555050 -196.938111323089771
-162.161187469235074 -60.831107417607200 -179.395971547923040
-121.208946208450030 -63.613460814250281 -180.112108284407753
-115.737288114172557 -60.870441112127914 -188.521853075750755
-116.079657924782666 -60.638000241630778 -184.329120292695450
-17.086864004299784 -63.781171976559243 -200.507013934838994
-16.876406366860820 -63.951173587834099 -202.961613046341199
-165.436851574203047 -61.187741554126774 -182.356728848520902
-160.517721787040784 -63.721681305896482 -187.663898394610669
-164.344057197159032 -64.825908961051056 -197.900207698455887
-140.330166445075804 -65.300989818742664 -194.495838156466448
-148.790681738612932 -68.189596141885403 -210.471815447101562
-6.418622164629248 -58.506297868704614 -213.935490929500105
-13.704293834973328 -57.375193116314428 -206.841632249769106
-99.982126782996190 -69.035231790760434 -203.502601322209273
-5.487342945341410 -65.150011561128082 -220.136170541818245
-166.003723693326322 -66.926898796954191 -201.495031423315879
-110.271144872283386 -65.444707777576397 -207.855036299281693
-1.732673229563524 -65.071650934539278 -227.430844429930630
-4.265933254475378 -64.415856685270711 -231.856197372775398
-111.941564024546992 -63.153015312119045 -210.352122480733698
-1.514654118723293 -73.804355419943747 -216.003305500330299
-113.670677449795861 -72.725146756949158 -218.866071872753452
-7.536681482895716 -63.286225885846555 -226.863756207876662
-5.574787656927946 -68.446629956179919 -227.030067468230698
-4.317022544846687 -66.914476532527686 -230.155051445610098
63.981079215309222 -63.771421884642386 -240.955340932195753
-13.298174378599185 -71.580845728716838 -230.688705495402388
-4.349757491409164 -70.662628542637293 -234.383982958946547
10.631307326201288 -68.585067570687826 -234.948836187881227
-0.089371535306988 -69.139206329796934 -233.804149830965201
4.050526069099170 -63.098413013131115 -235.200056290336278
65.120220390546166 -73.010090230354223 -243.664125095426328
66.017070037653980 -74.880110731685079 -246.116529179436014
11.089139773891681 -69.027886699286967 -240.732197482236018
56.158192023935669 -69.011382475962151 -241.511941342696332
59.078353417593462 -73.085062390301587 -242.814916869912508
43.693366691790594 -69.914758022729941 -246.559495313626513
37.882842329219720 -64.997623180325050 -244.654032452376981
37.046489072481918 -70.149855402796064 -252.297189463869898
-138.268483968388864 -61.455870572834911 -231.154171612862569
-21.689820276578445 -71.539057594050206 -248.883105638963201
9.606750744891215 -65.318870569960396 -255.571508222712595
44.395137156686225 -70.469401888418915 -256.723844195773893
13.489983930643234 -64.773132297102194 -247.845377664084793
-102.980576988556763 -65.125973211596374 -237.617846062289090
33.011641868861702 -63.689886703487900 -254.790365275862627
-156.282255364408627 -69.122458258018753 -239.199271391768292
-112.508572388772748 -64.284245538990092 -235.566306844892239
-111.371346307304506 -64.002035629903389 -242.907002994937073
-14.395818657660371 -66.767367054357592 -251.791308151895493
-154.409458417374708 -73.661205133069572 -236.999705228321432
25.140398484422107 -71.553701425979199 -258.650794326688356
-112.009140028219619 -62.746032741584571 -239.910969006217016
17.933086080527410 -74.843475642547531 -257.980507447202399
-138.438467896634279 -78.549560658332439 -235.588079959606233
-116.033687999549258 -69.408529975437887 -239.763376974226816
-115.127307502209888 -62.692892780025041 -238.140741873746208
-118.210322869093304 -70.392630459879854 -248.843728714717457
-142.525376106929798 -63.567345565755716 -236.265494184910693
21.612872805537858 -69.501649688017281 -251.423563576703572
-124.259067670006075 -66.468133786175031 -244.241526106890348
-144.179793346753684 -67.693572732895518 -237.000553978046895
-10.864594754346562 -76.289591825322418 -263.747053632816801
-156.197614012414419 -72.891350006012090 -261.657792219597923
-16.853071311527842 -73.208889146401134 -273.488587780775902
-15.607862982734105 -68.334900119074462 -281.586342722022437
-149.191240717331993 -66.775043557607205 -255.419149387441763
-130.409425221284152 -66.995188559728660 -270.070923931370544
-145.312898675086331 -74.766171822736567 -267.844395870191931
-137.512740071371354 -66.578851685999837 -279.134389924667630
-164.891444618411526 -68.852557081559397 -274.190979814890056
-162.415876250603333 -64.273351504185541 -276.187369414769819
-152.742604356959873 -69.185312547257197 -276.880482518888471
-155.296893945431634 -70.143569132722689 -280.850144081447468
-159.175313461980636 -62.302624142568000 -275.520380689104513
-159.188665020688006 -57.226904152369627 -275.291876134396546
-161.331866207869950 -74.329676534856702 -291.496322240842915
38.177246474677212 -62.283329435759448 -28.241049081563801
68.677605705915823 -64.668499061574934 -36.918418703688310
43.992077258627404 -63.892662289219537 -40.615243124384087
55.030690086514859 -63.047716326016513 -42.306280074079282
-24.102686267990251 -63.706233156874298 -39.279845804701274
-58.602477285169883 -59.317002872305302 -37.220130385276420
98.955672727473953 -61.290141172692230 -66.739063850333224
90.814319364740555 -63.347103679224517 -62.555280253187476
82.425871705029238 -67.959139856284679 -71.623871637281169
-82.539022664571732 -58.649668140732253 -56.846118696734123
119.207181680877127 -64.635111675779513 -88.431050712189347
-26.537344464817465 -61.463502980499058 -65.970048451470817
80.784280883770066 -61.553782952918922 -86.929172258407831
-27.479651677649727 -56.060845906738855 -72.114244425464676
-33.739814961333906 -60.630784854356975 -75.532189156103271
55.940247113242684 -65.603100349259236 -93.838190212420670
111.987755966463624 -69.845082849209433 -95.255813460394677
80.635057947648818 -59.599290536984221 -98.185074500868026
65.709972336078522 -61.087492364598866 -104.752944753483192
60.749246988351189 -62.627159460813147 -101.421396580380957
70.278290624594462 -58.594897684550766 -100.458194098014872
113.771201660042152 -62.801288019273152 -101.445596219209222
79.729326373530796 -59.796098495352020 -108.003453377654907
55.682204127855790 -59.397714347540479 -108.655122460871439
88.634448840251721 -59.664957648528208 -112.538595255300010
95.756380236769246 -62.626583407098771 -113.482672082206420
-66.275211913242828 -64.683896576159555 -90.104356913912710
-73.934449597812375 -68.218880811281778 -94.654692495740960
-65.471460956283181 -64.510827709632366 -102.608724859720169
-45.783922587735461 -58.685056349657621 -110.067914650565044
-45.462124051075477 -63.557834724700093 -114.259085202088414
-84.811793555692887 -67.143441970123234 -107.480669137127094
-67.903393983076512 -55.955712341512381 -105.110990408691507
-71.671467782679969 -71.680764364945787 -114.305347714073079
-52.064615897220008 -61.366778209789679 -115.499834526606818
-81.617780918675933 -51.275595762495257 -113.910595342139743
-79.987450380630278 -62.597419869764330 -115.003977667108458
-41.119490965347651 -62.057588608335003 -122.715159407229308
-47.832955209838516 -60.894016561794658 -121.802704789836056
-70.891016532276495 -63.349066162144887 -123.263021927564907
-51.341910192263200 -64.687156136554165 -131.741850079751202
-67.081220157103786 -63.831318425665479 -125.881125842157232
33.795422544762758 -58.729748942512899 -141.118606479620098
-42.656980154091556 -70.429432741522973 -129.376948292106505
-43.303260889417459 -65.692387807666364 -134.182320283408671
9.547429613517778 -62.727767656064174 -156.247673636963526
17.938484093528189 -61.088741709353357 -147.215941664884468
-144.741607969227744 -60.029465526889474 -157.059766677989074
-106.118311173705095 -68.387930775714693 -155.737556429999785
-103.887570051844662 -62.627618912801758 -165.505260770815624
-149.657278276859415 -69.818246994876759 -166.007370810792111
-116.735536502701237 -64.799916545877039 -173.450296776762087
-160.066511629268234 -57.884194383090019 -167.535443942458642
-111.675815840838865 -62.023069479290854 -176.000330690609275
-144.420542641201450 -66.732904062227959 -175.438674622519670
-154.531960776672349 -65.411979789973842 -181.609543447905992
-149.717973705770987 -66.672600313193854 -189.308834847891688
-145.017943249632083 -67.352717417157166 -199.319391387206849
-152.498145788411762 -61.727691035481499 -199.830620103371416
-106.481062589074256 -64.595520847489908 -204.552711304298327
-99.396093014846528 -71.365542157641642 -212.594655886535918
-119.747212181260878 -58.764981795461594 -210.460257219023816
-108.021793177991739 -66.382476666607829 -205.161648803819816
-152.788469066749428 -67.938508314462979 -209.114378898418124
-3.345421101457305 -67.688167673502520 -219.557764467411459
-137.555781008956842 -69.312716694805403 -211.671762205104187
-153.408738791153098 -63.759352385683890 -205.800533127985659
-136.515524858159267 -58.661245864143758 -211.943930817652642
-17.030517603380957 -70.905481794236465 -230.783150172435541
4.008589954747791 -64.358254321655380 -231.274564946181158
57.874081326817773 -66.744217346617816 -242.193487944696756
15.888204241494023 -71.015377218758175 -242.040698753028096
55.147362403446223 -66.274185892535883 -243.846582134448028
34.764435462587286 -74.262655095504712 -250.698234996550667
46.101751136496176 -70.978371096890982 -246.351545341589514
-149.778020320440874 -67.341890572887877 -234.836126755821994
-153.753873200449448 -74.007560692598730 -238.491359043842039
35.736470930824808 -68.302789269858849 -252.895630033422407
26.592084125318351 -69.097720713345979 -251.768880620260774
37.321750269428797 -73.715322551444331 -253.093978383891027
-152.250283605704624 -70.584094319954630 -235.564350473915511
-138.244411659045340 -69.189314107489736 -237.522345103172597
-125.006310470273704 -63.256673231004505 -238.541929801772369
-144.547479189782905 -63.424640922268360 -234.497977507460973
-150.766855069268274 -63.446887382291933 -235.277099300123950
-120.330319543846471 -62.148399889486051 -237.124035482680682
-152.105931383555969 -61.726546305567240 -238.408395850408425
-127.300982587757986 -70.431199549791202 -243.022375847026638
-133.260551907276010 -69.608377971466325 -245.717111560004838
-136.286484329630696 -69.401842395755395 -244.421376390695087
-122.338567926010072 -55.743234832676805 -244.904381045765518
-11.849131876197163 -64.815987109593749 -260.210792141561683
20.618858091638224 -67.947513839571229 -255.903870453996689
-149.376870980667206 -61.374821404951547 -242.061934303269567
19.125039629797520 -67.588115483389913 -263.889581448420302
-11.691113057966064 -69.798383252719901 -259.752906930116922
6.946880764813841 -74.352772384637547 -280.564982404497755
-145.617334827784418 -66.816211408815036 -270.661359097732714
-133.607562364378168 -63.670953620686603 -260.838165767320561
-137.527105783715399 -68.152312416281447 -271.896146058077306
-168.250457631082384 -66.059980642467480 -267.938364838843881
-135.213347624214407 -65.451990085870932 -269.022007637193838
-125.530705932852456 -67.791595138265180 -269.052284564457693
-141.630683251689277 -71.622850017128272 -272.249887242753232
-162.310198042865011 -70.677711704094619 -271.085086791255037
51.655808203136800 -59.871515428420373 -19.802006426735531
55.066333210544244 -50.750423299985151 -15.106758568042741
59.523742383072943 -67.735128616289813 -23.801673339951670
69.609101294014792 -49.927630741654610 -29.873802828321196
45.228643608464012 -61.380785267099441 -25.722743689384814
44.543976837322234 -62.314274499904656 -34.784583976516679
-12.221522115613766 -61.553925912687880 -44.004314913282663
-61.325800433468189 -56.509653745068313 -29.974029283677289
2.265415529297343 -64.442220715222518 -46.757021989549891
85.905358201421308 -56.198079681627675 -72.868254232873852
114.083729986871035 -57.669670301149587 -73.035617605405704
81.606244817667715 -60.206978700094766 -88.257211917908762
76.357943971568403 -60.067482067791964 -86.322308083643890
120.435374840862949 -58.605186025778750 -91.597036902842731
-48.499071922013229 -56.798440935161466 -80.930413550899871
-48.922702095733797 -56.897430684489734 -72.949572977856164
59.414894738049234 -69.931022149303715 -97.837030582591339
-51.551610580777577 -57.302596394279256 -84.168373507271724
-53.811403485572157 -53.827311633438661 -88.204606855498284
-84.573710658028475 -58.166667056870381 -82.643548735129301
-65.029645336750932 -63.360083680765854 -85.203833729035225
60.927767762530522 -59.081261398456739 -101.141680256053590
-55.751201174464683 -63.727679366141118 -93.877949788288888
64.115087575769394 -58.781752931248406 -105.953689998049740
104.913070334208157 -68.675974360835539 -114.692780763397792
107.106425277349331 -63.141138463579416 -115.406182221275472
-65.004474838922832 -60.575762577936025 -94.554057714191416
-71.637587720098637 -63.769280529969876 -94.483674565488414
-55.519771239245614 -59.994552863063618 -111.609849307344291
-84.234254870051714 -59.979129911101730 -113.801696132069438
-63.975107999413382 -55.415494547629855 -112.920820019231471
-78.565059311053531 -61.326974326560212 -109.612861205087967
-53.724243741128305 -65.767063593484750 -107.511303298540199
-50.694512895914386 -57.786369868462657 -112.794356439293253
-75.734780257144976 -59.138791437028118 -117.367894972908957
-55.634411964049988 -61.568985009026548 -114.483291480948722
-73.872192233812825 -58.446630066563074 -113.168932334912071
-64.033213178977789 -58.677645919114390 -116.951089067470164
-52.808231179212783 -59.644888760739093 -123.186318264146067
-51.519301740282771 -57.905774101695442 -122.421425478056065
-44.356181027804482 -59.210046220164543 -126.864826744732582
-72.254084272462862 -54.637791019603966 -121.562522877916351
-93.889047685015768 -65.114895397257470 -124.785461380700312
-83.009693340421776 -64.883935441899354 -115.778968351674720
33.374662144391394 -66.267426264189595 -145.701223087514137
-44.373297331363730 -57.503824788147000 -136.392815475414068
19.186725864612868 -57.998072079370822 -145.707051806438557
-86.746904802062417 -65.587781422076915 -144.530972156584284
-90.899143947225852 -65.513440418434797 -158.435338960079832
-101.274731101341231 -51.964468012599632 -154.110142600857841
-106.683703692114435 -52.213820462672047 -147.869095159402150
-106.823664355754985 -67.377623471955729 -165.217677398813294
-104.770673973207593 -54.145862744538164 -151.667928862471882
-140.302098649990057 -61.066550542498526 -171.743940202220386
-111.276634985945336 -60.662647462409439 -173.811097714003381
-129.192215197212875 -64.589007948204511 -177.470458369848274
-146.568024177041877 -61.791731874105182 -172.692805446408329
-121.206045509267128 -66.000681458138004 -169.991821695360187
-148.408519712889699 -59.968681840066573 -173.291025013465060
-148.171144366509964 -61.117524260414207 -177.960836907034718
-123.640563347589890 -61.582226674190444 -183.595597367762025
-131.890778088339403 -59.131256181610333 -188.271796966672525
-143.752308590427447 -67.118311817552168 -185.034519438710589
-137.710622755958696 -70.546069269974851 -194.083197853585801
-112.009695536266818 -65.400338053141638 -205.518664428187265
-147.988878454934877 -69.384592689473436 -208.315614544141823
-121.378262622184948 -63.595570527311757 -206.219601344537153
-116.280006837274740 -63.646642583026356 -210.914123366422359
-127.337533114569894 -62.718359456737289 -211.008789952332677
-122.542839579039153 -62.837038530361845 -218.757687726132076
-114.143290081643315 -66.006945352644351 -215.126699438859674
-3.267043688411349 -69.840049510382073 -231.179346446819892
-152.471344183144879 -64.097139286329522 -205.770071638242513
-0.099947824643145 -65.578438286804186 -229.783264243357110
4.087747844547224 -68.205948152779513 -236.747300140641357
-7.165037476091626 -68.237992678329420 -236.516071464935408
19.810723913333810 -57.847736726116402 -236.627168248822187
-148.828542059605184 -70.492995522360047 -211.832841282793396
-4.999803406069432 -64.171248771919608 -237.716789440144993
11.413962156894506 -69.256473844768990 -240.529182878975973
37.286578387105209 -69.689966960606995 -253.922366892230315
41.011319238360613 -65.038530619127300 -245.691295530059648
-148.589889694767692 -65.953623486013015 -233.931608070555228
-9.086204583440811 -64.094240885023439 -246.246783119966409
27.062330397897032 -68.685019603461058 -255.328623514466273
-147.319643224660012 -67.577874663208576 -237.642110672817864
-136.577013490875856 -66.464363332171288 -243.614101991033721
-130.550933282393601 -65.517835337548973 -238.093713551360196
16.516111282287881 -66.698262177391712 -254.694786413587309
-137.116940203149113 -69.814361888760743 -242.315316870359538
21.360940888018671 -66.911618910149372 -257.601392583782626
22.571721097473365 -64.338244965553471 -264.661696667273247
-160.712047136436809 -72.474657669656693 -246.148043863781510
-158.009728030912470 -72.269352453731784 -265.183525001036799
-167.548388378759569 -68.944429755408976 -264.649559083471956
-154.468079120587220 -69.058480291976679 -270.556188439318362
1.285146123453600 -73.665325177629313 -287.358877087078497
-161.971561592483567 -67.634944506182308 -266.738865201254157
63.583806539181282 -57.428737873087535 -28.582210546206213
61.121041386328287 -65.840982505430617 -44.758895065493917
-46.711810665620646 -57.155385589492425 -32.017956642003860
-50.787120481343251 -56.523218023508164 -32.523803066666190
-16.576872134326322 -56.757911365112641 -42.243022975008714
-1.788362743392142 -55.115990385292790 -50.725111959357008
0.300587312632395 -60.850246910739052 -58.736018345850809
0.369793883922263 -57.058515154170337 -63.893660771133455
81.405142475861737 -57.856162997891992 -70.488237825093506
-76.481545313570720 -58.990872277271997 -67.848970279363868
-34.434044886865436 -57.444783118886875 -76.816728443516510
63.925669850703443 -60.061852773010692 -89.105953795946689
67.773883776798783 -54.759038579567800 -86.739852981401270
76.194319675510116 -62.791512261500657 -91.323016492425594
116.911617067648578 -63.110160073953125 -97.827496865004150
63.374197075835824 -50.305464642604285 -92.730103818362977
114.051315944141095 -64.987173049145184 -109.328826411382451
-63.097370532627551 -53.066807714430688 -87.553146733234072
-86.496435718355244 -56.582474908681860 -86.717428431022313
87.691149133424091 -59.001249483473750 -120.080340919697491
-62.010198862315775 -61.567183979888540 -99.557695770675721
-70.035140693836368 -58.437335576023841 -100.586637581259211
-75.163653005619736 -54.680744205708564 -106.295700515878664
-44.678325791536651 -61.873682824613383 -114.070548480345138
-65.842145679666473 -65.441420427590401 -119.105824613415180
-53.442964986383174 -60.128430544078221 -116.518744148327855
-68.894296325009790 -60.817006357003031 -125.196505198469865
-66.850536994500985 -52.378672650388225 -118.833494971245230
-68.050405348660234 -61.489439593918839 -104.929198333493545
-77.158559991728467 -60.107501693302829 -111.485739145765848
-53.360359263558152 -56.183458331686985 -122.016512250920002
-79.242152208813579 -56.797732408072065 -115.095905528458445
-35.773833970322514 -60.927487185686118 -122.957207779714778
-47.328830305539171 -56.296878564142254 -129.945785478125345
35.061139212361553 -64.892065196941630 -138.186595508004075
-49.060576120472007 -57.263468638407893 -134.979869305147446
28.836409333169168 -64.269862363954957 -146.575562710469626
27.065851790484743 -61.124520371838251 -146.523760469379397
27.027855803802826 -65.624155014267160 -154.745373798083421
-84.384616639626486 -58.115566417158504 -129.819752575489304
-88.975420583750932 -58.883789126055689 -134.112435657545319
-94.366750840232996 -58.258155057840725 -138.794722246590169
-96.099348264429622 -59.861791723449457 -142.316407627297963
-93.617729860870540 -62.655362149522787 -142.177113170265386
-148.447563030911624 -63.337357936484203 -161.093031592646668
-147.408878565765121 -59.310340164662463 -152.488069011105409
-109.388116202289538 -72.929937939504100 -166.004685672718011
-133.315880898655678 -60.119791971409860 -161.596866620806082
-108.339837461893907 -59.089912950641590 -158.133199713310887
-142.633786945711563 -62.808068429239242 -167.807110364663146
-108.263195155455790 -65.160229839759864 -172.955749595883645
-105.765157968682743 -61.519098615136109 -171.216882475148140
-140.083318204142245 -55.846115009047253 -177.994327819264470
-136.313614274041754 -59.396056411792983 -180.420484911514876
-105.160237545313478 -61.035934173235191 -180.886202828581588
-117.514125472627072 -57.112701727973374 -187.498220788996917
-107.362826317043030 -60.204214516746219 -184.650828927067465
-110.760456778704835 -63.952254392165258 -185.877719320349541
-135.635379552194763 -65.536930940659701 -176.942690191981512
-135.820171566740441 -58.393118125514270 -187.769295963203774
-132.517673769979410 -64.175508302627065 -183.738957733203932
-120.174613697899034 -61.881584300564604 -180.646848228140044
-124.987727567669268 -61.316175813856013 -190.293829164871681
-123.099129541102585 -63.061410568964192 -182.547540167692432
-144.428699610658668 -59.095803171579362 -200.959945737772841
-155.453796202315175 -58.420382087732101 -202.240793828210627
-152.102134842239252 -61.076334278386490 -206.257441688900514
-139.385221387190711 -72.413003909654265 -201.742432454301394
-136.209668016573005 -58.469474659825785 -208.502514482533030
-125.488466963979008 -64.304058908025951 -206.583470281525962
-136.626585686847761 -61.826187827893008 -206.398441758173220
-157.026220217771538 -70.945164904424786 -206.709919803737307
-137.258603201113601 -62.660408672972750 -208.518856581018412
-135.624161979681674 -64.674751218787677 -209.802509587979984
-153.697090584034811 -59.132952389039019 -205.913333738943493
-142.726086177590332 -59.513859951518675 -210.045493975815873
-132.710457502341967 -65.549078302272918 -208.252064424301096
-10.896549751018206 -72.912576516914712 -231.570364624575546
1.612997417863667 -62.209272976338262 -232.577873036467878
13.256350238188972 -65.951266311548864 -239.740884807283521
3.256835542914878 -66.388546297127519 -242.910689870425330
-16.165277844092557 -63.896128887040469 -243.557586737881564
-17.780687440538188 -68.919982149975965 -244.504671554012162
38.623902129919827 -63.331053427023363 -255.110907816848538
47.542655960105797 -71.570624835642718 -254.909643096097710
-148.799785674625298 -61.618081951259065 -233.418542542887906
31.238449238415953 -70.989308032213188 -252.230465832175156
27.807989169240095 -62.981115839147847 -255.479499395415445
-169.538095944047313 -60.394311989016316 -234.652028145138274
-161.254556468136968 -58.086789459629827 -236.033879112979349
-150.051860733225112 -61.911928608883258 -236.267384163322248
-1.234963777897363 -65.679170248436947 -258.929804931207570
-158.791120872921567 -68.967537694820663 -242.902658924926556
-16.429979343731304 -65.770522531304579 -259.700905377655147
-151.823515666242656 -57.705302743748149 -246.218150417666067
-152.673082086703459 -56.305611508518261 -256.094729656832271
-156.890874254322341 -63.013450830938254 -253.840165773268922
-152.675585617715740 -61.028410739013339 -259.780995693672196
-154.907407415552598 -64.339717193911682 -257.154458600786256
-166.064221458925147 -68.056907141535675 -260.374351067274858
-158.025995940706309 -60.930162068682087 -261.531967540129585
-152.044534011865778 -64.974441961103139 -265.192736184823843
-155.875497116165434 -67.528519410446336 -265.920467054748826
-152.865967529595991 -64.769776259101008 -266.087165972545620
7.858165979127101 -66.627635760450545 -285.737605183996038
-151.438637998821946 -67.673569682655653 -267.773304752693434
-158.231131539578541 -55.300403021092059 -264.236038579446301
-168.884182537953677 -66.442154142056836 -259.289722735429166
-165.519079264573577 -66.244885194365679 -272.418345675361820
-162.643123348555150 -57.897696735094371 -262.419864475015231
-157.374150508685432 -66.732859258346821 -270.417155750249947
-10.714859471085987 -75.122528034243032 -286.951935437800842
-154.315677072574545 -61.035150514118548 -272.482433270559795
-158.710408733571171 -61.807954074977729 -268.635377894535793
46.009723577098733 -47.477299345052984 -18.707638367393947
64.227098309774661 -63.249839164642303 -19.683364518443987
62.961987824723224 -54.679956179297413 -16.113663697293994
37.182288642071953 -67.840509455894960 -23.598386839454399
51.894998901245337 -50.533071748127604 -36.066915559561295
57.235756278780727 -61.751080812903460 -32.549375876318386
-42.305850075813922 -56.996864108642228 -31.014551937883517
-30.052348195604225 -60.981447971649743 -38.591830440658640
104.369104160561534 -56.919570286963790 -69.710208522433888
-83.915778683659212 -59.069979691813387 -49.155909694206663
104.953475707422228 -62.782437671534069 -70.383206443103461
91.399517548927150 -60.409409943476639 -70.711762192006503
119.196429612281634 -63.381481455240177 -88.057848869341953
81.784095997215701 -68.129989889951574 -84.843059033512958
-22.507496527185893 -62.585956861963780 -69.780389932744370
78.537402441042644 -54.402690835264657 -87.929751615043955
-38.784757035932259 -52.550008122932184 -68.707455120812583
83.503485262049750 -58.516936669274905 -89.063520313690105
75.168185340720413 -54.532504338909369 -84.223186854337683
-78.443443362863249 -60.734201567891731 -64.290417961199665
59.263275894316983 -58.353101214267426 -92.359335410941725
69.231358472787548 -60.201122063876873 -98.261746637268672
81.615186310202745 -63.428392610622545 -95.791234270968246
62.752474295836549 -65.766579916560431 -99.963236368377437
-61.917892840191229 -59.272983695729494 -92.529956538362242
97.326487190652870 -64.324800657745186 -110.944387903214590
-65.612876555406061 -57.606391463757483 -99.263062683270519
-68.205729369526935 -56.917988004930081 -98.082351398647702
-72.862051594321571 -54.867946232732926 -103.785349182192206
-75.279572079111745 -52.310095354872693 -101.167769295951132
-81.495441810331343 -70.162534657607353 -106.044231101566737
-71.211711069698694 -63.376541267075673 -113.690984892793637
-49.045952324039916 -58.909667961390710 -115.610891052270219
-72.355411206072120 -61.311260873144825 -119.872468001229933
-46.849676478560440 -59.245365136460570 -128.142960274345000
-74.939585883077015 -56.644343091252345 -124.860346024661752
41.498794160730029 -52.351255638668619 -134.180703433536536
36.658675651980275 -60.443871564131399 -133.131128758043957
-82.262302855835784 -58.481988105842298 -121.991223562463276
22.215657950508565 -64.502105181903275 -148.060789380692114
-82.262263137045224 -55.265407088139384 -123.979649443071267
-85.939430722673663 -60.482731195885535 -129.060735494509231
25.776411463962020 -64.274296712478858 -159.410722397026319
-84.063583226148680 -60.527603720413524 -137.718945672873360
-79.934582507872321 -57.589356835984454 -133.522408609365357
-91.898779023239527 -62.110047809310061 -137.184210843679409
-93.394997335407353 -66.674720788300846 -142.390607839655132
-95.466377550736283 -56.484696362610649 -156.097845942498594
-103.986389552822274 -68.796025536591515 -148.492748836913734
-97.348252325933473 -60.004903108541697 -141.865782728998710
-104.290384248383148 -58.999198446037838 -156.144428897196661
-135.870053390644500 -67.507716820177805 -142.423093510367920
-104.537103356149842 -56.501701156284099 -160.680387061848251
-140.031147100323494 -59.840348804579207 -163.423039173288970
-144.252017181378278 -66.174556621627914 -168.737149791547495
-147.774229989692799 -55.792626854894401 -170.432279696304988
-124.303245675848260 -62.386539944149945 -175.089392428298510
-125.888609165307869 -59.983291468309169 -179.266968255907813
-117.599099168778665 -60.926185368442866 -178.780278090235811
-138.046194216233630 -55.141431183923572 -176.940584898274125
-121.391592336971044 -60.448478049699219 -184.125214044005077
-150.465895228418333 -61.568413010357361 -183.405251254340868
-152.872162221415010 -68.683480074902377 -183.049795212363051
-159.122854311555557 -60.909404828922618 -207.591154480412371
-144.560717552699089 -63.539805117342375 -207.234122383593160
-127.898588521002594 -59.347258937496818 -216.145620919991956
-153.562605955205811 -66.275620101763764 -210.358279670635852
-7.752260749706743 -67.651809168373234 -237.403839172063925
4.053474901277262 -63.043537777897029 -241.331196669675478
-10.910118488734739 -70.327203146439729 -236.415279284147545
-151.557559255897900 -64.876791925251737 -225.389449370128290
-6.049017905375656 -65.304291981535044 -241.493310432253480
-154.698405199364913 -59.812373176886744 -231.029261838985349
-7.324293995149979 -71.905551363625364 -243.000382362755772
-154.808462427758855 -56.241175270733912 -232.956152948207631
18.498737623204008 -76.716369526556804 -254.179080508935130
-157.616827576852529 -62.950339439356874 -236.921725594050059
-155.654665838417316 -65.076290663627432 -230.900603092515269
-155.939780138941501 -64.828946828876980 -238.979899703560108
-154.960891182637511 -59.908105889082186 -234.273773074703399
24.518748024708444 -62.710130190168172 -257.341141865181726
25.499385535669457 -68.028198540168404 -255.262608098227616
-153.624907014560222 -63.237098878058944 -235.121842509176133
-155.594247464346836 -56.052214583718261 -237.365237474366239
-158.688341393055680 -70.516675920966051 -229.932119761925208
-148.435516417795611 -57.106208544375271 -243.457786832594280
11.306283323894739 -72.863272282445877 -267.079383675315455
27.339726303068325 -63.594055917920990 -263.740218677581538
-157.465587640277647 -62.644074877008883 -243.331139484718932
-146.979851298699373 -68.845835706897915 -244.421250054546107
-163.186551149456136 -59.918742883788617 -239.435636350057194
-157.851624075786958 -70.676636318498510 -242.590780706920839
-155.230366332933784 -67.944646657992166 -243.621012832785624
-157.480028961601249 -57.464530127275715 -241.886317094359583
-156.405600994388010 -69.103069887757613 -245.344250234696034
-162.681457572553313 -60.676394285464156 -269.782957336793856
-158.916958776640001 -66.575877463929970 -260.251140457769907
-157.082562037968387 -66.447053536761317 -258.673010716514057
12.983031615392775 -65.211348834391572 -280.334323922527972
-167.469538055468888 -66.544463935821469 -251.579868919721747
-151.695684010719674 -64.052713669374441 -259.949815866166944
-17.142116196519282 -67.711520142758630 -286.604585014589588
-8.145857612286498 -68.059018396031121 -282.437101280222691
-158.596107499120706 -64.227782467135455 -272.348018133298183
44.622850730382567 -63.679107935937559 -19.874405026409981
72.336158302438022 -60.014185072686743 -27.179351597691507
74.180286928767600 -58.983636936156934 -36.604954438420400
59.285914409986418 -59.397346301108733 -29.431119671465645
46.431550999724514 -66.317563861509058 -36.646281676190419
58.112709528541366 -67.893385378811601 -41.101531665113683
102.088085292134622 -51.181387612977446 -72.001497677869210
89.274499489748905 -59.155916124893423 -61.050015298837280
2.529909955115663 -62.544115336030018 -59.625812761328703
78.743134967089119 -54.372306838897110 -68.837564595510017
-18.472793878006385 -61.759767283487598 -71.746618956576498
-15.180341181133045 -60.005670584008662 -69.113967899025880
-33.204131473657569 -55.785153598448026 -70.837925902237330
-33.527275284456081 -54.801505263969396 -68.853385191331313
81.694165236882696 -62.663446769595481 -89.462635539883394
115.532540692111269 -63.696284502511190 -97.480878700804936
-43.538024236841053 -56.828792233530400 -78.023464192430751
68.312067282707304 -60.037953829170597 -97.422276269443742
73.803055637107022 -57.420929942980692 -91.196214583855024
117.369572295143868 -59.952361422198862 -100.087108881536551
-55.884557047158964 -53.397736414904450 -88.827613564996170
66.663290416838151 -54.956229562359653 -98.248219303524806
-49.439926751057740 -61.437993153520530 -103.314031145164137
80.457753498753078 -61.372950056320349 -103.407337360198383
77.692945757935604 -62.739180847343590 -106.570971617174067
-57.017925911025699 -57.877085550376314 -93.467754323412990
-93.498888645497161 -53.548026749380519 -90.372271822722368
-59.828686918267110 -60.828465887727759 -91.770897792348109
-71.385294354269334 -55.952838441011131 -93.155358884191358
-47.803005915675598 -64.067166843378317 -100.611022919300453
-71.202697916449338 -61.589333831759376 -101.712842488134442
-57.387349133724712 -62.976596904723522 -97.757008906246753
-63.539971188187138 -56.955226822945662 -103.809540075747933
-51.426779297068265 -57.601726810029021 -108.421636887727985
-78.824580498166839 -58.049332151607707 -108.724457755608768
38.074119671170379 -62.893110449322684 -129.189686150185111
-38.416984426399438 -60.344713541429464 -112.813988765442602
35.884736610788238 -58.289287107397257 -121.296660633611921
44.270924134547307 -56.994357946437255 -131.125812070229699
39.294883881493462 -57.229141153745772 -133.896750415358355
-39.668916477393850 -59.643558261579145 -128.615523452121352
30.677057111244881 -62.415146820707186 -140.401931504903189
27.835147524250967 -68.022079577454747 -143.952146298387788
-138.820551579433982 -55.888434824083419 -152.132506317583278
-143.170967740221215 -63.510737258553021 -150.592896718872339
-146.400317707458839 -60.554493552932698 -159.000202328081571
-149.349677782860624 -57.247928022589427 -167.425288924927344
-144.796011327273504 -52.643588153038998 -164.465323597769384
-140.761967842528122 -62.025211025740077 -174.730046049659734
-143.106692415414329 -64.101989524088353 -171.443492229279059
-139.612651335135183 -54.717827041102957 -175.868728244939973
-125.373028052912034 -60.747940398306739 -182.316260231524836
-125.993681308850952 -57.724755345582480 -179.411670757432290
-144.381989805348951 -62.475511329879367 -193.898923425705135
-145.756421308253778 -55.170207988574049 -202.659931032938744
-158.928941976039312 -57.790210188186741 -200.928123517162817
-149.807995241637002 -59.419587767251450 -213.551890769012260
-155.100148195472116 -54.128806583433395 -200.217144267550140
-155.220382420479439 -58.465481462807098 -202.870001534592149
-144.825286058831352 -57.209099239419658 -204.279692207055007
-150.545746093821833 -56.749605979345198 -207.201052857702450
-141.522448597937114 -62.181214876834211 -218.186288576419798
-145.235856868226620 -59.103112642042319 -205.308509499600234
-153.470059850134646 -63.002873106988339 -215.702032811879405
2.526815441443674 -69.249968345313505 -234.820646598742059
-10.756743871930780 -64.464637147059918 -234.273091736497008
-144.427095087810358 -68.062963677481576 -212.315098696815880
-157.993451197127342 -58.649931957152518 -209.442212617639171
-158.847322198746724 -57.979485096969753 -209.441288834310399
4.591027103639490 -63.595954475613546 -239.224765157908195
-155.738697341655438 -62.360576841902578 -219.306995568092788
-157.047150343567409 -59.002650933121245 -234.408551134867224
-9.425467711999218 -64.009034235809821 -246.309178061529821
-152.136167657870431 -59.801268848010146 -236.362226075170213
-148.293390549564094 -61.229276936986331 -229.425940200992557
-152.565743923052366 -62.193224269113855 -226.667787320021120
-148.789111732644187 -63.404059749778710 -240.776702478812894
17.302272498823676 -65.609638380286185 -253.221605884292700
-159.251240425828996 -60.489124741676910 -239.402690354099036
16.988875870785662 -66.767107285929200 -266.038676551768447
4.844195210952073 -66.981102815115747 -285.132593983089237
-11.794085432770260 -61.253822944367641 -284.676934690480152
-5.011133008886027 -65.551285792673752 -279.413158338370806
53.712614981477763 -53.173959802125580 -19.555015606745243
64.125582158329607 -61.913966166031727 -32.544741454226319
51.639534453453791 -69.402057098001137 -38.399000534209151
-30.676849076107160 -53.681525259569263 -41.027700594576842
-69.369283937410998 -52.713952019721894 -31.791502030507530
-76.021995101028054 -56.664562030309213 -46.830372945113432
-2.445241712395472 -49.452184373935445 -60.167044873749859
115.022002040305551 -67.848785321415789 -78.926328947352587
116.039512788518437 -56.762154422891811 -86.662311270076160
116.626646257268192 -56.229171521749677 -83.330908025321804
-41.756463689488314 -63.961131032501470 -73.211434120941249
-46.579832549501845 -56.878316978961628 -73.920596788353819
74.515470788923125 -56.639300424012582 -94.731925696114800
67.259931754190362 -57.980466710763778 -94.991549104202903
-53.669599929767017 -53.308303995325815 -82.443917533443724
-97.528082770035425 -57.581372299987343 -89.388563305778291
85.754768210998293 -61.016231989698319 -110.363581805293791
-70.945123108243962 -57.964579746013925 -102.719235400449293
-49.514798528999719 -55.119961179794871 -100.997329274293108
-70.430125550375251 -46.409387986873483 -94.294770480872913
-68.908552251869381 -57.908518188163441 -99.477880771920567
-81.901790917359861 -51.866704342958350 -103.459451811707865
-46.067265196922463 -58.091088011681713 -110.440788959611865
-52.531972961412322 -55.147113372060538 -106.957636955468985
-75.562174274683471 -49.088294032459935 -105.682949504777895
-63.308639962679933 -57.593382636527409 -101.882776077234581
-51.037188626486866 -55.319392009377168 -112.243569194969737
-76.083734354256805 -61.840613121556352 -106.296539617164257
-67.506787548062121 -50.574212880418408 -107.925105077814734
-68.865209708362499 -51.798637430085869 -117.469169624659415
-73.149377449680856 -63.500380640471725 -114.071852718499130
34.833211728995707 -55.139280234347964 -127.008843868885052
-47.311679095440368 -53.506349345354963 -120.365274070241767
33.461737316384927 -55.457996080983690 -133.473866602625776
35.160150061811841 -57.070410013165876 -136.047329147185934
-137.486130803998947 -58.558197388528669 -172.857202519633091
-136.132098074996577 -59.588926213843799 -170.025378620310818
-152.145055483762519 -60.992762429962696 -182.184468155502429
-146.615816672454685 -57.027579130957491 -182.155091604020555
-152.758400965512806 -57.935891953196979 -182.309958507075322
-156.469664621296658 -59.438705964264187 -180.254665969984160
-145.793662445843665 -59.284049994706287 -186.554715771071670
-149.201054670767576 -59.524593820413152 -187.794143003723576
-148.850082590046327 -61.947021629613673 -203.211219484542710
-146.136156361695782 -56.479749872607734 -197.233950994859924
-152.376073629565724 -64.811605983230876 -199.050663889973777
-152.763339762975875 -66.399764203332850 -204.800907598989028
-149.245542976413446 -66.005226026280326 -199.921721665425821
-145.407225139027560 -59.909656610928671 -204.009695123760963
-150.923486219021697 -63.922484628057767 -203.089385564670437
-145.486835313415099 -60.660164532256147 -206.168390186990337
-148.868330973116258 -55.034631086739189 -202.041845168792463
-143.504558712225617 -63.868755551247382 -206.731568450538731
-155.705731344744663 -62.050627830284469 -214.977352765740761
-148.952363675385755 -63.452268633538587 -210.208441171345299
4.829028732463016 -66.832929959779591 -234.690695542343121
21.126685000045555 -64.304353474146268 -240.170807747186899
14.058422351882790 -56.512493156299477 -258.966553099659905
28.791220192191126 -62.387571626125826 -263.912092866741318
-4.727392298973776 -67.987942925577329 -260.858324922154168
7.257997355500628 -68.405766545658935 -269.708410787829621
-4.021864262646005 -65.698566050345363 -277.869325229213189
-0.697038360603926 -62.628669256803711 -284.287743214557679
-4.502716938278922 -70.951342851811333 -292.670021753567312
67.369640239786079 -66.194550916984696 -25.409049762014419
53.346487668917860 -53.880250091912423 -36.258190498109450
-12.234367239937924 -53.562340569058989 -40.186101323371908
0.560931266798455 -56.609834513800735 -39.593563244860427
9.319105640059789 -52.214496322442955 -58.254612395729652
109.932204183154951 -62.406394741154052 -68.464246018786099
-81.501987233340415 -50.574455652842524 -49.198614504218391
120.110041884550270 -61.560261772889156 -82.461897276106072
69.073671553814350 -47.125322104267397 -85.968123116606279
78.465478735532855 -57.508725501552618 -97.103957920213503
-50.706797168573900 -53.211094747955862 -74.961994662249012
71.153278231173275 -60.508783799074187 -97.154054304344740
76.893654332280121 -59.475333127276855 -99.680563647679179
114.759150474323604 -60.840417998918724 -104.938502794863751
-55.851593447785206 -51.242142506212048 -79.757144446289971
-58.457800816932917 -56.468189857120947 -87.729470199007622
79.442758129029528 -60.558400597942828 -107.723820131964942
-68.331128614418731 -49.465343319679398 -86.467326213334502
-49.443842710706477 -54.427483049973411 -100.211852183715877
50.435692985430542 -57.902655514233494 -117.342399147939190
-72.927063544352706 -60.505200038118133 -100.915120632833819
50.786577801724590 -60.875090871560808 -122.760497225212404
-77.206021231063502 -56.833390829287090 -100.324630147813167
-84.046868336975777 -59.706376265062005 -105.575301800801668
-61.310650688015485 -52.939157803927728 -112.932869204542143
49.227520340823354 -61.886815507221918 -130.450650361174667
-53.604587214955998 -54.693063468592719 -116.990976935377589
-49.147397708879765 -56.084991393916958 -121.663022933748849
-52.668444202707377 -55.965693355699933 -131.504245328063092
-146.298473537059749 -55.213378473598304 -173.724224416803480
-137.514777822189785 -49.231250412358506 -176.924337122733618
-141.719893449500319 -65.673973604983416 -172.320931128402918
-154.055162665736304 -62.462397127499763 -171.463517339437857
-149.665252581176503 -59.453561193316851 -170.510419267999112
-146.332101684440829 -58.269646322687350 -176.636549213212106
-134.491399488096533 -53.819165184882984 -173.996799780403791
-147.009950094810847 -53.798026831860327 -179.118629640266818
-144.633461163727759 -58.574640808745833 -178.872430717762967
-152.502342764596108 -62.749026969144680 -179.620292736463313
-140.591502686777062 -55.147269366672433 -186.558457728054293
-140.306211364878664 -53.281748513130566 -184.099178760032828
-142.442723059953209 -57.673635217863172 -181.525134638433173
-142.181941258890333 -57.730894614314366 -183.889535553081970
-151.338271921032458 -57.778378089219323 -199.450992350052502
-6.685174892499930 -58.307807080101696 -230.888638970794688
5.963971646376763 -61.697553796625343 -238.841267807402119
