# This PCD file was generated using the MATLAB® pcwrite function
# from Computer Vision Toolbox®.
# .PCD v.7 - Point Cloud Data file format
VERSION .7
FIELDS x y z
SIZE 8 8 8
TYPE F F F
COUNT 1 1 1
WIDTH 786
HEIGHT 1
VIEWPOINT 0 0 0 1 0 0 0
POINTS 786
DATA ascii
-87.261762165943537 -70.404475575855301 -256.312857526696575
-80.208305013189687 -67.877816958354714 -251.986112312272269
-12.160240464316956 -69.803895444650863 -252.459488577968216
-122.441499225543211 -65.322331046731080 -258.704724834968658
-12.718766296376018 -76.061715316276349 -257.759579572326686
-115.655495887832259 -71.971745928115368 -261.648501608382958
-112.577253702001698 -69.478176823130113 -264.718128766298832
-101.054098135741924 -72.920215644500942 -263.704431372835245
-144.493174636588549 -71.735236758334565 -268.662010937902039
-143.845265922158262 -66.809797962383286 -269.591987039982826
-165.538299565491513 -69.258923183389513 -269.992210301207308
18.753031296953221 -74.238379224406145 -278.138734542808379
-51.688908828599054 -71.411102180675741 -292.844725171259142
-63.050527365108053 -72.739463103931541 -290.891052694521875
-39.262826678382716 -74.858881451307852 -288.735746675874736
-29.063835518771725 -71.983713916298996 -286.428899261773836
-93.650151201574616 -67.669697288132440 -288.788145825735228
-27.289570997668420 -72.656499246045968 -291.809668919950241
-3.744609008668970 -74.370139855649825 -289.205801597239258
-164.893649360381062 -67.259898200399576 -293.314806356080169
-5.991631596300337 -74.124264609784888 -292.250578378087653
11.116743407966981 -73.882431917260178 -291.234150025870917
19.096106655210882 -79.739822006623967 -289.532208808743974
-52.356946349724026 -74.287649403342570 -292.899426395818978
-24.902482458234793 -70.014482275177343 -295.193596705294510
15.515272711709400 -70.778928301778848 -294.042876874694684
-67.995945512122447 -69.133196080405952 -296.289394359484334
-34.706126398459496 -72.925764961984740 -297.631701170273459
-15.735490164427084 -72.037489106840340 -294.217260361549336
20.244364103374700 -73.179722936169696 -292.418430125767486
-6.261455895435645 -70.015880467372540 -294.151883745686291
5.088204314204962 -69.846146798345217 -293.470785414788338
18.041436415306649 -75.653188173090768 -294.080685887530421
-132.483688276490341 -68.310426067510278 -299.002712736551302
-141.529326892186020 -72.247606670955108 -305.539238341014993
-143.861933052176880 -69.994002561821915 -321.475036573856300
37.400047838634180 -74.880494588742494 -12.728361996342025
29.655559824772958 -75.755082604702110 -14.630915758075625
36.134204236626147 -76.416447946602318 -16.805084633331688
16.195642997097089 -75.954521956759024 -22.244181716329095
40.534086821378402 -74.391008706697448 -22.914070583237802
20.651813659443331 -74.313317533113178 -24.791367944880811
22.729234556121188 -77.405732183019524 -31.581327564650422
19.662076277610304 -71.911918069613449 -33.901079156498618
45.653201114397234 -75.298999602552087 -34.092975434842458
28.504021006963470 -74.202753276672397 -35.555616070965101
39.193592446366914 -72.551263360977146 -35.956185832508048
30.256113711188029 -73.281235222590709 -38.354302798164525
34.453387424707621 -76.728917376031291 -35.835630696067206
29.263134665389927 -75.765588062918710 -42.829456719839172
39.040387810736043 -74.177685700333001 -39.502259908057908
34.890002550653101 -77.989805144855012 -45.224108085638065
-37.937434951025601 -72.259116344872425 -54.058381687532552
-34.128193032907703 -71.437638663595720 -54.542324265732098
-85.918396752852658 -69.993794576141440 -60.391388717498380
-87.698193991801119 -72.318177973540799 -70.051472731131895
80.044737255583343 -80.986913190472791 -71.700870760412201
81.724812989732044 -77.411400453962514 -73.719357799402871
-18.172713794175344 -70.341897851844720 -75.935965950839105
-92.006148757621318 -74.100724474894392 -76.046220996677604
-27.567844879423632 -74.311461801641883 -80.107715470642418
-50.248600231760676 -73.696582927143112 -87.998383748973197
64.806496326577985 -72.082862492495963 -87.053067876153605
52.568508904586551 -74.567745833536250 -94.991179341997494
97.799011455372550 -75.765924086454945 -92.349478750454523
71.556583839017605 -74.920322610091915 -96.691988650647431
-66.332140981644216 -78.362959315211427 -100.692232118639879
-71.358166135279589 -72.277935455024505 -98.321329110627715
43.484498037590662 -76.755920961983051 -99.674414462103073
75.565040857742389 -78.629579681886256 -104.259111876727545
55.741721314102428 -77.705901630127826 -102.679859168139402
99.375788369003999 -77.858585389983048 -98.116675659534920
-95.098021720695300 -70.611926422010839 -108.950384078623614
34.345101062364336 -78.146051588285289 -112.544691873229027
106.333711206265122 -74.923578602922859 -106.388030367662410
46.492358524165134 -74.122075140835278 -110.880950993255439
104.401617524474730 -74.214182569464597 -108.738057720790721
-88.903961699116564 -70.176459380967202 -115.796444522191649
37.163316761023239 -75.094365510510329 -111.546418924422127
103.062724403606566 -76.828062987321744 -116.869066559622752
103.134822890713366 -74.298611572873000 -115.879909551581960
109.058475527058690 -76.350918734363646 -117.084866305104498
107.548321018293791 -77.484916492196547 -115.346192123162979
38.722070938672317 -77.021554253570272 -111.773154086651473
27.380487871329922 -78.500721167057350 -122.989617665362715
44.216900996407958 -77.408561459374738 -120.571345936708326
111.585164063789335 -77.535374466088356 -124.670199547124241
36.193900641768927 -77.033771795956270 -126.686618514795526
106.289713493199045 -75.568916657520447 -131.011280285588356
112.366381696414663 -75.637068677270335 -132.573418450083864
31.393888303915070 -77.509724898716854 -126.340482202643955
-76.381046211235471 -74.345422818375781 -132.718956866773425
114.789783071879285 -77.295041470703879 -138.301420458318375
-58.083638477202598 -71.451147540200509 -137.709590897109365
36.926383541677666 -76.148513628227619 -138.006113046932342
-73.202022686616800 -75.214286362763218 -142.124811135870516
31.679551913614144 -77.206094319906143 -136.833227520099115
-76.338028845046409 -70.160083583487250 -146.103252086256191
-44.850661489829633 -74.770827884412000 -144.592094045350080
-68.760045689741446 -69.641311031101779 -141.565675944938391
111.925146908005587 -77.331713986048868 -140.173340014432284
109.364181884277983 -76.453837050630099 -139.349457590481990
116.682980124939462 -76.039247689669295 -142.294407830629950
-69.193875281797446 -70.556942857822790 -151.327223379870645
9.391571429361155 -72.024547440994496 -155.610738161218620
-55.746976300078416 -75.610560796414944 -153.251729804886111
-47.933568239765222 -73.473844106356722 -160.169282739556564
109.646278533646353 -73.196652511422585 -160.102356196502598
-42.042632181337552 -74.533607211724103 -152.071318426190260
10.825672185514263 -72.848003495084882 -158.928631958652147
22.958367442137000 -75.021019235290026 -159.066998071251021
113.636527283874386 -76.661532409909725 -165.247343299154011
27.536254425345899 -72.568376855841535 -164.962499470416248
-0.621962313343911 -73.771497613746845 -164.758059302361943
31.329551006007172 -76.148765045883735 -163.239020264920072
-68.376217195301507 -72.879319770647243 -163.333751063800605
-63.651756648858736 -71.353669724786130 -163.313810862609955
-68.626768196468930 -71.548475628733769 -170.151046588571148
113.425142937947712 -74.546487097275190 -162.440803357854548
-43.825242159695591 -72.206907936721350 -165.901189044845751
20.941750780715250 -75.439369229030888 -170.430123240771394
-65.313303525489260 -71.973262538199251 -173.192821628267666
-60.938950871102179 -71.988027353983213 -177.522929760718483
-36.032567027926000 -71.406857803272601 -163.950791257569023
-28.694987538917296 -74.067899719603162 -173.258681817692121
114.474874509869011 -76.427717760319894 -169.243173882749034
-39.623232444719498 -68.991719054726474 -181.998094564107703
17.238981632945233 -76.090876620819500 -178.236806936096031
112.588690807483303 -74.614778939251650 -181.295964283149772
-147.991278696471909 -70.956325500496007 -179.889762447695176
-145.616256279261620 -73.203749859586253 -181.925792871566557
-153.718237181005861 -66.876030739322445 -180.555585057594016
-141.245029203266597 -67.159984034802179 -183.676677202241848
-30.351844469056303 -73.635863085297729 -191.247070801070606
-21.565618200099173 -72.809829501870823 -188.861957914471759
19.966330058035940 -71.799757846056281 -192.250824713011752
-143.122135350952135 -69.686809046524786 -190.832502819118616
-145.159017363500084 -69.415543819694491 -193.567435214848757
-19.151073352372364 -72.223517806113207 -191.878080445960677
14.140805477215789 -75.127459076408556 -187.209811422059772
-147.130056335952531 -68.103075977255159 -198.443205241137747
-32.164891748600169 -72.487752480228863 -189.406677073120051
101.731668268494047 -75.591961306063666 -189.228953958229255
107.470013241070134 -77.006828475620992 -192.686169253686643
20.277474192863423 -72.692183334711444 -195.962505032401566
-20.965788741118644 -73.943361426168238 -187.444843998592006
-24.676139909442043 -75.125040337494312 -198.122585242726586
-150.805078110907402 -65.483828247261371 -201.075903290651638
-131.139979336540137 -70.766282931848806 -201.751848414680836
-125.016510401959366 -70.128471162534581 -201.794985661450852
-120.767516198741149 -69.184357563007126 -204.420910944849453
-24.833852938068034 -72.302194171801659 -200.867861159614478
10.973336946684276 -74.642458640134606 -192.387981858602075
99.493339760691129 -75.121761021893832 -201.303350786966206
-148.634275332491370 -70.413105802546198 -205.215862513751262
-147.880089319016690 -68.761845073930402 -203.166630634563603
-147.443923236436206 -66.778523333004443 -204.331124809585873
-155.686150014399971 -70.157376024994477 -204.691792079280532
-27.240389910066497 -73.479163261127098 -202.031768921450578
-19.199893930665972 -76.300169796691776 -197.845916692627725
-151.920156596500533 -67.733698657749358 -205.530521978821866
-14.154345829521937 -70.777137299300492 -204.490126165552169
-162.557431289629335 -66.564832676404151 -202.763787046125515
-133.445131696636111 -70.498398575219738 -205.021900259252959
20.599406935802641 -73.064740433453395 -209.026708554456349
-166.874326275550231 -68.092880868774714 -207.887288372623090
-143.449420749535136 -69.090729665690560 -210.530260776908705
11.086690677942309 -70.778420367673874 -205.352007916479181
-154.231144199441530 -69.088119643381233 -209.456025453130479
-22.915283502861534 -71.854644166911669 -204.946426789697824
106.796914049315447 -76.149335016183912 -204.623701062064555
-152.977414360608179 -71.834255466996837 -221.928954761194007
-161.578631739459524 -71.205203186671511 -213.261876954907564
-79.941719228334065 -73.234764947245026 -214.015869507805974
87.887178082812653 -76.549126639807611 -210.628345437789136
-2.528538747271707 -69.445672917709587 -218.653929256790633
-149.316414280167862 -68.892977696746698 -221.089213812040981
-86.806518270551862 -71.175145809514916 -217.572148452937824
-5.272023536758251 -74.121466293193095 -214.331653931287832
14.741951744602503 -76.747295729409672 -224.760005340360806
-145.882973736603162 -68.494928619712269 -222.344606080247019
1.266672865595176 -73.625616926265053 -222.372735858468445
-20.915974189911523 -74.088988076347974 -220.283437604063352
-14.639288289722288 -69.138525712961325 -222.088023208623440
88.335767888913821 -71.985318342415056 -215.079248869552373
-22.306941221045989 -73.227011247827946 -220.269786681357658
-26.788967108372631 -70.908070969904699 -221.471886792880696
-109.374028173800539 -68.458056292220192 -229.900410282226204
-14.976571968814604 -71.025132615476977 -226.036655930602251
89.120836609195251 -74.177425959987744 -218.377647632722869
85.080009621731904 -73.182179485198546 -222.587080176483710
5.368721127914704 -75.166587354848602 -221.019521068782922
-11.850636840663434 -73.269298825494374 -229.867825713890994
77.888181872622781 -76.881559135559186 -223.668924632505338
-120.881748532394468 -69.443809739782978 -226.406568336170892
-25.169222237258872 -70.966028177147379 -223.046102332529870
-99.882975538728004 -70.009755495244008 -225.886025571101953
-105.712836077167353 -72.331069936209104 -228.086626375720840
-134.697488220025377 -69.322533173535874 -228.942751124379470
83.658998955142607 -75.071192804301404 -225.456743016419381
-122.621968448577761 -69.218397620052144 -230.438408711575107
6.259808234091423 -72.636536030510541 -231.619394500046297
80.001286737893366 -73.978551817313388 -224.690612543695465
-11.982345653143348 -67.917104972152345 -228.986763355119820
-10.097477254379868 -76.284043540854540 -234.533290669848299
-2.032052182022262 -73.664872994227395 -227.683458604102185
9.802188046795651 -72.623666976669327 -226.523183369683636
86.225871212960811 -73.670546141590364 -222.733030157608937
11.997600534561977 -73.200916633588463 -235.774957475507705
1.994336000205028 -73.656522392254445 -230.288719622260942
-7.639345830635097 -71.884578937982482 -232.708751112893083
-4.678249472874700 -75.570895964022228 -235.382273935052609
16.306151744398630 -71.404456176582570 -232.226612586702430
-13.011529345183767 -72.954316819559139 -237.876989448048818
72.882245010934696 -73.284585271513123 -239.542274134065764
-6.335334226559436 -70.059803572297824 -241.214669858218457
19.262907457651721 -74.528378786126211 -237.682374903459873
-168.772239624725444 -70.249398071549038 -244.736352193219147
-4.841800121389433 -74.297395164188657 -243.199478190085756
-6.960977156991859 -72.871741675746122 -242.314433236476702
-165.701854885239243 -68.353282504557441 -255.733182529521002
-10.534555311343048 -73.448898004851984 -249.142444604605998
17.222303107450053 -73.382695596318428 -250.749552969946762
-144.586045404339131 -70.640645089628279 -257.523278747730615
-64.405078845395948 -66.801352140691421 -254.636902386879058
-57.656222054611135 -70.170474061255973 -250.138825602656368
54.131846935768813 -74.234078234895577 -251.061395701892707
-77.754856605347754 -71.918533677032258 -249.750353398564187
20.085659683817710 -73.722245502733102 -252.735075129174220
-70.917439255506665 -70.337918009786364 -254.596624464232605
-14.625318460726454 -77.724621771034450 -255.587447420938190
-142.982696222056006 -69.832166472451732 -256.479673673884577
48.651406435435035 -72.252112757562713 -253.685514668222197
-73.471438849222906 -67.636366090078440 -257.139772247100495
-101.984790854179622 -68.739782116072476 -260.408012413996971
-95.176211897704064 -71.774119694647069 -260.366860366193521
-117.436753142676693 -72.993197711855899 -263.445617103211703
-106.471969692059147 -70.420007156296251 -263.175484975900019
-107.233856611483006 -71.811391936120955 -263.099905490382525
20.918838937948980 -76.464994489045125 -265.438040184065414
-126.356539008963793 -68.312947615135428 -271.838108535210324
-8.234009782746135 -73.794861336584120 -281.367749674893219
-144.987717335864374 -66.974785261105112 -289.463274834193214
-165.633674821912734 -66.284559691499794 -288.079552575274079
-122.501176574607896 -71.429994865926616 -290.452467424021052
-113.848251656657439 -68.169140052675203 -292.209683047660917
-74.959540151448707 -70.637167106047755 -292.059478712583314
-53.013480191374200 -69.481213658956094 -289.696643313574498
-42.470477826163759 -71.423909465817459 -289.383091264605582
-10.080479134222806 -69.377080421128795 -289.050996657640894
-13.128756169510837 -67.952227240388112 -292.308849831272994
-33.046469612919665 -69.035092072581023 -291.247240177791014
-31.658891110387387 -70.551176359897141 -291.872257507981999
-18.067841616127382 -71.034989090462020 -293.526618351714944
-66.340478529881068 -67.545067300823945 -296.858378245604399
-51.687722164108663 -69.801069401750468 -295.395121503877874
-14.397689733275705 -69.910852520563836 -296.748647776366454
-10.134375986710893 -72.953206463537356 -293.205616516917360
-1.793428073696653 -69.040352288169757 -292.870260557853044
1.843595943984205 -70.269098540166652 -294.768433494878138
-86.474567364209392 -68.940732687506326 -298.156455185241725
-139.383277799223606 -65.288679634268135 -294.032607853058096
-116.241526826425016 -69.469169686368218 -295.521171236467296
-154.539145570644507 -71.833283039643433 -303.322671134435950
-153.024852977095748 -68.031973681973071 -302.075880613908680
-145.516695646217727 -68.926687326686377 -306.771508728344429
42.990108061158026 -73.167541668453069 -23.262823615942906
19.499800490219272 -74.914857199527233 -24.023406713461569
43.638804242270268 -77.285576373052294 -29.287426092525671
45.419348123453560 -74.590151037671077 -35.359360836167070
84.130668304298780 -73.487946107392446 -67.826195395297674
93.858105975653075 -75.628412553713048 -72.592063278776038
100.056881504080252 -77.091194325306233 -80.425302450724274
95.907652567607059 -76.357394929361277 -83.559500204033398
58.141116112290639 -74.450726640392617 -90.913906720357474
51.480591483100113 -79.205900927078801 -96.349306392144356
61.608313356004544 -74.029227752613252 -91.918004736729586
-64.906302873643554 -67.383728757195357 -95.331013600025130
64.992499629173921 -77.521226993864445 -89.512788209038149
97.597924661583491 -73.582693817852700 -102.258704084484847
72.605245611503250 -75.647166063080832 -101.563978817153043
94.856450502073912 -74.173234988883792 -103.795057509801708
-80.045137291175493 -69.551049481484142 -107.675089066183233
40.747872750740662 -78.541676671850183 -103.209068499110458
-83.363561589381703 -75.415818309152868 -111.444693470466319
48.362633858431678 -76.721396915613042 -111.850590794243615
43.663582828711831 -75.649526186854686 -105.566044447871860
106.702199214421199 -75.755293850154700 -107.868046238596520
38.037915945512857 -75.883919945944356 -110.755530211471040
38.193232555262043 -69.394759389256521 -112.381405566205416
43.665546604834873 -72.990135434475391 -114.689528496750441
104.865738402789262 -76.911962278514963 -112.988149905271840
-80.304262106619959 -70.039121302125764 -121.327585577479056
112.817516455055795 -77.621826692525332 -124.020806490774277
32.642448207924879 -72.496054325532043 -124.789389268076718
41.896153664407983 -73.169376580764748 -122.940495696561953
36.500434851549208 -75.257528732331053 -124.949361798687789
-55.497264833314503 -72.699436134580594 -130.505305886336117
29.906362495604636 -74.165298912967828 -126.943287654578171
-79.516910273851323 -71.558020481816300 -142.957052712275896
-54.328294276763884 -72.166045605750725 -134.276687417457794
-81.304390489804177 -70.233326624163993 -139.298893258496406
30.854390716904220 -71.023888026669809 -129.363666381574973
-57.678718751010891 -71.006553150621684 -136.916388454039975
34.009356316510377 -73.879375020732084 -135.796683402869576
-75.313744278965800 -70.254964081144649 -142.721811569492104
-63.126019136817320 -70.282449168072887 -143.600024218499584
31.145002500531071 -70.069055747088484 -143.685684588260756
108.566388460468900 -77.426539409538137 -142.188607593226237
113.245639134671251 -73.770355477933890 -138.797100026308868
31.807642175070924 -70.637607841351397 -141.293365786797636
-42.472081016262607 -71.532822933760755 -145.443199393181231
109.438088008450421 -74.083215817292796 -155.347031254770087
-73.764334617989277 -71.928209482089855 -149.217668141552707
-59.681745190734460 -72.023905501616269 -146.129678249598328
27.052249150823542 -76.209346289006092 -153.791925185963777
-75.090082702371433 -71.400105883823670 -150.810207115610211
-72.659439090839129 -72.551240864920729 -154.756274445177809
119.743081770732346 -76.405067815988787 -150.376424401796015
-67.169715957142088 -71.449206295511999 -158.543017732902342
-41.558668393017584 -72.799330367172161 -158.132076817198566
28.009041816900893 -74.574380708141632 -152.311896238697699
-76.062795890518160 -74.084002607893979 -151.295897696110302
10.520883828022560 -75.604737563682704 -154.422342087897221
31.571014844707577 -70.250366192231766 -156.285195448672312
28.291068115804030 -70.130535260143589 -149.826985108213165
11.172364998366643 -76.167924783778972 -153.477566809952521
-46.392140912036567 -71.358021696911379 -157.188927874588899
31.097056780105898 -71.959419799857486 -156.272394840237411
-44.817440947383858 -69.511254654419119 -153.202775056876845
7.623971786093847 -72.815019039994638 -158.137834502846061
22.350064806729343 -72.933199453427875 -153.948357309382004
-74.476436305811418 -69.480354706714351 -157.421147322253859
-46.366441850754626 -69.978865683895265 -158.989384475368865
-66.946746905730478 -72.802940657821125 -160.694464594790617
11.970223397295394 -72.119757770721748 -157.807481134267135
25.013566482076101 -72.781379666670404 -153.245385332924144
2.573558021735199 -69.090775653049192 -163.596022473642989
17.930243413047783 -77.060597558254955 -158.398087929111682
29.655154866013774 -71.495577011780611 -167.280926527046631
-48.235516735998260 -71.534222102344899 -165.102023112829272
-28.052955810056389 -70.342158483279050 -163.938626371574060
-37.960359328486327 -70.544630758995822 -164.012416002369207
28.384386611174875 -74.629647576799130 -162.430071457869133
-45.602628018601976 -72.802189949140200 -172.579799706576949
-41.817854854550646 -66.721179324816376 -165.150352085391802
18.821060202227905 -73.635169031591929 -168.721195072507840
-40.214427015672825 -69.545913449030749 -175.872965221428444
26.350040253703121 -72.935820049034362 -174.722578487188429
112.455701813181065 -77.156089227563641 -171.353461158203714
-31.393245914580916 -70.767035118726085 -175.633918862368546
107.814943242158407 -73.786278127007435 -178.175052381586454
-34.604826156213846 -70.225758109430714 -179.674532590683242
-34.263032723758208 -71.000957265708763 -183.082160255945723
17.862644512027373 -72.066910981436166 -174.028406364388758
104.828979772847930 -74.139965027616086 -181.353343687033316
-28.366806680120909 -72.784060934755274 -190.546970532101795
-32.677761703393351 -67.059415019137035 -178.057154024311274
-20.936352740467804 -70.053617283296532 -185.972202455590207
-148.998611785461776 -68.506970321179438 -193.141773830858170
16.937820955660790 -72.749901302487729 -188.374121737528498
106.941784100724419 -71.898530801338723 -191.541513059560373
-153.952792917959641 -69.287207531836316 -202.151384375351881
-30.799331244291828 -73.769200716861008 -193.406763962483183
-114.052949893669691 -68.434390640852001 -199.986431615240434
-134.458398358337547 -70.779416596195318 -198.649268836205437
-109.772413371488440 -67.990339849885402 -200.915648192079601
-111.175969852385251 -69.552645507758740 -206.837844585205005
-14.296079672833052 -71.553894677097134 -196.967082930851575
19.076248535347432 -73.829200625944722 -200.216398213440669
-17.007840433863464 -69.626436784252505 -205.470055794110436
-122.346030536344657 -68.061466641352169 -211.388691172457186
-23.883673291713500 -73.365774474599661 -209.667894169206647
-134.562800112932450 -69.955019528971164 -206.790283882547925
-12.652428063751621 -75.073730624078749 -207.862744333819933
-143.681024051564975 -70.381878212452790 -211.919986715957350
89.566969386467946 -74.228815234790204 -210.021026605017227
-169.208427047759528 -68.519798100269810 -209.149017543329535
-5.170219563638838 -70.003866698127425 -215.499654894223966
11.080964587096783 -71.127411867667092 -209.673034241806960
13.560064729305727 -70.928311466575849 -217.661133674037444
84.234072274531798 -74.554138335535598 -219.431056725787158
7.002359503803291 -71.748751749888299 -213.175840481025574
15.751810873723436 -71.373024859660333 -218.689810301337843
-14.958527689996991 -74.873859085739852 -219.287603176043689
-89.096652140439204 -71.547352504080948 -220.519353383637139
-96.251599645277494 -69.492050675986661 -221.318672446113425
-5.395071482375151 -72.267271692089665 -220.079660693701243
-164.174493517522308 -69.254389237080076 -227.798269527815478
11.175732718491149 -74.456823740236302 -223.961612951508414
-143.967830796260785 -69.860679089735370 -228.436219353510694
12.228148848106406 -71.824294001906296 -226.099693323229360
-131.185312816739270 -68.364199950575184 -229.623733926822069
-116.332681546122657 -67.460619537966124 -228.572948809183032
15.861593212220704 -72.518620391611705 -223.569093576387530
76.138318643173278 -76.529990251927927 -224.188180283851494
9.805974769326625 -70.301652234404557 -225.670201223661451
-112.882798758410715 -68.450651347376279 -233.346313669605649
80.760295050318916 -74.018089282497201 -233.149215411040757
81.466411505126700 -73.757908655770322 -228.048033595085968
-121.838257856545013 -65.849725239343286 -238.417149634979722
-112.279565095408813 -70.307287592548519 -238.550746106263347
-13.869075318592479 -74.076013764960663 -234.016610126251265
72.464193041909468 -71.504168888390652 -230.111115643665613
65.487085602204971 -75.355843524653409 -236.493367894181006
76.665379399473608 -74.920625485054558 -234.440519002011058
-133.556858785313636 -68.083036181227669 -242.304710631052160
74.135577041557383 -76.594077334013477 -237.886304985532803
66.399064810388694 -73.489112753599400 -239.072219869574212
-167.534220762178563 -66.438644829774333 -234.739679213654910
3.797908908389225 -72.012691825621275 -238.453650736756089
17.521276522442008 -72.997297896386868 -240.127513125589644
-6.637294501726640 -69.275818588374051 -242.968679711260165
9.900775165738823 -70.903006637281536 -241.858947773708877
64.712077330122526 -74.497676704724711 -238.881581503713477
11.930414799378495 -69.510984636141927 -246.511807438519668
-10.445951502378641 -68.741589054059133 -246.694971896625077
1.888791958625124 -73.509220337668665 -246.100313544690096
65.763664839933625 -74.558215401525516 -244.880707559302607
7.061166874440310 -73.437658029071770 -248.204343016942232
-8.469679309204672 -71.884286957853320 -244.410358806419538
15.916358861192755 -73.783545253407226 -245.320319428992491
-164.626141824087938 -67.053344389754727 -245.359763191697141
62.839050707909401 -71.857040084777609 -250.848846512682542
50.395784142734755 -68.069895946254903 -253.190188045288494
55.100191914920956 -73.113456548943986 -241.864121700505137
-12.825446433293905 -71.459645609458164 -251.859619673144095
57.339369859345240 -75.159100018766210 -249.553573610305364
-71.168555586920590 -67.308564318391234 -252.655913028876739
53.059028339916836 -74.041097014010205 -252.208973710384555
-92.021747576290693 -69.477640762240313 -254.621281241386100
-126.029479286820347 -67.245092072310769 -256.876191255734341
-132.310625949761913 -68.851168843510365 -257.849263008745936
44.702150619128965 -73.749479395063673 -252.180843044526682
-135.254901191421141 -71.555593457206200 -256.855329707156841
-112.367115076781303 -71.108852700740186 -261.378746535916321
-112.084346463466360 -66.443187454335515 -263.547061958764800
-81.460313356154529 -70.531542258714367 -260.108832243103791
-113.914519296400087 -71.613949785818761 -266.117824431975237
-121.243574935348718 -69.297618025674154 -265.735178402305621
-144.256037374542416 -64.658880864757663 -272.472699481551217
-15.544803190151917 -67.347989718626224 -265.455133705028743
-163.060931731232756 -66.379110918188729 -270.864901824589879
-13.815104612470527 -69.703912785960341 -275.834356575795482
-160.694048467606592 -66.352337890043259 -272.994712123207137
-150.376076675220020 -68.195415843598539 -279.560533989500925
-166.373679816899539 -66.880654637114787 -283.971393040008820
-9.589431611360183 -65.500770111171249 -278.563487287664771
-133.210867912650144 -69.463334267341367 -284.799463706685970
-159.445379247441565 -66.678282136983640 -289.588623163914633
-145.528140061935005 -68.044674756143138 -285.734962946086910
-133.694918765859313 -74.573410026001795 -289.381634101826194
-10.333227605757138 -69.651173070294078 -289.854703557497317
-123.513247717882379 -71.814165767877810 -289.095706269847767
-142.959339191102572 -67.821619363578691 -290.941100276896009
-113.142950853262946 -68.591858654179717 -288.391634958216514
-74.531554469498829 -67.747761105608490 -294.127701271323417
-60.656990888478788 -68.855562042736508 -288.652055047462568
-2.597208668170385 -71.223355606817350 -291.748322382933679
-51.664156463788785 -72.808433960658590 -294.120046299043906
-58.207528044189800 -68.588430705610548 -292.197438425738369
-67.410394606136919 -68.322457148479486 -295.746141237989605
-85.701604459454728 -66.954552268038057 -297.379319755551819
-98.364090345865250 -68.168569584671459 -292.354454320439856
-161.136836235227577 -65.284932205545275 -294.510223363944135
-162.058285842138503 -66.395034105974091 -296.049837603642743
-123.415322299376825 -69.897650986737190 -297.703620056411808
-144.911535544335777 -69.419991408396115 -300.904074063226460
-154.771844716677322 -65.656384371825979 -303.304099902715450
-142.220709627432086 -68.202300275135400 -319.569894395653705
43.661505747396305 -77.057807903398995 -19.134240368089188
19.485834971168732 -72.424769764662159 -31.474648045875853
35.498132384645700 -73.703011274111944 -36.760808378157989
-19.101989626962016 -75.804381173951029 -68.131676928093341
79.333037859228881 -74.919810109739714 -67.697650484890829
80.186216488490714 -73.712975703611974 -65.931544592248159
77.053899848916984 -75.338801041661426 -64.662579830528585
73.780364247416415 -73.813994730699676 -69.939405064535507
89.405589685776704 -76.448458400590383 -75.026229335074788
-95.799500552324190 -69.719436941046752 -77.265914245170919
69.692140170253154 -76.575607956356620 -80.244658834427284
-36.332083944568353 -69.965545183991168 -78.158814128273505
98.300636531299858 -76.902803194830085 -89.307425160637365
54.976997796618996 -74.159541501872951 -91.837587432486202
106.347216350463697 -79.372951558082619 -94.843266571709066
107.936096807874179 -74.725291009616768 -99.874520526653782
68.435121682267095 -72.451961159940765 -99.002329778054914
-80.354791994856285 -70.965558864858906 -107.226948049511094
51.241813145152584 -72.803785762836327 -104.029003535214187
100.721500551358005 -73.765555319110987 -105.570796445321420
47.112980414566849 -73.211554776396440 -113.949523925537804
78.593596098249762 -72.750806182053353 -106.214949222298372
40.588865047222896 -72.499228421751994 -108.900592090788166
107.100133492713425 -74.686855857465332 -106.624114293198630
46.924190148818937 -72.583423783879056 -109.536807979935375
112.648777943286930 -76.826911485632635 -111.746222864253568
109.773541166648968 -77.171937199558954 -112.194203847778724
-80.300518752231682 -70.055657330212796 -119.489610269820020
-84.611063627732335 -68.438073456469766 -122.576217022270669
44.314487880985382 -75.757812711152468 -122.379113380394188
113.843273125508432 -72.876359372497703 -119.241450849381977
114.145601564908702 -74.018114042842058 -124.822520083077393
-84.413674420611173 -70.452106303834555 -134.082644439859621
108.765884200691232 -72.432814239020814 -124.854174063287360
-57.060693201252604 -71.877368754510044 -134.000219653854430
-86.560332203770841 -68.909471302534172 -129.847368216793171
-76.867286288765854 -70.123291342689882 -128.464081678337323
-58.450035981039164 -67.910099551432339 -131.933378137674367
30.135506874938066 -70.886113463956761 -130.365389542083108
34.251001673934255 -72.590095802359741 -133.922395631804733
-78.092922579888722 -70.558333497972484 -138.640928625572883
25.852053729667247 -74.609203221187911 -135.909984429857047
108.160113233213835 -71.337337889718597 -139.216388472552069
-45.057603951283809 -68.230648838148440 -146.392248073375612
24.947595851932341 -69.401855303811729 -144.418266579960914
114.519012353084364 -71.522872776591129 -147.976212537617954
34.205806945311046 -73.107922532841798 -144.369537371332456
110.841676975679050 -75.420673992332325 -144.713045112879911
-55.344339938256397 -71.284830927064121 -151.940348832090194
-68.191810373063035 -68.719071236238435 -157.642486727201884
-49.704891407188796 -73.409738114692360 -161.712891307749828
-38.435424053291328 -70.851137335314945 -167.218015256247469
9.152529316132378 -71.004797911717574 -158.980054177118490
112.677951768219174 -74.262812537763125 -156.199308523045147
109.885154365153753 -72.132279027829824 -159.478775727816497
8.017183546572999 -71.471050249835528 -159.250676483814658
4.888002399637898 -74.405675595882286 -167.715304463314254
11.886809832634601 -75.122355561168234 -157.730939256558770
23.669803851572084 -71.601853922124022 -157.726715806309244
112.278692278842129 -73.678988587842625 -168.849135585053062
107.563314821937510 -75.380582133679340 -166.217969740370108
22.536318038021967 -67.701170019075548 -174.232441735278826
28.715166996843269 -69.655521307661587 -163.700965927455002
112.519694719767983 -73.219644741135085 -164.319279477299204
-27.960591897399361 -67.546086314690555 -178.816576282755022
109.598452420152739 -74.081560646325798 -168.481543153397041
16.215389565513441 -76.667013247201268 -173.844783099333995
22.306873457803000 -69.237770579956361 -167.842175818974823
110.353898610235731 -73.866365287274704 -174.795553665796405
24.386306884451127 -72.167873460515423 -172.437355025888309
107.505272899717383 -72.353914412073067 -181.321262844659458
-37.314354645565807 -66.708244672918454 -178.249622152823918
28.120843169855753 -73.731263649375990 -177.278546867181149
106.815869839346661 -71.913869008492185 -182.890110269903715
24.736009119161992 -74.651671459535990 -183.698631405768054
-154.002811249294041 -67.892391327587475 -191.773210779468712
-29.964186317758404 -67.809309676417598 -191.552719790896276
24.150299077661270 -70.928275080400553 -188.105010223739299
-108.031135925645557 -67.613391980061508 -196.869775183510512
-109.726159006754429 -65.685681544980767 -195.546425520912692
21.490929962494331 -72.739636321850597 -190.088190769899569
11.742119315285061 -72.568247159369974 -190.518129904482095
-28.555851813487394 -69.899870118203964 -194.226743047780019
-28.716068484067421 -71.116466116673934 -189.642338921049117
-25.236661536575717 -68.641492842383443 -189.428872958567752
17.973741583688462 -70.995898657994900 -185.499152863613517
-150.847251428430297 -66.099458938264746 -198.361254926133938
-143.322439132095610 -68.913460930366895 -200.213139474457051
-136.761482434293839 -66.277070784486014 -202.771595903500724
-21.334187210444441 -69.842148947198837 -195.353288022066039
10.341353578045185 -70.683763509760482 -201.644372506320337
98.966731162356794 -74.902894304072916 -196.998289561201460
-114.914994234892603 -68.207928555020302 -202.862228482205580
24.059135435131882 -72.765428128006278 -200.189660087291799
-19.691471596447265 -71.423112881199245 -197.808938528225696
-18.018481190197626 -69.502178549700616 -200.895910966340267
98.896674708390194 -72.054113346232839 -199.377924552465799
11.891332668516137 -72.722826735204393 -203.601645611759182
-21.658881310006095 -68.849658637309446 -199.539864048940728
-121.504306502189522 -67.418614254747780 -203.655596214015475
-132.549876215929487 -67.389967841690137 -208.072046499579358
-116.217255959577344 -65.559760730306053 -209.554836103725052
-139.774107031101835 -68.396676428682511 -207.315585900836879
19.519310711182261 -70.733359147530905 -200.843274877462278
98.214740285148906 -75.841246833521197 -207.008831665284674
-169.322100814788826 -67.634113222530402 -209.584010130243172
99.064530781527523 -74.805005254667734 -204.754673247725833
-14.384714041445434 -71.924214639791103 -210.804876653522399
92.210076334832110 -75.765107974066169 -215.267203372138397
89.540165783754105 -75.554369661999615 -214.936644887643126
17.780768410573341 -75.187988440818302 -213.859611455665600
16.734290109722341 -70.234522715426493 -212.099961690461527
9.899717662265445 -69.766700140961532 -209.996694935019065
-10.556167342622494 -68.941431424108345 -223.305869432298977
-93.379531966118165 -66.177828899209914 -218.655457271978491
-4.470838837777411 -72.704159684617707 -218.342822510964453
92.949726949257439 -70.416636586046678 -216.919799776739808
-89.304015489960349 -70.453669327869363 -223.616446806156006
-105.979426446042979 -67.260775895901361 -223.645752240849390
-91.417005303791797 -71.672422846481211 -227.579185962707754
88.183921803979473 -71.363813313859708 -220.140587271819271
-132.682711137245235 -66.899170078794569 -229.911543417024518
-130.744705986267320 -64.896714538059072 -225.376648823026045
-115.997453800619510 -67.310057758305277 -228.755683714186659
-112.831530687446744 -69.072972948422176 -231.090046352633749
-135.937926850736517 -66.746515159311940 -230.767382285639030
-103.491160189101194 -68.929370456200161 -230.322003988467685
-114.906761067232182 -68.298294222721069 -231.079757787887559
-3.510079514845799 -72.064094552366825 -227.397825108118354
-15.445653829143652 -70.311768289830184 -223.882065407784353
-2.508358236185064 -71.507611131371036 -234.927918218234140
-11.930417093933031 -69.887001540732783 -230.876244366119323
15.787232305981133 -70.065101095084714 -234.247113922201919
-15.985198282495979 -69.428124667444081 -234.232204899790787
-166.730562164429614 -68.081988811911359 -230.095008230246663
0.745341822114995 -68.605402577341778 -236.600464565115146
78.608915338901056 -70.496140475121479 -231.962427621277328
10.130817751915753 -71.883811206771682 -234.741359279569025
-6.665000393609798 -68.830973602749097 -235.880756036448247
-156.340774266581434 -66.457586854455201 -243.174078470279142
-140.171920930141425 -69.804120918218047 -240.002932362723158
66.999381243619354 -69.810462392939584 -238.698979117205454
-5.237667053401193 -72.744084535538619 -238.238624511844478
6.603328838234368 -73.984999682400385 -232.752742238568999
71.513851211556187 -76.835486294837025 -235.362589642021732
76.769920065438257 -73.362127922471160 -236.075487080169438
70.700077095011807 -71.007552473110294 -240.169709879369833
1.841972163163494 -72.531270691020779 -239.203231734189671
55.867804041607108 -73.921806735751986 -242.018022049726909
-15.911457436926121 -69.912013247699861 -241.300803729938593
-18.967103593653988 -71.162680756767159 -244.260629947456039
9.731909415561875 -72.180046032577465 -243.982196088018725
69.384810874293365 -74.810723217018065 -241.468744956214834
60.084886372793498 -70.501569259970779 -239.027748155892965
53.099998489614528 -71.995623797068674 -249.743285658300181
63.987476487241096 -73.232122645067506 -243.966738783443930
-11.989983701866201 -71.661830849105399 -251.296734857687170
-83.969807496219033 -64.173812030257935 -255.594054476741803
-76.848025574068600 -66.563562307499026 -256.183618811724216
47.215464957514861 -73.625873726061542 -250.454449983023778
-140.300750158600124 -67.825533463972292 -259.604993982118629
37.944724024318461 -70.668779558296208 -258.424488125460812
-87.392835520953369 -68.155707421708712 -254.411924918028944
-155.367183407853588 -66.723496625097425 -263.305789428063804
-145.474022004357550 -68.388187452717247 -262.175682829791924
49.681850182880453 -71.429415352859237 -257.680536809786190
-123.748411459286856 -63.815334501545181 -262.623931175652842
-112.516996946054334 -67.315184312672798 -261.019266759947925
-95.209460892563882 -67.138032096971727 -261.929531830484734
-17.241069189252329 -73.961865295123275 -258.070458700936967
31.725577901272196 -72.723409643755218 -260.864898875951212
24.174795731987153 -71.000612307956345 -263.518804932864668
-158.459830990287230 -64.916138197079860 -267.680812115006972
-113.450381106886297 -69.147476653436172 -266.184211391069198
-13.854048885649114 -69.016341848187778 -263.719833614246340
-134.297427278369014 -66.624039899068976 -268.334816896112898
-12.526157369299419 -69.227078110093700 -274.097773669000901
-166.763069229609926 -67.269069484466328 -277.783405310176761
-9.168284432153399 -72.325311103369373 -282.228956555619675
-160.802431779929748 -65.607326207340165 -291.274879808928347
-157.677157990928833 -64.683991283570450 -282.257929613557337
-141.549400179519751 -66.320107645608118 -289.336101014549911
-163.840231148879298 -66.562144034513139 -291.213244895386822
16.058918487503522 -69.080342803851352 -287.476384842959021
-101.359576269076072 -67.968203120314058 -290.485401968189421
-88.160970353176666 -68.546557381047307 -293.479486138861830
-165.923187259850295 -65.865564847486624 -292.607021337131300
-84.840788901569468 -70.405767380125397 -290.097527652198778
-146.585030927170180 -65.029167970762799 -294.763863768107058
-68.665626037577610 -62.373702859265208 -293.569547574009960
-66.081835347267571 -67.961355377299839 -294.585447145450416
-77.751185429727045 -66.340810958589643 -294.427160413259514
-2.528819370890925 -68.208771233142116 -292.563084370386207
-81.448464922971041 -70.228828455985720 -297.974583397002675
-95.658145331619878 -68.032047147040785 -295.267505344231495
-111.015191600957550 -67.303978128562704 -299.245874986951890
-117.127416382624020 -66.621902565464623 -298.318973865232465
-131.468860287952680 -66.022720131069221 -297.494620785890447
-143.504170913046778 -67.799348914877044 -305.620707936205747
-141.952134495973723 -67.164977879796353 -316.394457055167607
18.348197869933170 -75.798375561145718 -20.073701322741343
27.398006940033607 -74.450204952902752 -18.735504052288888
26.883486507080416 -75.296239436447209 -20.254819379477553
37.859716962234160 -76.573044963440822 -25.192395408564884
24.355656154496511 -74.473575751945958 -36.163259115473373
-76.851881486771035 -69.474658862500803 -51.342886063820337
86.116990158882118 -71.260736902853296 -66.910679237918828
-18.360004273577445 -74.107064118620485 -75.235784424163697
98.005391683136679 -71.540858955076942 -70.430322669297055
97.684321159533610 -76.820126613885321 -77.941378917958986
66.871123078758558 -75.224330637698941 -80.326254406933614
66.274642616977872 -75.706834542085303 -81.787448111378936
-46.104118533867108 -74.004451109951546 -85.736662177329677
63.725340700159855 -75.289992651828499 -84.950440944057007
-98.175265494424551 -69.117786013480270 -90.169271295500536
-55.397124727713162 -70.989568168699321 -88.539423108909304
-55.984787751357999 -80.562212781932033 -95.402295261204344
98.802825894997255 -74.882628521291636 -93.586774590337598
56.610781572018240 -77.966702096878649 -95.106531202287670
60.826292106120249 -73.275368209305611 -91.244763007687808
-102.562615728597606 -66.986097620642653 -100.692919396034000
106.833893844686585 -77.787773276554404 -96.370774709277498
45.671117929669123 -72.152323380017805 -103.054799102546923
97.706841428220486 -74.019977040582418 -98.030238452688167
102.579929717370476 -73.494504977420746 -106.741034981275675
102.522899742431960 -75.920302441620819 -108.521976500577679
73.755550328467791 -75.803718064535587 -103.014753083088394
87.478681639536831 -73.068921710302632 -105.844588156521354
46.047179398558541 -74.740586950469918 -113.740053594972409
106.300406800150355 -77.701751104913626 -108.506306898603043
44.154620473810851 -74.249563467073003 -105.840496571845136
43.786072141920265 -70.458857848747584 -105.525320535307074
110.498495001674755 -73.786075428364100 -109.764842004095854
-82.959159192762655 -70.986228723382922 -115.694411361910056
45.060564727486494 -73.216240016258340 -116.190113750943539
38.844679593450607 -70.995984821357112 -116.569624014427347
101.992752413637675 -72.199552683934073 -110.161471834985392
42.020766792850033 -70.520166269213433 -116.257541037405076
-91.185773728578653 -71.423783597784720 -118.250055744947105
-100.000222101290518 -69.595642711410846 -120.390378845721926
110.590619246714525 -72.403996031555323 -119.494111612340561
-96.546780857746356 -71.106426908694104 -123.005632269917271
39.128926579182291 -72.196713619488492 -121.700854053085976
37.346409472834310 -68.725724013320587 -120.141044371455109
-80.672740403910211 -69.300995215613398 -130.431036303305234
28.762293431389537 -72.063658093926179 -137.068769360578955
106.933587162979080 -74.939326552027282 -130.151430726890226
-51.953197265053404 -65.920839202360028 -136.420535686609384
-90.918291511541995 -66.855382223471963 -133.464155354126092
38.386909377742015 -74.715615473841169 -133.744434351685669
-96.896794780182844 -65.829882400212611 -136.995594823478001
-89.712230562461741 -67.148659784762856 -139.606480458091653
-50.576865495735063 -73.250554921275366 -142.304842891051663
-72.620102893544271 -70.182407331441723 -145.282694372721039
-51.458620740282967 -70.335823380641372 -138.205034972597190
109.131140785617347 -74.272082641160424 -138.322899548885459
-75.950389968510237 -72.672316422122037 -141.474673791202264
34.337081134971136 -72.323417472903927 -132.472051518735697
-81.483182042217877 -68.530658201896486 -143.243029543135179
-75.855002160287000 -68.986679538598182 -138.477481021571748
-87.178060213122464 -65.005744588930440 -144.833989050365631
-54.152188280827019 -72.661062208479436 -155.816821839420811
28.110089276374737 -70.472299476079812 -148.901198753332693
27.280751912752919 -70.874217818715323 -152.795835185245352
13.087188682178034 -69.935657075111735 -146.692392028866607
112.649835576292787 -73.680808278579960 -147.944349855269962
-100.044734783557004 -69.085524175069750 -155.282658040951873
16.897996099646591 -72.747796069855909 -157.263186049035170
-73.393092992274262 -66.486796312559761 -154.385063142218740
20.982658701871159 -72.844485870484135 -153.310273140082529
-49.910091764362463 -69.370306985188193 -159.415769762484842
7.844224011628228 -69.417600317161828 -154.677133442294121
12.148935617705742 -70.819494783640351 -156.747009590297040
21.410556370231475 -72.677058751235833 -165.781025113367122
-43.829219871107384 -68.790310364400909 -166.192304109321668
-42.266440274257278 -69.232832902540309 -156.995541918603379
-43.433857786499843 -67.047478323938364 -163.205025256542541
-104.316721966319491 -66.146706498166651 -173.484734921979680
22.383722791210719 -69.511135519547011 -174.149954455026148
-36.819138667010890 -65.670748218197048 -174.246866963045932
17.548726303418697 -71.582451277536606 -179.030385410050883
-147.610815146045070 -67.321114628742137 -178.832754446205854
-35.780126599069064 -69.175980398856879 -176.475481023902887
-148.379545230461076 -65.905537810793902 -181.189057249656230
17.114547145981732 -70.666624936189905 -184.543626331141837
-29.280571043432332 -70.782230859896018 -176.790202718296996
-111.553465734058236 -70.606402749786582 -184.433761995955138
-104.555748843641638 -66.943957594344610 -184.315272164524686
-31.595174849722241 -67.694572743070751 -189.769203468434966
-19.958611332789872 -71.084207275610979 -184.211383124248215
16.774297891723080 -70.619089158999131 -194.133675960863599
17.405485101499679 -67.839174756464786 -199.285461780909316
16.039464733837736 -68.811465781107657 -188.785869094859066
-145.461460890174351 -68.518492286471229 -193.602600192784223
13.700470809233867 -70.167417997188949 -190.715914772035489
10.568578790318076 -71.289008470050717 -201.939575230456057
-142.609441401614220 -67.673868121894415 -198.386904121829218
-118.444414912007559 -67.568953276892344 -198.003860568372318
13.720260997601590 -66.394832338058919 -200.264090591419517
-112.774186708092302 -67.535481891869750 -204.308866445046988
-112.095462529499784 -66.755223940203194 -197.814708789234146
-161.768318361103184 -64.479949915144786 -204.066481718569975
-25.357021367325572 -70.026092306235640 -203.904399203793247
16.516869251614953 -71.076614333879292 -206.699533807289782
-137.854071663621482 -65.691046221020088 -210.192493394503515
-128.969334090243876 -64.404296045441157 -210.323440471687604
-17.461292331934885 -68.318388079406660 -211.927378062836880
-10.870880093454439 -69.759628834838907 -206.759367885853948
-15.785608521430639 -69.091049914381358 -206.956382937830853
-142.863165356299703 -69.001260616617813 -207.204820288248470
-15.412275660397775 -70.812714896467980 -217.229301043651077
-10.025660288320545 -68.986252853841066 -212.860013963605212
14.737672270953086 -69.644292096431869 -213.431507603449376
-6.730720469466583 -68.978629016086600 -214.658910070484581
12.395573933649576 -70.376906215339176 -213.321722256810943
-7.438092008297097 -69.978019732662020 -219.249473105587157
