# This PCD file was generated using the MATLAB® pcwrite function
# from Computer Vision Toolbox®.
# .PCD v.7 - Point Cloud Data file format
VERSION .7
FIELDS x y z
SIZE 4 4 4
TYPE F F F
COUNT 1 1 1
WIDTH 1457
HEIGHT 1
VIEWPOINT 0 0 0 1 0 0 0
POINTS 1457
DATA ascii
-147.449203 185.049683 -66.142921
-142.579880 185.636414 -69.084229
-58.346767 184.475113 -66.595657
103.232361 186.711426 -67.997276
108.239334 185.764252 -66.684929
106.519432 190.684616 -65.481514
24.138691 198.694977 -69.354065
-35.727276 188.912827 -68.624290
-134.805954 194.779938 -66.957253
107.079628 193.154221 -64.742569
21.922903 202.697968 -66.048599
105.453423 203.672623 -64.858337
104.263855 204.713913 -60.742409
9.713308 205.985916 -77.400383
-132.788513 207.268417 -68.089241
-124.177376 206.457230 -64.690086
-142.810837 211.452042 -72.231110
-131.105011 209.658539 -66.403305
-121.009666 211.048599 -68.600555
-20.964394 213.404770 -70.519379
-25.905685 212.669037 -69.298393
-128.704391 209.632980 -68.968964
-140.044586 210.565933 -69.419807
-14.219770 221.457779 -67.377975
95.577789 210.212982 -67.028893
-20.645876 211.776474 -70.483925
88.077660 219.377014 -62.203640
17.609068 217.205597 -66.888206
-4.836280 224.169464 -68.015602
18.996288 219.119461 -68.363266
-32.427498 216.805161 -64.535561
-85.247162 226.272293 -71.782562
-94.444366 226.532150 -70.728485
-10.372198 229.301346 -71.934906
-95.123718 226.292130 -66.922066
-95.416267 227.127335 -66.958794
84.946190 229.163376 -64.746750
-23.151531 233.549896 -70.176720
-21.724520 235.087051 -62.741058
-24.008877 229.262070 -66.508072
-19.215797 232.764267 -66.561043
-18.454498 230.339096 -66.911186
13.086338 231.001770 -69.075104
-137.542511 237.572311 -67.481255
75.926155 233.029404 -68.487206
-3.270051 238.748566 -70.092270
11.243639 244.320648 -71.493042
79.728333 239.922256 -66.534195
-124.022354 240.720276 -68.921623
-158.909119 245.624725 -67.622910
-134.587433 241.617096 -69.913185
13.623163 240.000092 -71.530876
6.878887 239.083008 -66.568840
-122.735222 242.530853 -70.978645
-2.161256 247.705902 -71.216728
-148.100479 245.915558 -65.986374
-4.052547 242.964111 -74.876938
10.751944 244.934219 -66.371872
-2.798951 244.879578 -67.477081
-3.772180 254.692886 -71.289795
7.175066 247.121078 -72.939629
-162.158508 252.182236 -71.974686
-155.216614 247.016846 -70.221451
21.361088 252.031738 -65.471100
-3.374293 247.743195 -71.121628
65.618126 252.181854 -68.726463
62.935848 249.011856 -65.248253
-164.413345 252.815628 -66.246086
-160.032120 256.441010 -64.433784
-150.680161 251.465744 -68.367050
-56.324036 250.695114 -66.404144
-8.320406 253.461960 -63.561371
-54.471912 251.998291 -70.257492
-154.073044 261.014313 -72.468002
-56.870918 254.653687 -64.728333
16.284472 256.544647 -62.205750
-9.757444 254.893997 -69.436340
-8.231853 263.448029 -66.033463
-160.732208 259.057892 -66.162689
-163.630508 259.228363 -67.705635
-83.879097 254.354599 -65.682549
-163.911606 261.265594 -69.217148
-147.131760 264.799011 -68.782700
-72.818596 263.220642 -65.996933
-96.798141 267.612427 -66.703926
-86.204773 260.795166 -68.905045
-133.828583 267.683563 -69.640984
21.215704 263.543945 -68.492653
-97.663307 267.280945 -63.461670
-100.001625 271.391327 -63.510147
-101.528641 269.561340 -61.749222
-114.314911 270.114441 -68.448326
-109.285286 271.747162 -69.343430
-115.480667 271.308136 -68.748795
-145.181244 275.771576 -70.335060
-128.647873 272.361969 -67.734283
-152.557419 272.239136 -64.316528
-146.890305 280.820190 -68.513954
-165.593872 284.817139 -68.412445
-9.768023 287.710907 -70.133705
-128.039749 293.687317 -70.670540
-139.260788 296.792572 -70.334084
-42.867580 298.811676 -66.357483
-87.187035 299.445770 -67.021828
-27.455849 300.075439 -70.184814
-33.598385 300.988831 -66.209648
-119.416962 294.000366 -71.835014
-19.465014 298.698334 -68.842255
14.620698 300.150421 -66.890343
-53.551785 294.916016 -66.960266
-119.441620 304.233978 -66.889816
-77.132072 299.385925 -64.049965
-70.001923 300.041016 -63.788429
-29.277910 299.464722 -68.904572
-99.416985 299.385925 -67.561028
-112.795616 301.176636 -67.811462
-11.103828 308.109070 -64.094650
-162.397003 301.400879 -64.126060
-150.277603 310.380829 -69.648849
-151.951920 324.222900 -68.119255
31.898355 26.352293 -68.837410
26.243500 27.021036 -70.081955
28.280802 30.843758 -64.912697
22.799868 36.455437 -63.468430
25.044867 43.860107 -68.231071
33.165211 48.841133 -63.314384
20.924938 52.452801 -69.701271
-56.361645 61.392696 -66.669624
-31.259752 61.473850 -59.935223
84.897537 79.183411 -62.180836
-90.420433 83.404144 -66.657623
71.377823 84.836258 -66.301155
-37.418030 90.782707 -71.629509
-93.964561 93.552216 -64.970078
-49.877823 90.486458 -70.961510
103.069527 98.276505 -68.035164
-93.657600 101.857399 -66.062134
66.449944 102.640045 -66.330032
-97.942421 100.455063 -63.197781
57.194744 104.349335 -72.279945
105.829628 103.872864 -62.880764
-71.612228 111.467033 -68.335342
43.429760 106.664070 -61.969604
78.505753 113.770355 -65.437469
87.073044 109.731819 -66.232918
42.959888 110.873795 -64.605240
107.538712 112.385750 -71.748131
-94.550438 122.856331 -68.120956
108.901192 113.912346 -63.552063
106.949753 119.666908 -65.831421
34.875751 127.536644 -66.957695
46.733864 121.991699 -67.814201
45.211418 130.364594 -71.178268
35.997353 129.783264 -67.280739
43.458721 127.999039 -67.565170
47.518627 131.815201 -64.148178
107.643608 133.607407 -67.820633
114.286011 134.253067 -65.161522
32.334229 141.929108 -69.959251
30.410337 145.144791 -68.572289
-70.184280 145.629257 -65.826881
-52.759602 135.678696 -67.013672
112.511017 148.114548 -68.376427
29.566553 142.864166 -66.106567
38.732300 146.061081 -61.558300
-80.109650 150.808258 -66.407776
28.817116 146.442261 -68.154350
22.926792 151.406204 -70.112106
-46.066242 154.413071 -66.226952
-73.003235 154.592331 -65.490967
-53.929813 156.148178 -67.105080
31.652876 157.357239 -64.797867
-54.386707 163.503815 -67.205048
36.624004 168.050934 -65.223877
29.898455 172.344940 -61.489143
111.246559 164.909958 -64.466713
25.395870 165.944473 -68.693909
16.337009 167.888565 -67.687927
-40.022400 163.011444 -74.039818
-73.082649 166.411530 -64.369690
-46.377106 169.063019 -64.900177
109.281929 167.817108 -63.900276
36.335758 171.092575 -67.347771
112.881378 174.217117 -68.511063
-35.177364 171.492020 -67.790840
18.936235 181.064850 -60.740288
-0.170818 174.344101 -65.606224
-32.014603 173.638687 -63.730522
-60.663055 176.554871 -63.762249
-30.776339 174.453003 -67.714104
-59.093113 180.887650 -69.228386
-32.799026 183.407959 -61.589161
22.786135 181.697342 -68.548378
-39.896248 184.574097 -69.403374
-150.611694 187.954391 -68.386765
115.038803 183.631927 -64.939812
-149.375793 194.988403 -64.593483
-145.449570 194.580856 -69.280884
15.535740 193.702713 -65.002068
24.763863 191.973495 -66.275490
-39.719707 197.549530 -64.546700
-151.298477 197.819626 -63.033306
-30.049931 196.799988 -66.224808
-145.062073 200.910141 -62.798489
-20.149553 206.001740 -66.208435
13.983772 201.931763 -70.558670
98.517555 211.190094 -66.509560
6.003116 206.203140 -74.782944
-127.626717 200.783371 -69.197357
-132.514603 206.169250 -66.233406
-141.246323 211.283051 -67.840813
96.979576 208.621353 -62.689030
-132.660187 213.646790 -70.046661
7.497063 213.214188 -66.609726
-24.946499 215.603333 -63.614975
-137.883545 213.166443 -68.965904
-145.734543 215.898758 -66.009857
98.219704 219.144821 -69.630569
-10.897165 213.336258 -67.247849
100.063156 209.145950 -67.330513
-6.777513 218.987274 -65.037064
95.533829 221.663574 -67.552856
-145.420609 216.740433 -66.199181
-12.667764 222.124084 -70.560356
-154.943298 225.991592 -67.949661
-150.392319 218.230286 -65.177299
-15.650460 225.460419 -65.196419
-87.766151 224.065918 -63.230335
-157.786606 227.853455 -65.464890
-160.851868 218.875992 -65.845177
-152.713791 217.195572 -67.644028
-31.445648 225.469559 -67.341675
-29.006496 227.498947 -66.946632
-14.399016 223.523361 -61.716080
-17.379448 225.884857 -72.956230
-148.062317 231.962112 -65.780937
16.320206 232.988647 -71.954140
-151.028183 235.371277 -64.238358
-91.554199 226.280289 -64.567375
-164.264175 237.209244 -68.760101
-25.318663 226.806595 -59.092731
-17.754005 229.051071 -68.644707
-161.111145 224.678314 -65.850975
14.149134 230.960999 -64.632484
-157.431107 227.420258 -68.372795
5.383062 235.704910 -61.871441
-163.701965 233.470352 -63.874641
-149.316345 235.502396 -60.758018
-105.209351 235.882614 -67.206947
7.048163 227.126602 -67.432495
-158.070969 234.638672 -65.732643
-160.234924 233.313400 -63.875992
5.564225 233.333969 -64.422600
-112.437531 239.636948 -65.237892
-155.908005 238.190384 -66.819855
16.184593 236.204376 -67.352890
-112.463348 239.195236 -66.180328
-114.557556 238.443054 -64.488205
-120.983223 236.682266 -66.413773
81.006821 239.009491 -65.450790
-161.997543 236.695297 -69.217056
-158.728088 238.177277 -70.959518
-1.724604 237.402954 -66.982124
-162.137100 241.937866 -63.461136
5.992536 238.783401 -63.065746
-165.224823 243.436127 -66.756386
-163.374191 239.019135 -66.001289
74.595329 241.386139 -64.545067
-164.274918 245.011078 -66.598442
-167.414368 248.929947 -68.690422
6.481987 241.973160 -68.084908
-155.401764 247.223923 -63.750278
70.741348 246.781204 -65.255684
73.599304 244.064560 -64.624870
-146.864426 250.227631 -69.035393
8.289908 249.781204 -62.208260
-12.552686 249.939743 -68.584518
64.372398 251.627563 -69.583138
-166.351700 253.216003 -66.965569
6.631172 255.752060 -69.818268
18.166067 254.702530 -68.681702
68.225098 253.434937 -66.989441
20.893995 257.464325 -71.652351
9.631540 253.698547 -68.772141
-75.064774 256.733276 -64.421600
19.645861 252.955978 -70.041931
-14.168091 260.403320 -61.566814
-146.917328 257.797424 -69.272163
-64.478424 265.543884 -68.691994
-142.367905 265.322784 -67.007835
-127.520386 263.470825 -66.184639
-98.205452 265.517242 -69.466377
-133.514420 265.683411 -67.061813
-109.937576 268.546509 -66.568291
-112.405128 269.298615 -64.039818
-95.203178 268.177612 -71.201218
-103.469719 268.402679 -64.250671
-115.569252 275.497253 -66.896492
23.709085 276.455780 -63.529659
-14.195844 279.850037 -68.212173
-170.840302 283.430420 -67.454453
-144.914963 283.723450 -71.834221
11.009171 296.957672 -60.871845
-130.170654 291.340240 -68.291733
-126.772659 295.951508 -59.731400
-79.807266 296.288055 -66.671913
-52.874058 295.798462 -67.125420
-108.877014 299.791138 -64.008148
-39.184807 296.731659 -67.280823
-29.158455 294.753418 -67.388176
-9.785152 297.824951 -69.935303
-35.801231 301.683411 -62.593021
-58.789391 301.777893 -67.237419
-30.719131 300.311279 -72.669266
-19.698635 299.622955 -65.391678
14.925948 302.616211 -66.842125
-113.142563 299.310303 -69.597221
-120.656929 305.333435 -65.710945
10.714355 301.525787 -67.622383
-139.048950 303.431244 -70.548325
-147.771088 310.909607 -68.037430
-143.835846 312.005707 -68.734818
-153.507553 323.379913 -68.206429
25.218731 25.565903 -67.837776
46.121483 27.430235 -62.301132
44.711693 30.796896 -64.898972
45.260189 34.908241 -67.055656
43.193115 38.744095 -63.528698
46.888264 31.025110 -67.005585
24.296888 34.535645 -67.672699
22.615902 39.017693 -64.811050
46.868755 38.936211 -71.638924
42.509167 43.497448 -67.811913
35.834122 48.818184 -67.891647
36.590069 50.331127 -64.694511
-59.668530 60.996582 -64.777039
-50.916359 59.664146 -66.980858
-78.814514 59.524323 -67.841797
-72.508598 61.002186 -66.304443
-71.965248 68.062546 -66.503647
-23.581976 69.592239 -67.368027
-24.256115 70.440651 -70.744247
-15.868287 73.930313 -63.959435
77.955025 78.515587 -66.395386
77.861382 77.558693 -66.000359
76.150002 81.064476 -65.254677
72.621948 79.019722 -67.317062
-33.563499 83.579025 -62.744671
-48.567436 96.740417 -67.671165
98.060158 98.694283 -68.653152
48.864258 99.096519 -62.143841
-67.027138 100.348221 -60.339317
53.501896 100.182495 -65.075981
-61.685032 105.375587 -65.346024
60.005886 108.961006 -64.187042
105.538361 109.280022 -64.839882
66.793770 104.682556 -70.148109
95.631020 111.373138 -65.643875
105.913910 114.667709 -67.347496
-93.831497 110.957268 -66.463295
55.993660 116.461418 -67.015274
39.178921 115.566063 -64.279823
46.572250 114.773750 -70.208817
-95.337646 116.722168 -63.979786
-82.734039 124.431015 -68.203781
40.188541 126.382355 -64.215729
-98.463600 123.604698 -67.024231
44.446629 130.165863 -62.196640
108.317322 126.614037 -67.366959
114.683289 130.663757 -68.713882
105.773468 133.596115 -63.277100
113.603432 135.854797 -66.375710
41.848263 133.848679 -72.608955
35.893368 136.003372 -61.866421
43.722984 141.313736 -68.245209
37.384869 136.769669 -69.036911
-54.450447 138.149658 -62.436260
-50.325687 141.695663 -68.356209
-55.163879 141.281311 -66.742683
-51.111198 148.650085 -63.318699
31.609137 141.036011 -66.158173
-80.649490 144.740387 -63.683647
118.664520 157.810394 -66.272224
35.457981 149.197098 -69.425575
33.359798 154.517609 -67.679756
-63.602585 154.333511 -61.170223
-67.148422 157.756500 -66.231934
-71.219597 158.156403 -64.099045
108.478867 159.141129 -63.368958
-65.715515 162.471130 -69.942009
-70.773895 155.075775 -66.172203
-38.210567 165.267303 -67.077080
24.937164 165.121216 -65.231773
33.141445 159.834442 -64.406166
7.782423 164.947815 -67.517624
13.253513 165.550629 -66.116356
25.560347 163.154297 -69.092659
-33.310802 161.473312 -67.332451
-67.799438 170.647202 -60.891594
-37.854614 167.293320 -64.335449
29.586630 173.922485 -63.848892
-65.726311 176.590134 -69.538979
-66.597870 175.232132 -67.802620
-45.827377 169.843491 -68.555473
15.783787 174.049652 -63.470814
19.284079 179.000778 -66.878685
111.566826 178.182404 -65.329391
-25.773781 180.012207 -65.491241
111.372368 180.394226 -69.475266
-145.397125 181.906830 -63.803234
17.459894 185.612595 -65.824081
112.516205 182.187881 -64.342560
24.286182 191.055267 -63.063759
101.918098 193.821747 -66.250862
-20.543262 191.484955 -62.226082
-31.671963 191.606934 -72.859695
10.529671 200.234894 -66.109421
-28.629694 200.858459 -71.320473
-148.153000 197.706741 -68.164986
97.939980 201.258072 -70.531380
-133.627777 202.145844 -65.402779
19.251743 207.036209 -67.711395
102.514687 205.333694 -66.821281
-121.714882 209.464523 -65.815590
103.724854 205.230957 -69.292870
12.379106 207.200333 -67.319366
-155.151764 210.970245 -60.449837
17.981762 209.549423 -68.483833
-157.553452 210.586456 -63.926945
8.721663 206.280838 -67.702431
-121.765816 209.298141 -63.456867
7.447885 218.507202 -63.893608
-24.242874 208.153320 -62.401440
-162.076843 214.186020 -64.534309
-158.487228 213.155167 -69.969269
-154.906525 217.154114 -67.171173
-25.313757 218.550201 -65.896904
-153.571655 217.023071 -65.354614
-160.785812 213.993668 -67.213234
-150.411041 214.034775 -67.716293
3.381770 219.910004 -68.060242
20.820475 217.611130 -67.614906
99.611938 220.219452 -66.852966
-150.444443 220.073715 -72.355690
-162.130432 224.772278 -63.587433
83.486389 225.472229 -68.333336
-146.808060 226.842346 -69.473686
-4.593479 227.685410 -61.960781
7.740129 224.164688 -65.598679
17.135599 227.075958 -60.860203
16.105385 233.261383 -63.121906
-143.393234 230.049805 -68.607864
-16.432768 234.807007 -66.589043
-21.784861 231.201538 -66.069008
-99.276848 228.895660 -66.302963
-2.265135 236.789032 -63.577812
81.874550 238.720627 -64.021782
77.373405 231.505341 -66.033066
-98.023537 233.628250 -63.223328
10.929482 241.173370 -64.512779
86.880569 233.410599 -67.299576
-107.611641 236.633163 -69.327347
71.631569 232.172256 -69.469917
-2.633375 237.710861 -70.759438
-20.727163 240.674332 -65.382889
-8.146381 243.040634 -65.496094
70.935425 243.769791 -66.815910
5.855514 245.982727 -64.446510
-124.808777 242.885208 -61.167538
-161.221497 240.495850 -67.769836
74.747597 243.763947 -66.031593
-122.402893 249.327408 -65.828041
-6.430935 246.416245 -65.207283
74.776489 246.573166 -64.885490
12.308855 247.887192 -64.426704
-3.330654 247.756531 -67.270287
-10.016521 251.087738 -64.505814
71.292038 250.528946 -66.718681
14.428483 246.594269 -65.462883
-145.882416 255.988861 -68.972900
52.842205 256.722931 -63.822067
-11.797215 253.801468 -65.339394
-67.432121 258.161224 -66.542610
56.523113 257.057617 -63.695732
-66.775383 261.994293 -69.180542
51.061954 261.686829 -65.638901
-90.946388 264.480133 -65.430443
18.667404 262.969299 -66.111603
46.612431 264.014496 -67.611649
-136.423996 265.722015 -66.659378
-168.058487 269.194580 -70.187492
-110.361038 273.902893 -70.344795
-145.776199 271.710541 -68.902443
-145.301926 275.153290 -66.466003
-14.534351 272.915710 -63.813847
22.277254 280.479492 -62.983311
-10.274091 287.976379 -65.813522
-156.881897 288.169006 -67.762794
-130.741592 291.376617 -68.749886
-155.495087 298.555817 -65.931480
-90.620819 296.205505 -69.303520
-86.214432 294.516174 -65.810173
-45.877899 296.023315 -67.389717
-14.002707 293.485687 -64.655869
-37.235767 299.837738 -66.574905
-12.918672 298.412384 -66.541206
-30.473824 294.602966 -67.080368
-14.207639 301.209656 -62.535255
-49.313446 304.468475 -64.248436
-6.985827 297.993561 -62.904110
-74.129494 302.717651 -66.596031
-88.228523 303.108673 -67.142242
-100.678162 303.353638 -69.445206
-118.505974 302.083588 -69.500710
-134.004303 306.771301 -64.076553
-148.461166 306.310852 -66.696480
-156.897812 316.715424 -66.849091
-148.372833 321.473541 -65.190643
44.213535 23.989651 -65.294098
22.932364 28.952854 -61.450138
44.142521 29.826656 -67.044891
22.404776 30.905336 -61.929398
40.407024 44.236267 -68.651443
24.837530 46.010765 -64.067833
34.845135 49.417236 -67.022591
-60.817451 60.254810 -63.491867
-44.364197 58.771843 -63.439838
-43.743477 65.872444 -60.836803
-42.877056 54.260410 -62.653320
-35.639011 62.508057 -66.262405
-28.176033 64.832230 -64.018082
-20.369305 77.710411 -63.651424
77.333481 79.978600 -65.963913
97.011681 82.767998 -66.842720
-16.890797 85.626610 -63.355854
73.837608 81.770180 -62.727463
-46.019150 91.761383 -64.265106
65.230164 91.615707 -61.454937
59.384380 97.800308 -69.545273
60.772099 99.434929 -63.885780
52.320919 101.863327 -69.898697
-62.606846 99.660622 -63.855034
-100.499603 102.920036 -66.091545
51.107124 103.594872 -66.092796
103.922066 105.954102 -67.639923
64.314224 106.014679 -63.500347
74.915939 109.308792 -65.510567
-74.467331 109.938530 -60.817917
55.718754 117.029877 -62.938385
107.043159 115.336189 -65.552055
75.919830 113.434807 -62.876190
101.341499 111.361893 -68.851006
90.978729 113.781029 -60.819431
107.252785 116.003815 -63.965019
49.259880 110.727486 -68.072639
-89.359398 122.339340 -64.870377
42.378132 126.058746 -63.459133
-94.225197 125.760284 -64.621658
44.594543 127.192268 -62.696331
-77.586617 128.591476 -66.115578
45.379677 122.830986 -61.462044
112.672318 125.135551 -64.705925
38.207062 132.649338 -65.785751
-82.744553 127.453499 -64.169548
-84.876129 131.766235 -67.651382
36.332859 135.717896 -66.183174
-86.113548 139.035767 -66.157478
40.089802 133.960159 -67.729477
-78.378944 134.952469 -64.565353
-47.945877 140.996155 -62.812237
-55.640156 137.793655 -67.408325
-47.727486 142.396973 -66.302025
31.031494 143.593979 -62.592403
-58.789944 147.609146 -64.945450
34.433025 149.773911 -65.896278
-68.595856 147.864243 -64.464127
115.545456 154.537064 -67.444183
28.290611 150.683090 -62.894402
24.015394 152.519028 -67.118958
-68.455070 153.683090 -61.787430
-55.604885 159.302444 -64.709175
28.467335 151.848007 -66.657776
-51.200127 159.013718 -64.062256
26.104620 163.775024 -64.630386
-72.908859 162.667633 -65.435120
-56.538780 163.529541 -63.384716
-47.206791 161.594986 -61.703964
7.919106 158.226685 -65.275764
115.125801 162.725143 -64.571945
-50.789394 164.745377 -63.660522
30.763952 170.905334 -62.375175
-34.720776 165.221252 -66.940208
30.414951 167.535431 -67.885406
-37.751991 168.817566 -67.465149
-34.316425 171.431015 -58.858105
-46.022652 171.628281 -65.130707
-44.595921 166.619324 -67.011436
5.526453 171.312546 -65.185547
-45.333073 174.296661 -63.340393
22.960434 168.052612 -62.216122
-35.821987 172.821838 -67.835777
-32.276615 176.529922 -62.598328
27.119961 177.495773 -66.637047
-34.017986 180.425278 -60.553310
-32.872250 187.611679 -64.610710
116.278831 180.416885 -64.434708
17.020138 187.015350 -66.890991
-34.758175 179.878311 -63.592636
-29.003939 178.206451 -64.303970
-38.721668 183.626846 -62.241562
-138.848038 186.749252 -66.281380
-22.202894 192.461731 -62.580078
17.437376 183.625107 -60.731464
109.838600 193.400024 -63.781597
111.028084 191.056290 -65.266808
-21.355776 188.023941 -67.416046
13.181825 194.019348 -66.152382
-142.837265 192.115524 -62.251644
-26.538084 195.671036 -64.523018
-27.147480 196.010818 -62.148705
23.493015 194.808151 -67.790054
22.526093 201.382828 -71.915863
-114.454987 197.845703 -60.589508
13.974704 201.614410 -62.778072
23.038885 200.651077 -66.137260
-20.575813 200.153702 -63.409950
-114.467857 208.511459 -62.268215
101.869682 202.563629 -58.786312
-118.471336 204.198242 -60.317471
-136.567398 206.327118 -64.497467
-114.218796 211.728424 -65.110657
-112.680954 213.815842 -65.003944
100.471481 212.157013 -68.963234
-11.600044 214.488235 -60.918114
-17.961624 217.398270 -65.851875
99.693756 213.420273 -62.489147
-130.635223 215.765472 -62.238216
-19.174431 213.799805 -63.478916
7.794440 219.437897 -67.799637
-145.172348 214.724655 -65.727921
-7.835487 221.070099 -68.791451
13.951843 218.510406 -62.847378
93.468948 221.883301 -65.835068
100.067360 221.955627 -65.178123
20.909742 218.927155 -63.660942
14.675941 221.416824 -66.333267
-92.394112 221.319672 -67.595856
-90.030464 225.924469 -63.816307
86.940956 232.078125 -65.096146
8.848563 235.124054 -70.267334
-101.377991 228.331177 -68.322441
-15.276887 228.219223 -63.816109
-17.671799 233.431732 -65.274681
10.332725 235.081161 -63.596340
-7.094256 235.207947 -64.499893
-122.520294 234.107895 -58.563286
-7.169569 237.584244 -63.468655
-104.836929 236.397781 -63.935318
-139.739990 231.630173 -67.487694
-116.213226 236.829071 -64.880753
78.726364 237.721527 -60.499630
16.508663 241.529907 -64.192574
-168.090790 234.482361 -68.782303
-107.553017 244.388992 -63.278233
-115.904495 244.152969 -65.757889
74.588280 244.632355 -65.047066
13.352824 246.624466 -66.209747
-3.178909 241.916962 -68.265755
15.980080 247.301239 -66.252258
0.314757 251.135117 -63.808346
71.306351 245.573212 -63.797565
-4.350617 249.917862 -65.678574
9.442949 246.240845 -65.065796
-4.286204 244.516953 -70.257118
1.153263 249.810715 -68.222633
2.979325 253.040237 -67.681725
64.689102 253.349091 -63.959404
8.349925 255.062195 -61.503838
52.925083 259.505188 -65.086433
-13.490368 257.130005 -66.997620
-13.824759 257.002289 -66.067139
-74.004051 266.106537 -61.575771
33.947197 264.893402 -65.373947
-79.937668 264.623413 -64.935547
-155.337662 265.024994 -64.379837
-83.249947 267.943176 -63.144157
-135.236526 263.490326 -63.218971
37.792908 262.971710 -68.256104
-110.341667 268.076843 -66.649628
-90.108620 265.367493 -62.320499
-152.106705 268.849823 -61.753849
-110.186760 271.744019 -64.212173
-164.871521 271.617493 -67.486740
-152.091431 273.904297 -66.746765
-147.611847 277.008484 -61.405594
-16.651367 274.554657 -64.146370
25.177372 274.990112 -64.215981
-155.889038 278.087830 -67.337372
-12.789408 275.113892 -62.276836
-162.813950 278.136353 -67.705528
-17.867077 282.756989 -60.013187
20.237474 285.549866 -68.486351
-161.918549 294.308716 -62.273914
-163.493530 288.975098 -64.904472
-157.681824 291.753754 -61.046871
-123.980339 292.317444 -60.929558
13.374499 294.608063 -62.952885
-135.113998 296.398438 -58.724873
-90.677330 295.427338 -62.633659
-79.550217 292.435394 -65.496941
-72.508858 296.986389 -61.718327
-69.907852 295.339264 -66.417084
-55.460552 297.194763 -66.159431
-159.254105 293.343597 -62.830158
-69.898987 295.497589 -61.959686
-60.414047 299.261200 -67.939026
4.849574 301.336151 -64.262268
-79.304672 303.824371 -70.290794
-104.411743 300.296417 -63.483341
-121.745346 297.930023 -69.291008
-153.075943 303.989014 -65.218315
-128.515488 305.712738 -61.183994
-146.702850 317.887573 -65.306580
-152.121216 322.095245 -63.387733
41.003418 34.609612 -58.731682
51.541241 34.747341 -63.034615
47.373569 41.708611 -62.298645
-50.690533 61.493145 -60.136108
-73.826607 55.629471 -63.234238
-33.533993 58.790241 -67.126915
-86.655380 73.553543 -65.454521
81.405746 71.258644 -59.897186
86.970886 76.384132 -66.477379
-13.016168 80.271332 -60.953426
94.665909 84.457321 -60.236267
66.127884 80.412102 -67.558525
-39.195072 89.335464 -58.190422
-44.631462 89.440025 -64.893669
59.901543 94.496056 -63.068531
63.008923 101.553970 -65.339882
103.170174 99.308510 -66.142586
-59.613998 95.664650 -63.092243
-95.995346 101.539482 -63.482113
47.304752 107.393433 -68.862556
104.329147 103.957512 -64.499176
107.465736 109.058411 -64.810089
73.996979 110.219894 -61.462574
50.723972 112.714394 -56.640026
-96.570923 115.576454 -62.576874
49.162579 112.596298 -60.704445
53.203674 113.418961 -62.034180
81.214592 112.344978 -60.977325
85.259438 117.337273 -63.329037
-97.358444 113.619690 -64.302292
37.852722 117.467468 -70.432045
48.473274 121.321846 -62.621456
104.163246 115.252518 -64.091057
38.275524 121.667694 -67.321533
38.068306 117.415291 -66.158554
113.235458 119.586411 -64.536880
33.835022 124.290611 -70.318138
109.200676 126.417961 -68.527542
-76.353180 122.406372 -60.361298
-85.013718 131.440186 -65.151550
109.554726 135.375473 -65.452682
35.086906 141.242905 -68.355164
-62.431435 137.832031 -62.996460
-88.356209 136.387619 -58.527233
-57.401218 141.895248 -69.305008
-88.077995 137.056183 -61.680195
-71.276909 141.319092 -62.608780
-49.316082 150.479294 -67.409607
-87.086876 144.439148 -63.582108
-75.471397 145.651169 -62.561306
-77.036186 144.141541 -57.808353
-44.783432 141.738205 -67.223412
-78.239540 148.788010 -65.020683
-76.539848 146.446274 -60.359379
109.926086 153.574402 -66.254608
28.228008 153.615463 -67.283737
-42.781605 158.372055 -62.038994
114.731979 153.527359 -63.293995
-55.088039 156.136368 -64.064461
-54.183743 152.185455 -57.358475
32.003254 160.490158 -65.581352
25.923988 160.264008 -63.320370
117.260521 162.079422 -69.935448
-45.429256 159.258377 -61.406536
10.543989 164.380737 -58.622501
-48.451519 168.547440 -63.224606
29.204536 162.905273 -64.901535
108.901276 162.221039 -61.509659
114.805428 169.616257 -64.171036
33.652672 166.314987 -60.846760
112.250587 165.593704 -66.506653
24.501297 175.339447 -67.182114
112.250191 169.616531 -68.347992
25.893400 171.804260 -63.869114
26.141443 174.849152 -63.756638
110.943214 176.273819 -63.224979
-28.366306 177.752380 -63.087677
-40.547604 180.612152 -61.667332
26.373257 185.292084 -65.665535
-139.033020 185.412842 -62.351688
-36.555550 187.251801 -63.190308
-108.764671 192.205383 -64.422119
26.819544 188.772964 -61.496502
-152.417526 190.728241 -63.373047
-24.363260 186.870575 -63.440659
-33.743835 194.086121 -73.308907
-147.606415 194.500931 -66.876236
-112.456306 196.118805 -64.092758
-33.154160 198.117615 -62.197521
-109.363770 198.266449 -62.612759
107.472679 200.768768 -62.534176
17.704268 196.917999 -64.062859
-27.193573 200.898300 -60.209934
14.630370 195.614075 -60.655056
-19.871166 205.045853 -64.357872
-25.187206 201.438904 -61.886143
15.326738 202.638138 -63.787117
21.196810 202.864929 -67.404709
-22.533764 207.514969 -65.842995
-108.498070 206.297073 -66.137497
-160.851166 211.203461 -62.697269
-12.305936 206.519135 -65.335403
-14.117926 208.451065 -70.441681
21.259924 211.024826 -63.164070
-13.456454 211.610535 -62.899231
15.443574 211.706360 -63.463310
-114.794441 210.141083 -65.332016
-119.517548 213.237091 -59.723713
-24.584904 216.882324 -65.780952
18.731899 215.993362 -66.039375
-128.523193 214.056519 -65.198456
-144.119766 213.618881 -63.094261
12.858209 220.230011 -65.236252
16.157017 220.986374 -60.067127
-18.104849 217.655396 -60.918167
-10.030973 223.843781 -65.441109
6.381713 221.460587 -59.700848
92.978210 217.916290 -61.168930
-13.298969 224.245743 -63.307632
11.982918 222.053940 -62.132175
15.883637 221.132645 -59.160873
-14.339610 226.928040 -56.861805
-101.457344 229.250839 -62.386257
-3.398572 230.223557 -66.435410
-103.438675 234.085663 -67.933754
14.093685 233.160522 -64.446381
-0.876639 233.501434 -64.801788
83.467476 234.452499 -62.331875
-108.914955 234.612503 -65.328278
-132.714569 234.386200 -66.474953
-16.399193 235.883698 -63.815678
5.623969 240.832977 -66.346352
7.242411 243.265030 -67.976547
8.664471 241.493347 -61.391830
-1.265693 245.010406 -63.470985
-126.240990 243.123047 -63.234825
-139.862213 236.997940 -64.763580
18.689283 248.403992 -65.139755
-12.462774 240.608841 -63.841732
-156.609055 244.166977 -63.966129
-150.292191 257.179474 -65.628967
-148.516708 257.890167 -61.943546
1.149232 242.981094 -65.848534
-151.895416 252.198303 -65.267563
57.854301 247.926300 -62.764706
6.319298 251.274841 -65.039467
64.258759 253.727997 -59.313725
53.326054 254.351913 -64.514000
55.754620 255.222214 -63.495522
57.055782 258.212524 -64.160164
-11.596849 254.629425 -60.479527
-153.733917 258.164398 -64.234055
-155.066330 259.113678 -61.325451
-77.150787 260.597443 -61.522209
-88.474213 264.065033 -70.461525
-87.760124 262.281952 -65.325996
-86.555641 264.536652 -60.862003
-163.092453 265.506226 -57.488689
-125.000526 266.674988 -65.352913
46.247643 265.074493 -62.064510
-105.633209 265.945984 -59.997040
-125.641075 264.361389 -61.884766
-154.082382 267.564148 -64.043633
-170.884949 270.362183 -62.692665
37.473816 268.496307 -63.939201
33.721058 269.959686 -67.396919
-162.061279 273.490936 -66.906242
-136.057983 269.917816 -64.679031
-157.623245 276.634888 -57.937153
-167.245743 286.985291 -64.194420
21.559973 278.950592 -60.358097
-162.555038 283.262787 -61.902351
-159.819122 279.979126 -63.725327
-164.238464 287.078094 -63.888184
-8.647189 285.735626 -62.155045
-145.118927 288.944519 -63.010834
-160.283630 294.251587 -64.607109
-132.305313 292.873230 -66.148499
-135.000107 293.313812 -63.481773
-162.988007 292.454163 -60.518421
-94.459785 291.137329 -62.599377
-71.793274 300.371185 -63.481697
-82.657333 300.365448 -58.932705
-70.518105 301.662476 -66.488159
-149.272141 302.645721 -61.949574
-75.263191 298.141296 -62.466595
-128.128235 304.861908 -66.143173
-139.069824 299.788910 -62.076534
-144.982300 306.544128 -60.657436
-144.557709 315.541565 -66.119583
35.703476 23.353653 -62.259586
25.169529 25.682980 -66.104492
49.885098 39.468948 -63.981197
45.004528 42.739777 -62.101269
34.925835 44.453785 -59.608231
32.290550 52.737648 -62.938721
-59.110611 58.458778 -56.851139
-35.419704 59.867203 -62.765591
-80.624527 65.601334 -59.848591
-90.303230 75.267693 -69.580627
81.481766 73.361794 -59.328468
-13.067749 77.866417 -62.350269
-24.291847 82.915253 -62.775105
-24.464710 84.453560 -60.811115
-35.092716 83.284355 -62.092300
71.266953 88.783623 -63.407707
101.849838 95.388046 -61.656273
67.323700 94.021904 -63.071171
61.548759 98.890343 -63.810509
62.333286 97.897942 -63.370636
56.839966 95.804932 -63.447823
100.582550 106.575768 -60.085789
51.357597 103.632370 -63.481277
63.334927 99.848022 -67.017326
-97.551544 102.447540 -62.016346
44.169926 108.827766 -64.022064
99.639763 109.926224 -57.107975
-75.297287 107.374092 -62.716232
43.879482 108.261230 -59.786400
76.082230 115.637138 -59.056297
-77.045074 112.701332 -68.955338
41.471100 115.320366 -65.519531
53.669888 115.901451 -61.609959
-82.156380 121.217796 -60.634357
108.006676 127.121292 -61.937019
34.051079 126.888336 -66.766647
39.866421 125.417671 -61.324024
-92.745010 133.482117 -61.479492
37.275051 130.811050 -66.925003
35.877033 128.177841 -67.682320
109.612007 130.072311 -63.407539
-79.118149 139.526581 -58.905632
-57.674843 137.374191 -61.389210
-57.895981 135.603897 -58.642452
111.786064 134.892242 -61.363880
-76.306595 138.574265 -61.545799
109.135124 146.807541 -63.133770
-72.310883 142.325577 -64.246826
115.801544 140.802368 -63.526714
27.995050 133.733948 -69.431129
112.684082 144.409546 -67.047188
-78.353203 142.356247 -59.892052
-53.285328 145.186401 -60.134762
32.800579 144.356003 -64.519714
-60.711441 146.163162 -64.377121
-57.383675 151.173248 -65.159569
27.072496 153.843323 -61.685852
27.714380 149.169342 -65.081810
112.562775 150.223419 -67.043724
30.848270 152.542007 -63.284107
-79.128212 147.834015 -64.403595
-90.691383 149.554718 -61.813019
-58.903381 151.887100 -62.691967
-60.175648 155.110718 -58.082836
21.183901 154.963135 -63.036926
31.887749 157.428482 -59.448524
-42.545052 156.814102 -63.351795
-72.399902 155.101059 -64.283157
19.416985 159.462311 -66.610802
28.612082 167.978043 -60.967518
-45.357117 164.225342 -63.276470
28.290226 162.152969 -62.219753
-40.745148 162.718033 -61.160187
-97.038727 163.742798 -59.438133
-101.015541 170.017014 -62.991970
19.044876 172.052368 -68.097244
-46.101349 171.199814 -66.109909
-101.904976 171.557281 -64.026382
-99.292488 175.733994 -62.794502
-98.689827 176.689713 -63.053806
-32.834198 172.387482 -61.032616
-104.703125 173.357605 -59.924561
-33.737846 179.729233 -61.733543
-105.301567 182.037750 -63.646591
-30.323677 183.035751 -65.459221
-30.058477 179.537552 -61.818771
-106.876625 187.661148 -66.143242
19.436762 182.072144 -61.375668
-37.417778 186.417801 -61.549961
21.959595 187.643738 -63.072796
-35.190559 184.010376 -62.237099
-28.959869 184.198441 -63.374607
-32.988201 185.873444 -63.605381
-105.880722 187.937042 -62.340141
-26.476257 191.696579 -60.434673
-30.310556 189.945450 -62.825237
-139.543594 185.967743 -62.207912
-112.878319 199.332123 -62.877296
-105.443848 194.413910 -63.331524
-112.022476 199.120026 -61.714737
15.213031 198.787445 -60.827534
-23.149294 196.719040 -59.907383
14.634508 201.907562 -65.161095
-153.059265 203.273148 -59.585236
21.574850 203.821854 -64.018753
15.077290 204.452698 -59.492619
-119.353958 201.722839 -59.779232
-110.917900 207.959991 -67.678650
-19.595163 206.680923 -64.054810
-171.557632 207.698059 -60.985828
-164.424698 214.945801 -63.123497
-110.158058 213.964157 -61.539837
-13.667907 216.840332 -66.944878
-134.136871 212.257690 -62.874554
-8.833724 220.425323 -60.318089
17.321436 218.899933 -60.337303
-157.977631 220.704559 -60.724461
12.588880 224.787125 -66.654686
-160.226563 223.751678 -61.541862
-4.360213 220.364868 -63.794250
13.981560 230.826630 -61.117382
10.028381 229.956863 -65.670837
-1.214306 227.509491 -62.911438
-143.064468 231.915527 -65.916359
-157.330734 228.700974 -63.668808
-161.885986 230.589340 -57.548981
87.023048 227.788498 -66.915718
-2.930660 235.929794 -63.230644
-149.597931 236.296158 -65.034050
-133.089600 231.471100 -57.648205
81.400154 237.667908 -61.447227
72.915382 239.701675 -67.726120
76.475677 235.694290 -58.357883
-14.703897 236.511856 -65.956528
-152.836304 238.567337 -65.949318
-14.815522 235.966873 -61.418373
84.513161 235.314331 -59.976849
-106.882538 239.347717 -62.101460
0.951924 243.296249 -67.826141
-166.515656 236.022263 -64.936127
-11.564539 248.426895 -63.999481
-1.879464 243.867310 -65.890503
-159.303162 247.214523 -58.222328
62.339520 248.367325 -60.195518
12.268028 250.166946 -65.808067
4.707901 251.513107 -65.026337
-157.943466 245.935867 -70.025772
-10.025398 251.496902 -64.464012
-161.032791 255.331085 -61.047188
-160.012695 251.466553 -59.931416
-160.436188 253.791397 -69.106102
51.225780 256.888031 -62.152699
54.738403 257.571167 -66.755638
-158.575485 256.121429 -65.858932
-161.427994 259.994568 -59.703331
-163.474533 258.148560 -59.910995
46.208778 259.529053 -64.669334
42.922039 262.718689 -60.493279
-159.536011 262.732117 -62.032452
36.097439 265.954224 -64.651497
-98.281189 263.571411 -59.160126
-79.826561 264.702209 -65.206665
-161.394943 264.169861 -62.662727
-137.971863 267.037598 -60.265713
-106.895287 265.322174 -60.762367
36.783638 263.892090 -62.342556
-140.503571 262.309540 -61.879383
25.149193 268.779510 -65.356644
47.877373 266.574097 -66.337868
-97.544144 267.092529 -60.703709
-98.102928 268.565643 -63.085247
-161.298645 274.045776 -66.209755
-111.684761 272.652313 -60.591019
-141.865463 270.740448 -65.055145
-164.655731 271.415924 -59.220646
31.578541 272.974396 -62.394100
-128.288132 271.254913 -66.249123
-9.919071 274.013763 -60.801022
-148.567291 287.669800 -64.404427
-11.223636 276.825104 -66.104156
-6.843073 282.769379 -68.218971
-16.776728 285.237854 -59.598251
-9.474682 286.384003 -61.664982
-153.798813 291.447937 -66.380394
-125.728523 295.096527 -64.813995
-7.716131 298.000397 -61.680515
-7.962151 298.013092 -68.285324
-114.016624 299.033417 -59.207706
-100.025536 298.654999 -54.591824
-110.728806 296.197174 -60.967781
-156.960464 299.775940 -59.788269
-96.262985 301.133057 -65.459839
-138.180084 302.156189 -59.674530
-118.916046 302.516174 -58.147434
3.332302 299.968414 -62.625118
-153.085114 306.264130 -61.141830
-153.908005 317.833313 -57.813393
-151.112869 321.326599 -65.305984
34.779716 20.601851 -58.533524
34.491028 26.374878 -60.922745
42.578682 34.592850 -58.575024
22.309376 40.543808 -62.141407
21.943445 41.664814 -61.110153
43.465759 44.366425 -65.617622
-54.203075 52.854046 -65.207825
-40.063835 58.311741 -64.218422
-34.160198 63.067383 -65.272873
-80.881981 65.030983 -63.858891
-15.593720 67.212708 -63.971218
-19.827539 71.119743 -57.487377
86.417732 70.344940 -59.085163
-13.733467 81.127632 -69.769920
-95.934326 84.552269 -63.490028
100.460373 81.156311 -64.979279
-25.582605 86.156876 -64.233780
-45.792755 93.609352 -63.137436
107.994019 90.693588 -60.883427
103.934845 96.747581 -62.752972
67.476753 97.175980 -64.637283
103.889412 104.815529 -60.255013
62.832352 108.071930 -57.510223
-66.336494 105.686264 -67.598770
108.210640 109.145149 -61.175423
49.465824 113.267593 -61.421600
71.646957 110.429703 -57.970558
-76.843941 114.058098 -60.591290
75.689346 117.327980 -63.071075
83.900162 116.307800 -56.743748
40.353294 114.444275 -60.416924
-73.254951 116.486679 -62.052238
106.265114 119.039948 -57.963848
113.165054 125.078392 -59.224243
45.466961 120.860077 -63.307487
-91.905174 124.098030 -65.535751
109.059296 134.806671 -60.803261
-79.864845 123.186714 -63.291798
-90.026558 126.860664 -65.126556
-77.896408 134.619431 -67.655533
-64.029556 131.212265 -60.207718
-53.103168 138.544052 -60.962124
-73.795769 142.959198 -64.188599
-80.438583 142.283539 -66.592514
-61.248055 138.807266 -62.568249
-77.591393 141.209015 -61.117680
-76.157516 146.681503 -56.718987
-47.688732 144.868301 -64.835396
-50.404358 148.454086 -59.823849
24.615475 152.600357 -60.743290
-93.184105 152.649872 -59.394382
19.304615 152.554276 -62.278469
-67.371124 156.046112 -66.718010
27.532579 156.364151 -63.508560
-100.639992 157.744614 -59.045311
15.047174 153.668716 -56.854912
-94.967247 160.467346 -66.201424
-42.700031 158.757996 -62.358494
10.985697 164.797989 -63.131954
7.130157 159.753845 -56.906048
11.186144 166.489395 -60.979824
32.094910 164.590225 -65.178566
28.096775 172.004868 -60.732552
22.727983 170.737000 -60.829140
20.163141 172.727661 -62.105167
21.652353 178.804688 -57.858475
-103.003021 174.951736 -66.942841
33.122452 183.841675 -62.244167
-104.883995 185.350021 -66.722824
-108.088303 186.656006 -63.159344
-108.537025 190.206177 -62.700710
18.957520 193.126236 -60.534946
21.155043 194.944656 -61.858990
-28.074604 196.263809 -62.167000
18.689779 199.309677 -60.139488
-23.716473 200.731796 -66.388840
-112.299385 202.250305 -58.945671
-23.834229 211.062393 -65.622124
-163.578186 205.696945 -59.516842
-114.965858 207.116806 -59.432804
-21.256447 209.102814 -62.250706
10.695258 210.220032 -59.915054
20.606211 211.402527 -64.729637
-158.177994 212.978821 -64.011414
-8.915083 213.132446 -59.330925
-155.079926 212.204926 -63.412926
-158.762390 214.350357 -60.985962
8.759748 217.726212 -57.980244
20.279377 222.603531 -58.232418
-154.635422 215.348206 -62.284454
-146.418396 215.656326 -58.080765
13.021827 218.989487 -61.676907
-12.818455 223.796616 -60.292183
-7.272066 228.434540 -61.877594
-166.650620 223.660995 -61.114769
-9.212790 226.344681 -59.243614
-156.075302 224.304642 -61.551281
-150.897064 219.200287 -60.784462
-3.909742 223.854874 -65.646370
-145.589722 234.100281 -66.006790
-16.533340 230.260895 -65.025711
-161.252411 230.339035 -60.562820
-166.694489 235.593201 -63.456615
-0.284890 238.997711 -63.226910
-159.510696 234.404739 -63.715027
-114.356270 233.649689 -64.004982
-134.290512 234.287033 -64.338600
-143.895355 236.858383 -60.370708
-116.942795 239.398315 -58.900295
-153.013535 241.765915 -66.313286
-148.065201 240.161987 -53.024456
-158.937454 238.595367 -64.208542
-114.369133 244.047607 -58.165985
-156.623138 242.270218 -67.851143
-143.865799 245.628876 -58.491573
-164.140808 245.026596 -66.248711
-116.986404 242.401276 -61.207066
-166.323746 244.503983 -59.182835
78.207466 243.449661 -63.718185
-0.297931 248.891312 -58.716396
-144.356354 243.045486 -58.545750
2.908891 244.151871 -60.645779
0.721212 245.227646 -61.209759
-9.135502 246.660843 -62.119762
-0.392496 253.031967 -58.656986
-168.680740 253.189865 -60.102505
62.892097 244.767136 -55.994614
-151.837784 252.525696 -61.513840
52.594818 251.232071 -59.338181
49.013329 253.775528 -59.645100
46.170040 257.284088 -62.437244
-142.104034 259.628479 -65.755371
45.855213 256.773560 -59.670986
46.223007 262.727997 -61.453785
-155.057358 261.621948 -61.206516
48.109062 261.092834 -65.512939
-126.301003 260.122314 -59.357182
43.909821 266.305664 -67.413277
32.065273 266.954651 -58.332008
-137.734344 264.674194 -66.246590
-120.039505 267.569275 -64.682983
46.552837 267.891876 -63.882038
34.219570 267.134125 -58.477551
-5.301307 270.779572 -68.042160
33.498558 268.200623 -65.231575
-114.911591 274.043793 -58.547958
28.773932 269.609802 -62.913960
-114.081940 272.781128 -62.840691
-147.657272 273.315460 -62.130348
27.209005 276.057648 -59.103855
-4.928050 274.223206 -64.442360
-11.552045 283.846466 -62.558834
-144.604233 286.547638 -60.039268
21.221577 285.300537 -60.114265
-131.251740 297.700745 -60.343803
-153.374649 300.690643 -60.243580
-122.557587 293.643738 -61.631184
-111.241241 293.316315 -64.720100
-141.809418 300.697388 -59.218018
-132.131668 299.530701 -61.103577
-133.667145 302.941071 -57.562119
-150.789825 307.479889 -61.591305
-148.099106 318.410736 -59.567921
-143.744934 317.374878 -58.075233
29.145702 25.239351 -61.366669
26.492249 25.145145 -59.158531
41.187881 32.572502 -63.052502
54.333923 36.357456 -55.743279
18.587795 41.271011 -64.368423
-63.024799 51.931488 -62.433037
-57.618248 58.665070 -62.095798
-68.794510 55.312336 -63.460457
-81.032837 53.241520 -61.188786
-19.492996 61.796158 -61.526394
-87.555328 63.589325 -63.889549
-95.171173 69.267799 -54.807171
81.779091 72.179306 -66.378677
-13.481858 74.141060 -60.402802
-95.465675 81.390976 -58.839043
104.173470 89.217484 -66.778809
105.009430 91.376991 -58.844063
-96.337532 92.453041 -65.810204
-46.634628 92.725708 -62.087189
-55.361832 97.409248 -60.875561
-97.507309 97.695564 -59.341831
-96.537941 109.218750 -63.967655
63.366123 102.293358 -62.801945
51.490929 104.651367 -55.220394
-68.251526 111.721672 -58.512306
58.629757 108.475143 -67.422028
53.687859 109.211288 -60.937935
99.629562 108.544746 -61.411602
-67.976379 109.608475 -64.551338
65.251724 113.106850 -60.396851
-78.621628 112.869301 -62.408688
112.123657 115.651978 -57.162636
-73.773453 116.721527 -59.758869
84.761871 116.907814 -59.025112
104.063454 114.622986 -61.226513
-81.006218 118.883827 -62.480091
-88.183731 126.618858 -60.229309
-81.428276 130.824875 -66.473991
-81.468269 126.152588 -62.841766
-74.545746 133.817978 -58.159950
-97.716988 128.340530 -63.333660
-60.128651 130.581680 -56.617432
-82.514503 138.018875 -59.582439
-76.144073 136.435135 -61.556770
-90.880943 140.146133 -60.622601
-52.872536 141.219040 -59.300644
-53.749287 140.859650 -58.437847
-76.689209 143.970566 -63.599487
-59.083038 144.057953 -60.392193
-71.802650 143.553986 -61.065723
-56.722256 149.526749 -63.101551
-43.564365 152.767700 -59.792740
-74.120628 149.898422 -60.692886
26.228296 155.424316 -55.520752
-48.353615 158.612274 -61.101330
-96.131981 160.879242 -61.712646
-96.819427 159.320114 -60.017822
-110.451279 179.267822 -59.180584
-104.497963 183.860947 -56.916298
-144.906036 184.628113 -63.484135
18.744795 189.759262 -58.665249
-111.729721 194.177750 -61.506145
-141.185928 194.890198 -63.713158
15.511058 201.302048 -58.015408
-151.620331 201.743881 -58.942505
16.700369 201.758148 -55.619633
15.032858 194.766190 -58.048912
-151.585297 204.187973 -62.391865
-123.316109 201.845139 -60.420650
-133.646271 207.618179 -60.617725
-156.836166 208.271378 -62.991726
-21.205481 208.005814 -58.718918
-154.800339 208.745850 -60.946854
14.218305 206.512024 -56.700958
13.851675 211.412933 -63.838276
-165.379700 212.886002 -63.169266
-117.543999 214.009857 -62.294422
-134.758759 211.592255 -62.197861
-120.663475 212.175308 -62.974113
-158.826996 217.282532 -57.557888
-12.578101 221.491440 -60.497574
-159.356445 220.213654 -60.350384
-13.308216 216.966202 -64.660034
-6.880803 218.108368 -62.259304
-167.643448 222.111618 -60.793579
-0.737811 233.972565 -54.959328
-107.604156 232.209610 -64.750732
-108.000412 234.800415 -62.992313
-103.589989 233.163727 -61.470936
-124.927002 238.026718 -60.447319
-145.020874 232.091339 -60.689133
2.412971 240.312927 -65.145859
-4.421503 233.476349 -55.613556
9.262295 237.486893 -63.290436
5.379308 240.729630 -56.368546
-5.003550 239.148682 -62.723934
-6.703171 248.094376 -55.832314
-5.747031 242.951340 -65.054794
59.133907 250.242538 -63.391766
-5.664126 252.358704 -61.810768
5.144668 248.477310 -61.700043
13.958033 257.909302 -62.420345
52.615154 251.632797 -56.639641
59.090675 253.915558 -60.510181
40.842598 269.252686 -60.890057
47.034950 266.550415 -61.243359
-9.499339 259.592865 -64.923859
-133.915924 266.389526 -61.238564
32.561691 262.655762 -57.116802
-103.733566 266.766541 -60.258938
-137.254959 271.033569 -53.002354
-112.804688 269.362640 -59.526421
-111.135490 268.842102 -63.301750
-114.115021 269.335815 -63.522274
-118.563187 270.883698 -55.220955
-117.709541 272.593170 -57.506969
-140.005173 273.106018 -65.320038
-118.593323 273.397308 -67.711182
-130.429611 271.743622 -63.361984
27.949644 276.230927 -57.577190
-141.924545 274.053772 -61.059658
-7.025712 276.927551 -62.316097
-152.204300 275.839172 -59.705978
-4.237238 291.756012 -64.184090
24.289034 293.242065 -55.223202
-5.415058 294.613739 -61.196453
-136.048340 295.071655 -60.028282
-146.315445 304.008484 -61.789356
-133.210999 303.925812 -61.088367
-149.825912 302.102112 -56.851891
-145.391998 314.842682 -61.049149
-153.463272 319.634369 -64.934006
33.908234 23.948160 -59.896980
19.159233 26.335264 -53.200768
43.256912 27.792561 -59.464703
44.340561 40.471191 -50.585712
40.325050 43.585442 -63.175331
36.348625 49.085461 -58.789257
32.167252 47.919868 -57.238846
39.170181 54.843342 -54.639648
-46.622929 58.665367 -65.434471
-79.535294 59.906487 -62.116688
81.049011 68.274773 -57.440266
77.916183 75.791908 -63.254551
100.416382 77.888573 -57.017891
-91.526405 72.359459 -59.447449
96.722565 82.126602 -58.759346
-19.581549 79.707993 -55.048115
-96.168381 78.422729 -60.574154
-27.430847 84.203209 -62.015800
-38.301193 90.981857 -59.623199
-39.285572 91.143028 -57.325218
-97.788322 85.207092 -59.090836
-95.780327 94.658989 -63.625633
63.356720 95.031204 -58.358162
51.995090 100.855148 -62.363228
-64.764587 99.887733 -60.270584
50.431664 104.304298 -64.549019
51.112888 104.177109 -63.247990
66.409828 109.334534 -53.130363
49.653236 110.862221 -56.640015
42.386383 110.729607 -55.014915
-79.072227 119.562057 -61.727314
-87.631981 115.646957 -59.827351
-85.469017 120.280037 -55.074188
-61.290760 124.989960 -60.048050
-89.223473 130.799408 -65.100212
-56.237217 134.739090 -64.736908
-78.846687 133.293533 -58.947712
-55.337715 137.295425 -58.446613
-83.178429 137.574753 -61.137005
-78.804993 145.014099 -61.209175
-48.487194 144.063721 -59.587334
-75.838509 141.538956 -64.768883
-73.210175 146.853195 -57.169472
-57.161667 146.357224 -57.175499
22.062094 157.329056 -59.531147
-47.233902 152.342697 -61.375439
-98.298828 157.784698 -53.170883
-88.629372 155.715851 -55.741791
14.844586 162.332123 -58.195072
