# This PCD file was generated using the MATLAB® pcwrite function
# from Computer Vision Toolbox®.
# .PCD v.7 - Point Cloud Data file format
VERSION .7
FIELDS x y z
SIZE 4 4 4
TYPE F F F
COUNT 1 1 1
WIDTH 1417
HEIGHT 1
VIEWPOINT 0 0 0 1 0 0 0
POINTS 1417
DATA ascii
13.211990 -73.187004 -291.185822
-115.193878 -75.067062 -290.519318
-121.493973 -72.629517 -294.527496
9.948267 -73.840141 -290.789948
-139.105942 -75.338783 -293.799377
-148.323395 -74.273827 -300.795624
-145.067184 -74.949348 -303.879517
-154.378540 -74.515938 -313.752655
21.446779 -71.172546 -13.814210
40.836292 -67.245872 -14.896881
37.498055 -69.410202 -17.679640
41.498775 -70.812088 -21.766296
39.535320 -68.650482 -24.965714
42.570545 -70.806999 -20.560215
20.235832 -71.368263 -23.895535
19.397957 -69.460373 -27.331926
41.921764 -73.821678 -28.722555
36.815136 -71.380028 -33.121193
32.446049 -71.033745 -36.309189
33.372387 -68.959213 -39.084034
-64.546791 -69.767471 -50.273209
-54.363735 -71.073891 -49.337307
-83.099380 -70.827026 -50.507782
-77.379356 -70.982414 -51.856949
-78.087349 -71.244041 -57.030384
-28.921516 -71.130119 -57.374222
-26.890280 -73.977760 -60.418797
-20.548149 -69.711716 -63.492218
74.181839 -70.408241 -66.031090
74.480217 -70.697411 -65.980278
70.729851 -69.636772 -69.135811
68.889252 -72.102524 -69.843132
-36.254036 -67.846352 -74.583748
-52.110172 -72.008461 -85.654587
95.020935 -72.371994 -85.713791
47.918682 -67.324745 -86.381386
-69.447693 -67.022774 -90.925011
49.628983 -69.567490 -88.920906
-66.331993 -69.759850 -94.477356
55.633812 -69.672142 -95.856529
101.931458 -70.117966 -95.957512
64.876709 -73.086624 -94.312897
91.651405 -70.732353 -99.133965
102.860367 -71.736008 -103.243713
-97.867706 -71.145493 -100.631859
51.733723 -71.293900 -104.376854
35.962742 -69.486969 -104.204163
41.391476 -73.634659 -103.558182
-98.932281 -69.268692 -107.382790
-87.300980 -73.336563 -113.600082
36.059361 -69.810791 -113.966263
-100.345650 -71.788193 -114.490623
41.203568 -68.424141 -116.418953
105.216354 -71.906258 -114.183479
109.913414 -72.413994 -117.293900
104.436554 -69.033104 -119.624863
109.132896 -71.044708 -122.071602
38.788132 -75.178238 -122.749016
32.142704 -68.283562 -124.446114
39.615025 -72.910187 -128.980179
32.207970 -72.887833 -126.514671
-59.152802 -68.768150 -128.426208
-55.108719 -72.402443 -131.648483
-60.219379 -71.339455 -131.862030
-54.121319 -70.023552 -137.630707
27.921162 -71.066132 -131.461304
-83.422722 -69.022133 -134.338257
114.941956 -71.141670 -144.120789
32.936829 -72.961609 -137.286926
30.982815 -71.951897 -143.036270
-68.398766 -68.136604 -144.262512
-71.366013 -71.345634 -147.255981
-75.937149 -69.663658 -147.318771
105.989159 -69.428352 -146.606857
-69.954712 -73.964783 -151.772644
-73.846298 -71.329391 -146.369675
-41.262806 -72.328423 -153.788910
20.757618 -70.847824 -153.603195
30.170322 -70.274094 -149.810928
4.917905 -72.405914 -153.399948
10.824143 -71.010010 -155.176880
22.233177 -72.998283 -151.528534
-38.291149 -71.852280 -151.701065
-70.380684 -67.805130 -159.515045
-41.565800 -70.175728 -156.350739
26.474400 -69.843422 -161.330475
-68.415092 -73.461914 -164.585236
-68.821655 -72.422112 -164.018875
-48.226185 -72.618492 -159.190247
15.230583 -69.713730 -162.252090
16.941006 -71.885139 -167.503601
109.605965 -70.711601 -166.176910
-30.020727 -70.949081 -170.876755
109.330902 -73.743729 -169.288574
-148.448410 -69.800980 -173.867310
15.162812 -71.303452 -174.904587
109.537140 -70.115257 -171.197037
22.752102 -69.694115 -179.136749
100.059998 -71.442039 -181.337601
-22.807955 -69.167725 -182.342682
-33.431675 -76.038986 -182.804245
9.259095 -72.118073 -189.396866
-30.943375 -75.155785 -189.457947
-151.401154 -72.707062 -188.827118
95.866096 -74.068367 -190.479095
-135.149521 -71.386841 -194.080719
18.126139 -72.273758 -194.828003
101.040848 -72.199196 -193.024689
-124.126724 -71.453415 -199.426575
101.306602 -73.482246 -193.628525
9.900074 -72.411797 -196.188400
-157.466507 -68.168373 -200.554794
15.897528 -72.853836 -198.583923
-160.574371 -70.396538 -201.452042
6.454207 -72.736015 -196.431229
-124.265228 -70.080734 -200.047714
5.486178 -70.218079 -205.893250
-26.541946 -68.998482 -198.262344
-164.136856 -70.837898 -204.445328
-159.492844 -74.216194 -204.212845
-156.444977 -72.492813 -207.367401
-26.464455 -71.549553 -206.493240
-155.757446 -71.363197 -207.509430
-163.240662 -72.555420 -205.263000
-152.861755 -72.821289 -206.050980
2.500283 -73.329178 -208.859909
17.125071 -72.349686 -205.798615
96.572266 -72.316406 -207.662613
-152.850357 -75.785873 -210.735809
-165.669617 -70.210999 -216.066574
81.827805 -73.495667 -213.222702
-148.103500 -73.866508 -217.338348
-7.055668 -69.613617 -216.256531
4.998135 -71.902077 -213.858398
14.810429 -68.125114 -215.632935
13.269382 -69.861717 -220.318466
-146.021301 -73.496292 -221.373154
-18.892979 -72.243980 -222.398315
-24.030489 -71.701065 -220.438080
-100.622711 -72.140327 -220.398438
-2.844739 -69.948906 -224.422684
79.582565 -70.639626 -225.545624
75.436493 -72.008377 -220.161163
-101.207832 -70.326874 -224.066513
9.563964 -70.874115 -228.932663
84.716278 -72.789803 -221.524246
-108.918221 -74.166702 -226.627731
71.411003 -74.507484 -221.204010
-5.476307 -74.468666 -226.649521
-21.555706 -71.294655 -228.841583
-10.758851 -71.389084 -230.993439
69.872856 -72.356216 -231.936356
6.027313 -71.341347 -234.865845
-126.404457 -68.440193 -233.380020
-165.282013 -72.786453 -231.434799
72.953178 -71.913261 -232.404877
-125.768990 -71.384888 -237.980835
-9.176552 -71.062195 -235.590073
72.056313 -70.883080 -235.062439
8.768675 -70.856560 -236.949310
-4.863074 -73.033096 -237.736603
-11.450964 -70.945320 -240.524384
68.581589 -72.407593 -238.606476
12.796831 -71.222275 -236.434540
-147.323975 -73.757339 -246.548615
50.555058 -70.461266 -244.330475
-13.768504 -71.414413 -243.887726
-70.486198 -72.055527 -247.918381
54.897617 -69.754478 -245.874954
-68.825943 -73.988304 -251.108734
48.477272 -72.017014 -249.070221
-92.777672 -71.771179 -253.484894
18.564455 -71.786171 -251.959991
43.790432 -72.766182 -252.609024
-137.956268 -72.374138 -256.108124
-169.559509 -74.543327 -259.948761
-110.627464 -74.958366 -262.820648
-145.990753 -74.076942 -262.699860
-146.204620 -72.911606 -265.009674
-16.389307 -70.568871 -262.410004
20.488255 -70.102745 -270.862030
-11.159879 -72.368629 -278.269348
-158.729996 -73.178772 -280.489166
-131.372513 -73.928658 -282.702393
-157.113968 -72.095482 -288.152435
-91.916145 -74.196899 -286.347656
-86.624626 -72.011765 -285.225372
-48.388664 -73.153984 -285.910553
-15.547356 -71.583977 -284.203918
-38.733356 -72.774391 -288.497467
-14.714705 -72.573074 -287.629639
-33.834061 -72.987625 -285.551483
-14.892718 -70.091194 -289.556702
-49.178638 -71.361084 -292.271912
-7.700358 -70.271904 -287.778076
-74.332336 -72.853256 -291.842010
-88.643486 -73.168480 -292.368958
-103.627121 -74.220184 -292.990814
-119.285683 -74.036507 -292.534576
-135.004288 -70.851997 -296.365326
-151.705521 -72.786667 -297.710693
-157.587097 -72.482292 -307.421051
-149.509552 -72.231491 -312.556946
39.016998 -69.139099 -12.351946
18.411100 -65.769295 -17.368313
39.454826 -70.562683 -18.582659
19.403599 -66.935783 -20.825605
36.720791 -71.346825 -32.184071
20.517662 -68.388458 -35.174793
30.789995 -70.481247 -37.894615
-65.489502 -68.692719 -49.551193
-49.026207 -68.071121 -48.128914
-48.114502 -66.636581 -52.772057
-46.628792 -67.664154 -45.611557
-38.655430 -70.203133 -51.847050
-31.656420 -68.491844 -53.884956
-22.052094 -68.726387 -65.949005
73.355927 -71.060135 -68.410019
93.556374 -70.287262 -70.363098
-22.345387 -68.806511 -74.242020
69.223068 -69.021095 -71.726784
-48.414768 -69.573433 -80.677094
62.173016 -66.763878 -80.212105
55.177742 -71.908516 -85.151733
57.127422 -68.485863 -87.104210
50.184727 -73.377083 -90.258118
-65.515923 -69.243034 -90.059074
-102.432846 -70.213470 -94.163849
45.511200 -70.556755 -92.943260
100.274872 -71.640862 -94.161964
58.913158 -69.010681 -94.708702
70.104843 -69.468178 -97.974258
-76.992317 -66.408920 -99.904419
51.072235 -68.383011 -104.033524
103.722893 -70.102371 -102.859825
72.404198 -68.209198 -101.507713
99.222397 -72.130127 -99.807594
86.968422 -67.660988 -101.485519
102.436325 -68.880760 -104.290199
46.798885 -72.014191 -101.831230
-91.844040 -70.418678 -112.503120
38.958141 -68.822960 -113.743088
-97.997124 -69.857437 -114.835159
40.405621 -68.584282 -115.453529
-81.708984 -70.497078 -118.749939
42.008732 -67.627365 -112.645042
109.507095 -69.640289 -112.679939
33.936947 -70.602478 -121.847557
-85.009827 -69.239021 -118.379295
-88.282326 -71.401566 -121.655594
32.916245 -70.851517 -124.767288
-88.919838 -70.771805 -128.217789
34.563297 -71.362381 -121.439629
-81.595070 -69.734489 -125.929604
-52.257622 -68.566017 -130.646393
-58.810062 -71.619011 -128.873962
-51.635307 -70.752281 -131.936356
28.394876 -68.574715 -132.538864
-62.497978 -70.157974 -136.112228
30.718376 -70.660271 -136.876495
-72.858482 -69.131050 -136.977615
112.903450 -71.725990 -142.176453
24.145144 -69.090172 -139.517944
23.326199 -71.466377 -140.048233
-73.064308 -67.945572 -143.231293
-57.623154 -70.510635 -148.576904
26.961800 -71.391960 -141.143860
-54.981606 -69.292244 -147.606323
23.017223 -69.899017 -151.807129
-75.893539 -70.386345 -151.908783
-58.538136 -69.679207 -151.971878
-49.134781 -68.024162 -151.025299
5.777590 -70.201294 -148.263519
112.482407 -69.954170 -150.409958
-53.974251 -69.680847 -154.110199
27.194624 -68.712883 -158.205017
-38.973030 -71.440460 -154.633667
27.517454 -71.835861 -157.060089
-41.908733 -71.836014 -157.634445
-38.176769 -66.416428 -159.409195
-47.644768 -70.333725 -160.509674
-46.980968 -71.508614 -157.385971
3.711575 -70.170570 -159.445953
-48.170433 -69.235855 -163.096512
21.461449 -68.290657 -158.132645
-39.631554 -72.123444 -162.093491
-35.542603 -68.573624 -165.126984
24.324352 -71.568848 -166.570709
-35.261734 -67.750496 -169.095276
-34.496109 -70.262115 -176.142212
112.025940 -69.661484 -167.210358
14.312150 -72.328316 -174.286423
-37.453236 -69.565376 -171.173065
-31.243847 -69.944878 -169.438950
-41.031334 -68.316963 -173.235245
-142.727112 -71.449669 -177.828079
-26.179520 -69.053856 -181.649399
14.213001 -67.760460 -173.710388
105.948853 -69.568413 -179.009384
106.549461 -70.427116 -178.722870
-24.810333 -71.929001 -178.075668
11.806827 -71.481262 -182.416168
-144.923676 -68.832268 -183.968765
-29.634212 -70.165436 -184.419479
-29.696623 -68.657898 -185.590790
21.553608 -72.388519 -184.379120
19.870422 -75.239662 -190.225128
-115.159309 -67.585045 -188.367249
11.650891 -69.343384 -189.808319
20.071526 -71.306953 -189.533005
-23.164627 -69.698990 -189.337769
-116.079155 -68.637459 -197.683884
100.153961 -66.478958 -190.567963
-122.943878 -67.751747 -194.976456
-140.053970 -70.374977 -196.884445
-117.486359 -70.831123 -200.579849
-115.160507 -70.929298 -202.391098
97.996124 -73.076988 -200.106293
-13.788703 -68.042465 -203.138535
-20.666691 -70.748512 -205.391556
96.837639 -68.918655 -201.738525
-131.241043 -68.905510 -205.784576
-22.554510 -69.804398 -203.631958
6.268562 -72.887085 -208.496902
-146.982086 -70.817101 -206.636932
-10.603948 -72.933426 -210.367905
12.379967 -69.282310 -207.782150
91.946068 -71.627312 -209.951004
96.024078 -70.751488 -209.291061
17.562241 -69.727303 -208.250259
11.545197 -71.474243 -211.517426
-95.238640 -72.198746 -213.232422
-92.604454 -69.945091 -216.828598
83.294296 -70.866890 -218.705109
8.335710 -74.207466 -222.476837
-104.067024 -72.837158 -218.957764
-15.915953 -70.132454 -217.648697
-20.358273 -70.935204 -222.632858
7.298234 -69.767357 -223.120377
-9.119226 -70.536209 -224.097946
-126.370712 -66.531441 -224.548294
-10.089439 -69.813446 -225.706589
-106.425072 -70.058762 -226.587891
-141.749863 -72.721764 -223.905197
-117.066513 -70.490265 -226.975922
78.073357 -67.882225 -225.766281
14.171932 -70.342369 -228.499893
-169.636322 -72.905388 -226.757278
-110.599426 -69.777153 -233.150604
-118.547775 -71.570084 -233.684738
74.276833 -70.882263 -231.614822
10.268627 -71.602684 -235.183121
-3.757209 -73.582787 -231.918518
13.824346 -71.724640 -236.569748
-2.737185 -70.230766 -237.922592
70.213020 -69.983253 -234.086533
-6.127369 -71.117859 -237.822006
7.590748 -70.723557 -235.094864
-4.908139 -73.961609 -234.805115
-0.737405 -73.104370 -238.580032
2.113181 -73.060333 -241.683197
62.118382 -70.334717 -241.117081
7.033628 -68.236481 -243.298355
51.350861 -70.923264 -246.654846
-15.218488 -72.254425 -246.226913
-15.568735 -72.246849 -247.080215
-75.511391 -68.823929 -254.030014
33.709305 -71.242569 -252.843857
-80.947144 -70.997757 -253.950104
-156.838837 -70.484032 -255.757492
-84.971817 -70.314728 -256.757141
-138.615585 -70.200584 -254.773346
36.871510 -73.060242 -252.725525
-112.445824 -72.062492 -257.794647
-93.482002 -69.346710 -256.356140
-155.314438 -68.810570 -259.294281
-111.951820 -70.242538 -262.047638
-167.558197 -73.063980 -262.517029
-155.473206 -72.114586 -264.812469
-151.846939 -68.819618 -267.543091
-17.621502 -70.503769 -263.127197
23.070864 -70.507622 -265.344513
-156.987610 -72.562866 -268.881195
-14.970632 -69.536049 -265.679138
-162.477722 -72.870338 -270.228790
-17.316605 -67.823318 -272.319519
19.190725 -72.908836 -274.587250
-162.341522 -69.718742 -282.841919
-164.093613 -71.006035 -279.418060
-158.635254 -68.958977 -282.320862
-126.235710 -69.015350 -283.349701
13.098765 -69.877960 -283.092255
-138.296112 -67.202217 -286.689575
-92.419998 -69.836975 -285.950348
-79.712425 -71.719307 -283.869720
-75.090141 -69.334259 -286.709564
-71.405090 -72.031342 -286.050049
-56.162991 -72.200500 -287.509430
-160.043106 -70.111282 -285.590118
-70.599777 -69.241211 -286.372803
-62.115635 -73.208412 -288.941742
3.206950 -71.013214 -290.154388
-80.392097 -74.825134 -292.585480
-105.266731 -70.467934 -291.100464
-123.736710 -74.103203 -290.014862
-155.627914 -71.265152 -294.550934
-129.500458 -68.675087 -295.694458
-146.871033 -71.938545 -308.851776
-153.522400 -70.032532 -312.903229
36.969494 -64.140198 -21.525776
46.612461 -66.355667 -23.617111
42.774185 -66.373871 -31.799110
-54.463039 -65.951797 -49.641651
-76.533272 -67.730652 -46.347076
-36.795532 -70.141312 -49.119274
-91.668434 -69.837662 -63.837074
78.178650 -65.967262 -60.920280
83.148071 -70.596069 -64.656960
-17.540205 -67.006020 -68.551987
91.581985 -66.189461 -71.179047
63.854095 -70.775909 -69.010269
-43.080837 -64.508621 -78.001213
-47.576988 -69.363266 -78.953751
57.984119 -68.007851 -83.162331
59.955849 -69.583633 -88.557907
98.803879 -70.330963 -87.633621
-62.958241 -68.522812 -87.162987
-99.804962 -68.199562 -91.982285
43.752075 -71.987839 -95.945862
99.291962 -69.411774 -91.751587
103.467804 -69.322563 -97.729881
69.912170 -67.440643 -98.385933
47.902882 -64.252197 -101.272903
-99.901047 -68.116348 -103.835960
44.955006 -66.091545 -100.771240
49.918808 -66.965805 -101.790886
77.866890 -66.705658 -101.112823
81.790459 -67.896378 -104.361420
-100.241104 -69.499916 -104.269333
35.358521 -72.779663 -105.574066
44.585667 -67.955841 -108.427505
100.504715 -68.690483 -103.654190
36.302773 -71.157722 -110.593826
34.495110 -70.476776 -107.299339
109.594833 -69.833649 -108.232513
31.726530 -72.977821 -112.440353
104.939445 -71.466629 -114.349121
-80.254105 -66.924179 -113.220078
-88.353500 -69.737213 -121.159813
105.681000 -70.020332 -122.184326
33.348919 -71.638771 -127.822166
-64.723427 -68.508003 -127.151588
-90.935844 -65.463005 -125.375282
-61.724678 -72.796776 -131.614319
-89.843323 -67.539818 -128.025101
-75.354897 -68.305305 -130.985413
-52.026958 -71.514114 -137.636200
-91.402985 -68.743881 -134.791473
-78.822342 -68.285583 -135.394592
-80.015587 -65.103699 -134.469177
-48.538967 -71.695663 -133.503311
-80.051941 -69.595016 -138.970551
-80.538338 -66.936012 -136.853500
106.964798 -70.905670 -141.000732
24.440596 -71.123131 -142.431076
-45.993931 -68.045471 -146.926514
111.436691 -68.441406 -141.329742
-58.469051 -69.425415 -145.898819
-56.023659 -64.859818 -143.747849
28.961945 -70.148163 -149.075378
23.975481 -69.015427 -148.961990
113.987434 -73.332596 -148.310669
-49.385086 -67.716476 -149.807571
7.078640 -65.330910 -153.144531
-51.200684 -68.641335 -157.209366
27.057533 -69.816330 -151.971680
107.238754 -67.509789 -150.463608
111.760445 -69.307426 -155.711746
29.134295 -66.953972 -155.464554
109.157616 -70.713776 -154.841431
21.676617 -71.354431 -162.456619
108.738571 -72.069489 -156.800262
23.268244 -69.338684 -160.749695
22.784380 -69.114861 -163.668839
108.328140 -68.793900 -163.959305
-32.021465 -69.034180 -167.462326
-43.009769 -67.735718 -169.530884
24.273802 -70.662521 -172.950928
-143.562714 -68.131088 -176.023865
-38.490116 -68.784584 -176.923843
-111.304329 -69.783417 -182.106857
23.871363 -67.830833 -177.906570
-154.859528 -69.541351 -181.380829
-27.042248 -69.083054 -177.416641
-36.226864 -75.825264 -183.008438
-147.895096 -71.668648 -184.402802
-114.498924 -69.141861 -185.160233
-35.533337 -68.902534 -186.012680
-111.152573 -68.523041 -187.852798
104.427048 -68.708214 -187.017197
16.679523 -69.372948 -184.891510
-29.301838 -67.504829 -189.622131
12.681712 -67.513596 -184.534500
-23.059158 -69.681557 -194.158447
-28.314373 -68.240387 -191.379211
12.557551 -69.317322 -192.676132
18.572075 -71.807587 -191.372131
-24.043600 -70.720306 -195.612640
-111.187378 -71.148323 -196.867035
-163.739883 -68.896523 -200.529480
-15.591959 -70.690277 -195.723236
-16.272339 -73.897087 -197.724121
17.646910 -68.998306 -198.506897
-17.058830 -68.763618 -200.544189
12.168773 -69.344292 -199.835892
-116.414566 -70.995224 -200.763077
-122.260956 -67.005821 -203.498627
-25.686253 -70.627625 -205.437332
15.889969 -71.056145 -203.635849
-131.009659 -70.160851 -204.784073
-146.147949 -69.291809 -205.192169
11.221326 -70.351311 -207.292023
14.382549 -66.920151 -208.575836
-18.709654 -67.658157 -206.177231
-10.971520 -71.222755 -211.687210
5.316042 -66.748505 -210.653030
91.268913 -68.069542 -206.822067
-15.855732 -69.382126 -213.017227
11.550275 -68.237823 -210.246994
13.703458 -66.527557 -211.221329
-15.041934 -65.175201 -215.937759
-103.631332 -68.667274 -219.478104
-5.683436 -71.427544 -219.637009
-106.099968 -72.192009 -223.153992
12.111857 -70.048637 -222.460175
-3.245821 -70.224998 -223.133987
80.526222 -68.448654 -223.376846
-111.408340 -70.801704 -224.809326
-135.366394 -71.590424 -225.106598
-17.592827 -69.716904 -225.155487
3.385307 -72.138527 -228.145187
5.270172 -72.962532 -230.931885
7.881892 -68.236031 -230.197708
-4.709795 -69.511322 -232.405670
-127.218666 -68.842041 -233.860291
-141.778107 -69.934059 -229.829285
15.124752 -70.852051 -235.843033
-14.867148 -69.699333 -229.997360
-158.292419 -69.763229 -235.249207
-153.049271 -70.945892 -246.699417
-151.813446 -68.592255 -246.961044
-0.559333 -71.163925 -233.356445
-155.189362 -70.658234 -242.169693
55.050091 -68.907516 -237.515732
3.069193 -71.305130 -240.455597
61.274422 -66.831390 -241.321335
51.137451 -70.481049 -242.355103
55.085461 -69.428459 -243.064301
54.352932 -70.207603 -245.208786
-14.021824 -67.833679 -244.340347
-154.770874 -69.807495 -249.170349
-157.340546 -68.375610 -249.573196
-78.810455 -68.583900 -250.303833
-90.726219 -74.442528 -253.029617
-89.656822 -70.833733 -252.091354
-89.627602 -67.974106 -253.680161
-163.309769 -65.711433 -256.829773
-127.482544 -71.256996 -256.059113
44.054649 -69.063446 -253.370880
-107.128296 -67.367233 -255.949097
-126.286354 -68.903664 -255.441559
-156.419098 -70.258713 -258.181793
-171.131363 -69.376503 -261.745239
34.871326 -69.904808 -257.600464
31.498787 -72.286575 -258.634155
-162.289581 -71.925758 -263.721313
-137.822769 -69.885834 -261.348206
-159.842712 -66.456276 -267.179443
-168.606094 -70.445755 -276.743378
21.058790 -67.618279 -267.677917
-165.021484 -68.761566 -273.110718
-162.667236 -69.882980 -270.934357
-165.424606 -70.113670 -277.772675
-10.591720 -69.074753 -276.476868
-147.056091 -69.482849 -280.738281
-163.698456 -70.737778 -285.689392
-134.545868 -71.867310 -283.980896
-136.164154 -69.009491 -284.963470
-164.385315 -68.204857 -285.060913
-96.060295 -69.372223 -283.531891
-74.763527 -70.036942 -289.326660
-85.257530 -67.014084 -289.891937
-72.870949 -71.919312 -290.305786
-150.894760 -68.968475 -292.314423
-77.618118 -69.583519 -288.884705
-127.535385 -71.427460 -294.278809
-139.493637 -69.228989 -291.334473
-146.504776 -68.268326 -296.442291
-145.720932 -71.990608 -306.533386
30.032850 -66.604156 -11.487279
20.718836 -69.745369 -14.267454
43.426483 -67.642334 -26.957108
42.071419 -66.528473 -31.241735
30.215298 -64.412140 -34.502132
27.641304 -67.329430 -40.678360
-63.287933 -63.530479 -47.477924
-39.970417 -67.016441 -48.923717
-86.230949 -65.975014 -56.183418
-93.838905 -72.722511 -65.247314
78.887680 -65.155426 -61.929657
-17.683489 -66.164986 -67.144081
-27.498749 -67.008156 -71.693283
-28.853809 -65.952202 -73.442398
-39.218014 -67.571152 -74.009857
66.435081 -68.543854 -76.614265
97.872040 -67.291916 -82.297966
62.438087 -67.857773 -82.575775
57.113548 -68.326508 -86.614799
59.534187 -68.293892 -86.638786
51.895279 -67.445648 -85.737595
97.732124 -65.481560 -93.806320
46.886356 -67.946747 -92.833618
59.342709 -70.668129 -89.420174
-100.847984 -67.155716 -95.117661
40.917870 -68.505669 -97.031540
97.088326 -63.725410 -96.864006
-78.282196 -67.213318 -98.065582
40.625721 -65.307854 -97.866829
72.155128 -65.237450 -103.343544
-82.734673 -71.911736 -103.102493
39.240345 -69.646362 -104.557198
48.378479 -66.860489 -105.385323
-87.042717 -66.616913 -110.518143
104.409767 -67.281464 -115.240303
32.287346 -70.250397 -115.589622
36.184566 -66.779518 -114.539001
-95.089653 -68.007080 -121.368172
33.837704 -70.474579 -118.682686
34.032852 -70.903267 -117.437149
107.710899 -68.204002 -118.438126
-80.974655 -65.940857 -128.748779
-59.768131 -67.403778 -127.001305
-60.912392 -65.136597 -125.829697
107.560959 -67.305954 -123.646889
-81.388390 -67.097458 -128.015976
106.461800 -68.473297 -133.916138
-76.753296 -69.265785 -132.769562
112.016899 -68.432274 -128.810333
26.308378 -72.223541 -124.504646
109.506577 -70.557404 -132.879822
-81.091675 -65.986610 -132.762466
-54.700699 -66.249702 -134.181763
30.258907 -69.014404 -132.906509
-63.294849 -69.113602 -135.680023
-60.567970 -69.976440 -140.443695
24.262897 -67.294701 -142.589981
25.797499 -69.299232 -138.909393
109.564049 -70.717957 -138.848984
28.030884 -68.250900 -141.334122
-82.172836 -68.973320 -137.514435
-94.252922 -67.562340 -139.743332
-60.577274 -67.698051 -141.683899
-62.246395 -65.104416 -144.166458
16.823915 -68.329170 -143.873474
28.275425 -65.843468 -146.582016
-45.774784 -68.671432 -146.776260
-75.499527 -69.276299 -146.935959
16.602640 -70.401695 -147.717255
24.804214 -66.753906 -153.928879
-47.571083 -68.213898 -153.733627
26.026892 -67.665085 -150.335907
-43.875450 -67.071785 -153.049149
-100.161285 -65.921951 -155.168289
-104.115540 -68.349289 -160.683960
16.761547 -71.823753 -160.619522
-48.094048 -70.211411 -160.583435
-105.397575 -68.877754 -162.617950
-102.977066 -68.274025 -166.031677
-102.132195 -68.079185 -166.605927
-36.600376 -67.200752 -162.524017
-106.616592 -66.524475 -164.180450
-36.077568 -67.563454 -169.529572
-107.834839 -68.926003 -173.234512
-34.986423 -69.909706 -172.446808
-33.089996 -67.911926 -169.387512
-110.250031 -70.319839 -177.137802
16.127312 -67.513512 -171.456024
-38.949062 -67.498589 -175.310303
20.403263 -68.185684 -176.420319
-36.921459 -67.828590 -173.143356
-31.691820 -68.699951 -174.066299
-34.745987 -68.692101 -175.770264
-108.789543 -68.113480 -179.278305
-29.504375 -66.779182 -180.528519
-32.595558 -68.261353 -180.110214
-142.811066 -67.423569 -178.774506
-115.153427 -68.366737 -188.879593
-108.547218 -68.611023 -186.201797
-112.863991 -67.919327 -189.650558
12.179541 -67.186150 -187.431503
-26.740761 -66.475250 -187.740112
13.269143 -69.889870 -190.550385
-155.523560 -66.238571 -193.994614
19.308977 -69.336357 -192.274612
13.251909 -66.477898 -194.127182
-122.160416 -66.822174 -193.580551
-112.379036 -71.795654 -197.179108
-22.017605 -69.449455 -196.036774
-171.670929 -67.568115 -199.867874
-167.517044 -68.937637 -206.902023
-113.947426 -67.635094 -203.991943
-14.653283 -71.284729 -205.926132
-139.134766 -68.831696 -203.622314
-10.613673 -67.163330 -209.733490
14.523283 -66.733185 -207.006973
-160.243805 -67.192780 -211.215683
9.615687 -70.917442 -213.677261
-161.476547 -67.831146 -216.159836
-7.811297 -69.195274 -209.948380
10.769713 -67.516090 -219.127457
9.005078 -70.430588 -218.773682
-4.011215 -69.036438 -216.936981
-145.587921 -70.954781 -221.175964
-159.000031 -69.188293 -219.961899
-161.543701 -65.387794 -222.149384
84.392639 -71.487724 -215.739471
-5.961080 -69.101990 -223.146576
-152.950684 -70.082146 -225.969330
-135.258301 -65.155304 -223.187378
78.777679 -67.809921 -225.307526
71.899178 -71.828209 -226.958710
74.873283 -65.786964 -224.384354
-15.818052 -70.852829 -226.304703
-156.218002 -70.831734 -230.295166
-15.537111 -67.970459 -225.939301
80.220146 -67.100220 -225.307861
-110.494041 -68.201492 -230.322876
-1.683594 -72.469635 -231.623383
-168.453522 -70.000603 -227.467316
-12.771862 -69.523155 -236.119827
-2.177648 -70.732384 -234.147888
-161.176971 -65.696678 -238.036697
62.817226 -67.179070 -237.174759
8.158554 -70.669685 -239.029953
4.151081 -70.554787 -240.621201
-159.616989 -73.403770 -237.582977
-12.613321 -70.148308 -240.744461
-162.404556 -67.679649 -245.042847
-162.675797 -67.045052 -242.976425
-163.883865 -72.701485 -244.785309
48.324741 -68.820663 -244.883942
51.904186 -71.266151 -245.441681
-160.494705 -70.747658 -247.096985
-164.484512 -66.886536 -250.262238
-166.270126 -67.164078 -248.712280
44.240601 -70.341225 -247.121445
41.605919 -67.349365 -250.461670
-161.601730 -68.406807 -252.999390
34.909615 -70.023521 -252.899719
-99.216751 -66.637192 -253.790894
-83.124214 -70.630699 -254.361847
-162.696274 -68.889938 -255.399139
-138.593887 -66.913307 -257.313263
-108.150856 -67.460281 -255.788269
35.570438 -68.473602 -253.421799
-140.850281 -67.976990 -254.425873
24.994114 -70.808968 -256.880066
44.857574 -71.236542 -254.605042
-98.931282 -67.449547 -257.441620
-101.309586 -68.925964 -258.992889
-162.770218 -71.158180 -263.649048
-113.382790 -67.718224 -262.638550
-142.080795 -70.177711 -261.886505
-166.146454 -66.759346 -262.581451
28.614780 -68.656357 -261.651459
-128.384460 -71.109810 -262.534546
-11.661483 -67.677483 -263.232178
-151.435242 -70.402016 -276.409363
-13.070544 -71.184097 -265.851654
-9.324691 -72.347382 -271.572906
-16.175274 -67.136414 -273.118225
-11.377020 -68.614929 -275.623779
-154.745743 -71.669083 -282.725616
-128.095154 -70.334412 -285.339264
-8.878606 -68.454338 -286.334900
-8.886248 -72.720360 -286.605835
-114.695908 -67.101372 -288.736877
-99.905464 -64.043877 -288.943268
-110.416489 -67.889313 -287.765076
-158.011124 -66.930542 -290.664154
-99.751953 -70.953758 -291.052490
-139.845200 -67.375885 -292.633789
-119.854050 -66.334068 -292.705048
2.366390 -69.295387 -289.722015
-154.275650 -68.606171 -297.416809
-155.400970 -66.488838 -308.972809
-150.259491 -71.397102 -312.321472
30.419149 -62.590050 -9.790051
28.562269 -65.444992 -15.670114
38.217957 -63.154976 -22.009808
19.263636 -66.427040 -28.085545
17.451977 -65.397896 -30.945656
37.540260 -69.415894 -33.219608
-57.124138 -68.068970 -43.501160
-44.428448 -68.364128 -47.929718
-38.600750 -68.933838 -51.295460
-85.474968 -67.242317 -53.492348
-20.928408 -68.121231 -56.475899
-22.575626 -64.205086 -59.849083
83.742783 -64.643013 -59.726280
-17.713942 -71.749535 -69.081955
-99.457558 -67.729271 -73.557762
96.510681 -68.718727 -70.798737
-29.897684 -69.173012 -75.786636
-49.172306 -66.959030 -82.331352
102.534851 -65.314987 -79.918518
99.726639 -67.565674 -84.841873
62.351913 -68.452095 -86.055191
100.076775 -65.168610 -92.000221
61.122608 -63.728428 -95.998207
-69.797134 -71.591171 -96.016426
104.702316 -66.606010 -96.911415
44.263428 -66.307663 -100.778725
67.985222 -64.424965 -99.035828
-78.402878 -65.737473 -104.503143
71.789932 -67.429054 -104.552483
81.020767 -63.242744 -104.129868
37.607166 -65.957047 -103.713249
-76.777824 -66.829681 -107.608383
102.644470 -64.293556 -106.859596
109.579742 -65.896652 -112.100922
41.906353 -67.790771 -109.543457
-93.786942 -69.793411 -113.696350
105.982887 -66.236259 -120.813545
-82.293541 -67.184929 -114.410301
-94.234596 -69.608078 -118.174431
-81.676201 -70.838608 -123.329453
-67.136375 -65.322876 -120.774872
-56.683044 -66.681137 -127.544846
-77.059814 -69.053596 -131.562775
-82.643562 -69.988480 -131.801163
-64.258568 -67.069817 -129.462418
-80.554184 -66.384216 -131.655716
-79.262756 -63.702045 -135.636734
-50.409069 -69.389053 -135.705338
-53.728153 -65.509521 -138.071487
20.521357 -66.128128 -140.742661
-96.627991 -65.694687 -142.179581
16.738350 -67.465096 -141.793716
-71.294342 -70.596283 -145.593323
25.136492 -68.295998 -144.886810
-102.614235 -65.429085 -148.737152
13.805389 -63.980450 -144.524460
-97.410995 -69.905815 -150.373016
-46.067123 -67.673653 -148.925323
7.825809 -68.003906 -152.697586
5.795697 -63.681820 -149.426712
7.459446 -66.866898 -155.292053
27.765314 -69.349602 -152.766586
25.065443 -66.659981 -160.232040
21.026392 -66.540916 -158.552414
18.289616 -67.382957 -161.412140
19.510344 -64.673088 -165.829025
-107.112617 -70.291161 -166.225388
28.479956 -68.189560 -170.553497
-107.061676 -70.624893 -174.829269
-111.737198 -68.279236 -178.206741
-109.887604 -68.053749 -180.087219
15.793804 -66.441132 -181.304977
18.892138 -67.272072 -184.303696
-29.255928 -67.608238 -186.978668
17.385496 -66.322731 -187.542206
-26.471766 -70.520470 -191.552795
-115.260490 -65.739922 -193.049728
-26.497820 -70.133812 -198.135727
-165.036484 -65.892937 -197.011490
-117.972633 -66.006088 -197.337311
-22.297312 -67.784126 -197.083344
8.839058 -66.424576 -199.265015
17.536322 -69.644379 -200.361008
-159.621933 -69.005722 -203.167221
-12.694349 -66.040138 -202.754028
-157.431259 -68.728218 -203.697372
-160.951431 -67.209312 -205.352570
7.475677 -65.286812 -205.005798
16.532452 -65.470673 -209.175858
-156.435532 -68.047684 -207.197739
-147.745239 -65.585960 -207.383682
11.302849 -67.510765 -207.766846
-15.574317 -66.503395 -212.512497
-10.676658 -67.598740 -217.667786
-166.409149 -67.095551 -214.066574
-11.180462 -65.751465 -215.208908
-159.082611 -67.769485 -214.618103
-153.190674 -66.878044 -211.188385
-6.708159 -70.539101 -213.151138
-147.342331 -70.337814 -223.234283
-16.625731 -70.115082 -219.818237
-162.110733 -67.120689 -221.768723
-168.021423 -68.710876 -225.994507
-1.627145 -68.712234 -226.645126
-161.306183 -68.846817 -224.831238
-113.921722 -69.563629 -223.638306
-136.083511 -68.637764 -225.373062
-144.181213 -66.937180 -227.123810
-120.885735 -65.882919 -228.710236
-155.670395 -69.830254 -230.800720
-149.983139 -60.969608 -231.275772
-162.551819 -69.277756 -230.112869
-115.953316 -65.236847 -233.581253
-159.170746 -71.842964 -233.479645
-145.429321 -66.271950 -235.875336
-165.123856 -70.658928 -235.369614
-119.202431 -67.452179 -233.367203
-166.069107 -66.264084 -235.323807
74.840538 -69.054413 -231.299057
-2.844530 -65.818497 -236.306229
-146.065765 -65.922272 -234.372375
0.935611 -67.191933 -232.959625
-1.492921 -67.783508 -234.911499
-12.522837 -68.441292 -236.182434
-2.311072 -65.362877 -240.679337
-168.770798 -67.032860 -243.923141
60.077450 -64.426964 -234.411560
-153.345108 -67.370972 -242.404434
49.854103 -66.139198 -240.946350
46.986046 -66.345413 -242.904175
44.810806 -68.157417 -246.478577
-145.357788 -70.396286 -250.768814
45.216778 -66.470406 -246.339478
44.990906 -67.656471 -250.541855
-156.143951 -66.683640 -253.292389
45.375172 -70.014687 -250.997772
-128.882736 -66.035194 -252.509460
41.448517 -71.474648 -254.096664
31.078312 -65.645325 -255.245300
-138.868057 -70.477669 -256.111511
-121.738380 -70.037758 -257.595276
44.758121 -69.380722 -255.166107
32.581871 -66.053802 -256.070038
-7.964778 -71.864998 -260.202393
32.278175 -69.706360 -257.776093
-114.700722 -66.179253 -263.275574
28.128260 -67.897263 -259.309204
-116.764816 -68.357422 -263.263214
-150.680695 -67.392555 -264.862183
24.869740 -66.181206 -265.072174
-7.332177 -69.648201 -264.692230
-11.851510 -68.669449 -272.723267
-147.016098 -66.701439 -277.107086
19.472948 -66.321884 -275.771118
-131.739563 -67.369949 -287.135620
-155.750809 -67.173187 -290.352234
-124.405220 -68.081123 -285.483429
-112.825058 -70.094452 -285.557587
-143.131500 -66.715317 -291.223969
-134.629807 -67.685654 -290.736237
-134.180084 -65.798256 -293.571503
-152.863022 -68.287643 -299.343018
-148.881805 -66.822479 -307.835083
-146.163559 -65.919632 -307.503235
27.717834 -64.355545 -12.763346
22.113241 -64.594482 -13.535405
37.278343 -66.292351 -20.619677
48.371323 -62.241718 -25.331171
14.906621 -67.736458 -29.610090
-68.206413 -66.025482 -42.858437
-62.520771 -66.066231 -47.000282
-73.625763 -66.997162 -45.473042
-84.772903 -65.219261 -45.304096
-24.279346 -66.028252 -51.981106
-91.302963 -67.545082 -54.544239
-98.005096 -60.889397 -59.471172
75.944664 -69.106056 -60.834621
-17.240900 -65.275818 -64.365921
-99.671570 -64.321823 -72.444969
99.576889 -69.396149 -76.111649
100.667160 -63.841064 -78.230293
-99.886757 -69.701660 -82.912796
-50.494770 -67.356018 -82.797318
-57.820087 -65.596275 -86.494171
-101.234138 -64.583687 -88.937141
-100.100105 -68.573303 -98.470306
59.480858 -66.956238 -90.994354
47.316406 -62.179737 -93.631836
-71.411873 -63.941204 -99.953453
53.107536 -69.594177 -96.580269
50.564751 -65.538246 -98.046944
96.917175 -66.199326 -96.336578
-72.770752 -68.097511 -99.913849
63.974403 -65.299057 -101.344742
-83.116646 -66.699036 -102.908417
106.832741 -63.374695 -102.633461
-76.350426 -64.964813 -106.367599
82.308258 -64.161682 -105.201370
101.685310 -65.978271 -103.596695
-84.270004 -67.058472 -109.630280
-89.026825 -65.136902 -115.327492
-85.630409 -69.650055 -119.206863
-86.131111 -67.575081 -117.109230
-78.570541 -64.053818 -122.514084
-100.076454 -67.181870 -119.719185
-64.066406 -62.941895 -121.717888
-83.845726 -65.213501 -127.322456
-80.278824 -66.433289 -127.013466
-93.628372 -66.000710 -130.029633
-56.319935 -64.756836 -130.360870
-56.039715 -64.930504 -131.532852
-78.358711 -67.715065 -134.546249
-62.451855 -65.059151 -134.049545
-75.251633 -66.200058 -134.456970
-59.899544 -67.659859 -139.252563
-48.288933 -65.370842 -142.091476
-76.768730 -66.055916 -140.646439
21.590799 -63.058842 -144.034317
-51.992996 -66.366493 -147.898224
-98.290009 -66.952293 -151.311584
-99.081718 -65.629730 -151.437012
-111.644035 -65.377625 -168.716751
-108.819557 -63.590202 -173.786423
-148.371780 -68.215164 -175.812912
16.772066 -64.988678 -177.873886
-114.224937 -67.381310 -183.945663
-143.703339 -68.495132 -185.286392
13.791569 -64.661011 -190.604080
-153.780212 -65.081917 -192.421295
13.772016 -63.230553 -191.264267
13.282641 -64.665077 -184.946106
-154.771606 -67.394691 -194.866257
-126.871605 -66.671463 -193.260910
-138.438446 -66.214005 -197.780289
-159.388031 -67.819023 -199.155884
-23.372282 -65.240540 -197.095688
-158.637634 -66.805862 -200.390335
12.670933 -63.922020 -195.447556
11.573863 -68.541748 -200.429932
-166.213364 -68.008026 -204.008438
-117.937233 -68.410759 -203.812408
-136.843796 -67.819519 -202.874313
-122.961113 -67.749138 -203.382996
-162.023712 -64.679298 -209.892410
-14.898560 -66.448669 -210.441544
-163.163971 -66.370941 -210.891968
-16.935612 -69.063812 -206.640289
-11.022346 -67.575661 -207.689148
-168.691116 -66.858795 -214.292358
-4.649055 -63.060383 -222.080505
-108.687645 -69.354485 -222.701477
-109.064270 -68.060913 -224.961502
-107.438484 -67.249237 -223.840469
-126.788002 -66.287819 -227.741165
-145.351700 -66.741402 -224.402969
-1.227646 -69.484055 -228.660172
-5.138521 -63.455688 -223.927887
5.647086 -68.219246 -227.644669
1.782465 -63.758896 -230.010773
-6.696552 -68.578064 -229.456863
-8.917647 -63.911621 -236.151291
-7.572595 -69.304855 -233.453751
58.518513 -68.543922 -237.879272
-8.533566 -66.783394 -240.752853
4.662974 -67.453552 -238.833862
11.441771 -68.417427 -245.283920
50.311626 -63.937912 -241.359283
57.557121 -66.721878 -242.819595
38.978504 -66.963898 -255.706116
44.460594 -67.404861 -253.480957
-10.840528 -69.316391 -250.040344
-135.540649 -67.298759 -256.621368
30.805025 -64.879547 -251.885574
-103.914719 -66.923355 -256.582428
-139.093903 -62.092991 -260.445801
-114.381134 -66.497932 -259.007874
-111.950996 -68.585571 -259.358643
-114.316841 -68.718674 -259.718597
-119.761147 -63.457935 -260.798676
-119.850418 -64.904305 -262.079987
-141.803131 -70.058350 -263.004059
-119.168137 -71.374825 -262.863800
-132.674789 -68.518898 -262.586487
26.423164 -65.234505 -263.865753
-144.681671 -67.058136 -264.867798
-7.809689 -68.039764 -265.840179
-153.451721 -66.292892 -267.792297
-6.478181 -69.440460 -279.422028
21.258194 -62.927803 -281.158722
-6.664276 -67.298607 -284.678375
-136.753876 -66.612740 -286.916870
-148.522980 -67.489052 -293.396729
-133.251556 -68.103424 -294.311768
-150.512589 -64.444252 -294.087738
-148.681732 -67.496613 -304.490875
-153.336609 -69.951271 -310.224609
28.401316 -63.112122 -12.052961
16.224400 -57.721390 -15.483791
38.049374 -63.418655 -17.022665
39.816830 -56.205826 -28.417000
36.785164 -66.299660 -31.775637
32.529701 -63.951035 -36.512852
28.417562 -61.930897 -37.505314
35.207989 -59.994377 -41.811676
-50.388351 -68.345299 -47.409634
-83.069321 -65.781990 -49.030384
75.406425 -62.960827 -57.945610
74.605278 -67.046577 -62.932549
93.662453 -62.954525 -64.368820
-96.591408 -64.182961 -63.582661
92.554550 -64.340439 -68.094017
-23.781616 -61.343327 -68.678566
-99.794083 -65.699135 -69.842247
-31.243984 -65.752449 -72.636238
-42.054485 -63.431515 -79.723633
-44.121357 -63.160576 -79.739624
-101.412125 -64.312065 -77.371704
-99.889168 -67.804611 -85.285774
59.109173 -63.350136 -82.810844
48.299347 -65.968285 -88.563583
-68.196144 -65.802170 -90.941399
46.119705 -67.958305 -92.355339
47.774357 -66.617271 -92.839081
63.402836 -60.386024 -97.436798
45.402390 -62.646946 -99.740616
40.175682 -61.994503 -100.466713
-82.159126 -66.621269 -108.734360
-90.501610 -64.784966 -107.282616
-88.746399 -61.388771 -110.043732
-65.306725 -64.664223 -115.272697
-93.286766 -68.911354 -120.469917
-59.769150 -68.707794 -123.881073
-80.861450 -63.967106 -123.257973
-58.195557 -64.560638 -126.155403
-86.259537 -66.011292 -127.602173
-82.591736 -66.180206 -133.983185
-51.619877 -65.413261 -133.965012
-78.452431 -68.056702 -133.244003
-77.105553 -63.316071 -137.054291
-59.618073 -63.927452 -137.727829
20.065683 -65.044815 -143.765488
-51.228905 -66.124397 -142.366959
-101.122765 -60.681896 -147.752228
-93.235260 -62.510883 -147.709076
11.570985 -64.195343 -150.861237
-106.518951 -65.447243 -167.773132
-111.376701 -65.783714 -171.456802
-144.405289 -68.525467 -175.289001
-154.438278 -65.665565 -178.537689
-115.571442 -68.316261 -190.200867
-157.712616 -67.280487 -188.357437
-145.240982 -68.679558 -192.437149
-156.818649 -66.409653 -199.930099
-138.876053 -65.365707 -196.436310
-149.006104 -61.302929 -198.509521
-141.680603 -66.487457 -202.090759
-128.140366 -69.340645 -206.590851
-148.446136 -65.047356 -213.722260
-146.891174 -63.939754 -225.231277
-110.701782 -65.279861 -226.606873
-108.277328 -69.462372 -229.864868
-143.192398 -67.950356 -228.930267
-139.565201 -64.521523 -231.910767
-1.855127 -65.191803 -227.943329
1.620510 -62.855541 -238.071930
-124.737152 -69.006393 -236.740005
-152.891357 -64.676575 -237.685776
1.429075 -68.602142 -231.205063
-8.646894 -65.866943 -239.740112
15.504756 -64.872124 -241.759781
58.697544 -67.106789 -238.988739
57.409737 -63.180103 -243.981949
47.947548 -64.977150 -246.566788
-151.231873 -63.648712 -253.257034
36.070744 -65.682716 -255.607895
-124.039772 -67.594406 -259.595856
29.534536 -70.068550 -257.243988
-151.728714 -67.579697 -259.167542
-145.998352 -67.450539 -260.503815
-125.616302 -64.569901 -262.917603
-2.132880 -66.760490 -262.041595
-1.702978 -68.341370 -276.699982
-150.680054 -68.312683 -277.014465
-5.343539 -65.743141 -277.620667
-153.706726 -66.823341 -282.424744
-130.934555 -66.151917 -286.606384
-128.004349 -67.984634 -290.206970
10.329187 -62.383942 -287.735626
-123.401337 -64.877441 -292.558441
-131.096588 -67.108162 -292.181915
-133.790192 -63.431385 -286.504456
7.926141 -72.171196 -288.114227
-0.854180 -64.508232 -287.095306
-148.095413 -65.572777 -292.683655
30.919392 -65.696999 -16.867714
45.546700 -63.487446 -17.192699
38.508373 -59.144180 -29.363888
-55.526123 -66.435493 -42.564663
-52.257305 -59.707481 -43.857521
-54.242233 -65.841957 -44.025890
-39.507259 -64.941399 -46.469799
-89.965858 -63.757122 -52.170563
-20.887306 -62.975819 -52.300617
-19.163731 -62.271324 -54.665112
-94.285332 -60.235458 -61.297054
-97.263138 -62.536343 -65.547562
86.854752 -64.524086 -63.022396
-16.399750 -65.097717 -65.916573
65.304001 -63.427528 -61.436562
-32.800957 -63.398350 -70.126915
-99.341270 -63.320103 -74.758759
-43.430458 -59.372574 -78.665504
-103.181190 -62.926796 -76.295563
-61.606831 -64.530212 -84.585304
102.577675 -62.703728 -88.503769
57.252480 -60.201324 -86.073883
-102.297234 -63.468994 -97.722389
-68.881378 -60.009552 -98.500259
45.078709 -66.352585 -98.332680
42.394085 -63.034355 -95.583641
96.867760 -68.073906 -97.664444
94.566574 -61.520580 -101.107735
-86.798706 -62.134640 -105.135185
90.132599 -61.825851 -106.364319
83.567886 -64.391975 -103.827820
-90.526566 -62.195541 -115.392052
-64.173882 -63.349426 -118.237869
-68.052650 -64.770981 -115.979507
-88.831978 -63.003891 -122.607269
-63.723625 -64.737457 -122.080475
-89.382210 -65.257027 -125.463745
-68.221489 -65.685799 -126.594315
-91.520470 -63.522690 -126.487152
-90.429298 -65.570938 -130.644485
-53.406570 -66.514893 -131.559052
-77.298836 -62.824451 -132.445419
-59.233074 -64.779114 -133.779938
23.348783 -64.742989 -138.503876
-97.981667 -65.557564 -142.465759
10.871162 -62.660149 -141.565750
16.836529 -62.990639 -151.013397
-101.233131 -65.220161 -159.675980
-113.174721 -65.995590 -180.168854
-155.223557 -66.426079 -186.085129
-116.393883 -64.859047 -189.455460
-154.238739 -64.178123 -191.309937
-156.719666 -62.817516 -196.081650
-143.732635 -64.577454 -199.489120
-144.943481 -65.902206 -198.075729
-122.849701 -66.759819 -199.579102
-117.981781 -68.574661 -199.027771
-139.816620 -63.886780 -202.135956
-123.130890 -62.052048 -202.913300
-125.239204 -65.683998 -201.077652
-154.022751 -67.753410 -209.317108
-149.695862 -63.244568 -217.110031
-133.043869 -63.274521 -227.340286
-127.100342 -66.675201 -229.616272
-124.186081 -65.787735 -229.247101
-118.387344 -67.481956 -230.114334
-128.788971 -66.437950 -234.630997
-153.325500 -65.043549 -235.340744
-0.086329 -64.193352 -237.645798
15.888566 -64.848320 -240.768631
-7.047472 -64.338737 -243.150818
-8.277161 -64.925041 -246.690582
-13.399899 -64.761627 -246.444412
50.866859 -66.391800 -246.560394
46.160984 -64.297554 -250.632996
19.819632 -70.710030 -249.924957
-7.037807 -61.871185 -252.347534
37.965904 -66.843163 -251.378342
-7.507332 -62.388100 -252.201645
30.302448 -66.348999 -253.833740
41.914272 -68.504433 -254.263062
-1.162182 -66.815437 -257.793152
-132.529800 -66.119759 -258.075195
-127.450363 -65.175713 -257.151764
-125.202499 -66.495659 -261.338135
30.010098 -68.074493 -258.796448
-2.380899 -61.811523 -262.150635
27.770458 -64.041542 -262.769257
2.913689 -63.133297 -265.695557
-1.590592 -67.754822 -266.222137
-145.035385 -68.525597 -270.473053
-1.470765 -66.299225 -281.561829
-1.612535 -63.263638 -285.905914
-152.114716 -66.864647 -287.263550
-149.393753 -62.165665 -294.226501
-148.039185 -66.787186 -290.117310
-151.041794 -64.503494 -293.772614
22.651758 -57.754818 -10.385107
34.147648 -63.142128 -14.402137
41.500149 -64.403130 -18.172409
44.921627 -61.067863 -20.909908
17.159307 -66.731026 -23.781454
17.228104 -59.298138 -31.332113
18.565731 -67.116165 -32.995159
31.297579 -65.656807 -35.926888
-48.604267 -61.948376 -43.657028
-85.497681 -64.221443 -50.457394
-91.087944 -61.342110 -54.137753
-96.159828 -59.539837 -51.820171
67.817154 -67.100632 -62.761982
67.980576 -62.025955 -64.138741
-28.480024 -63.510319 -66.772270
-31.929607 -66.598831 -70.272377
99.979584 -62.006401 -79.719498
-43.347679 -61.516308 -77.191101
-61.616749 -59.990894 -83.423409
102.262604 -62.155720 -81.227921
-102.905510 -64.953362 -87.488579
-65.441223 -63.620747 -86.698456
-64.925591 -62.354324 -86.958893
49.651791 -64.236664 -84.755478
57.063892 -61.005390 -90.370956
55.308865 -63.089642 -94.212204
-70.734093 -63.089622 -98.454231
-71.395798 -63.339371 -98.422127
-72.969086 -61.519150 -103.938080
94.021919 -65.978867 -103.430389
89.926491 -63.639740 -109.049622
-81.822426 -63.644253 -112.645050
-81.979523 -64.721710 -110.210320
-86.636330 -65.589882 -116.147324
-81.369186 -60.698608 -116.753868
-64.077293 -60.492855 -121.255531
-80.377014 -61.661919 -121.473831
-84.977608 -65.720314 -123.914474
-79.624779 -66.022835 -128.020782
-56.749298 -63.768200 -133.278275
-81.000877 -61.281509 -131.161591
-95.521416 -62.511368 -135.959839
-52.700130 -60.072922 -138.461014
26.579546 -61.119080 -138.279266
-92.730835 -60.762093 -143.173447
-98.432945 -63.387260 -141.774155
-99.842079 -66.050713 -141.413803
10.519030 -65.748085 -146.116562
-99.382233 -63.717163 -154.013351
-95.162773 -63.384495 -151.153030
-106.619484 -66.054253 -160.492523
-105.229317 -63.254150 -166.615784
-109.403442 -65.785622 -168.211411
-111.486961 -64.451958 -175.280914
-149.287155 -65.052475 -177.433517
-107.472664 -63.344189 -180.637238
-112.560898 -66.248810 -178.244385
-151.541718 -66.755386 -182.473068
-111.120415 -64.714684 -186.053528
-152.526703 -63.402599 -189.680634
-115.295982 -69.384308 -192.578430
-145.573044 -65.753784 -194.258606
-147.396378 -64.597183 -199.638168
-117.105415 -62.859783 -199.686844
-121.052940 -64.634140 -201.562042
-126.416756 -61.323631 -201.541000
-126.944054 -64.760834 -207.609756
-151.665421 -64.213112 -208.093613
-155.333099 -64.326889 -225.043274
-128.242706 -62.895466 -228.985092
-158.511902 -65.989540 -229.933670
-133.307129 -62.892685 -231.681625
-158.534241 -62.671619 -235.967270
-1.535815 -62.762897 -235.139160
16.208746 -65.805138 -242.178635
-152.847382 -67.086639 -249.301468
-8.781290 -67.316666 -247.764236
19.546171 -63.189648 -251.917770
-5.009260 -63.963425 -256.237305
-154.652267 -62.572098 -256.809845
-158.717743 -64.153137 -257.298828
-156.511765 -64.546127 -256.584595
-149.836121 -66.009560 -262.338806
-2.679384 -63.580841 -269.361786
-148.277115 -61.514790 -271.897552
-155.317780 -62.005821 -279.690735
0.512725 -65.173035 -274.476166
-146.745453 -64.991959 -286.900452
-147.043427 -66.266609 -288.114563
-3.061378 -65.600357 -285.171234
-148.693466 -66.769218 -288.612946
-153.954956 -66.865784 -295.266113
-147.340622 -64.005692 -292.399597
28.147047 -63.259495 -11.701611
40.802383 -60.994884 -13.491044
36.371719 -60.335026 -17.253220
14.620548 -61.870502 -23.636141
44.419769 -58.331810 -23.673952
15.326666 -67.530113 -25.832949
43.943798 -61.121540 -24.356888
44.894676 -58.005833 -31.539776
21.889315 -67.304588 -29.059736
19.579233 -65.753548 -35.279583
-59.526711 -59.781971 -42.541965
-73.625824 -64.656639 -43.114876
-42.280746 -60.605255 -47.533703
-25.398005 -59.029591 -47.373936
70.231300 -60.211613 -60.970509
-101.269089 -58.870323 -63.858074
-20.537188 -62.385750 -64.023140
63.477985 -59.798225 -65.147942
97.822617 -61.014091 -70.459976
-58.668640 -63.476166 -80.753822
58.499149 -65.295776 -84.944458
49.273869 -61.950050 -86.996025
51.007385 -61.235020 -90.254234
-68.350624 -60.885193 -93.899010
55.633759 -62.259224 -92.185608
48.533524 -63.880779 -90.508224
-100.813873 -65.289871 -94.902664
53.619503 -63.748791 -92.410286
-75.728195 -67.026047 -106.193550
68.360893 -61.162308 -106.416206
89.738770 -64.333069 -105.589394
-90.845085 -62.140560 -111.815865
-80.125664 -64.211746 -112.546249
-89.181198 -62.311707 -115.924286
-79.152451 -62.889328 -114.226425
-66.217758 -61.838753 -119.621346
