# This PCD file was generated using the MATLAB® pcwrite function
# from Computer Vision Toolbox®.
# .PCD v.7 - Point Cloud Data file format
VERSION .7
FIELDS x y z
SIZE 4 4 4
TYPE F F F
COUNT 1 1 1
WIDTH 1456
HEIGHT 1
VIEWPOINT 0 0 0 1 0 0 0
POINTS 1456
DATA ascii
-166.109512 259.156036 -67.758316
-154.833176 268.287384 -67.622681
-132.356140 265.151733 -69.508827
-81.707932 263.167114 -68.408089
-161.411697 264.370941 -67.864975
-141.390717 266.260590 -69.125244
-86.668251 266.250214 -66.860519
-96.000549 268.677063 -66.533745
-148.690979 266.958679 -67.433922
-94.022812 267.528046 -67.776550
-149.087860 266.964996 -65.653366
-98.834473 268.289307 -68.853088
-165.718826 268.863251 -68.070282
-160.094223 268.853577 -68.041801
-123.318573 265.170258 -69.900833
-150.776947 269.723206 -69.542694
-112.868027 272.273651 -68.044716
-15.463341 272.195770 -68.759529
-142.409866 270.863220 -70.009621
-125.448318 270.276398 -70.204086
-155.456360 272.216797 -66.703285
22.051439 277.374451 -69.366676
-146.073090 288.079498 -68.920441
-167.058365 285.477203 -66.805038
-6.668718 290.203583 -71.094032
-148.219376 291.735748 -69.822037
-6.658162 293.225189 -67.555305
13.959686 295.467682 -67.432663
-136.379852 296.738617 -69.682556
-72.350166 297.286255 -66.905312
-33.958313 297.022675 -69.472443
-113.886566 297.335999 -66.402138
-92.106209 300.774933 -68.335159
-92.371910 301.811188 -68.559044
-48.842659 301.589813 -69.498360
-115.739731 300.446655 -69.888802
-110.079376 301.224823 -67.852043
-32.062473 302.658447 -67.969910
-112.850433 303.301788 -67.375076
-126.689545 301.878784 -66.880180
-143.289383 303.777618 -68.567680
7.848990 304.045776 -67.348404
13.476596 304.374542 -71.202850
-156.365921 304.352875 -68.354233
-154.892288 311.834442 -69.971695
-143.696335 320.267670 -68.158333
-149.621048 321.287476 -66.777878
-150.077393 321.662292 -71.763992
31.645006 26.222521 -67.105583
24.235531 28.556051 -66.224976
24.143259 32.566235 -66.368965
29.497763 49.317947 -64.932777
-57.130840 57.330235 -63.935520
-65.273697 59.393711 -66.107391
-38.789822 62.138069 -67.541237
-81.414612 68.575203 -66.599144
84.609306 82.131378 -68.347328
-18.485744 78.752861 -67.749466
88.668236 81.214294 -67.578743
98.517410 88.157532 -65.509178
-91.154198 87.439598 -66.777878
70.238556 89.707642 -67.442368
-42.018974 92.650856 -70.381844
100.368492 93.800301 -64.647461
-53.036919 99.542725 -67.065575
51.342705 99.766472 -66.629570
74.208282 102.139511 -68.296165
57.800732 106.148384 -67.358543
53.561127 107.538857 -69.902855
72.990204 104.470551 -67.048630
44.833641 109.928711 -68.334663
104.309174 107.139473 -66.404388
105.806587 113.624420 -68.265190
83.475578 113.546593 -64.103844
87.900520 110.839470 -69.424454
103.291428 108.338890 -66.945702
107.573112 112.198784 -67.318314
39.797119 117.095734 -68.929298
110.043755 130.481155 -64.965294
113.041626 125.615494 -66.807404
34.853287 132.352295 -67.918167
45.842964 128.642822 -68.708817
115.562355 136.942627 -67.865013
39.970081 136.498138 -68.966797
113.779640 138.836029 -67.842850
110.314621 131.542511 -67.526955
24.617872 147.556885 -67.137619
-50.237316 145.255829 -66.548729
-51.914875 144.235687 -65.590256
113.191582 144.396820 -66.299393
-71.277878 153.084091 -69.721725
-73.178185 150.109451 -68.521423
-56.016052 154.213531 -68.394966
35.801891 151.228836 -65.459587
111.586990 153.215881 -68.293686
-67.019096 154.118378 -68.053802
-45.954201 155.471161 -65.648872
34.423065 158.628372 -68.544250
-67.920769 157.586548 -67.398071
115.359947 152.090652 -67.677818
114.410782 166.237091 -68.047356
115.570038 159.766464 -67.778732
-37.946716 163.820755 -68.414314
-66.158180 173.774017 -67.653549
-72.185257 167.410477 -68.608177
31.881294 160.127182 -68.313095
-1.673085 173.292252 -68.933624
109.481094 169.351166 -68.134750
112.567741 164.658691 -65.451096
113.174904 166.665649 -67.095810
-64.016022 173.145599 -66.624451
-45.233917 171.687363 -68.746643
0.149196 175.530655 -66.831085
-24.783056 183.329865 -66.147858
107.572296 176.370438 -68.027405
-34.521999 170.589447 -67.570572
111.184464 180.380905 -66.186485
-40.691502 183.268051 -67.682777
110.977539 176.464493 -67.411751
-147.817917 191.714859 -68.608803
-27.052511 186.510880 -68.815071
-20.495737 190.937103 -67.766190
26.053717 188.078262 -68.511139
15.453496 189.776398 -67.421028
28.248392 193.858170 -68.192101
108.119247 193.610306 -66.988503
-150.397781 196.796188 -67.694565
-19.583351 201.357574 -69.771507
104.231407 188.357834 -68.651680
105.374969 199.197189 -67.304726
108.083054 190.525513 -67.506256
97.537697 204.312134 -67.176399
-150.349655 203.866577 -70.836128
101.019005 214.797867 -68.401978
-27.319420 204.964157 -65.663116
100.722488 207.483795 -65.441917
-122.204071 207.446442 -68.441437
-29.359241 201.193405 -70.486343
-140.754181 209.420837 -65.207336
94.784340 210.486328 -67.633026
9.686828 207.871048 -67.858978
24.786819 204.056259 -67.067032
-147.931366 210.790344 -64.910973
-140.556870 212.985443 -66.317154
-11.098479 214.853210 -66.929024
-125.699295 210.171448 -68.568275
-141.680023 214.704224 -71.209694
8.720387 211.975586 -67.945908
-19.996080 212.701797 -69.321976
20.381973 214.418900 -66.693893
10.197282 218.897079 -66.816246
89.704002 218.644806 -67.497894
-18.785023 221.341141 -66.364021
92.325371 218.699753 -66.724930
95.035751 217.484695 -66.640770
-149.585068 224.901016 -68.105476
98.025558 222.791183 -67.548615
6.433981 220.950668 -67.862282
6.610543 224.689499 -68.716530
-35.049000 221.337402 -66.449532
-88.717545 222.050049 -66.927338
-26.861406 221.868774 -67.665604
85.409569 225.801453 -67.711449
87.394066 228.628998 -67.825546
-32.096947 221.299988 -68.944756
-86.150032 226.472397 -67.261650
-2.810340 226.324875 -70.221191
88.398285 225.762985 -66.312569
-151.192093 232.305847 -67.626564
-164.668686 223.382935 -67.391937
-159.082642 232.936768 -67.166176
-20.277807 236.942719 -67.637215
-151.147507 233.562927 -65.947563
-8.473374 236.170624 -70.320435
7.114357 227.981613 -66.547058
-165.981323 233.917206 -67.825249
-160.805161 236.948425 -69.507614
78.846825 240.638199 -68.415977
3.111737 236.787735 -66.813698
-154.115311 234.605545 -66.739265
-141.165253 236.781433 -66.334656
-18.174877 234.620102 -68.756035
1.584769 234.659836 -72.088646
80.805664 233.447403 -67.313164
-160.436142 237.846100 -65.116608
-148.321289 238.481934 -66.644127
-123.810646 239.953674 -66.295647
81.592140 237.994339 -67.058510
-114.473228 238.914688 -66.397629
-148.828918 240.218414 -67.419029
-147.021927 240.433533 -67.694061
-145.906509 241.487213 -67.595734
-154.188660 239.783035 -66.712898
-163.631805 239.789856 -67.853065
-134.504852 242.682938 -66.646393
-133.141403 241.648209 -69.348877
-154.221619 241.615128 -66.986130
-144.471573 247.041122 -64.480850
-152.740219 244.081833 -67.668663
74.668083 240.351761 -67.536232
67.463776 248.830536 -65.977493
-157.476028 245.751831 -66.449402
68.297539 244.759018 -66.416901
-17.459946 246.958969 -69.040375
10.397901 245.447296 -66.440903
6.406784 247.129639 -68.058891
-151.820084 255.230469 -67.259918
14.311096 251.044327 -66.979683
65.357216 245.208191 -68.184135
14.524786 247.060471 -66.165016
5.948886 252.828033 -67.744736
-5.006449 249.786469 -68.106079
-20.375690 253.556412 -67.827011
-0.839653 253.745667 -67.228485
3.129752 251.919693 -68.948013
57.966499 251.292328 -68.650856
-54.672222 253.471146 -66.791252
18.434059 255.650330 -65.663223
-61.437462 254.075668 -67.262161
-7.232179 258.075470 -66.930359
-63.564999 260.669098 -65.533218
-85.355507 261.259308 -69.084221
-82.137886 258.110443 -65.848457
-11.602594 262.170532 -66.129410
-122.313583 266.369904 -66.262825
-13.855658 265.782776 -68.001793
-116.593384 268.076508 -67.336365
-113.428940 268.818176 -68.256264
-103.515678 268.255035 -67.360626
-145.920837 274.090210 -66.878998
-146.615051 275.676086 -68.039467
-167.047394 275.125671 -68.151077
17.364857 289.445740 -69.130165
-52.987198 294.391296 -66.893593
-65.415497 293.572906 -66.791618
-41.307095 296.631622 -66.845459
-30.292221 296.438171 -68.985443
-98.032394 296.274902 -67.480766
-29.894648 298.305237 -65.095642
-4.828698 298.008606 -68.069527
-165.714172 298.321198 -67.726212
-11.197781 296.880035 -67.446739
7.194114 298.851501 -68.846603
14.539816 299.125275 -68.311493
-55.537144 299.971344 -67.730484
-29.710762 299.784302 -68.206009
15.065462 301.537598 -66.381813
-69.576744 300.565765 -67.463364
-36.233013 302.118347 -67.630669
-17.442429 300.365021 -65.926590
17.827971 302.327423 -68.609276
-9.872426 301.534332 -67.719643
3.993420 302.012360 -66.092293
14.766616 304.119965 -67.525894
-133.321640 302.739899 -66.278305
-146.300903 311.553772 -69.435471
-146.437454 322.785614 -70.462585
42.286949 22.678320 -67.926514
32.132599 23.936716 -65.522598
39.191624 26.119152 -65.745659
22.654232 28.702093 -64.335815
46.169758 30.618351 -64.902214
25.261448 33.957275 -66.735931
25.271151 39.941280 -66.092720
24.015274 44.866871 -65.646843
45.341354 41.710495 -65.206139
29.490522 45.323219 -64.608612
43.558750 44.955101 -65.968796
32.809834 46.932232 -65.658974
37.077553 47.143013 -66.841454
31.740585 49.624264 -66.693832
41.967983 50.848537 -64.962791
37.194061 51.416843 -66.206215
-38.519058 60.663525 -62.619267
-30.961590 60.378796 -64.388626
-85.897842 67.445633 -61.050449
-86.718567 73.385834 -67.784767
80.325020 79.212852 -67.928505
84.207138 83.188797 -69.603516
-15.814153 79.705620 -65.663155
-87.871407 82.932678 -68.090729
-24.933386 86.304138 -65.884209
-49.658623 95.331467 -67.840515
66.654846 94.802673 -62.895485
55.631729 102.334755 -65.629494
99.868904 100.399811 -66.105721
71.783035 105.113495 -64.615837
-64.685562 103.758057 -67.748924
-64.384140 107.257813 -68.222130
45.059196 106.599785 -67.962486
78.505936 112.943634 -65.668343
54.960072 115.854965 -68.170326
101.293312 107.600594 -66.251518
-95.277367 116.711029 -66.268013
38.310242 121.528397 -68.004295
106.985733 116.799187 -65.438515
47.423820 121.790199 -67.148140
104.384544 116.541656 -65.187469
-85.204407 122.188805 -67.187523
37.069294 119.512215 -67.507523
106.293877 126.818428 -66.589943
104.780792 125.055267 -65.963684
110.248734 124.099510 -66.133965
109.058594 124.617416 -67.738869
39.876266 123.218628 -65.674301
31.920635 128.223679 -66.508034
42.948429 126.764465 -65.672455
110.033249 132.094101 -66.472939
39.650398 135.101593 -65.027527
109.454353 141.230820 -65.971725
112.451180 139.827438 -66.644783
34.675892 133.144394 -65.945595
-75.556000 138.728394 -66.631447
117.380760 145.722443 -67.265305
-56.419758 145.669647 -65.529984
36.970898 144.876907 -67.303070
-71.657074 146.890244 -66.226242
29.523279 144.892776 -66.205467
-76.978310 151.882294 -65.244965
-45.989208 152.029907 -67.295227
-70.612076 147.070633 -64.728462
113.389786 148.072067 -66.459877
114.536072 153.341965 -67.218651
116.578079 153.385803 -67.364441
-71.732498 153.901749 -64.054893
10.426562 162.624130 -64.226799
-54.832851 161.160843 -67.357880
-49.823769 167.172043 -66.545952
109.432838 169.569000 -66.426598
-41.595455 160.083160 -65.300774
12.984516 166.738220 -67.735260
24.184286 166.797562 -66.525864
116.954948 171.984497 -67.352386
29.368893 174.005569 -67.624336
-0.056905 172.954330 -67.529564
32.441216 171.929733 -67.843903
-68.190109 169.362564 -64.726738
-63.819534 168.633240 -63.976692
-66.791756 174.373459 -68.968086
115.794807 170.471588 -65.903458
-42.961292 171.809494 -67.464233
21.232969 176.704147 -68.350136
-63.992748 179.748001 -66.722618
-59.019886 181.475891 -66.970093
-37.944942 168.913895 -65.125771
-31.084248 179.884262 -67.471542
113.318390 180.803268 -66.896271
-36.271427 186.834198 -65.187912
17.404900 183.708405 -66.961861
110.741829 192.362793 -68.883339
-147.738434 187.297424 -68.951210
-144.950760 186.198883 -69.232201
-150.554718 186.842987 -67.291267
-143.051971 190.290222 -68.490608
-30.027428 196.705948 -67.508690
-22.498049 196.274246 -65.471603
23.390930 199.915558 -65.626129
-142.409454 198.380280 -65.899529
-146.658508 198.735977 -66.800560
-18.742100 197.518112 -63.981819
13.981105 191.399826 -69.494583
-147.152283 202.879517 -65.737083
-30.094215 194.332993 -68.467247
101.063812 199.607849 -65.298309
108.026505 199.276596 -66.995255
22.919386 203.230621 -65.345306
-16.127405 198.405090 -68.331047
-24.928837 203.265762 -68.546776
-151.532455 206.065491 -66.272514
-130.347183 206.897476 -68.234863
-125.230568 205.168930 -66.070236
-123.374176 209.418533 -64.798843
-23.271114 208.532089 -65.112686
9.515471 204.505951 -66.667671
94.774017 210.162552 -66.693848
-147.227936 208.099152 -64.141045
-145.153503 207.967133 -66.503281
-148.235596 208.471771 -64.096451
-155.087067 210.433456 -65.693726
-27.475119 209.587524 -67.200050
-14.111839 207.726471 -68.609886
-149.376144 214.032013 -65.144615
-15.089525 208.621765 -65.516068
-162.536514 207.415314 -66.886024
-133.902328 210.808136 -67.927536
16.571558 217.479172 -65.990242
-163.739914 213.512100 -66.690048
-145.743134 217.106674 -67.504089
10.179672 210.653915 -66.099411
-152.771286 214.247101 -66.505028
-22.679468 209.558304 -67.435944
104.100677 211.083435 -64.680405
-155.838272 227.262985 -66.872917
-163.756912 219.302185 -65.924088
-78.105240 219.338821 -67.399956
89.166870 220.465042 -66.568565
-2.285369 227.161560 -65.582329
-151.646835 223.669937 -67.239174
-89.119972 224.193527 -66.693077
-8.874540 219.848969 -66.480629
17.126276 234.063858 -66.596031
-144.398056 228.126923 -67.508652
-2.127268 231.352509 -67.095016
-21.063957 231.960663 -64.477058
-14.608409 227.723587 -63.956654
87.848419 227.507721 -66.608910
-20.542913 227.519089 -66.628952
-27.000921 226.756760 -67.687485
-107.081383 234.278305 -66.297508
-14.333184 233.554153 -64.250481
91.499786 227.404572 -66.067680
81.562813 227.730606 -65.922340
4.974764 232.019531 -68.390770
-9.132263 234.649796 -69.052391
77.733765 232.116623 -66.450813
-121.860916 235.344772 -66.008896
-22.611006 232.774780 -66.839211
-99.292671 234.293457 -64.903183
-105.100853 236.082382 -67.336983
-135.083160 237.839905 -68.844574
83.228851 234.802155 -66.650864
-123.305168 237.617767 -64.932396
5.990769 237.536301 -66.989906
82.729393 234.384277 -65.625694
-13.486374 235.005249 -65.811852
-11.774733 241.502609 -67.343811
-6.196205 240.183197 -68.033455
10.758311 234.884445 -66.880089
87.308815 235.904175 -65.631676
11.191867 241.402573 -64.563835
3.247641 240.273697 -67.004784
-9.294704 240.461487 -69.215431
-7.478940 244.620804 -67.845207
17.031345 240.343750 -64.940453
-13.052140 244.171249 -67.001060
72.891129 247.865143 -66.109352
-8.020037 248.684570 -66.260475
19.326845 246.165573 -69.217339
-165.043564 252.803772 -66.471550
-3.744797 248.467850 -65.926353
-10.167623 251.632187 -65.616867
-169.681168 261.781921 -65.400711
-7.914113 255.125198 -68.654076
17.296431 256.351990 -65.097481
-145.611359 263.321625 -68.700638
-67.830368 257.495544 -63.965420
-61.366394 257.497559 -66.847916
54.656136 256.269379 -66.246483
-78.849655 259.212128 -66.532082
17.412109 259.255341 -68.931557
-72.418938 265.318085 -66.691605
-13.086794 260.339050 -66.715218
-145.404526 263.168732 -67.620110
50.274113 259.241974 -65.859428
-77.876175 264.059082 -66.382607
-101.486336 265.099121 -65.536636
-97.725792 264.557587 -67.375191
-117.943123 265.109314 -68.484978
-105.896461 266.948517 -66.734360
-106.416649 269.645752 -67.362335
24.682177 267.705414 -68.462784
-127.315018 277.656006 -66.538834
-11.328965 287.085052 -67.217178
-146.085480 290.671265 -66.701309
-169.358948 292.973206 -66.566025
-124.441498 296.726257 -67.227165
-114.266724 296.634705 -67.062660
-73.771858 297.595764 -65.359680
-57.663521 297.378052 -64.780441
-41.613132 296.749359 -66.324936
-14.453204 296.417419 -67.381866
-13.279300 299.301422 -65.907356
-36.840538 298.332428 -65.384315
-33.971409 297.957336 -66.815758
-17.922134 298.524506 -65.384407
-69.347382 301.043304 -66.207771
-54.322746 299.266113 -66.401093
-13.745507 299.654541 -66.089989
-12.763366 300.219788 -66.515770
-3.228707 301.399750 -64.330704
2.375174 300.146362 -65.408714
-90.157486 302.426208 -67.742241
-142.328705 303.569946 -66.446060
-116.244713 303.331421 -68.783012
-153.944977 306.851318 -68.350739
-155.363892 309.651947 -66.529961
-144.791901 311.456757 -68.223923
47.763020 29.849190 -65.023987
21.082159 34.260746 -64.972939
49.328342 36.460819 -65.888321
49.004196 44.353107 -66.017921
88.047043 79.329063 -65.691597
95.242500 83.902107 -66.544975
101.650208 91.626648 -65.206970
98.828758 91.483078 -68.083313
59.935261 97.476089 -66.324852
48.965839 102.896049 -70.598602
63.466923 100.573036 -64.765427
-65.831612 101.668076 -62.023262
69.486603 98.719032 -67.084656
102.393776 107.404526 -65.409439
75.326889 109.641525 -68.925980
96.216545 110.984367 -64.277618
-78.767159 110.563805 -65.563362
45.144512 112.829697 -67.516518
-83.890488 116.973534 -66.484062
51.304031 120.507668 -66.563271
39.951485 114.244186 -65.023651
108.154747 113.684036 -64.131371
38.622700 119.019424 -65.791870
40.614346 124.278992 -65.685760
43.328316 124.752388 -64.151039
108.140915 121.989578 -64.810707
-82.045197 130.098557 -64.984261
110.027214 135.054626 -65.041389
37.416363 133.614548 -63.998905
42.855061 131.725098 -64.702736
36.271782 133.050629 -64.572594
-55.312099 140.755798 -65.793282
32.151299 134.526459 -68.072632
-75.558525 145.822647 -65.022942
-56.686489 141.988022 -66.849411
-79.269913 144.423523 -64.957138
35.662502 138.056305 -64.596886
-59.001751 145.412827 -65.145721
34.062256 142.409088 -64.723473
-72.887520 149.931915 -64.456947
-58.397671 147.650726 -66.767540
27.868231 147.643860 -65.399086
110.772766 152.583633 -67.536568
114.111816 145.779083 -63.424854
32.583981 150.350296 -63.995502
-44.977554 151.264404 -62.554733
109.666275 161.115982 -65.653999
-72.849030 154.818283 -65.533020
-57.406494 149.552307 -67.003380
30.883795 161.630951 -67.097404
-75.601128 156.733551 -66.109772
-70.567024 160.128769 -66.470894
116.710983 160.853027 -65.694878
-65.046059 165.173508 -66.150017
-37.933952 163.619095 -65.144417
28.156528 158.044800 -64.090019
-75.443680 160.525696 -65.657555
12.023518 159.986633 -67.168312
32.418331 164.712280 -64.543518
32.994781 157.677963 -64.537979
11.403350 164.928589 -66.868004
-48.681301 163.869720 -64.880341
28.112423 164.114563 -64.370323
-43.607353 158.694580 -66.561325
6.082401 163.812576 -67.454689
21.979427 159.385849 -64.024254
-70.659569 165.030640 -66.245216
-44.266132 162.711319 -64.554047
-66.051643 165.532730 -65.523026
15.208589 167.383987 -63.353165
25.923717 159.074615 -65.447456
3.384681 170.552185 -64.584747
19.291103 165.660019 -67.059479
31.380262 174.639435 -65.815956
-47.783272 172.623856 -68.268280
-32.958866 171.895782 -64.994804
-39.952644 170.170151 -66.502075
27.006083 170.882980 -65.314949
-44.857109 178.587585 -65.545250
-39.190926 171.874908 -66.056808
20.429871 177.246841 -63.979504
-40.822956 182.258530 -66.194847
29.485720 180.938080 -65.538574
115.119659 177.485962 -65.083801
-32.062878 182.580902 -64.509476
108.114014 183.098679 -63.312412
-33.170883 185.768997 -65.835487
-35.831177 189.732056 -66.794533
19.925285 184.691635 -66.933922
103.383331 192.534775 -64.785683
-30.569847 194.277390 -64.482300
-33.773361 182.422058 -65.509583
-25.067865 196.722595 -65.523117
-148.740524 197.817307 -65.617088
16.062145 192.982712 -65.806709
107.047684 198.645401 -64.903816
-156.315964 205.633072 -66.746017
-27.105518 201.540985 -68.472412
-116.636253 206.534958 -64.665878
-132.369965 208.139084 -64.268410
-110.488487 207.635162 -64.991768
-111.584557 210.006256 -64.723747
-14.539618 207.361603 -64.376556
20.343176 205.094254 -67.633728
-14.769859 210.533569 -63.697262
-125.398788 215.020859 -65.970787
-22.253231 216.322937 -63.106419
-133.305145 213.698929 -66.328819
-13.299353 211.793640 -65.627457
-145.382309 214.970932 -65.278847
91.711006 216.786240 -64.602005
-165.866989 211.470703 -64.675941
-3.873275 223.352737 -68.582382
11.058112 218.496124 -64.205902
11.107462 227.333603 -64.976563
81.399918 228.105820 -64.202736
7.717628 221.009918 -65.834999
14.518015 225.556213 -64.550354
-16.281618 226.249283 -67.244354
-90.471230 228.062500 -64.944702
-96.879120 225.853714 -64.905022
-3.768723 231.913864 -63.741554
-166.094223 233.925888 -65.706360
13.453026 232.228897 -65.112762
-144.396057 233.358185 -63.718494
12.457423 233.330582 -65.948097
-135.294907 236.434128 -65.643059
-116.336769 236.139206 -65.330620
15.812834 232.063797 -66.585068
77.330116 235.591385 -64.375175
6.955698 233.717224 -63.731495
-112.079170 241.256317 -66.624001
76.083359 237.229279 -65.832314
82.233597 239.073303 -64.890518
-123.548515 241.634125 -64.043236
-113.796432 241.083023 -66.402451
-10.461667 241.021744 -63.508736
72.281914 238.071320 -65.002884
64.390503 245.015045 -66.859131
74.546051 241.968567 -66.786270
-132.804382 244.823425 -64.889915
71.018761 246.058517 -66.672180
67.923744 245.969757 -65.356537
-165.709518 239.107071 -67.193802
-0.443509 248.478928 -65.603210
18.292648 251.641510 -67.091835
-4.999046 249.501678 -65.558372
13.415009 248.974701 -65.865715
66.173912 248.416672 -65.147530
11.862209 251.678146 -67.045250
-10.362721 252.219894 -61.416912
1.181658 250.061111 -63.980659
65.669319 255.123947 -67.140640
6.380867 251.535004 -67.060570
-8.882866 251.022308 -65.082893
13.238455 253.858414 -66.474228
-168.535553 250.653809 -64.863678
59.009880 257.121094 -64.179512
53.566242 257.778687 -64.876183
55.160236 251.349899 -67.787605
-10.966862 259.452698 -67.156898
57.075508 256.574127 -67.209564
-70.743027 258.136749 -65.510551
53.372360 260.962219 -67.346107
-91.411026 261.308380 -67.207458
-124.462250 264.095398 -67.155220
-131.645294 263.146515 -65.365211
43.334972 261.633850 -66.642334
-136.571991 265.225739 -66.826836
-109.908905 267.447937 -67.214050
-113.681328 266.722656 -63.791904
-83.940910 265.194550 -65.748253
-112.389000 269.543610 -66.188171
-123.340797 273.280182 -66.057724
-145.981934 276.392944 -63.982342
-16.040363 271.806152 -65.933159
-167.179047 273.895966 -65.992226
-16.031157 282.384155 -66.429558
-158.357758 277.136688 -65.343872
-153.468552 286.153198 -63.949677
-168.018677 287.034729 -65.247299
-12.155585 284.608459 -65.459763
-133.733353 295.343658 -67.229622
-160.088852 296.691650 -65.879662
-146.904694 292.995270 -64.892769
-134.348648 295.871002 -67.299759
-8.782490 295.185364 -63.254292
-124.327675 294.900787 -69.235680
-142.177734 294.245361 -68.302895
-115.561081 294.423615 -65.729736
-76.433189 296.237152 -65.817764
-62.547562 295.391876 -65.712196
-5.109601 298.361755 -64.419479
-53.291866 300.619354 -63.955196
-57.916122 298.832825 -64.795258
-67.349388 300.894562 -63.705067
-84.719955 302.328400 -66.755768
-98.691086 300.475128 -63.729214
-161.102051 300.470245 -64.260574
-163.539490 303.515808 -67.585251
-127.179535 304.346069 -66.056358
-145.191864 304.991913 -66.279327
-154.108261 310.959564 -68.430344
-147.998642 321.594940 -65.418571
47.508965 28.268681 -64.794601
19.352221 37.056759 -65.816833
43.375820 44.355255 -64.149536
-14.333444 76.397301 -65.819405
83.299873 73.259262 -64.508415
86.158783 77.189468 -63.978760
76.025818 75.460876 -63.703728
74.018677 77.988541 -65.135590
91.732445 82.619736 -67.467682
-93.455254 83.097221 -63.172009
71.758003 86.306587 -67.614006
-36.204067 86.633453 -62.458851
101.215164 96.261780 -64.819305
59.810284 99.221062 -65.076897
105.264870 105.323875 -66.413231
103.938721 108.013817 -63.574543
70.046799 108.971710 -65.350235
-77.647499 107.530472 -67.956055
54.473976 112.260307 -66.562927
105.222336 114.383591 -65.207893
47.307240 119.846130 -68.407967
80.493530 115.592094 -64.131325
41.287659 116.967407 -63.971210
106.689560 113.796242 -63.739079
48.865776 116.938156 -63.046314
109.300354 121.499603 -65.559692
109.063034 124.610901 -65.116440
-78.287666 122.829117 -63.864315
-82.977013 127.337646 -64.285423
43.255226 130.386581 -67.075592
113.888138 128.821442 -64.886528
114.153038 133.274246 -63.960274
-85.170753 137.761856 -65.076698
107.633781 133.613831 -65.261467
-58.582184 141.909485 -66.138359
-87.384262 135.870483 -64.720413
-75.096977 137.821381 -63.517490
-56.496384 137.537216 -62.593094
30.556871 138.015442 -63.684921
38.272041 142.712189 -65.593811
-74.520203 147.399979 -64.585289
28.287045 144.014481 -64.658272
109.040466 151.654312 -65.467117
-43.600849 155.760559 -65.348488
25.802904 156.802612 -61.663609
116.204453 155.945572 -63.853558
34.183159 153.289642 -63.760914
109.184822 152.502167 -63.850586
-52.534981 157.904556 -66.642426
-66.969772 160.326126 -62.203064
-50.859619 163.849747 -64.503281
-42.574394 174.074738 -65.401520
6.009043 166.054565 -63.107349
112.791801 164.810608 -64.634911
110.004654 167.066803 -64.507256
8.617062 168.659653 -62.976089
5.201791 172.741760 -66.446869
15.137715 166.133484 -64.903824
25.008793 165.910233 -63.127003
111.570229 174.982666 -63.375999
106.996071 176.867889 -66.261139
24.178770 181.633011 -62.839722
26.580938 169.582886 -63.602173
114.051308 172.397644 -63.991848
-27.711500 183.817902 -64.471344
110.336334 179.111511 -63.666931
16.172396 182.759277 -64.694687
22.513535 174.772888 -64.723808
107.409561 182.633453 -64.645241
25.937704 180.778534 -63.542171
110.151497 189.736099 -63.091255
-39.706429 183.841980 -63.767891
26.786634 184.696457 -63.166801
106.036865 192.376877 -63.486813
24.575573 191.628845 -63.504204
-152.152679 196.552734 -62.799801
-29.305548 198.334656 -62.108040
25.193546 195.352432 -61.593216
-110.585808 202.054611 -65.229454
-108.555176 199.056671 -64.538818
22.414488 197.999588 -62.470112
14.138686 194.122818 -63.432316
-27.699266 198.718765 -65.197586
-27.997265 200.463791 -66.128433
-28.199396 196.550247 -64.436470
18.915520 188.870300 -63.570023
-151.298798 203.393066 -64.414055
-144.218430 204.247620 -64.772400
-142.023834 205.755127 -65.787415
-20.615063 200.944168 -63.921326
12.273461 210.091064 -64.800858
99.720673 204.056030 -63.427185
-112.042007 207.557907 -65.118523
22.785387 208.385544 -65.232552
-16.231739 205.228516 -65.233734
-19.493464 208.459412 -63.513317
98.761284 207.685669 -63.773617
11.185536 212.115479 -64.991409
-21.405006 205.147934 -64.007950
-122.848404 211.392715 -64.225227
-133.445297 214.059158 -64.160408
-112.976936 212.269287 -65.304810
-141.155746 214.855911 -64.892090
18.478167 207.394043 -63.249336
94.968956 216.014267 -64.689613
-166.315399 212.872849 -62.152962
100.288040 213.074493 -63.900101
-18.671778 217.159470 -63.997967
94.270164 222.533356 -66.548462
87.913094 224.811401 -63.570122
13.115735 220.471848 -64.687141
18.922016 221.237000 -65.046761
12.903907 216.706024 -63.795017
-10.898327 229.538116 -65.208420
-95.777748 226.602402 -64.104118
-6.960315 223.223206 -65.823715
92.362572 225.044189 -63.583630
-92.012459 228.824371 -64.828484
-103.346375 229.078247 -64.968109
-90.905731 230.045319 -67.222839
87.092613 231.043610 -62.965836
-133.982224 234.664932 -64.856476
-134.100830 235.284729 -63.256332
-118.219086 233.636383 -64.623695
-111.467781 234.032928 -63.981918
-136.617813 236.226578 -66.459358
-110.913879 236.719971 -67.192459
-114.549927 237.547958 -67.338211
-6.626355 235.415421 -65.123352
-17.261126 233.111618 -63.731636
-0.954433 241.620636 -64.249474
-9.699769 237.477249 -63.477581
16.094995 243.060898 -65.910805
-17.155905 237.650757 -61.892384
-166.044022 235.710159 -64.589928
-0.934167 242.894272 -63.983833
81.196823 239.071793 -65.487335
9.990376 243.951645 -65.401863
-5.591108 244.146423 -64.795181
-156.907867 248.886719 -63.872356
-141.357208 244.514908 -64.646973
64.536087 245.289734 -64.294495
-5.873380 245.701904 -64.801155
5.610201 243.188309 -64.180542
70.609734 245.013153 -64.331726
78.260361 244.643066 -66.856453
69.986862 250.179871 -63.637306
-2.240997 247.962433 -65.405121
57.629692 251.427429 -64.673981
-19.429918 249.067261 -64.761299
-17.369217 251.903992 -65.311676
8.962153 251.122757 -62.857967
65.017441 249.929245 -64.386681
62.378124 248.978516 -64.748154
50.676384 256.936768 -64.035385
59.610195 252.278275 -65.345360
-15.917971 260.800140 -65.229553
-82.903786 261.640625 -63.780731
-76.792320 261.557343 -64.841812
43.026024 258.417023 -65.231209
-145.743500 261.528290 -64.643044
38.311222 264.794312 -65.164856
-91.272758 261.619141 -65.168266
-154.292816 265.726288 -63.236073
-141.154007 264.110840 -65.101738
48.027966 262.626038 -64.558121
-123.530991 266.598816 -63.005058
-117.007767 264.545166 -64.491478
-93.963211 266.667236 -62.795265
-13.293687 262.757965 -64.704262
31.953773 270.623932 -63.665970
24.228113 269.427582 -64.943909
-156.912933 268.982330 -63.135120
-113.871880 271.676300 -65.997963
-13.819945 270.267853 -63.130939
-134.926849 274.636932 -66.351578
-13.979648 280.497498 -63.796528
-168.415329 284.242462 -65.045357
-9.904246 293.270660 -66.043777
-162.115799 298.171326 -64.732376
-162.578476 287.617310 -65.089172
-144.304504 294.639954 -64.541519
-169.669891 295.114166 -65.350594
12.488763 296.891754 -63.690125
-105.605927 295.593658 -64.330353
-86.359520 296.817719 -63.483364
-166.529480 295.765961 -64.212944
-91.913658 296.683655 -64.100418
-150.047409 296.601227 -64.389198
-72.725044 299.123535 -63.165497
-68.351677 298.212860 -64.738182
-80.815895 299.925659 -64.212204
-3.154970 300.115723 -61.603130
-84.402161 300.743683 -62.176559
-99.212036 302.325165 -64.881638
-113.843384 300.792450 -64.700653
-117.838585 301.968475 -64.591003
-135.329544 304.166229 -62.171890
-144.035507 312.491364 -64.602226
-144.403763 320.572266 -65.557205
23.063898 27.335997 -64.930901
30.568928 27.193201 -63.910515
28.204447 29.528643 -64.216446
42.923626 33.934246 -63.138100
26.367153 42.246906 -65.644775
-75.668114 57.834515 -63.702065
89.905502 74.429276 -60.471577
-13.705792 77.995041 -65.036827
100.480728 81.950806 -62.397724
97.660851 86.560730 -66.072990
69.611893 87.719536 -65.459808
66.798500 92.788986 -65.410500
-43.503212 93.264862 -65.299301
61.988144 93.623810 -60.755615
-94.973007 97.055328 -65.990494
-50.117729 94.535706 -61.735317
-56.151352 101.899803 -69.110367
99.202530 105.918159 -66.003937
58.056503 105.296997 -63.909718
64.589211 102.049637 -63.525261
-96.781837 106.340179 -60.051445
109.690170 107.401703 -64.162170
46.525867 107.855629 -63.876743
100.378487 107.165283 -64.397163
104.698441 114.850517 -65.635368
103.993774 116.429558 -65.082184
72.556122 113.812332 -63.657791
89.495262 115.364120 -63.803188
48.428940 121.808205 -66.014122
109.955986 115.971329 -64.084373
45.155354 118.910599 -62.755367
44.875935 110.609917 -61.405022
112.635277 122.346733 -62.978115
-79.882057 121.483910 -64.039574
47.627422 123.999588 -64.096649
36.324776 123.604500 -62.066906
104.052048 119.236679 -63.249767
41.638863 123.156433 -61.598019
-89.160027 126.009560 -64.258339
-94.614197 124.205093 -64.636726
107.386017 127.147934 -62.923874
-93.953850 128.597748 -68.456444
37.451347 131.333038 -62.713531
38.192051 128.135696 -63.291363
-80.926476 135.588593 -62.441990
32.548161 148.238525 -61.478481
109.991600 143.323120 -63.384686
-51.944736 142.801300 -62.235729
-88.513924 138.854721 -63.495869
36.679852 144.930176 -65.327179
-91.180336 144.513626 -63.590740
-89.461632 149.091125 -64.401535
-48.559128 147.368240 -67.189751
-69.182968 149.436478 -64.402962
-50.547913 144.118011 -62.222931
112.364098 148.333466 -61.331669
-74.944855 149.030334 -62.809853
35.059662 141.591461 -61.493286
-78.588737 149.422607 -65.005127
-73.434174 147.318115 -61.373661
-88.394455 147.889160 -61.694450
-50.997971 158.515442 -64.764854
30.850195 156.677658 -62.046093
27.447525 159.943863 -62.668175
16.777016 155.200012 -62.358398
114.124329 156.338104 -62.455292
-96.716942 164.205826 -62.675953
16.756212 163.518448 -63.007492
-73.360992 161.779251 -63.365726
22.248346 159.923706 -63.278343
-49.081707 165.272278 -62.831520
9.090040 161.445389 -63.416847
14.155800 166.374023 -62.686401
19.398945 172.324341 -64.534912
-44.604084 173.119904 -64.924667
-41.563404 163.071381 -64.082436
-44.943253 168.705399 -62.679707
-105.625648 181.530106 -64.207756
21.746159 183.876343 -63.356113
-35.674652 183.265030 -61.782578
15.999811 186.387558 -62.868134
-144.391815 185.748260 -65.323433
-33.877316 182.681351 -62.885220
-151.475266 185.819443 -63.613289
22.898947 192.893585 -63.892918
-31.508640 183.515228 -62.488419
-109.239304 191.738739 -62.331547
-107.826599 194.147430 -63.178509
-27.825645 194.580734 -63.245960
-23.583839 192.508087 -65.749969
15.601239 200.308212 -63.142708
18.732750 205.141876 -60.990623
14.316056 196.874146 -61.794365
-143.774918 198.531448 -64.990692
17.368792 199.495117 -62.815125
10.717447 207.553650 -64.782295
-139.211609 206.457352 -62.234493
-115.971901 204.615509 -64.500237
13.977531 206.108170 -64.552742
-113.216721 205.627411 -65.243660
-107.907936 201.427307 -64.634262
-162.970673 208.318237 -65.546577
-23.806000 209.704056 -65.836601
17.919537 212.543869 -63.966415
-139.331802 211.881744 -64.372353
-131.087463 213.953613 -62.339329
-17.488935 215.752502 -62.459137
-11.605886 214.338257 -63.777893
-16.522617 216.995941 -63.327805
-143.502182 215.195801 -64.100334
-16.105963 222.579422 -65.905823
-13.209284 223.426254 -62.990372
17.240263 219.390182 -63.548790
-11.990130 221.105087 -64.280701
12.279672 221.162201 -61.228764
-8.236979 227.362732 -62.589813
-18.915808 223.225464 -63.115215
13.500353 231.191986 -63.974445
0.022899 232.228043 -63.093418
12.052103 233.004974 -63.307785
-5.257740 233.904175 -64.306908
-156.038116 234.320892 -65.073357
82.046837 230.836609 -65.706963
-134.024155 235.163284 -64.255310
-134.278214 234.442642 -62.673325
-8.978232 236.721588 -61.844707
10.057038 241.321518 -64.649422
-154.940704 236.366013 -62.081608
86.304901 230.832245 -63.842773
-2.734773 234.593491 -63.248306
-0.008421 236.049988 -66.189690
75.146957 237.169739 -64.962021
0.564841 243.145721 -63.199844
-16.225412 240.688248 -65.419899
-125.683609 244.325272 -66.581543
-3.741951 245.217926 -62.591587
3.647496 243.629227 -62.966564
66.814247 250.250687 -62.888393
-158.448410 250.101578 -62.687672
-12.415307 255.217087 -64.583282
-167.063354 249.366638 -64.605331
8.584212 253.715744 -63.519009
-167.956024 248.806625 -63.329582
-161.002258 253.836319 -63.812851
54.819599 255.813843 -62.458218
63.590446 253.271027 -62.112488
58.614590 251.536621 -63.894745
51.144588 258.791199 -62.996391
-160.010727 255.711929 -62.326214
-156.766739 262.227478 -62.854439
-15.390977 260.435303 -63.821056
-151.983948 257.026062 -64.681351
21.907326 261.472260 -65.659798
-167.014862 260.855194 -64.868126
-165.338593 255.002197 -62.579765
-80.505486 259.877655 -64.432564
-166.810257 272.961609 -64.063057
-84.110512 263.615936 -63.867027
42.774719 263.383636 -62.253799
22.617830 264.666870 -66.314232
-159.439926 270.050079 -63.890957
-99.629669 269.161438 -63.356472
38.715588 267.168701 -64.258987
-102.544685 270.708740 -65.446266
-155.390701 273.703033 -59.105072
-106.029457 269.494415 -61.925392
-165.935715 269.481415 -63.273327
-112.572441 272.453796 -63.894161
-151.645813 274.194458 -63.922405
-156.371017 274.147186 -65.354897
-166.715775 275.101379 -64.491280
-162.177094 271.397064 -62.359280
-163.642807 277.821564 -64.703560
-161.524887 276.744537 -61.976307
24.640902 274.508148 -64.704208
-153.350174 276.173035 -62.230339
-148.520416 293.729004 -61.939419
21.420767 288.381042 -65.314743
-10.834398 284.057343 -62.176769
-126.929779 293.446869 -65.546501
-135.541199 294.383240 -66.204437
-136.007538 295.978729 -62.464451
-124.593369 296.631348 -65.306267
-114.846199 296.373291 -63.566750
-108.660728 297.218170 -63.416943
11.303697 299.479156 -61.634953
-86.284843 297.402100 -61.788643
-149.597336 301.408203 -65.310539
-99.386093 299.103119 -62.048294
-124.870415 301.882477 -60.969788
8.996995 300.351563 -64.522675
-113.706467 301.573578 -63.153137
1.549488 303.616760 -63.663334
-142.920471 302.011475 -61.980560
-152.590729 306.818604 -64.704758
-156.531616 321.025391 -65.801468
-153.937607 324.292969 -65.520668
51.210819 35.786942 -64.327469
22.777901 45.543758 -65.780640
34.223358 45.299164 -65.702972
-47.325153 56.552170 -64.437225
-15.655039 71.552505 -62.725864
94.855591 80.929520 -63.822350
68.570686 81.289413 -62.830818
-23.052835 83.705978 -64.618690
-93.931168 94.598526 -66.239838
-40.788364 89.176491 -63.117176
67.476646 93.206299 -61.304909
58.025852 97.268906 -62.333038
56.270164 97.836777 -61.718605
-58.449982 99.010834 -62.980549
65.531013 98.050285 -62.654930
45.915218 106.490623 -64.179497
68.206215 106.227295 -62.677662
-64.785332 105.161026 -61.899204
49.659885 107.754364 -63.154560
45.077003 108.258545 -63.500992
104.535255 109.337013 -63.762066
-67.572861 109.290314 -62.889194
110.512367 112.183556 -62.920116
-79.264694 107.400635 -63.170109
55.982346 112.968254 -64.354515
48.748821 110.179054 -63.056252
93.378136 113.584602 -64.580864
85.165688 118.275726 -58.498787
52.436592 114.183350 -61.632694
-74.651138 119.025070 -65.921227
-75.577126 121.226204 -62.008347
-78.651367 128.489471 -64.114655
-93.072762 128.962906 -64.173096
107.991646 124.913101 -61.154625
-86.093353 127.739761 -63.477547
-77.956161 129.070679 -61.581600
108.672066 124.798607 -61.601288
-64.653114 128.163986 -59.486874
114.686012 140.767715 -62.277973
107.043846 139.808075 -61.788139
110.627563 133.784454 -59.743553
-94.078758 147.936951 -61.252213
-50.285141 151.808548 -63.472809
-76.498657 156.727066 -64.117233
-69.805199 159.866135 -62.667049
-72.525932 154.910507 -60.878662
-54.427532 153.300079 -62.195339
-46.797867 157.313126 -63.034302
20.543936 154.716278 -62.723282
-95.215416 155.992935 -63.270260
-44.724243 159.714066 -61.668209
-53.766571 161.134125 -63.380825
-41.851254 165.277527 -61.999516
29.803953 175.329208 -62.894196
-48.519062 159.559341 -61.015800
-96.758316 160.272491 -62.433701
-43.123989 168.207657 -61.434742
26.883724 160.779739 -62.239414
-102.777458 172.946396 -62.540367
22.472626 166.856308 -64.425377
-107.247070 181.430893 -64.390846
-101.359192 172.860779 -63.735485
22.628885 173.182648 -61.829544
25.639803 177.525238 -63.169460
-104.015961 184.222885 -64.568863
-141.901825 186.460907 -61.588036
-21.190266 197.866638 -62.254505
-28.664381 195.021378 -63.949436
-113.242691 195.766800 -62.276581
-142.531540 197.842957 -57.738903
-106.373840 192.086212 -59.825932
-155.508530 201.888977 -61.937759
-132.315842 204.189514 -64.064621
-133.308456 204.871719 -61.699684
-21.030491 204.156372 -61.470268
-123.097336 206.436661 -61.592854
-115.009766 205.578400 -60.548141
-23.180796 208.697784 -60.239296
-153.802505 211.319199 -61.945370
-131.030472 214.888428 -65.832809
-123.674370 215.743301 -63.091759
17.590775 210.582962 -61.012619
-159.454315 215.407715 -59.257236
8.678858 222.752274 -64.835487
12.778123 223.280350 -62.013805
-19.337351 214.581635 -62.062271
-5.695862 225.617569 -62.961750
-166.985168 218.356552 -61.786804
-156.884384 222.886841 -63.693398
-94.492584 226.657669 -63.167984
-99.571938 233.011490 -62.168880
-160.545166 230.851273 -61.312801
-104.093994 229.363098 -62.912273
-10.275517 228.394089 -62.209476
-124.321869 232.357040 -63.017323
-141.118607 234.999908 -63.967266
-0.787510 233.028091 -62.236141
-133.225861 234.939713 -63.210751
-122.517670 234.225464 -66.537979
-114.490913 237.067734 -61.087238
3.652246 235.874451 -61.711060
-105.833649 238.068329 -64.644081
-157.574280 231.144730 -60.459343
-147.620987 237.470657 -60.398945
-165.588760 234.456635 -60.988205
-6.767161 239.288361 -64.064812
-8.548289 241.526566 -60.070274
77.527672 236.209610 -62.470982
2.764158 240.591599 -63.540249
-142.176147 243.394012 -65.034805
-12.472823 237.659485 -62.858013
74.556252 238.141129 -62.663212
76.483185 243.464096 -63.407352
-133.533768 242.887558 -62.735172
-159.003708 238.167053 -60.547382
-114.695396 244.464844 -63.031174
-121.858276 246.261902 -60.584423
-163.896515 244.312820 -61.701733
-159.685394 245.288559 -63.831287
-144.901382 244.997864 -64.513718
-9.922940 246.401810 -64.011955
-3.796676 248.707947 -63.648315
-160.615448 249.393005 -60.540146
5.993859 248.811264 -61.350784
7.413176 243.886917 -62.528679
-161.120132 250.432892 -63.226101
14.681267 255.112274 -64.914200
51.329727 254.480362 -62.795597
54.123142 254.707428 -61.893291
-13.916429 254.757614 -65.441841
49.764465 257.223938 -62.344109
-162.328888 262.916565 -63.715210
-162.623276 257.141113 -61.745094
-159.282898 258.736542 -61.286217
52.814354 261.135468 -65.771454
-89.661743 261.642365 -62.280216
-127.014725 264.619232 -62.116192
-106.681740 264.899597 -63.871143
28.546204 267.740967 -62.781445
44.575695 262.539093 -62.648304
-100.437553 265.830383 -61.285610
-95.398453 265.521606 -62.835426
44.463272 263.223022 -62.814819
44.498074 264.878082 -61.911598
-155.383163 268.372437 -65.110916
33.443222 267.709808 -61.798615
-142.377991 275.330566 -64.820419
-114.225983 273.669556 -61.115192
-135.235550 272.004456 -66.525345
29.824060 272.449738 -63.458256
-125.502754 273.707245 -60.948174
-11.336890 269.237213 -61.882195
22.603872 281.494781 -63.484200
-6.276451 276.595856 -62.677582
21.072845 289.031586 -63.276020
-150.946518 293.470917 -62.449211
-8.134780 289.654480 -63.008732
-155.795959 294.045746 -63.806389
-125.194908 295.245667 -63.632298
-155.373413 295.371674 -65.859062
-114.217133 296.185455 -62.486023
-106.177971 298.170990 -62.170715
-6.981055 296.369934 -62.972076
-110.283600 300.471436 -62.597813
-115.366966 297.734955 -61.069332
-116.734581 301.481140 -62.586136
-135.266174 298.475677 -62.301163
-125.062881 302.831329 -62.150764
-156.386734 300.546936 -64.759827
-143.208969 304.677124 -64.234810
-152.484680 309.487183 -62.896660
-153.278000 320.256897 -60.784672
-154.846268 310.707916 -64.002464
-144.916397 321.873657 -61.545403
-151.851334 321.128479 -61.380562
35.131641 20.922033 -63.163094
43.913872 24.247036 -65.082474
26.057203 35.311783 -57.879410
51.855679 40.346020 -64.163269
29.676111 45.820728 -66.247437
35.645531 47.174839 -65.564529
-57.733334 53.771332 -59.981003
85.028755 73.461723 -61.785076
78.883759 75.499947 -64.476257
-91.082245 70.911064 -62.568787
-10.955297 74.790558 -60.548840
-91.011261 77.189766 -64.784348
96.148499 80.949379 -61.757339
-14.342380 77.738060 -60.765633
68.870659 84.800407 -64.464958
-37.212269 85.093346 -65.537025
-27.773935 86.741722 -66.051208
58.327187 94.877571 -63.385586
-44.521038 93.582581 -72.537331
66.207176 96.380302 -60.440063
54.437798 97.345192 -65.043350
50.699905 101.636864 -64.504845
62.302975 99.914474 -61.248943
58.150402 105.789848 -63.458603
102.252357 107.306015 -61.930721
104.652184 105.481865 -63.265957
60.358173 109.067719 -63.689137
106.150032 105.592094 -59.580402
-75.202240 110.306572 -62.844845
-71.728165 108.753952 -61.232571
102.046440 109.430519 -60.327923
52.541233 110.332657 -61.171307
71.388123 110.082909 -62.477520
-75.000420 114.597977 -60.869049
-84.568985 115.456955 -61.432190
93.597389 114.947960 -62.049358
42.823051 115.049011 -62.212135
104.806717 115.212112 -61.696445
45.174618 122.729691 -63.626869
109.028152 114.717476 -63.278805
-79.028114 117.655815 -61.031380
107.323280 117.674789 -61.473789
-85.009224 128.803848 -61.587189
-58.588593 137.945389 -63.347195
-53.488148 136.444107 -59.974518
-73.719055 139.606918 -62.532608
-50.836926 139.846893 -62.110321
-84.693321 137.161911 -64.192719
-77.142548 144.140015 -61.134972
-83.374954 137.366470 -59.678478
-58.161510 151.351456 -63.322208
-74.338829 147.932297 -60.519669
-58.072365 146.964890 -59.823280
-61.084476 149.252335 -64.551804
24.311651 150.465927 -61.791828
-89.972931 154.182297 -61.926544
-45.246571 152.433701 -60.987686
-98.460068 158.680771 -60.151424
-99.460327 161.298294 -61.810349
19.846981 160.859879 -62.132946
13.940070 165.783035 -64.131279
-96.302933 167.428604 -61.968681
-102.297180 167.328857 -62.246391
-100.002983 178.478317 -62.267860
22.799963 179.949982 -59.392925
-106.056686 181.245102 -61.951340
19.732170 178.183884 -62.281261
-146.641739 185.672775 -60.990257
16.841700 187.718826 -61.885338
21.851456 195.076706 -61.816799
-153.459244 197.194321 -62.029892
21.435228 189.653412 -60.781334
19.203394 190.005417 -61.981968
-140.860474 196.985474 -63.348629
-150.818512 197.405777 -63.204681
19.334547 198.273956 -62.117012
18.183508 199.463593 -59.910183
-142.498993 200.722900 -63.993088
-106.891586 206.669327 -62.365925
18.407278 208.007629 -61.563568
-125.022705 203.937790 -62.529366
12.567916 207.698318 -61.196899
-133.137970 202.368469 -61.345379
-154.528839 204.207153 -61.972385
-163.173477 206.542389 -64.013359
-161.966690 207.886276 -60.245022
-18.945707 208.207458 -59.739441
-165.836426 210.370178 -61.900341
-23.352877 200.242630 -60.536770
-14.212897 207.716705 -62.580990
14.346628 205.285553 -59.682747
-160.673752 210.495865 -61.295383
-110.622910 210.830658 -61.151382
-18.938835 215.169693 -60.897522
-158.413605 213.486008 -64.404770
15.471685 210.635574 -61.303696
-165.639511 212.927444 -61.722946
-122.865395 212.007004 -63.723724
-112.814308 214.461060 -61.033005
-122.742371 216.188431 -60.081406
-13.436614 216.287949 -62.502991
-12.565849 215.820816 -59.928539
-163.612137 219.167648 -61.485813
-161.379715 224.124329 -62.105103
-165.319565 229.775848 -60.233799
-143.857239 224.890427 -62.523857
-143.850876 231.021240 -62.722542
-6.955090 230.576080 -59.889839
-11.508493 226.662476 -61.013615
-98.884041 232.217621 -63.796944
-5.754755 237.691986 -61.609863
-165.115509 238.001572 -60.819855
-110.893097 240.411774 -61.249218
-0.173700 236.253662 -60.655880
2.958257 240.067429 -60.351875
-111.892120 241.557053 -62.562241
-0.481119 240.588501 -61.281437
-115.901482 242.955627 -61.944458
-7.086821 247.295731 -60.769806
-2.414047 243.861908 -61.251217
0.038193 245.109344 -62.492878
68.970276 245.519043 -60.936684
-13.321717 247.557846 -63.564240
1.442470 249.730438 -63.703548
11.900898 249.953629 -60.242123
5.801055 248.931992 -61.481514
0.659859 249.565979 -61.535210
65.024193 245.802750 -59.532059
69.951126 249.363953 -61.124550
9.195971 254.431488 -62.642586
56.629532 252.924301 -61.149078
56.064320 251.480621 -62.256882
46.414543 255.526031 -62.084423
40.798611 260.585663 -62.146725
39.850258 261.610413 -60.792477
-133.887802 264.571808 -61.660023
-11.792279 263.648651 -62.973232
24.722851 268.396729 -61.069832
47.706425 260.956696 -62.902073
22.724400 266.229462 -61.635902
-100.951149 266.489960 -61.943932
34.357048 265.181549 -61.365520
-150.694138 269.313507 -61.903873
-116.094025 268.432251 -61.923656
-106.062874 268.061035 -59.606110
-7.137935 268.614227 -61.451080
-147.629471 266.971313 -63.238789
32.818157 269.897949 -60.395096
-109.426575 268.271790 -60.997368
25.663158 270.662354 -60.242989
-135.786072 271.134186 -59.398903
-113.416977 270.372162 -60.762661
-106.517120 270.136017 -62.298851
-117.359901 272.405701 -60.213253
-136.705856 272.435059 -61.641937
27.278137 272.001007 -60.721497
-116.661057 274.498322 -62.296005
-144.743378 273.423859 -63.772293
-6.329588 281.192047 -60.010643
-152.665573 292.894440 -62.426083
-8.738897 290.503632 -61.247288
-5.080916 294.824341 -61.187901
-134.548431 295.863953 -60.857800
-124.672150 296.565308 -62.253448
-136.060013 303.156372 -61.934853
-126.830971 305.515594 -64.323418
-152.819305 307.172089 -63.659103
-152.191666 311.049316 -60.868008
-147.929749 309.132904 -60.160351
-152.122940 311.805237 -60.693058
-144.375061 312.907928 -63.027798
-146.638931 311.847809 -62.738617
-147.783890 322.992432 -61.641926
19.715458 39.460007 -64.609772
48.751419 44.408119 -63.285938
28.200207 49.197029 -63.773689
33.986954 50.702545 -65.171860
-44.135059 56.567356 -60.804920
-78.320511 62.124126 -61.763214
80.185455 70.257721 -59.251408
76.276840 73.675766 -60.461536
69.463203 77.372955 -59.332096
-97.020782 84.477142 -61.010712
101.069649 87.144852 -61.602051
-34.208447 88.039116 -57.788326
65.131935 87.730179 -59.647903
-46.347900 89.749397 -58.058617
-50.634010 92.895126 -57.906174
51.437981 101.202141 -62.114902
102.093033 101.388107 -62.666615
66.440750 105.332581 -59.192516
58.996281 104.728264 -60.237076
50.868317 110.069344 -61.042870
