29.307634353638 -72.314926147461 -35.758636474609 1.119178533554
35.279552459717 -71.631736755371 -37.101539611816 0.723539829254
-58.086254119873 -66.010597229004 -43.848648071289 1.561062097549
84.708602905273 -67.827102661133 -63.298503875732 0.405172079802
78.566291809082 -70.513374328613 -65.351272583008 1.715027451515
-91.406646728516 -68.562561035156 -61.049068450928 2.297516107559
-11.272650718689 -66.560455322266 -64.788986206055 1.431885838509
-91.325614929199 -70.768638610840 -67.330993652344 1.069532275200
95.841087341309 -67.791320800781 -70.767150878906 1.473393797874
-14.654765129089 -66.771781921387 -67.742584228516 1.341172099113
68.569068908691 -70.485031127930 -74.668746948242 1.059063434601
-37.513473510742 -71.525268554688 -75.144027709961 1.702136516571
-28.072500228882 -72.039741516113 -76.777114868164 1.667296767235
58.043102264404 -69.387283325195 -84.762207031250 1.178432345390
-44.809818267822 -78.510543823242 -83.656311035156 1.754190325737
65.926498413086 -66.441818237305 -86.247055053711 0.995131850243
54.157444000244 -71.040161132813 -87.238952636719 0.954469025135
50.427028656006 -70.494049072266 -91.536178588867 0.873291015625
62.028095245361 -67.244194030762 -89.789077758789 1.543260455132
57.884899139404 -69.443725585938 -95.674865722656 0.992947399616
101.989799499512 -67.926597595215 -97.113586425781 1.098822951317
104.386131286621 -69.265304565430 -95.287384033203 2.157840490341
60.098182678223 -69.669952392578 -98.949325561523 2.091541051865
105.885231018066 -65.580032348633 -95.389465332031 2.524255990982
-75.459609985352 -68.783676147461 -100.417846679688 1.193978548050
-71.987716674805 -67.174781799316 -98.856857299805 1.013589024544
101.787979125977 -66.320526123047 -99.236007690430 1.343747973442
52.284149169922 -67.147895812988 -100.223754882813 1.287619709969
71.130195617676 -68.460060119629 -99.943878173828 1.186812758446
-75.249893188477 -66.801445007324 -104.705902099609 1.307584643364
-84.817146301270 -67.360450744629 -105.582031250000 1.024924755096
93.347839355469 -68.031105041504 -104.770431518555 1.714675426483
42.573719024658 -68.178710937500 -104.958221435547 1.419551372528
104.557701110840 -67.681114196777 -105.014953613281 1.144038796425
44.937957763672 -69.582504272461 -112.637023925781 1.174238920212
108.777824401855 -69.265464782715 -104.515518188477 1.925157904625
-79.272415161133 -66.957954406738 -107.770828247070 1.409337878227
107.078521728516 -67.455467224121 -107.472991943359 2.193125486374
-85.234687805176 -67.495117187500 -118.929855346680 1.165631413460
-58.799041748047 -69.249092102051 -128.029052734375 0.646038591862
-53.700176239014 -65.880203247070 -126.513961791992 0.529661953449
-73.926399230957 -68.427520751953 -129.715118408203 1.136613726616
-51.043785095215 -68.011634826660 -129.915466308594 0.873263001442
-84.905303955078 -70.088081359863 -127.291320800781 1.292937755585
-77.341751098633 -67.022003173828 -134.251907348633 1.445500969887
-83.585258483887 -65.573921203613 -127.486801147461 1.259635210037
-58.349102020264 -69.203933715820 -141.434310913086 1.164301633835
-74.531394958496 -66.401786804199 -138.038467407227 1.545732975006
-58.266407012939 -65.711677551270 -137.042297363281 1.233936429024
-61.275997161865 -70.435844421387 -139.342025756836 1.575189352036
24.122842788696 -67.699302673340 -140.405975341797 1.118531227112
-90.155227661133 -67.794578552246 -144.317230224609 1.083017587662
-45.431655883789 -66.871597290039 -142.491012573242 1.638207912445
-98.634155273438 -66.010131835938 -148.827453613281 1.536199331284
-99.630439758301 -67.664802551270 -151.449188232422 0.633760869503
19.675794601440 -68.023361206055 -150.807998657227 1.397788643837
13.776699066162 -70.012489318848 -155.744247436523 0.877318978310
-96.462646484375 -67.814788818359 -157.574340820313 1.349977970123
-102.457138061523 -68.090873718262 -157.485244750977 1.255897164345
-100.143951416016 -68.096138000488 -168.630798339844 1.315626740456
22.662111282349 -65.255317687988 -169.888870239258 1.837277412415
-106.192832946777 -67.773643493652 -171.407394409180 1.665385365486
19.590465545654 -68.145416259766 -168.132385253906 0.866462767124
-146.769973754883 -66.793846130371 -175.902755737305 0.652859210968
16.716367721558 -67.734199523926 -177.671630859375 1.095187664032
21.738676071167 -67.656005859375 -185.020843505859 1.229840755463
-153.568130493164 -67.814018249512 -187.437454223633 0.910339534283
21.313510894775 -66.628623962402 -179.596710205078 1.013866782188
19.081928253174 -67.828063964844 -179.954330444336 1.648172616959
-140.970138549805 -69.136795043945 -187.209136962891 0.218092978001
-150.927398681641 -68.989265441895 -187.646194458008 0.732900917530
19.227132797241 -67.950630187988 -188.222839355469 1.785866022110
18.078771591187 -65.741661071777 -189.411087036133 0.996797561646
-142.602462768555 -69.775115966797 -190.950317382813 2.727871179581
-106.984519958496 -68.149482727051 -196.833618164063 1.224597692490
18.316619873047 -67.382179260254 -197.957229614258 1.782106161118
-125.120315551758 -68.311698913574 -194.133224487305 0.941897809505
12.476845741272 -67.014244079590 -197.657302856445 2.407640457153
-133.237884521484 -67.127685546875 -192.575927734375 2.738219738007
-154.625762939453 -67.745582580566 -194.451995849609 1.422882199287
-163.267013549805 -69.780456542969 -196.805053710938 1.551896810532
-162.056823730469 -66.010444641113 -198.141174316406 0.607625186443
-19.035421371460 -65.546691894531 -198.217926025391 1.213046431541
-165.922805786133 -67.660858154297 -200.634170532227 0.607964217663
-23.456392288208 -66.354774475098 -190.261825561523 1.800227165222
-14.304291725159 -68.390380859375 -197.723419189453 1.813696622849
14.251887321472 -65.504272460938 -195.239227294922 1.560013055801
-160.759750366211 -67.057235717773 -200.750152587891 2.118155002594
-110.708389282227 -66.927536010742 -200.999450683594 0.768880188465
-19.017023086548 -66.694236755371 -205.181900024414 2.009559869766
-158.495422363281 -70.162757873535 -203.741134643555 2.579486846924
15.385584831238 -67.117454528809 -200.589782714844 2.186042070389
-165.721466064453 -67.479652404785 -203.190826416016 0.343823015690
-122.949600219727 -69.494476318359 -202.200531005859 1.249985098839
-112.893562316895 -66.803016662598 -204.633392333984 1.220448732376
-122.818382263184 -65.845863342285 -206.376235961914 1.900035977364
-13.513378143311 -68.299636840820 -206.293197631836 1.755012273788
-12.642656326294 -65.726150512695 -205.820693969727 2.284256696701
-163.683410644531 -67.233665466309 -209.427200317383 1.703891158104
-161.442733764648 -67.846115112305 -214.380996704102 2.116132974625
-165.372375488281 -65.965087890625 -220.036376953125 3.160823822021
-143.919097900391 -68.268890380859 -215.117874145508 1.338197827339
-143.902343750000 -68.458297729492 -221.248962402344 0.761748433113
-7.006748199463 -65.666770935059 -220.566299438477 1.507088541985
-11.567142486572 -66.795127868652 -216.662155151367 1.931747555733
-98.933868408203 -69.544189453125 -222.370376586914 1.005965590477
-5.794792175293 -67.376380920410 -227.682739257813 0.520447313786
-165.154479980469 -66.538749694824 -228.262619018555 1.851414680481
-110.928192138672 -66.980506896973 -230.581100463867 1.093329429626
-0.215919151902 -66.426223754883 -226.233459472656 0.644515752792
2.922620773315 -66.117370605469 -230.041442871094 1.638766646385
-111.925643920898 -68.291496276855 -231.730056762695 1.047094225883
-0.516133069992 -67.045127868652 -230.569778442383 0.836260616779
-115.932434082031 -67.670417785645 -233.134536743164 1.200495600700
-7.110241889954 -66.521385192871 -237.287445068359 0.445289522409
-2.443469524384 -67.009376525879 -233.846420288086 1.303854465485
0.010527580976 -68.249877929688 -235.091552734375 0.449772179127
68.943634033203 -66.713462829590 -235.381454467773 1.912704586983
-13.345498085022 -69.313575744629 -237.564407348633 0.485301941633
1.422322630882 -69.453964233398 -239.712066650391 0.961687386036
11.882126808167 -65.995300292969 -239.912200927734 1.648340106010
5.780190467834 -67.234428405762 -238.902832031250 1.128342270851
0.640068888664 -67.285644531250 -239.545654296875 1.281642079353
64.998458862305 -65.307243347168 -235.669754028320 2.593998193741
69.930984497070 -66.895797729492 -239.224960327148 1.286092042923
9.184131622314 -68.388175964355 -244.398284912109 1.668648838997
56.615470886230 -66.910987854004 -242.808044433594 1.624455690384
56.047473907471 -68.020812988281 -241.367004394531 1.193608641624
46.404663085938 -67.839370727539 -245.428588867188 1.569277286530
40.797344207764 -67.892356872559 -250.497848510742 1.902505517006
39.851139068604 -66.536270141602 -251.522171020508 0.953522562981
-133.881790161133 -67.347930908203 -254.780868530273 1.145762085915
-11.788465499878 -68.698661804199 -253.651687622070 2.028670310974
24.735244750977 -66.798881530762 -258.334655761719 1.396219015121
47.705554962158 -68.649177551270 -250.858261108398 0.889819324017
22.732936859131 -67.367637634277 -256.171691894531 1.961637258530
-100.942016601563 -67.638679504395 -256.643371582031 0.801336109638
34.363857269287 -67.102287292480 -255.103530883789 1.694877266884
-150.680084228516 -67.579627990723 -259.551574707031 1.524140715599
-116.081550598145 -67.610984802246 -258.611389160156 1.342553019524
-106.050369262695 -65.296974182129 -258.219573974609 1.621566295624
-7.125221252441 -67.170372009277 -258.606994628906 1.461838483810
-147.619827270508 -68.918991088867 -257.206207275391 0.998427927494
32.833293914795 -66.124267578125 -259.821075439453 0.848564207554
-109.414115905762 -66.686912536621 -258.438171386719 1.769073247910
25.679655075073 -65.968879699707 -260.597412109375 0.479232370853
-135.768218994141 -65.076316833496 -261.343048095703 1.609786629677
-113.400863647461 -66.447845458984 -260.544982910156 1.352182745934
-106.501869201660 -67.986434936523 -260.299377441406 1.134304404259
-117.340156555176 -65.894187927246 -262.584411621094 0.383063316345
-136.686431884766 -67.317108154297 -262.648895263672 1.296568036079
27.296772003174 -66.445838928223 -261.934051513672 0.644059956074
-116.638351440430 -67.973983764648 -264.678985595703 1.595352649689
-144.722885131836 -69.443580627441 -263.654602050781 0.931721270084
-6.295017242432 -65.711128234863 -271.181243896484 2.078389883041
-152.611480712891 -68.065551757813 -283.136596679688 1.256672859192
-8.688815116882 -66.932960510254 -280.498809814453 1.295942187309
-5.023458480835 -66.868118286133 -284.813171386719 1.018028259277
-134.488861083984 -66.498138427734 -286.072845458984 0.477331519127
-124.611808776855 -67.895645141602 -286.759490966797 0.600091099739
-135.988327026367 -67.563697814941 -293.369476318359 1.727079272270
-126.755973815918 -69.951423645020 -295.716552734375 1.156000614166
-152.741256713867 -69.276908874512 -297.416320800781 1.501408338547
-152.106170654297 -66.480133056641 -301.288238525391 1.463444471359
-147.847335815430 -65.776641845703 -299.363494873047 1.949971675873
-152.036117553711 -66.304061889648 -302.043792724609 1.698147058487
-144.287063598633 -68.639419555664 -303.136840820313 2.526548624039
-146.552642822266 -68.351173400879 -302.080108642578 1.668159246445
-147.678283691406 -67.237274169922 -313.225006103516 1.173588514328
19.336641311646 -70.683944702148 -29.412422180176 1.060480475426
48.381370544434 -69.361213684082 -34.309047698975 0.549406766891
27.838214874268 -69.835632324219 -39.133701324463 1.476325750351
33.627105712891 -71.233230590820 -40.631469726563 0.616031289101
-44.483482360840 -66.834304809570 -46.622745513916 0.543286740780
-78.659675598145 -67.774070739746 -52.239196777344 2.179378271103
79.860588073730 -65.296852111816 -60.098918914795 1.093863010406
75.957450866699 -66.500648498535 -63.525447845459 1.099573254585
69.150459289551 -65.363594055176 -67.232528686523 1.744761943817
-97.321601867676 -66.982192993164 -74.622879028320 2.203923940659
100.772834777832 -67.628105163574 -76.953994750977 1.580086231232
-34.502365112305 -63.773002624512 -78.072937011719 3.156843423843
64.836761474609 -65.662437438965 -77.597595214844 1.038551092148
-46.638961791992 -64.037117004395 -79.804321289063 2.704582214355
-50.919658660889 -63.878639221191 -82.957107543945 0.459998041391
51.165061950684 -68.104988098145 -91.096572875977 1.892231225967
101.820175170898 -68.671401977539 -91.197082519531 1.013274550438
66.175697326660 -65.180793762207 -95.197021484375 0.427560925484
58.729907989502 -66.224060058594 -94.606964111328 0.874160766602
50.610828399658 -67.019363403320 -99.963104248047 0.671435296535
58.216224670410 -66.745735168457 -96.744140625000 1.557166099548
103.811843872070 -65.068321228027 -97.466445922852 1.206472873688
69.990386962891 -66.445945739746 -102.684051513672 1.237567663193
48.184341430664 -66.381950378418 -104.162231445313 0.988865315914
78.677467346191 -69.400093078613 -105.376403808594 1.322719931602
90.525672912598 -64.346122741699 -108.573776245117 0.892850160599
-77.311515808105 -65.709487915039 -104.553573608398 1.566566824913
-85.871749877930 -68.100883483887 -111.941940307617 1.760813474655
-81.965866088867 -67.191894531250 -114.082260131836 1.336060166359
-60.095108032227 -63.947502136230 -116.824966430664 1.699792504311
-57.299240112305 -69.496376037598 -125.897048950195 1.727252006531
-93.246002197266 -68.175575256348 -121.207916259766 0.955676078796
-77.215110778809 -65.942756652832 -119.251525878906 0.418980211020
-75.897483825684 -67.505592346191 -131.145095825195 0.919982790947
-59.923870086670 -66.940429687500 -128.794326782227 1.851892352104
-90.422500610352 -65.083572387695 -129.007568359375 1.897252440453
-89.174964904785 -68.429809570313 -128.601898193359 1.218500852585
-48.416778564453 -69.757164001465 -135.893844604492 1.427085995674
-52.235404968262 -65.476058959961 -134.322433471680 0.918151617050
-76.096191406250 -64.251243591309 -137.828781127930 2.292984008789
-53.249343872070 -67.867889404297 -141.721450805664 1.326257944107
-75.877593994141 -66.477317810059 -141.815856933594 0.774689435959
23.440597534180 -65.178749084473 -137.879577636719 1.843305230141
-56.436363220215 -68.885986328125 -145.603347778320 0.541914105415
-54.769054412842 -66.125709533691 -143.641876220703 2.278392553329
10.643424987793 -66.851264953613 -154.616043090820 1.154889702797
14.008095741272 -65.224380493164 -151.567199707031 1.775925278664
-144.068283081055 -66.034996032715 -174.207031250000 1.815393209457
-108.677642822266 -67.799446105957 -178.997604370117 1.918139815331
-106.610977172852 -66.071891784668 -189.739883422852 1.944808721542
-151.329635620117 -66.057235717773 -192.929504394531 0.985462307930
-110.046203613281 -65.424293518066 -186.026306152344 2.087472915649
-153.159530639648 -65.296905517578 -196.071258544922 1.090449094772
-113.074012756348 -65.731575012207 -197.728363037109 1.001898646355
-149.200057983398 -65.548774719238 -200.010375976563 1.166019916534
-152.072662353516 -68.283721923828 -203.706405639648 1.041398882866
-151.078399658203 -67.210998535156 -213.120376586914 1.608104944229
-146.102996826172 -68.123283386230 -222.997955322266 2.066930294037
-151.445831298828 -68.793472290039 -223.330718994141 1.111392021179
-104.678123474121 -66.195083618164 -221.162948608398 1.657782554626
-103.587188720703 -66.525489807129 -223.708541870117 0.499810427427
-124.130981445313 -64.944801330566 -227.729751586914 1.047894001007
-110.020622253418 -67.194412231445 -227.179397583008 1.879037976265
-154.501678466797 -69.047828674316 -230.289886474609 0.553595364094
-2.192255973816 -67.330574035645 -226.927734375000 1.257502079010
-135.414367675781 -65.743461608887 -231.824523925781 0.665300965309
-150.731613159180 -69.500732421875 -234.833938598633 1.463738441467
-134.329376220703 -67.308425903320 -235.771575927734 1.644783020020
-12.522832870483 -66.384277343750 -237.590164184570 1.813288807869
9.441417694092 -65.432998657227 -240.145294189453 1.567455172539
63.355636596680 -66.667846679688 -240.273269653320 1.493202209473
19.881547927856 -67.531913757324 -247.542373657227 1.122522115707
59.249519348145 -66.811904907227 -245.010345458984 0.812599420547
42.528244018555 -66.504844665527 -248.175643920898 1.743830204010
53.719184875488 -67.951332092285 -247.563217163086 0.548849523067
-150.326370239258 -66.414077758789 -253.010757446289 1.083036899567
-152.080062866211 -69.388916015625 -253.608505249023 0.674306452274
41.314247131348 -66.570533752441 -256.328735351563 1.274189710617
32.939460754395 -66.438224792480 -257.109313964844 1.119580984116
47.906127929688 -67.154251098633 -251.807937622070 1.002735137939
-144.397201538086 -69.859138488770 -254.329055786133 1.655790209770
-133.279663085938 -65.773780822754 -258.815032958984 1.268981933594
-123.466598510742 -65.739974975586 -255.897628784180 2.080354928970
-134.868789672852 -69.782196044922 -255.142501831055 0.532077372074
-141.203735351563 -66.728683471680 -260.036895751953 0.965169250965
-125.051055908203 -66.834358215332 -260.018157958984 1.572500109673
-142.141006469727 -66.245330810547 -258.802703857422 0.247855380177
-123.609954833984 -66.841156005859 -261.346740722656 0.886478424072
-125.056976318359 -67.040336608887 -262.410369873047 1.161843657494
-126.333892822266 -68.488906860352 -263.749694824219 1.249670743942
-116.419097900391 -67.177169799805 -262.795013427734 0.665415942669
-4.176563262939 -66.445060729980 -265.206054687500 0.543513417244
25.023048400879 -68.299736022949 -263.283752441406 1.550055861473
-146.085052490234 -65.737846374512 -265.370300292969 1.620904326439
25.811475753784 -65.901863098145 -266.387054443359 0.877641737461
-2.947273969650 -66.264953613281 -272.838470458984 2.543611288071
16.741287231445 -68.942245483398 -283.848693847656 0.517661094666
-141.085815429688 -67.082000732422 -288.697998046875 1.356701612473
-125.812156677246 -65.064758300781 -286.649871826172 1.283550024033
-135.658508300781 -64.834663391113 -289.384155273438 1.813581347466
-156.296417236328 -64.235794067383 -291.571685791016 1.046555042267
-126.868972778320 -65.750282287598 -289.321472167969 1.471895217896
-119.739959716797 -65.683349609375 -289.363739013672 1.183876037598
-127.770271301270 -66.969177246094 -291.255157470703 1.753675222397
-147.968994140625 -68.120323181152 -297.443267822266 1.746632099152
26.186868667603 -73.185653686523 -12.604827880859 3.058596372604
35.389587402344 -71.918479919434 -16.186561584473 0.318070232868
38.574630737305 -70.588829040527 -18.813291549683 1.345633268356
49.745723724365 -63.264171600342 -24.565921783447 1.832829236984
27.186178207397 -71.365074157715 -28.228309631348 1.917212963104
22.492076873779 -72.007736206055 -37.009346008301 1.716521501541
-34.826351165771 -65.656089782715 -48.849006652832 1.944986462593
-82.534362792969 -65.337699890137 -52.528888702393 2.424048185349
-15.896159172058 -66.768638610840 -54.272693634033 2.217816829681
69.257713317871 -65.459800720215 -65.468078613281 1.192085981369
99.018920898438 -66.972511291504 -67.125732421875 1.796699643135
65.120880126953 -66.660507202148 -82.151824951172 0.999542832375
61.029922485352 -62.993232727051 -80.592147827148 2.166115522385
103.011489868164 -64.969650268555 -83.924743652344 1.794710993767
-62.987880706787 -64.343002319336 -90.000152587891 0.797136008739
-63.884326934814 -65.196609497070 -94.091857910156 0.771266460419
48.206398010254 -66.208290100098 -95.717941284180 1.659674167633
-65.966506958008 -64.867362976074 -96.720138549805 1.053722143173
-70.198219299316 -65.826622009277 -99.556182861328 0.938549876213
-98.072113037109 -64.217781066895 -96.222259521484 1.520893692970
-76.063972473145 -65.861076354980 -102.144348144531 1.207936525345
46.928798675537 -67.609466552734 -99.593811035156 0.857977747917
-69.588302612305 -67.330657958984 -102.074829101563 1.904956936836
53.412990570068 -65.261245727539 -99.325851440430 1.213913440704
97.341407775879 -67.105194091797 -103.031936645508 1.214928984642
93.441932678223 -65.343414306641 -106.727340698242 0.904401123524
-73.942733764648 -65.336059570313 -114.692764282227 2.153916835785
-81.646446228027 -64.838714599609 -114.150909423828 0.635047495365
-61.998798370361 -67.581306457520 -119.766372680664 2.680911779404
-97.916534423828 -64.891921997070 -119.754730224609 1.637056350708
-76.470420837402 -67.540885925293 -128.868576049805 1.039857983589
-90.589431762695 -64.455940246582 -122.590438842773 2.014655113220
-62.083766937256 -66.244430541992 -120.327453613281 2.428920507431
-61.340152740479 -62.557346343994 -119.088241577148 1.382031917572
-87.175788879395 -64.871810913086 -127.645355224609 1.667065739632
-61.667839050293 -68.108230590820 -128.894454956055 1.255352258682
-84.047080993652 -63.863788604736 -130.973297119141 1.313545703888
-73.766136169434 -65.077682495117 -131.205551147461 1.728516578674
-63.673435211182 -65.498619079590 -131.627059936523 1.558631181717
-60.978378295898 -62.912616729736 -137.185882568359 1.510234236717
-54.604194641113 -64.949028015137 -139.277862548828 1.889726519585
-90.688522338867 -65.382667541504 -134.369262695313 1.371702671051
-97.414688110352 -65.990959167480 -143.270126342773 2.178619861603
-84.208259582520 -65.218208312988 -131.362258911133 0.729249656200
23.392061233521 -67.149963378906 -145.453567504883 1.941411137581
-49.194774627686 -65.327476501465 -144.739929199219 1.391641855240
16.498353958130 -64.022926330566 -148.635665893555 0.754282832146
-97.942039489746 -65.288375854492 -161.535461425781 1.229956865311
-102.296577453613 -66.730209350586 -172.123001098633 0.954799771309
-101.770713806152 -65.828216552734 -170.379470825195 0.417979657650
-106.566665649414 -66.237037658691 -165.419433593750 1.341654896736
-104.296623229980 -65.182853698730 -180.606018066406 1.944094657898
-111.349052429199 -65.516639709473 -176.560226440430 1.119076967239
-140.702133178711 -65.522407531738 -187.956893920898 1.089852452278
-110.591392517090 -64.365097045898 -186.707733154297 1.613874912262
-132.053939819336 -63.653621673584 -196.418609619141 0.828913569450
-144.619598388672 -66.156982421875 -198.748977661133 2.040260314941
-123.462432861328 -66.705757141113 -196.124298095703 1.514794707298
-154.555313110352 -67.867568969727 -198.380477905273 1.042783379555
-148.192886352539 -67.391578674316 -202.304611206055 1.636859893799
-122.396842956543 -65.416885375977 -201.931243896484 1.022363305092
-132.869750976563 -66.057197570801 -204.422866821289 1.422184109688
-144.438629150391 -69.465835571289 -203.388687133789 2.405962467194
-133.164093017578 -68.137153625488 -223.387252807617 1.504844188690
-114.126937866211 -66.005432128906 -228.076751708984 1.646315932274
-146.326644897461 -67.182189941406 -228.995376586914 0.546149909496
-116.850440979004 -64.743362426758 -228.955322265625 1.046773791313
-115.300140380859 -66.976119995117 -232.259185791016 1.597959399223
-125.475311279297 -65.578514099121 -233.176208496094 1.161053180695
-126.959747314453 -67.111755371094 -235.115020751953 0.607522249222
-115.586845397949 -64.824394226074 -233.275695800781 0.844171524048
2.710484266281 -64.530128479004 -234.098526000977 1.886906862259
-149.926727294922 -67.544845581055 -235.305892944336 1.472190260887
8.272335052490 -68.673789978027 -231.702346801758 0.832571387291
7.308996200562 -65.749366760254 -238.243942260742 1.181879997253
2.030013084412 -65.288261413574 -239.188034057617 0.962628126144
16.835496902466 -64.427673339844 -238.898178100586 1.884362578392
-146.527862548828 -67.758514404297 -236.672988891602 1.412680149078
-2.245749235153 -64.525398254395 -243.364151000977 1.223682284355
19.602869033813 -66.449356079102 -242.920150756836 1.438008546829
45.823493957520 -63.419052124023 -248.699356079102 1.445850133896
50.789688110352 -66.309188842773 -246.982528686523 1.830223321915
-146.692413330078 -67.662635803223 -252.699356079102 0.844588637352
-4.712674140930 -63.931701660156 -253.323318481445 2.303953647614
25.975698471069 -65.300407409668 -258.239562988281 0.516083657742
-134.630630493164 -64.329978942871 -261.846771240234 1.822179913521
-128.531417846680 -63.406356811523 -261.840972900391 2.039290428162
-124.876502990723 -62.349044799805 -256.926879882813 3.286221265793
25.688369750977 -65.884819030762 -259.781524658203 0.375264525414
-134.869476318359 -67.703979492188 -264.051391601563 0.848952770233
29.266086578369 -63.146144866943 -261.829193115234 0.501430630684
30.543828964233 -64.919853210449 -263.108612060547 2.016532897949
-152.722579956055 -67.632446289063 -266.533050537109 1.617273688316
-147.373428344727 -69.401275634766 -287.801239013672 1.027595162392
-149.315933227539 -64.739151000977 -289.718902587891 1.502167701721
-143.940826416016 -62.251056671143 -293.318481445313 2.471482992172
7.366308212280 -68.311714172363 -291.607238769531 0.793792605400
-155.121398925781 -64.003952026367 -294.748077392578 1.198286771774
43.824180603027 -69.313880920410 -25.073875427246 1.742809534073
36.306995391846 -70.432304382324 -38.999961853027 2.027146100998
-65.140426635742 -66.303184509277 -45.184356689453 1.228514552116
-72.590217590332 -62.175239562988 -45.814369201660 1.734865903854
-27.945873260498 -65.274276733398 -50.613117218018 1.956936717033
-20.058069229126 -65.965377807617 -52.686988830566 2.682271718979
-16.371269226074 -63.327388763428 -67.980957031250 2.526747703552
-23.029916763306 -63.645149230957 -68.223464965820 0.601855814457
64.559532165527 -64.810630798340 -71.379470825195 1.509776711464
-98.451087951660 -64.241539001465 -77.181961059570 0.988994002342
-47.316135406494 -64.721290588379 -83.499862670898 1.236360192299
54.485412597656 -65.169281005859 -85.619354248047 0.466298162937
54.356884002686 -64.007629394531 -88.272354125977 1.809396386147
64.088821411133 -64.978469848633 -91.264648437500 1.214821457863
105.216583251953 -66.688491821289 -91.291213989258 2.189564228058
51.231849670410 -63.462337493896 -94.909317016602 1.504355669022
101.138069152832 -65.736106872559 -101.968978881836 1.842956662178
-78.409103393555 -67.946632385254 -102.281478881836 2.300196647644
-97.991073608398 -66.258338928223 -104.261474609375 1.421899557114
76.462455749512 -63.251056671143 -108.683273315430 0.632019400597
-76.129585266113 -62.915897369385 -103.593276977539 0.610481679440
-75.991821289063 -67.888023376465 -116.949859619141 2.174799203873
-83.145042419434 -65.074996948242 -117.897354125977 0.910549819469
-55.904186248779 -67.299728393555 -126.712081909180 1.692245841026
-79.513168334961 -67.780883789063 -128.979721069336 0.973806202412
-60.489692687988 -65.820228576660 -130.418899536133 2.199410915375
-80.222274780273 -65.549354553223 -135.205139160156 1.170498371124
-74.651062011719 -65.111442565918 -133.754974365234 1.064291000366
-79.659027099609 -62.680610656738 -125.315002441406 1.793505668640
-88.041748046875 -63.752002716064 -130.765228271484 1.332370519638
-62.830463409424 -62.376060485840 -131.655914306641 1.407778620720
-90.861869812012 -63.812175750732 -135.584213256836 0.875151515007
-49.157817840576 -65.812355041504 -135.237655639648 1.118645906448
-57.783275604248 -66.006294250488 -139.833023071289 1.478349804878
27.058534622192 -64.341194152832 -135.257278442383 1.159010052681
-57.295917510986 -63.842037200928 -136.665496826172 1.452608108521
15.017965316772 -65.074928283691 -147.296752929688 0.331687539816
19.884395599365 -66.167152404785 -149.253128051758 1.580243587494
16.285358428955 -62.531150817871 -151.147750854492 1.871170639992
-97.184425354004 -62.240695953369 -145.304977416992 2.303883790970
-93.359336853027 -65.834045410156 -152.110092163086 1.126217722893
-95.907989501953 -62.947216033936 -155.128417968750 1.835665583611
-102.170089721680 -64.468620300293 -158.206481933594 1.241773724556
-96.035552978516 -65.153091430664 -157.308242797852 0.615867316723
-151.424057006836 -69.082145690918 -175.690429687500 1.464304327965
-153.564453125000 -65.680595397949 -177.270263671875 1.274817466736
-104.667396545410 -63.273494720459 -180.631805419922 1.831309914589
-143.086135864258 -62.417633056641 -176.959838867188 1.120290398598
-110.269187927246 -64.757179260254 -179.317642211914 0.863733708858
-151.322372436523 -65.250556945801 -187.416061401367 1.178270816803
-109.553573608398 -63.188007354736 -193.830856323242 2.878100633621
-107.691452026367 -64.752296447754 -187.643234252930 1.193149447441
-141.260375976563 -63.981712341309 -197.125289916992 1.086502552032
-132.119750976563 -64.689414978027 -195.893188476563 0.997132122517
-109.730003356934 -64.796424865723 -197.045013427734 0.288227051497
-114.250801086426 -64.230438232422 -199.501815795898 0.566601157188
-112.095420837402 -63.673095703125 -199.127975463867 0.426881253719
-115.277938842773 -65.931526184082 -201.787185668945 1.808424949646
-134.468917846680 -61.777400970459 -199.474624633789 2.364408969879
-133.751998901367 -64.758125305176 -202.048995971680 0.279321193695
-132.334472656250 -65.844696044922 -203.961608886719 1.118077874184
-126.302955627441 -63.734008789063 -203.845443725586 1.704002737999
-128.155899047852 -66.508155822754 -206.704940795898 2.062333822250
-115.506713867188 -62.631320953369 -204.855209350586 1.835049033165
-145.917358398438 -64.840126037598 -215.363052368164 3.338941335678
-151.663879394531 -67.927223205566 -224.056152343750 0.902886390686
-152.807571411133 -63.052223205566 -224.149108886719 0.551526010036
-142.316741943359 -67.747283935547 -226.823837280273 1.033069849014
-132.549789428711 -63.687782287598 -225.494552612305 1.453746080399
-123.994819641113 -66.663230895996 -224.920669555664 0.811826169491
-141.528503417969 -66.034904479980 -230.299621582031 0.785786032677
-148.106048583984 -66.731506347656 -228.310165405273 1.073728203773
-134.308654785156 -64.653045654297 -227.540878295898 1.378634452820
-134.273773193359 -62.757293701172 -228.067413330078 1.483600497246
-147.355697631836 -68.058753967285 -231.120452880859 1.260824441910
-132.429519653320 -65.196029663086 -233.646347045898 0.839652657509
-125.030548095703 -63.549098968506 -227.676925659180 0.741525590420
-5.988029479980 -67.259086608887 -236.116180419922 1.069292902946
5.093151092529 -62.958011627197 -239.615661621094 1.261058449745
13.060724258423 -62.584022521973 -242.830459594727 1.515390157700
9.136795043945 -66.628883361816 -243.637954711914 0.567152678967
-9.512744903564 -65.545272827148 -242.604187011719 1.347819328308
-11.820119857788 -66.611457824707 -246.589523315430 1.593622922897
40.365383148193 -63.696819305420 -251.670059204102 1.851235866547
50.324344635010 -65.091049194336 -252.749099731445 2.517027378082
-142.675384521484 -62.691585540771 -254.896499633789 1.119907855988
41.094081878662 -63.811779022217 -256.504119873047 2.143938302994
35.084182739258 -62.903919219971 -252.238113403320 2.414457321167
-156.122009277344 -66.056907653809 -259.271484375000 1.640429258347
-152.878417968750 -62.772583007813 -260.987548828125 0.954256772995
-146.292007446289 -68.991065979004 -262.846130371094 2.150581121445
2.163300037384 -63.672157287598 -264.080413818359 1.377687811852
-151.312500000000 -64.988746643066 -263.889434814453 1.607549428940
-1.974882364273 -63.068061828613 -273.883575439453 2.772481441498
-146.645263671875 -66.693161010742 -272.708709716797 2.209412574768
-146.588653564453 -63.066204071045 -282.722717285156 1.167808175087
-150.420928955078 -64.684906005859 -283.540405273438 1.255900263786
-148.497283935547 -65.674713134766 -283.803588867188 1.890140533447
-146.229263305664 -62.886642456055 -286.139434814453 1.335606217384
-154.507110595703 -65.327812194824 -287.458343505859 2.038903713226
-151.264373779297 -64.636268615723 -287.218902587891 1.435068011284
-148.854400634766 -65.516319274902 -287.798400878906 1.584447622299
-148.095504760742 -64.060188293457 -286.873321533203 0.686065375805
-142.975616455078 -63.997333526611 -287.448425292969 1.400178432465
14.286749839783 -64.756629943848 -289.531677246094 1.327827215195
-148.114089965820 -65.972999572754 -290.873809814453 1.350032687187
-155.590698242188 -62.503372192383 -289.711700439453 2.221451282501
-151.589935302734 -62.947326660156 -290.873657226563 1.043061375618
-151.888504028320 -63.776248931885 -293.640747070313 0.934195220470
-151.445892333984 -63.332160949707 -292.808441162109 1.521353006363
-147.555694580078 -63.558986663818 -292.150543212891 1.177928090096
-0.950428605080 -66.555419921875 -292.100616455078 1.300556778908
-144.705139160156 -66.576721191406 -293.017608642578 1.781472444534
-147.986022949219 -60.901477813721 -294.652374267578 2.683316230774
28.506582260132 -58.381381988525 -19.735799789429 1.451586484909
42.220706939697 -67.826072692871 -19.883911132813 2.231476068497
43.144359588623 -63.289894104004 -22.515190124512 1.032220363617
19.662038803101 -69.908874511719 -32.902667999268 2.191704273224
30.127170562744 -58.275684356689 -35.470474243164 2.702459812164
39.452423095703 -70.184333801270 -35.322032928467 0.561619997025
-57.292907714844 -64.686721801758 -44.041309356689 1.295855522156
-50.095676422119 -62.934066772461 -44.036911010742 2.003319501877
88.057884216309 -64.554115295410 -62.583263397217 1.473934650421
-96.371665954590 -63.426872253418 -66.630111694336 1.143818736076
94.318550109863 -67.508110046387 -64.702713012695 1.108633995056
67.296859741211 -64.300186157227 -65.576782226563 1.387988328934
102.537750244141 -63.290390014648 -76.037246704102 1.783786416054
65.005348205566 -65.124298095703 -76.632431030273 0.423904389143
-41.429630279541 -66.447830200195 -78.256164550781 0.946343958378
57.918472290039 -60.710865020752 -81.046173095703 3.132281303406
-59.178184509277 -63.059314727783 -79.456787109375 2.168967008591
62.998794555664 -62.826107025146 -86.139938354492 1.176134109497
60.190746307373 -64.365303039551 -82.598907470703 1.732054352760
-97.455245971680 -65.213645935059 -82.228912353516 1.812562108040
52.019065856934 -64.122497558594 -89.422897338867 1.173565745354
52.199615478516 -66.311820983887 -91.303176879883 0.377728521824
63.207992553711 -64.325950622559 -92.088928222656 1.424833655357
52.492450714111 -62.464084625244 -96.384872436523 1.534708380699
-81.085639953613 -64.246635437012 -106.138778686523 2.219560861588
82.471603393555 -66.872352600098 -104.052520751953 1.567369580269
-75.390548706055 -64.347984313965 -112.915008544922 1.850959181786
-75.428283691406 -62.370605468750 -110.565261840820 1.364936351776
-78.660278320313 -63.776107788086 -121.820541381836 1.674295306206
-86.914108276367 -65.293991088867 -112.040679931641 0.862520575523
-90.552673339844 -66.216163635254 -119.971878051758 1.471390366554
-79.767486572266 -65.134208679199 -124.867904663086 0.180444419384
-54.487026214600 -61.184047698975 -127.483291625977 2.171344041824
-76.792236328125 -62.158172607422 -132.394165039063 2.310579299927
-55.810169219971 -60.970069885254 -135.143173217773 1.156416177750
-86.847427368164 -61.642063140869 -135.661773681641 2.948414802551
29.948997497559 -62.838077545166 -136.867721557617 1.038701415062
19.093143463135 -66.702568054199 -140.186950683594 1.673667550087
-90.969421386719 -63.423664093018 -138.698623657227 0.838878214359
19.507381439209 -62.926864624023 -146.669525146484 1.007598280907
-90.159088134766 -64.851791381836 -143.604736328125 0.875065863132
-95.035934448242 -62.313945770264 -147.943832397461 1.166735887527
21.150171279907 -63.481105804443 -152.310516357422 0.977102577686
-95.287704467773 -64.292663574219 -144.591445922852 1.149405241013
-96.775535583496 -64.263305664063 -147.347106933594 1.150199294090
-102.828231811523 -62.466648101807 -160.389923095703 0.789012491703
-96.509513854980 -64.841285705566 -160.739212036133 1.408918261528
-105.971763610840 -63.781772613525 -173.790435791016 1.187498092651
-106.113975524902 -65.179450988770 -166.782058715820 0.884384036064
-102.366447448730 -63.116100311279 -163.209121704102 1.369200348854
-106.792320251465 -62.795471191406 -173.641494750977 0.726543188095
-142.472824096680 -65.156082153320 -177.450515747070 1.317736983299
-106.619033813477 -63.722454071045 -178.906143188477 1.448634505272
-144.485931396484 -64.008720397949 -187.646759033203 1.064952731133
-148.076904296875 -64.310371398926 -187.676528930664 1.363494753838
-148.164154052734 -65.217849731445 -192.170272827148 1.874006390572
-125.021163940430 -64.822853088379 -195.719665527344 1.424739837646
-130.961242675781 -62.365055084229 -199.025161743164 1.383002877235
-122.401855468750 -64.527473449707 -199.671661376953 0.458553880453
-140.357025146484 -65.445487976074 -203.520248413086 1.265008568764
-125.468437194824 -64.639030456543 -204.744232177734 0.574985802174
-144.989486694336 -65.746612548828 -206.166229248047 0.448208302259
-149.708908081055 -64.681945800781 -207.330017089844 1.052975893021
-155.732162475586 -61.805103302002 -229.375198364258 1.389712810516
-141.339385986328 -65.838226318359 -231.319671630859 0.697007775307
-125.881149291992 -64.156471252441 -232.766921997070 0.624844491482
-155.868072509766 -60.874813079834 -231.420974731445 1.633394360542
-3.301363706589 -66.158157348633 -237.911331176758 0.757901430130
12.691660881042 -63.823429107666 -240.374267578125 1.366578817368
-3.564304828644 -65.284080505371 -245.349868774414 1.012493491173
-146.410278320313 -60.613365173340 -245.413681030273 1.849557280540
-5.667409896851 -61.824455261230 -248.028366088867 0.788760066032
-147.116622924805 -61.522277832031 -253.304428100586 1.106759071350
-5.174331665039 -62.387691497803 -247.546188354492 0.829473733902
-149.557952880859 -62.415340423584 -253.199691772461 0.834385633469
22.466747283936 -67.549751281738 -254.312210083008 1.972821474075
-152.831359863281 -62.719955444336 -256.503509521484 0.397485852242
-146.617828369141 -62.504398345947 -252.890548706055 1.051401495934
-154.451904296875 -61.688804626465 -254.903305053711 1.710110902786
-148.189392089844 -61.042449951172 -257.159027099609 1.412733912468
34.081356048584 -64.952438354492 -255.852706909180 2.135727643967
29.475370407104 -60.925415039063 -261.935791015625 1.894447088242
-146.048828125000 -62.030261993408 -258.745025634766 1.003064751625
-150.647399902344 -61.019500732422 -261.707550048828 1.762881040573
-155.142944335938 -63.958976745605 -260.486022949219 1.176423192024
-148.630950927734 -62.351882934570 -260.266632080078 1.457242250443
25.706356048584 -63.913814544678 -261.681304931641 1.388236284256
29.806980133057 -63.930358886719 -263.514801025391 1.179526925087
-150.460281372070 -63.491096496582 -265.586791992188 0.518875539303
-141.826843261719 -64.237609863281 -262.808929443359 1.751647830009
-153.430465698242 -62.003307342529 -264.641021728516 1.524819970131
-145.440902709961 -63.647735595703 -261.756896972656 0.644737482071
-146.471755981445 -65.868125915527 -267.122253417969 2.161379098892
-151.013549804688 -64.252151489258 -266.421936035156 0.748311758041
-148.873504638672 -63.312572479248 -265.904907226563 1.134454607964
-150.118515014648 -64.231872558594 -283.949798583984 0.823390722275
-150.540557861328 -62.883991241455 -283.293701171875 0.855455935001
-147.942321777344 -62.255043029785 -282.555053710938 1.754498720169
20.169477462769 -64.485275268555 -283.459472656250 1.804632306099
-152.570617675781 -61.970970153809 -283.867248535156 1.926452279091
-147.713073730469 -62.044857025146 -284.607330322266 1.209348797798
-5.137290954590 -65.764442443848 -288.644653320313 0.755049169064
6.153288841248 -65.967102050781 -292.582977294922 2.203361511230
-148.372787475586 -66.150573730469 -296.946838378906 1.590519785881
26.918779373169 -70.039733886719 -20.957321166992 1.266970038414
42.350772857666 -63.482547760010 -27.262729644775 1.728382945061
49.549480438232 -70.757736206055 -32.363864898682 1.096451282501
40.877811431885 -61.552677154541 -32.132686614990 2.689222335815
24.145044326782 -71.088973999023 -38.844997406006 1.614810228348
43.107677459717 -70.763908386230 -40.623966217041 1.215037226677
81.738739013672 -62.782646179199 -59.963191986084 0.604174852371
74.908203125000 -63.577117919922 -60.420024871826 1.310492277145
-11.772984504700 -66.106887817383 -64.286743164063 1.917665362358
63.103565216064 -61.951175689697 -70.676055908203 2.900695562363
-29.433515548706 -67.561843872070 -77.106277465820 1.922333955765
-31.189971923828 -65.200569152832 -79.076400756836 1.637565612793
-54.049613952637 -61.162788391113 -78.113739013672 0.944226980209
-50.388069152832 -63.196048736572 -81.239013671875 1.831917285919
64.239204406738 -64.799125671387 -83.275238037109 1.277627587318
103.299713134766 -67.316596984863 -86.877731323242 1.451990604401
-62.184078216553 -63.018436431885 -88.363693237305 1.059584379196
54.669189453125 -65.126365661621 -93.362930297852 1.632485985756
60.957855224609 -62.662178039551 -91.812973022461 1.089741468430
103.598640441895 -66.295852661133 -95.271438598633 0.981762766838
-66.971008300781 -62.754222869873 -95.407775878906 0.824068725109
55.575561523438 -62.189529418945 -96.808685302734 0.628731131554
-70.838821411133 -65.125152587891 -105.615951538086 1.072510957718
67.097969055176 -67.762870788574 -96.907913208008 1.604927420616
67.989341735840 -62.519580841064 -101.481735229492 1.591244459152
-72.436500549316 -64.383621215820 -107.999420166016 0.930700540543
-99.098373413086 -61.447216033936 -109.431976318359 1.998291015625
-71.227447509766 -61.712593078613 -108.051895141602 2.248681783676
-83.853126525879 -63.695960998535 -112.444046020508 0.588379502296
-64.245910644531 -62.693721771240 -111.007858276367 1.764112591743
-85.163757324219 -62.439102172852 -112.353179931641 1.056558251381
-78.190620422363 -63.175727844238 -115.759567260742 1.261569619179
-75.840362548828 -63.480209350586 -120.760803222656 1.418541789055
-65.532730102539 -64.092163085938 -120.919723510742 0.621484398842
-83.729255676270 -65.045806884766 -123.344558715820 1.047985553741
34.553852081299 -62.192146301270 -126.047332763672 1.625025153160
-54.159355163574 -62.600265502930 -127.852005004883 1.308677792549
30.612924575806 -63.080158233643 -130.016372680664 1.227979779243
31.175359725952 -63.036922454834 -133.373306274414 1.190156817436
33.691616058350 -62.422409057617 -134.119796752930 1.756698369980
-50.398685455322 -63.319732666016 -136.082351684570 1.435007691383
20.169849395752 -63.172691345215 -144.372055053711 2.460527420044
26.312767028809 -63.416095733643 -143.611419677734 1.426680803299
-144.202362060547 -61.901672363281 -177.033645629883 0.796038866043
-148.680557250977 -61.760032653809 -174.691543579102 1.587495446205
-153.848602294922 -62.966796875000 -178.901107788086 2.099641561508
-149.988403320313 -63.564125061035 -185.890060424805 2.054318904877
-146.012466430664 -62.303894042969 -186.362960815430 1.093961358070
-147.242813110352 -64.696762084961 -193.832305908203 1.369715690613
-143.976791381836 -66.114517211914 -192.851898193359 0.927492499352
-145.258743286133 -60.143978118896 -198.595443725586 1.035287499428
-124.725929260254 -63.025856018066 -200.509902954102 0.965842425823
-133.087112426758 -62.801223754883 -202.817108154297 1.714968442917
-146.494491577148 -62.588790893555 -209.769714355469 0.711965501308
-147.701889038086 -60.437877655029 -224.851852416992 0.667555451393
-152.064804077148 -60.151123046875 -225.165267944336 1.445351839066
-147.262802124023 -59.265602111816 -227.127304077148 2.275797605515
-153.583953857422 -62.073360443115 -227.456375122070 0.690430045128
-152.043655395508 -63.355976104736 -229.026565551758 1.975890755653
-149.211578369141 -60.395050048828 -227.207550048828 1.565220236778
-146.848953247070 -61.571895599365 -232.205017089844 0.937020957470
-143.080841064453 -61.249694824219 -233.627883911133 1.229214668274
-147.623870849609 -61.375461578369 -232.054534912109 0.606768786907
-154.010101318359 -61.633384704590 -233.642684936523 1.202226042747
7.312931060791 -64.824600219727 -241.480880737305 1.193840026855
-11.775520324707 -67.432296752930 -241.208709716797 0.809457898140
-146.654891967773 -61.851295471191 -237.153854370117 1.392096281052
-151.721923828125 -63.351367950439 -236.174972534180 1.379480123520
-148.166564941406 -60.716114044189 -234.536926269531 1.035329699516
10.347167015076 -62.876869201660 -245.095794677734 0.959708392620
-150.342193603516 -63.044349670410 -241.902740478516 1.360534787178
-147.543975830078 -62.881855010986 -254.181625366211 0.929168462753
-1.137535691261 -62.320301055908 -250.172683715820 1.022592067719
-148.872268676758 -62.894531250000 -251.321578979492 1.944134831429
-150.662384033203 -60.830978393555 -252.218002319336 1.585623502731
-145.222091674805 -64.186706542969 -255.225784301758 1.577626109123
-142.607879638672 -63.573257446289 -258.053619384766 0.778298079967
26.654916763306 -64.179672241211 -260.138702392578 1.697815895081
-149.378433227539 -62.810180664063 -265.887786865234 0.442102998495
25.490552902222 -64.512619018555 -269.249938964844 1.135219812393
16.923408508301 -66.743492126465 -286.469512939453 1.944840312004
-0.378767371178 -62.381240844727 -289.758575439453 1.469437122345
6.412554740906 -60.515907287598 -292.072570800781 1.044275045395
30.652330398560 -61.554183959961 -17.478164672852 1.180232763290
46.075267791748 -70.200477600098 -38.269481658936 0.987518370152
33.088939666748 -72.376647949219 -38.236377716064 1.501474142075
-44.129924774170 -61.969814300537 -45.647109985352 1.461409687996
-91.535560607910 -59.975872039795 -50.688858032227 2.856635332108
-95.034309387207 -61.493431091309 -58.528697967529 1.287483334541
-18.881734848022 -63.134048461914 -65.432510375977 1.976025938988
101.986007690430 -63.844806671143 -69.997894287109 1.222309827805
106.215950012207 -59.014911651611 -75.823486328125 1.925161123276
103.342224121094 -65.961372375488 -76.896942138672 0.435054004192
-52.066226959229 -65.035270690918 -82.822662353516 1.482603788376
-63.476013183594 -60.241966247559 -83.832717895508 1.904725790024
58.891529083252 -60.577922821045 -87.277603149414 0.963712096214
54.256687164307 -60.345596313477 -88.275680541992 1.155681371689
-63.944869995117 -63.008224487305 -94.441925048828 1.838708400726
-99.421310424805 -60.065952301025 -106.209518432617 1.590523242950
79.145591735840 -65.451896667480 -107.648056030273 0.943592309952
-78.182601928711 -62.852649688721 -111.366210937500 0.983794569969
-67.878494262695 -59.760475158691 -111.157623291016 0.842029392719
-81.141899108887 -62.998008728027 -114.041458129883 2.101625204086
-85.912742614746 -62.010875701904 -112.900970458984 1.589171648026
-81.066101074219 -63.525806427002 -116.135589599609 1.344981312752
-69.121215820313 -62.025199890137 -114.068893432617 1.964271545410
-64.641395568848 -63.460960388184 -119.654998779297 0.662823498249
-81.602401733398 -62.550529479980 -116.954696655273 1.030464291573
-78.829101562500 -61.546268463135 -117.636566162109 1.516366004944
-67.023231506348 -61.619049072266 -121.902847290039 1.596257090569
-86.274734497070 -62.890777587891 -118.769393920898 2.083679199219
-77.266494750977 -63.078830718994 -121.167434692383 2.003890037537
-75.106552124023 -63.195522308350 -126.650894165039 1.699071884155
-76.703468322754 -61.020195007324 -130.746215820313 2.427871942520
29.170848846436 -60.596927642822 -128.802413940430 1.013749122620
-56.348396301270 -61.780090332031 -130.639251708984 1.470929861069
26.259124755859 -62.809192657471 -133.648315429688 0.799111902714
22.632934570313 -63.393619537354 -135.255966186523 1.548279643059
-145.380004882813 -62.169769287109 -194.791030883789 1.876973271370
-139.766403198242 -65.122962951660 -199.473037719727 1.044700860977
-154.884582519531 -60.263610839844 -200.966842651367 1.629992961884
-149.945144653320 -61.677036285400 -200.656280517578 1.170372128487
-155.848022460938 -62.626739501953 -202.639846801758 2.189682722092
-148.428771972656 -60.626552581787 -204.420043945313 0.750236630440
-143.871002197266 -61.726383209229 -203.185287475586 1.736511230469
-149.379638671875 -63.016712188721 -206.067153930664 1.678469300270
-149.393081665039 -63.672473907471 -221.722579956055 1.868119955063
-148.433700561523 -62.162242889404 -225.406127929688 0.688061833382
