# This PCD file was generated using the MATLAB® pcwrite function
# from Computer Vision Toolbox®.
# .PCD v.7 - Point Cloud Data file format
VERSION .7
FIELDS x y z
SIZE 8 8 8
TYPE F F F
COUNT 1 1 1
WIDTH 786
HEIGHT 1
VIEWPOINT 0 0 0 1 0 0 0
POINTS 786
DATA ascii
10.458270308546531 -74.406001615523280 -183.326131771094822
-149.848593116913122 -72.609402122864566 -197.016445820124773
-32.159693843180754 -74.409185624990286 -189.281330585041331
99.545787676371091 -74.883351429438861 -187.970495752890230
105.719519213287370 -73.936180736871407 -189.362737472790798
23.693157963569107 -69.935166914463707 -194.065045763674419
-14.073077879392510 -74.093528115892738 -189.582458528694900
-28.262157122193447 -75.645513153458722 -194.623003870336817
-155.774782528742747 -73.607565667717552 -201.971847531618181
-133.087022464479901 -73.688069039346033 -199.411155438836630
-125.641156732487161 -70.239382981524471 -197.515951884615134
-125.128007084443396 -71.231928016560431 -200.091622032079897
-22.920002149043157 -69.754314957630498 -197.374015758378818
12.144150926332884 -76.044237613869569 -193.207305859769491
92.211326584809569 -78.270151773415478 -200.924314531809244
-150.501531616382067 -69.024385559263237 -198.221176073892849
-145.476191080530725 -70.230615790827187 -201.463225323072521
-151.303289719354666 -71.988298862647881 -202.939244737698715
-155.358991969350313 -70.303441397546294 -200.310785446780187
-25.186056120720053 -73.277000239056434 -200.874957054990062
-11.183813999682645 -72.432464883148498 -196.473912870996259
-146.726048852725484 -68.803492633842055 -204.887415534274595
-18.857084102992818 -73.040143921643562 -202.360093203504391
-161.812199902643414 -71.723484018263562 -203.576847769474369
-134.768222282690971 -72.462250318777606 -201.994668523146828
15.374491245646812 -75.885421411362344 -207.792393207801013
-161.631756828193687 -69.268804919070959 -207.036889606806625
-146.461031408923276 -73.942785258977096 -209.223659425533015
7.869339269482610 -72.187318988795425 -203.704511488698529
-154.477761075954305 -69.978079220356136 -205.506538907999669
-24.972842761052888 -73.155893747492911 -203.110989176243322
96.943715987245653 -75.467184370401171 -199.089001590798659
-158.725951260460192 -73.323621878157070 -215.379041754878472
-164.835195834197123 -75.327490411922398 -210.643925109164201
-77.166326867388534 -71.222347994103870 -210.244661550460506
88.978553480936085 -74.102630221549461 -208.929765405322172
-4.013593147143575 -72.734917403761841 -219.460262391652378
-154.778042337757199 -71.293769175759195 -215.754574313383159
-87.862070359148248 -73.153684998341561 -215.535725033329470
-9.620761197385029 -76.390863502701151 -212.421475110970164
15.390703763722730 -73.880193904212362 -220.738507919680842
-145.106037324192187 -73.185338549499434 -222.819566946319213
-3.801411639176554 -77.716232761646765 -221.951635948546283
-19.598057369746233 -74.723167799583976 -219.493798704774832
-14.788598830577726 -70.738554525853459 -221.666978522274576
90.047063347523746 -74.796032478137562 -219.040096021724821
-20.960647433565594 -72.484244828518996 -218.108596194241528
-31.958554286121998 -73.075738010113881 -218.556809297614819
-107.679386410665373 -68.699532429879682 -227.118070079416754
-16.275580438338615 -72.204789568116709 -224.473801086144562
92.234308797070554 -72.854719652117055 -218.920673906003628
77.305127284331959 -75.453735048322372 -220.591281982567523
6.990288507012594 -75.184932552141987 -220.296804880366494
-11.294748325450161 -71.746028082107387 -226.609985781722770
78.457391180464910 -75.248386077241634 -222.152217995124715
-122.534833569781426 -75.842163561060616 -227.701624869936438
-20.173896141642924 -71.881001249656848 -224.522755686290395
-97.291009343626101 -72.312043015306315 -225.864304268496966
-102.653685725539077 -72.976563951207709 -226.476545047975435
-131.681523646471163 -74.538159343534446 -231.331732093228879
81.165833878100671 -74.806380056395028 -223.752262544515730
-123.303742033796624 -73.259793636438843 -229.843911094878564
4.641963630327649 -73.398827034125688 -229.813983132697530
81.100618132295963 -73.353692928710018 -224.569524955826296
-15.804070856447662 -74.807129497274943 -231.833767957087360
-13.658037314675397 -74.531345568270837 -228.694879788286215
-1.983008196285173 -78.812537802439053 -231.030557540770616
10.165748252422283 -75.851399349921564 -228.403116670994024
88.760217344383534 -76.014835517675124 -226.529170258620894
9.914540571249002 -72.604811012538391 -232.420167098195492
5.474217536745788 -73.712714344008873 -230.503024170572587
-9.078422590209925 -74.409656632148142 -232.481781783725950
-6.829200407411551 -74.715197051071840 -231.339684639156133
18.712480963593450 -72.948501033023419 -233.658140531692084
-12.474270858356611 -71.441994220547954 -234.523550153811811
71.066509375628996 -75.195301865222618 -240.063275660633053
-9.085069846607148 -72.420857223089399 -240.079496026117198
18.998515910319298 -75.155110421143192 -236.660889880264563
-162.813782291173396 -71.043748241824829 -243.454236548082605
-5.548243697137968 -71.841204927348443 -238.302769424814159
-8.057200171521334 -74.667035153454023 -241.446716810156317
-167.513380693334653 -72.852075911380567 -253.847905912869777
-10.742003326226154 -72.330287572743430 -245.700535454258585
15.688745115247123 -71.618714069841587 -246.488531879955161
-147.496107964320430 -74.375087924315949 -254.637624440526025
-73.133629643488405 -72.640329566777410 -252.402420123981898
-61.535605704784764 -74.185928113128739 -248.879654131758713
52.450733035586502 -72.375714573583778 -247.367671770664089
-74.579077410206068 -72.811036826455151 -248.826150230266563
16.997932253520176 -74.796914990238307 -250.484204219730174
-72.951077042214834 -73.607066356922303 -253.291267277547746
-15.264119275768785 -72.217854067069524 -247.282754690675944
-145.372361734799739 -75.156429880847583 -255.531791004941709
46.757551533755233 -71.243552266456874 -250.625619991961486
-79.886805687842269 -75.295952049513588 -257.776276957406026
-102.570852742405435 -70.113072001930533 -257.341642490364848
-99.207064936209079 -74.534076220539831 -256.857927217462077
-119.741378346568766 -70.900653806256344 -255.524669955046789
-105.643034290272894 -70.548192676686853 -259.492608953911372
-105.654326286448452 -72.620388664019373 -260.469164542741851
21.785970528125990 -71.792043058102365 -259.465796045019999
-129.101130972818424 -70.411573933849468 -267.693869084606433
-13.530498535600209 -74.733548147636824 -276.888771091571527
-147.280649285928433 -70.168764548921644 -286.132902699728788
-168.349851525010308 -73.943668996684721 -288.579237639759413
-124.618980184609740 -73.721496616447965 -286.679813396035570
-113.805615008221309 -69.902969830701949 -289.305299267699468
-75.226499062446834 -69.169913752518880 -286.538757958737222
-57.201618715418697 -74.015891062070637 -288.507051614425507
-41.597485236882022 -72.499272532602006 -287.717903561580158
-15.055023535810111 -76.738917482105364 -291.149751651616384
-13.469635126437360 -71.485573007674830 -293.079894503287960
-38.112968603447861 -75.384949719051534 -291.793439018818901
-34.114236936319394 -73.392990272934583 -290.347992916235739
-18.710279798481537 -70.782555153016474 -290.167607322334845
-71.515478439290632 -72.260002477772545 -294.996626428682021
-55.276923198473611 -72.712991172904680 -292.879549561561532
-17.355989600096716 -70.378003916599141 -292.894696841325697
-13.514254625187160 -75.300703057711289 -291.057811944859566
-3.450765534003510 -73.075907445995426 -293.621097713985250
2.749535266379573 -70.717067556509861 -293.382766983817078
-91.904390679904623 -73.130847448210076 -295.170314005516900
-139.521462970141272 -74.219335055317103 -297.736284734958474
-116.081000623348260 -73.747301335624115 -295.116460770670187
-153.300611401286972 -71.331573224839971 -297.817437545129508
-151.689513852827901 -73.171144309403331 -302.386275995728113
-146.431805567327814 -70.994692907103911 -302.856425295867382
42.102977770573183 -70.983467536854022 -21.714864980342959
17.508242353161261 -75.629223403397418 -24.231470422622181
47.182347878192409 -70.519781669432120 -25.480297082420805
44.833619980473699 -74.041741895833226 -35.515160879504300
85.701479043278823 -73.403917021348363 -70.145183902368629
93.689146164362725 -75.267167794821034 -73.780736239955786
99.391980084727706 -73.295148116479012 -77.926460929369028
96.525219483041255 -74.203415285352818 -83.310769027636667
54.979104428638955 -74.278385217732350 -89.739382360654773
43.821983380604493 -78.280398776483821 -91.642198670909636
61.623357184871040 -72.326939399056073 -91.043458090633507
-66.867289976082873 -69.843810162464919 -95.009297775291088
69.081694931248308 -72.907067423424010 -88.003631606560390
99.274324989285276 -67.677781671836456 -98.755156114089345
72.934100362342519 -74.235985890342178 -101.253295482097414
92.726185056365736 -72.646323471410341 -102.476723772473292
-86.136514408283261 -72.991819755413459 -105.567279866683606
43.521195010524046 -72.255469985675006 -98.642018577574774
-88.082889844557087 -73.393978943946962 -104.407530592319446
49.649220557326110 -74.666080099741819 -110.800727731773264
36.152623519617229 -78.186265812803782 -104.223482365574895
100.575370111516946 -72.831089572106293 -103.112610188023382
35.637063764879990 -72.937908729557591 -106.588341588729023
41.157680132009475 -74.267454821207451 -119.123200607185041
41.258417518801835 -73.012117837569335 -113.624075176571239
108.597532747077679 -72.549144277650385 -112.139725326719969
-82.752751593935443 -76.013091259232425 -123.619118440277518
110.814989252027146 -76.949938414935772 -123.729107191820091
38.667696293385426 -69.820429119819181 -125.377967207375761
39.114662383057521 -72.493163628934283 -120.848294946855603
33.564243817137807 -73.548655396650020 -121.564221091083894
-57.121627789667571 -76.402844944999558 -131.351095255958484
28.775938319542526 -72.246727398392096 -124.214789641641389
-78.663652615557552 -70.564321683923509 -139.882712087633450
-56.708812747583906 -75.566333232606084 -134.399062135444325
-80.808424803595244 -70.163721092086064 -136.977152625852682
34.226142688751686 -71.361004644080595 -131.443795095334508
-60.969024100726287 -73.406764576276601 -135.464146098516466
33.804230279206770 -72.460464390043867 -134.083761247887765
-73.252730643092377 -70.468710834464659 -141.639650726797669
-60.512582248193489 -70.049651190651588 -142.620355745089483
24.415766687327803 -73.814887739395260 -143.466761078532301
109.610397170343830 -76.366191694608105 -142.932488244853175
113.969421102456280 -70.061119565122766 -136.921949288082772
29.433367377663757 -73.159047230620985 -142.286683431328328
-49.509047024868501 -73.745630905069973 -141.949489497262363
105.628259504243786 -71.774804055811913 -152.114407591566476
-76.847002833543485 -72.062462737040917 -145.141850407250018
-59.923385468646089 -72.389575341805440 -144.177941257003027
30.381173419889151 -69.352816200238635 -148.229859003425105
-78.822289344681138 -73.454999712125073 -148.262801278889299
-71.865632154445237 -72.180020125606859 -152.276575083371341
113.641223620441721 -77.377421658751459 -149.368654010967504
-65.836533312681652 -71.679883691801422 -157.063001999708547
-40.546632893405977 -69.939433026365293 -153.890744989984626
24.430005287323919 -71.572805073941652 -146.847880071605829
-74.486236995709319 -72.627795035986153 -148.096504057593876
11.144965748448005 -72.522143980756098 -150.799885522598345
30.668902793027328 -72.563453528381658 -157.740924987829487
29.753750630285559 -70.903011791343118 -151.049795075128685
13.975262053034083 -77.157712348264269 -155.143535679008551
-51.147531493043303 -73.835733402001438 -155.030069988532716
23.521051919416980 -74.337672596519539 -154.053393908093028
-47.459212666852501 -71.585182530480125 -151.920587385613317
3.491409315487067 -73.083780607774329 -155.194079287371750
19.190201263950971 -72.232900077230568 -150.917919749404717
-70.102104852231349 -71.612765984489428 -159.426639508290378
-47.878700340467937 -69.684746296170459 -155.866425767757846
-69.435376146738477 -71.752198537181982 -155.772940371344902
16.931515797442497 -71.846716574948076 -159.464079835354283
22.932911194142608 -72.212759603261304 -151.009266797778849
1.363576890660846 -72.864810501827876 -165.693779680895943
20.061929697139167 -72.811317350006988 -154.527858495894719
29.605382011430478 -72.782379589658404 -168.008791315600917
-48.520869991269322 -73.696557673124246 -164.982805068098088
-38.046861382311732 -78.463120904118327 -164.855828454023367
-42.080958323892510 -73.211751652493277 -162.518720036948167
26.581539593599981 -73.337687208908577 -159.565559421897802
-45.446287225206419 -70.823286934795206 -168.519631582433419
-40.957765951917693 -71.047037730199804 -168.060739189742236
20.170872592127630 -71.699187063634099 -166.719005258971436
-40.976401544387549 -72.990762574944128 -176.873587507013838
26.784050989143456 -69.659012950452762 -170.984367990220591
110.490124364601414 -70.684320438562054 -164.820720558167864
-34.679670949062881 -72.425534897858199 -173.610724603667080
101.630559791735521 -71.364688138682808 -173.262831369827040
-35.681094253312665 -72.124207454102446 -179.019775845706192
-38.507663775374155 -75.314156536162201 -183.044915553914763
20.019008173698577 -75.663429910218596 -177.964230461958863
104.750306298445622 -73.980772596119422 -181.982508765414138
-32.543748386938674 -71.008084224900841 -184.471300849340423
-36.296342122337592 -71.954961424395108 -179.112955839426206
-24.252186744944964 -75.942186185184269 -188.291233858530887
-150.044980516847062 -72.197860037066320 -191.830575127907252
11.879763179633589 -72.617658539992135 -184.413961174332627
104.010418957046710 -72.257255372808388 -191.099417307711150
-159.917137027260054 -71.165165181028470 -196.097810359920771
-23.958691269368021 -69.656759738985798 -190.995590910611497
-116.562178212635004 -73.483138256218950 -199.880533143819008
-131.744221987834152 -73.140220859877388 -198.289715171361678
-108.776485320768600 -72.447085502799524 -202.247090884014028
-114.530603553951281 -71.111629320897705 -202.744066830890233
-13.259668270855734 -73.451103058623559 -197.703404228274280
19.185438778396431 -71.758297220097688 -197.084022215810563
-16.648043380079386 -69.062941432469586 -203.272178258566640
-127.544340496200860 -71.819844913378716 -208.228085380725929
-21.670469309778319 -69.022645300020571 -204.456012961525488
-130.200304385008451 -70.665811050318766 -205.628642449712231
-16.293520803921314 -72.746532817209797 -201.640045608541953
-146.919292734115203 -70.502267481301118 -205.712269902727229
91.039697026896960 -69.772372440428356 -206.613278083751197
-165.353147290441484 -66.835233622935590 -204.601337370169546
-3.433312564561555 -74.327495659664947 -219.088448248535997
10.703975055570972 -73.946890031220079 -210.958210044755646
9.641448136568162 -74.885417846859696 -218.099906226902959
81.984394836654005 -73.298255716065043 -216.952523806223496
7.801862642543903 -73.756206275444100 -214.168700940487668
11.943482641064008 -71.934587010358285 -215.821070940651083
-16.527935462211847 -75.780946874058372 -217.289178541813044
-91.152222628148891 -72.397017561535549 -216.716667120015615
-98.654244476824474 -72.071610834821740 -218.940038853863456
-0.612179246586213 -71.679322970103442 -220.347698032610168
-167.066634583628314 -73.266100169659296 -225.115400707421315
14.538658702096349 -70.826601646339867 -220.661478808166294
-145.219270596266455 -70.962331512761935 -224.151880694128778
12.411996137486508 -73.112731267195713 -226.012451064371390
-135.201086161728654 -73.017265995021134 -227.643573050697057
-116.448919457326696 -72.777997872456538 -229.752303334449749
16.177356520986272 -72.070746442197972 -221.904708082748641
77.810405298328249 -73.310484834579469 -221.662102148677974
6.183260479349028 -72.737807780992043 -224.608815360483078
-110.345418190055085 -71.172876907236088 -233.404154843439301
71.847891584072542 -74.147007822609694 -228.170968094465934
83.517001560001518 -74.395725292545990 -229.717788216118834
-125.625763017875840 -71.542137207118557 -237.761793010899254
-117.510648040379223 -71.829414529744369 -233.030907637685203
-10.519915462802722 -69.504535482869017 -229.158384159683919
71.519978829316031 -73.949325256143453 -231.770036720362299
64.206124701188315 -73.785814316794287 -233.664438551679496
72.805757478688221 -72.765655367876860 -229.859960219578340
-135.668704882725507 -68.417464211625543 -236.893166437848720
69.715559118932561 -74.324640280050716 -232.759980408632089
65.772853704190595 -71.065428286224432 -235.784727386320128
-166.598420042181175 -70.049871191911222 -233.696367243699740
1.040762512939377 -79.021806826969538 -242.157344016112830
18.986827853348785 -74.088831886080129 -240.500169836502124
-6.359118594493392 -70.130870638530581 -241.996965921862852
15.425773894872773 -68.002619736965272 -240.356912780501915
65.838404035654634 -74.165659132561842 -238.601290594458703
8.607869719961510 -71.005503241212580 -244.530706755198679
-11.246530718507376 -66.755356715959152 -242.181247271747736
-0.908975472283023 -69.602953885281948 -238.723420546952951
64.610040745312176 -73.849111445525367 -242.922789334468320
2.720546957529582 -73.252585708667525 -243.781344371866680
-7.326131591477862 -73.400976117322969 -244.472736605152647
13.930234226295930 -75.172734044550396 -243.979026743451158
-167.842342126353913 -73.013161924764717 -244.308786215643778
55.740109721200461 -73.464668085610057 -247.852736321362755
49.746122400592746 -67.632760708506368 -251.518355691429377
57.858645900820740 -73.875855646748221 -243.381959967563631
-12.429674009271633 -70.933771985891411 -249.311447280962199
56.887106128945000 -72.970640282127164 -246.272110955826804
-74.147411663828905 -71.646114478387119 -251.972370435954957
50.502331790904201 -73.497855645304540 -249.315817797179847
-88.979319469120881 -71.808203160675717 -254.768433314100122
-123.408941909195292 -72.802265326972261 -259.335704995599713
-132.632083240970530 -71.608962736178214 -255.708492006962132
45.868120677807845 -74.602630250611981 -252.577867715529948
-132.813469682625822 -74.131288344754552 -255.954588072840323
-109.396423859064214 -70.070930089191236 -257.597015056829150
-116.246682970137584 -69.548501004535908 -260.040286889792242
-83.969914857094551 -72.426948901366103 -256.890140467499691
-111.153987141941471 -70.112258479944273 -261.666975387230252
-124.235671533193255 -74.891289203582389 -265.093296599620942
-146.569066411927651 -69.033193021546850 -270.541630685068583
-15.399429769082968 -71.213890372935623 -267.054462767448911
-171.464488032343439 -73.276906763942335 -267.675579551835142
-14.605503340636623 -71.973068833575724 -275.204046331236157
-159.066113127040524 -68.215505729180279 -270.354189568692505
-152.725912872779617 -71.658343120665066 -276.427916204945802
-169.916402583361219 -71.231886698838650 -280.719266762401787
-14.207613697859649 -72.568020715394596 -280.759044141797233
-130.145366599114510 -73.879727771828442 -285.895367353700749
-157.945182156869151 -71.085751398270901 -289.276876126012951
-143.921438144258559 -70.529107924181602 -283.857258525099724
-134.875934045276324 -74.314717347617801 -283.291491141445647
-8.094182045601613 -66.900001393352170 -285.817910683322282
-125.839379071471669 -75.021319501063161 -286.107554664511326
-140.945095050099837 -69.476100828097401 -288.465885346594007
-115.680864854587199 -74.519957192995562 -288.295105642185263
-78.888765605452122 -70.086203032049411 -290.195896147295628
-60.632486678624964 -72.732703196114187 -289.002282162848417
-6.929841639910688 -73.462616902921397 -289.171316704680407
-53.855663557852289 -70.970747183173415 -287.580390952116659
-57.105990415661516 -69.828318478632227 -290.528788854703578
-70.287335498428135 -70.279554450149590 -292.372162787915101
-87.909394667164619 -70.935564037305170 -296.032853198449573
-94.935152323344553 -69.575766689733683 -291.317346133396086
-160.214612462234868 -70.407239209062411 -294.538704297195864
-160.962566471048177 -72.194357395311883 -296.793877228991221
-124.511722421189177 -74.302004712872588 -296.550376579253964
-144.515229276867643 -71.590424761696482 -297.877302152901791
-152.845392715298232 -73.570635019919848 -306.717193216327814
-150.182126983503537 -73.657361599831560 -315.097555685015550
45.118989749669240 -71.357241384591788 -15.342273391396519
14.082299228792095 -74.200407419401344 -30.833105032231629
39.365695194935888 -69.403274451645387 -35.430965259372300
-17.775746775273465 -75.370645002626731 -67.777202966577761
79.526718842008748 -71.153883368032155 -65.445551833809247
86.422993431708690 -69.071438346747257 -66.209665274698963
75.603916291108774 -75.932834213516358 -65.833194738961552
70.485863188183998 -74.053350241640203 -69.646416399915211
89.005946140598965 -75.282032515689579 -75.149059688634509
-98.336450216957402 -68.634001726037582 -72.570292766099485
65.638571362759990 -73.398026937788629 -75.872028914109535
-38.710465703180034 -73.125654741294539 -79.012544641736781
96.851683638207078 -72.846063449938185 -85.994115083698205
59.466508188074251 -70.091003808335245 -90.935303570032005
105.094627755071173 -77.294225608657285 -93.676827992459323
99.577737320337491 -76.294983726196932 -98.501925264273964
70.383877375265044 -72.509519070299291 -101.062115692088994
-82.100588505833571 -70.556738007295991 -103.644888715115698
52.451216986762915 -72.447025577579495 -104.852581100844048
105.240012977357765 -70.250419079682345 -106.057992139801257
45.236683380680198 -73.077895190752059 -113.096368140910130
78.010393754522781 -71.548538458503799 -105.746749256336713
39.751617335919455 -72.019578847111021 -108.206176814645417
102.322760019469172 -72.397555700575595 -103.293165053280390
45.673107486348862 -71.846150658693333 -108.478901724297685
105.353352291013522 -77.428907282752974 -109.931699926837396
108.269447679647158 -75.579382870874255 -111.320686762651434
-81.250998915613010 -69.673796568431470 -116.274257927849874
-84.736439064873778 -69.832226414735089 -121.507241011844840
42.130708035485590 -75.238411967400282 -120.776254650011438
112.026102646602382 -74.233542211964050 -121.247885453167370
111.939732096098027 -72.368674939241316 -123.535625799968344
-88.967874174557863 -70.599216742263593 -129.164174968023900
104.239171640414540 -74.387883495963749 -125.807271805879097
-61.050960657298880 -75.768140218748371 -133.673948196290411
-87.901742596885413 -71.788781313828267 -129.468218702453072
-74.275535956884880 -71.719108090816448 -129.168177601944080
-60.911980851829732 -67.909937569730602 -128.637518347274749
29.936838457115243 -71.804236434375994 -131.027938817536693
40.743586004130393 -70.642977566539173 -135.439505295924732
-74.764654719765588 -71.168053852653571 -138.632446888150412
27.061423146021696 -70.223166323145691 -131.828663447270458
110.134783917097977 -72.525247750396971 -142.870699869148126
-41.666881222879354 -71.696452750361374 -149.929747669557742
28.898992501381500 -72.863489065139888 -149.706314372487924
112.410745046239427 -70.927532018215260 -147.629138732678399
34.003257652250753 -72.639100009877367 -143.543669955959302
108.815034817823218 -71.318535137437479 -140.780171155936046
-53.809924281442548 -71.802877175189820 -151.172199187308081
-72.715540158929201 -68.953900135437266 -152.968822250525875
-56.556199395570864 -72.010510109335812 -154.362135660006260
-43.398874050600803 -74.932524643171050 -166.623842218323915
3.296932510975695 -73.129401251819033 -156.998801867343133
108.411117775550821 -72.657684778160856 -153.471732717802183
107.619067483566013 -72.303491069231285 -159.588922888828449
8.668861260517598 -71.273991992049631 -158.514946629289625
1.969671808134984 -71.866360217641699 -162.452519703131173
17.829540542495565 -71.198734770217129 -156.217833403620517
24.263760366434177 -70.661577749965943 -156.552335152315720
107.451473733301441 -71.973566216539069 -165.590547247970591
108.290177997172862 -75.422124831786107 -167.673377175249016
22.763905052452920 -69.305564736862152 -175.294617517296359
23.671953364093262 -73.943085997573647 -164.718451784971222
110.910847322697549 -70.522504146312372 -161.910026666527529
-30.256064885130765 -70.439158838591467 -178.683014605920931
108.950217832155346 -72.602582245577096 -167.702553757340951
16.270248355774392 -72.349663994753612 -168.577571026720534
20.369696688991503 -71.765998013330574 -168.655615246822094
107.339146159580991 -72.537786037919020 -172.814847184291153
25.521871680763745 -71.055580320890854 -171.249226658659978
111.222584588083379 -71.670907856810217 -183.621090986235714
-39.417797412241462 -70.857723323725139 -179.307780421797702
23.902182148713127 -71.488769062629345 -171.993648435333029
106.421746063733991 -72.163890146543551 -183.826110259095685
21.972598397022271 -72.817340050266338 -179.474993638231496
-152.883684315283290 -69.353322824887016 -189.354175820957948
-29.203293789532051 -68.577340476393545 -190.814482808053810
23.550512531525026 -69.782383268832575 -185.789459542239598
-114.737364399443095 -72.366883775242613 -194.317696055952013
-111.818833562249068 -68.606588118512420 -193.734370553129935
22.765903531313420 -72.327893293280411 -189.432142241936134
10.631707770515323 -69.879206405116449 -186.062424224669741
-27.868359475772746 -68.947425121922834 -191.687252365963872
-30.661721614900145 -75.217515850019794 -190.713628249301394
-29.033870729095195 -71.810654900993512 -188.669192515440329
13.710480966929186 -69.780681627888924 -180.982566468964023
-151.780773039764938 -70.661424761679257 -197.943862740683727
-146.305420255481550 -70.387623593542486 -195.653272991896557
-145.298136589078837 -73.572461107283388 -201.122342834559163
-23.889071801581629 -70.544986298688002 -192.813282485515174
12.774733415012616 -69.526217787566708 -200.582355333777343
97.904048134312092 -71.370656016877064 -193.419528395343860
-114.612000927857991 -69.782265762065876 -200.798331566366812
20.351078946295818 -74.922466826015622 -199.296385170733515
-16.241550544420949 -70.453829771614380 -196.898432831196573
-18.607788260728427 -70.838650736795529 -200.098697493433207
100.083623180289564 -71.034934503235661 -199.591344167433903
7.035332446356395 -73.463320976756648 -200.372151980294319
-22.875965254244939 -69.750460759497599 -197.911126290124201
-122.201505681833723 -73.717172761977920 -205.633086129253542
-135.017788893842805 -70.872324818314866 -205.982376318889493
-114.877295450319451 -66.505268813781214 -207.398719372554609
-143.023646560880792 -73.416001278673946 -206.166652457700906
16.609719139012636 -71.297961549842256 -198.741937256438774
92.946520008252904 -73.344834354698364 -202.003885214980244
-166.759163922462761 -66.121512675199838 -204.504634091830980
99.144241115847962 -71.804673391350164 -202.267858609866721
-22.466661192029893 -74.970916785841268 -207.496849006631066
93.850384615384002 -70.086281677205633 -210.701326723331960
87.308325379726028 -73.455383982004108 -211.758345066434316
11.314027822104922 -73.266497004015449 -207.046935946016475
19.028230457766565 -71.066170425822321 -212.988258741514670
12.061144032859847 -68.818758429964333 -208.921482828581532
-11.497895996044164 -71.762667598043322 -223.743650860800358
-95.104562109947040 -72.821962220607205 -220.869997711359815
-11.190203342059991 -73.470734533446475 -213.624544117301923
88.356521209660926 -72.280576147480133 -216.554110660549526
-94.236647757964874 -73.032945841406814 -219.938161902593549
-101.770152660205198 -68.646688973477495 -223.556299965257125
-95.111051873714970 -71.543671301088111 -221.771234246824235
87.585843405123725 -73.625535480553864 -222.234160702001788
-135.892352674413758 -71.065582106349183 -227.887801437973565
-133.048608338711489 -74.504034038390813 -229.420075245813678
-117.257200543114820 -70.662691413409704 -227.346088422488862
-113.718674641068034 -68.205365429598515 -225.673610199224413
-133.914323170668041 -69.259469873836565 -229.915137639862337
-112.313437703358858 -77.330451559497561 -229.982623534472054
-112.774529762796632 -70.659662402048710 -230.536130355617473
-7.490057665158615 -74.652727323128929 -225.961750497104845
-16.576965549410232 -73.645036253866905 -224.591356301645448
-1.504423086607775 -69.592780302272530 -231.706993253152518
-10.724726387643431 -68.688724276044326 -228.361888516370442
14.880329316008698 -72.371901223717842 -234.604284870808414
-19.401877784507096 -69.771423435210977 -230.592686958361980
-167.464196485355501 -68.900928535343553 -225.364127965591365
-4.613389080432849 -71.495213205882862 -234.771828261984609
80.293739130835391 -69.303634565483662 -231.570164347971172
10.454095612385292 -73.366859074148920 -234.796182682161657
-6.381776417266792 -70.801079589627619 -236.104977645792985
-157.321812526173744 -68.329264116252801 -239.478973202827376
-142.815267976553997 -69.215551028571397 -233.224327575832206
62.121464953578482 -70.712364008796257 -236.475101587977292
-6.158916153519172 -72.436665505944831 -235.444089550542458
8.764021278399674 -73.627180027392853 -231.887185209291715
68.879708064226136 -74.161912621977578 -230.786403052445706
76.462535936770678 -72.459293922012833 -234.731741279035703
70.617355729134601 -73.135289285430318 -241.863124181231825
-2.066461019227513 -74.306065931231743 -236.978141512629520
57.600030396495910 -70.307860260367107 -238.590229933195531
-19.463100457816701 -73.946178715021759 -241.198295547297050
-15.687412382617296 -69.187320511873224 -241.813694816243469
7.790729460007983 -71.512950895103600 -240.528604461268628
64.312764986710789 -75.116890714465740 -238.459859244764999
65.025612080610458 -70.537397560511124 -241.212797306756329
49.253642202476520 -72.099036889059249 -246.850333061487675
60.718004350613867 -75.022852065626481 -243.336451998484932
-15.874718180818224 -75.828644795997249 -251.088899117490001
-83.860179811791070 -68.452799900097403 -256.333066689346936
-77.129248873428239 -69.065285710222710 -255.021391962367744
43.904953934084290 -74.599497504289630 -248.565296530338145
-149.445711997451838 -71.692999700170191 -253.527599386436265
35.758459033668039 -71.792335908162471 -257.098922630588049
-92.358933495507031 -74.386444213501036 -254.150080536937622
-156.499742374377007 -66.879785996341951 -257.628560041257685
-140.579826482793379 -64.601750049788194 -256.074495810031806
44.889586827029291 -71.692268741142584 -254.286293327625373
-125.200858158755992 -66.945846706657392 -260.464799808498867
-117.142556218275686 -71.025433891885285 -257.858566559582414
-92.590554380217228 -67.038590661830511 -259.323779229398156
-13.997900389269294 -68.327747915626475 -251.787273579365348
31.636844463689954 -71.458400129741904 -258.117066663417802
24.745252735034232 -69.193317951914395 -260.447228250510250
-159.149262810741703 -66.159012523309229 -263.265737112216129
-114.946628045216613 -73.368181409592182 -265.157924873721356
-14.114048391007035 -71.119184252896900 -263.349548775088124
-132.947876207451031 -70.416950829127032 -268.056034204540822
-14.237377405238806 -70.192690748597073 -271.708251435194938
-164.975448865331657 -69.627517803464769 -275.534592851078230
-7.338105999298271 -72.372767504036133 -280.807097629835823
-160.824746257835614 -70.687766025942381 -290.770644845977529
-163.920264341199896 -72.175339838092910 -280.892764231920182
-142.588230982291492 -70.712013194839386 -287.983621118324891
-170.173660799720892 -72.238307545223179 -287.728621669038887
14.063327227713291 -73.736966077897648 -289.082652178190472
-103.147378807258590 -71.759132247637282 -288.903914758831604
-87.153692330077703 -66.844034627452942 -288.185211162528844
-167.762184420050914 -67.592862111232421 -287.620449399812060
-92.059907094776676 -74.637944966980214 -286.245463581964430
-153.680951196700363 -70.866778442889967 -291.372729675622281
-75.399685243018908 -71.838994765190108 -295.685596991339821
-70.604901643567985 -70.305740762347213 -290.733770589112339
-82.489072263705950 -71.895665755959413 -293.459813115342740
-3.669111734894498 -68.877376095447062 -290.239299522951228
-88.006578525075071 -70.817334491100922 -290.842313052849079
-98.969690844067784 -72.162530260457203 -293.251663183253243
-116.614262805303213 -70.986585144873828 -295.173965142174154
-116.517204820868457 -68.030824103960782 -295.308282212134145
-134.129113093555503 -69.933828230738285 -294.898530245993868
-142.684940956676513 -70.713681689074662 -303.588274897822942
-144.005240519350593 -71.918058702145487 -314.549544149306257
21.150043324184189 -69.681015641415314 -16.102215574102580
29.597149344597938 -70.940210694074409 -17.265566585945535
26.635110171216319 -73.551817128109832 -19.151797030549673
41.486955718579409 -69.743047552152291 -21.302885293417084
22.346673469398336 -71.427190402260663 -32.592340197806429
-77.279769700761392 -68.983921482528189 -49.061669813650262
87.532187238227280 -67.643343378560019 -65.707667113045829
-19.769904723929578 -69.246221687041270 -68.921611662740986
100.540077143075180 -70.811797222102783 -72.940230304024070
93.000066800927826 -75.565543622766469 -75.739131096411072
66.471391131862603 -73.012901575167660 -78.911171483655608
68.249756023819202 -74.860165973832039 -83.014652937869045
-46.684374097353171 -74.047001214220529 -84.108234900078855
59.151262885637166 -74.860576185616964 -82.893984833364826
-96.354912670837862 -70.840710857940508 -90.529821410148571
-51.164346218048600 -68.577445963979756 -86.964321951553174
-57.871726588332159 -77.344125217341784 -89.354646343578992
99.131721531675964 -77.174307867791953 -97.614643724475698
57.305433171180859 -74.644816304584651 -92.772268759113047
63.983235112237267 -70.902945281103797 -91.445736810388510
-97.525621999581645 -65.161214547148688 -99.137463328124980
105.967559840008931 -73.304215469950506 -93.042096867717831
42.288690917851774 -70.165787747245233 -99.614877150121231
99.590211031579528 -71.576986772119923 -98.136904152490402
105.025471873428060 -69.818628857119279 -105.952558012024113
99.520912637400315 -72.157723483201124 -104.561916928271586
72.059840068886160 -73.843001613765026 -101.040201480187463
85.558973158694030 -73.771397151931325 -106.721661074006420
48.334233643034324 -71.258304051401240 -111.792213592764796
108.888436191424631 -69.764333361613978 -103.508465793231423
44.447475943159468 -73.994372917506752 -106.063563309322006
38.787811768148437 -69.577388229235794 -102.267567221988600
111.063421560663258 -72.288627710107491 -110.241204103958921
-80.213725512653781 -67.775786839385148 -111.660233275940300
44.446559464572395 -70.611614059431687 -113.500879654451026
33.110620099408891 -73.246798683549514 -115.813820824888552
103.790021975745688 -69.587807096209005 -110.059113344526722
37.752965258055873 -68.583957695172188 -112.206362156350892
-89.715912497207682 -69.873726669557499 -114.965070388870828
-97.179636696989036 -67.337363583943898 -116.979656413803468
102.445517973415008 -74.932642654092305 -119.108586094318156
-96.371623654759702 -71.496032210274819 -120.791870050688047
37.395463748633368 -73.326505624937326 -121.969464541645280
35.401887699348002 -70.996339977941830 -121.484018882788533
-84.938639243421889 -69.876748972981503 -126.238027697202781
31.002639229535539 -69.469827254845825 -135.451730967081204
109.406415010176616 -73.173454152264313 -131.117344997909015
-54.015663809308414 -70.171893695884947 -137.727619265724371
-89.668474343331994 -69.006182576526783 -133.708167910585615
36.483180599011583 -74.462762218172770 -132.350303681597040
-90.448467131458528 -65.952549072157211 -137.952773030440000
-90.254867509558196 -72.165372075548802 -141.681763397108426
-51.041518105540867 -71.625490569405414 -138.440050878708945
-72.176359367477801 -68.445658148631082 -141.387377106123580
-52.099058173622332 -69.494902666479589 -135.109608585163528
114.073207307387847 -69.271114353539247 -137.400618722358445
-74.603573999392665 -71.632115080873731 -138.692297957021594
35.084535202066689 -71.551441000866802 -132.005098188661805
-80.009924581400441 -69.093797645610579 -142.087842949319395
-74.703854829267755 -69.900058086647476 -137.647996611857025
-92.695266469056776 -68.046063033082731 -142.225215736128177
-55.101861757810148 -68.268659665663407 -148.722369569059396
30.203565930943732 -67.326893802814851 -146.554703119054977
26.317715240727562 -69.368774627554316 -150.332914474385234
17.900569874007804 -66.460051527119305 -145.243392978332366
111.566912690762408 -71.181889818235703 -146.178546013529484
-94.673757208424860 -68.467443361049462 -154.590086497381691
11.805589372197154 -72.389854920900021 -153.363560736529365
-73.094372055793031 -69.562153437155274 -155.191615637544402
22.264215648324708 -70.050736889819547 -150.625535093256644
-50.298134405741159 -69.278406638218001 -157.052444880429533
8.406137296630007 -69.501540635395571 -154.256778119023721
13.975982259476282 -73.181406673458071 -159.343917479029869
16.714136902763382 -75.016222293326848 -164.808056879255133
-49.986128471269829 -72.174198210488910 -164.181470907416895
-40.325771334179947 -69.405581568217869 -156.370857891589452
-47.457150617359460 -70.620708911168833 -162.638484796108656
-104.642781420279277 -70.249855705965146 -174.151940535609754
20.794700146328669 -71.874500075689255 -174.925180894623225
-35.679789647475694 -70.094143316964107 -177.445280441453832
14.524863286695147 -74.377998674656112 -179.252125983735880
-144.550957902366605 -69.404349652823683 -178.381668074865530
-33.170625402178850 -67.460317421231707 -174.277087845595446
-155.943947257456898 -73.721341112464614 -180.577773952269808
22.597925493751159 -66.713742481511531 -182.684298893012539
-33.902858044603221 -71.325465907743833 -172.944612099864145
-108.565124469469268 -68.071714969273046 -179.949527095934172
-107.987524695360534 -73.694858269544227 -185.782120199935065
-30.794336424415778 -66.082868788719679 -186.660219884586411
-24.508640676723651 -74.247114705727626 -183.138423483173028
13.200102723646225 -69.763827906947284 -190.256509810002854
16.289645970523047 -68.362308422906992 -198.167501372103288
13.052823776711147 -70.586689702824117 -187.938704358525996
-143.655446765546799 -68.379044510670226 -190.109691358511981
20.816116512626401 -67.419515918518343 -190.843854638712543
6.846508191696729 -70.466553462383885 -197.794132056446784
-137.811693611922266 -67.967500008160727 -197.012725351122157
-115.052400388681420 -69.260561114420099 -197.755270650895284
14.246890557491366 -69.084559766460487 -202.165523880038307
-117.053619847262127 -68.511647558481798 -199.154283176146464
-108.491443263522200 -65.057977180085913 -194.445888853225796
-166.000455543065129 -70.453755328708269 -202.985946485924643
-24.972907048156440 -69.320971005832448 -201.412640860025817
12.246393101868790 -69.171317872664702 -201.248737617556031
-143.610469577008388 -69.597665622501950 -206.611184425653505
-136.398408301463434 -71.226435601671710 -208.940285996778698
-20.688526046109875 -68.708073960441482 -208.651007594569279
-12.536646038517844 -71.460960336510169 -205.815936021341429
-15.390654836566160 -70.976271665941880 -207.247804355287684
-141.455888620483421 -72.541039976484441 -207.079280912209072
-17.067055801211765 -70.671384147924641 -214.230922275641035
-11.013531435128160 -73.970700687327039 -215.547624244531136
17.018345878629336 -68.172469603153900 -211.967509750232381
-15.427104356055153 -73.635861174422416 -212.802709348578844
9.929539672469065 -70.831894699593420 -211.093567796089616
-10.888657212002968 -71.283144080442256 -216.865565722832798
-21.515053275215418 -67.831542349848874 -213.360160930344392
12.211179009031632 -74.891748666164673 -222.022939626144876
-2.050948806989367 -75.210758209433294 -220.961461707646151
10.801461480822312 -67.270633240365939 -222.235947097723397
-6.415148103015117 -72.399908015107314 -228.120086242961662
-159.166527224853326 -69.853716231850441 -228.194252223732406
80.379054229982884 -73.351306593249774 -220.415795247920300
-135.622261565717366 -67.611407315605277 -227.003862153338986
-135.429099575966916 -71.063373586530048 -225.789542100793852
-8.786131345130864 -71.163759485704048 -226.503493350731077
8.279849888380912 -70.411171827406918 -234.921984125089381
-157.213616002771488 -68.938373558200169 -232.436115810807479
87.616114569191467 -69.906039989848068 -220.244926456138131
-2.510942109912099 -69.352820671179472 -226.953825839290204
0.229573032551634 -71.197223905699914 -224.159071188397832
73.674500276998245 -73.649719690732141 -229.752697510322690
0.379778357292737 -68.381164244453586 -236.048158397594477
-15.077936134966087 -72.254976245460824 -228.497997673249813
-126.750910676319720 -67.980812941357101 -236.888242675479830
-4.498530644162241 -70.220930326150921 -238.131168285174539
2.190579465072975 -68.419399482971741 -233.140222923224513
65.824656470140951 -69.207703703444693 -238.766549478853051
-158.458678336486912 -70.463522762057522 -241.184333813894881
-12.635844776297365 -69.887939175106922 -246.037648661638571
-169.307031864458764 -71.387266334134324 -241.882791542547579
9.701780085723232 -67.955654052327930 -243.172863667652479
-164.781686653278456 -69.933610445158308 -242.007033131076923
-160.896991722483790 -70.561755479840059 -249.083008401859018
56.885979293407793 -70.878633625300196 -245.842690706254359
62.087905438151125 -72.301534836586072 -243.209708130452356
55.996038203644972 -71.465335477319044 -245.101265443616398
51.636145415521824 -70.830016761770310 -249.601738437086709
-155.595957262964816 -70.009602774570851 -246.972399636898928
-156.599296523610889 -66.975513541962243 -251.413757670139177
-13.470147450931286 -73.176327890145799 -250.786115226995634
-151.508290020425960 -68.905699011573844 -249.639961337180040
19.553622087816311 -72.052747111490660 -252.225056170689612
-169.843222813805284 -73.654487815164117 -254.195893447252416
-167.715062179531174 -67.564480006901988 -251.432116388129344
-82.257847025092730 -71.250114529285298 -251.050723837441495
-169.439893040520815 -68.777465772563374 -262.947606054311962
-85.426284739832042 -69.432722191120064 -258.920611291505622
42.459346700729867 -70.008759271209470 -254.008343200033977
22.191061842320206 -73.925440724673194 -257.285794304064098
-158.667309562148034 -70.017382136756311 -264.889158486308361
-100.804859608026788 -64.353863778727089 -262.001558113131637
39.194200226980435 -71.030516168068729 -256.587281337483716
-104.904925085805985 -75.777711749887828 -261.491127104566658
-154.031773077723273 -65.129780313257925 -267.911860352164581
-105.222557610112688 -68.643349996893321 -260.937953394788224
-167.877943956117548 -71.065348208917939 -262.785241157708754
-113.100464314521972 -70.640220116429347 -265.869333985864159
-153.257513379424182 -71.351259254802045 -268.738542863579994
-158.540071027472834 -67.734963028601015 -266.604247481462210
-166.026570710580557 -68.586827369300124 -266.893234346733720
-164.055606446252227 -67.572481998341402 -265.419863901159545
-165.675032790677847 -69.232155154096858 -268.850597183342529
-165.710248923610379 -69.826599388903674 -265.832207849339625
25.808269215373119 -71.948625707218127 -266.261859747530423
-149.842153366227592 -72.554214103332058 -266.627925848871371
-149.555135960527338 -68.929330372357100 -287.164144975026261
24.868097134808096 -71.569698903247016 -277.438492246701969
-11.553162482185293 -72.078191970857119 -275.882685715771800
-125.573054140489717 -68.312506206292753 -287.098783860901449
-136.115164352508003 -70.432475037619838 -288.902112887309102
-134.189192782465568 -68.519155455370836 -291.313375678311616
-126.620485422356325 -70.127048360851319 -288.620473014436925
-114.076458033062437 -68.516870597762306 -292.476071405521850
-105.073967647980524 -66.416854739890098 -288.033728169148446
9.576745619937679 -73.381053881570821 -293.641994930870226
-84.735537509393396 -70.583586231027098 -292.196658848585230
-148.864697582402584 -70.028595398362938 -291.304882811204152
-101.441004467700040 -69.939629162765300 -293.170562682701643
-128.955282929578090 -67.133545363515225 -294.633048194447440
9.829664902793315 -73.085113234340312 -289.359106956328731
-111.748112403767720 -64.708368965891253 -291.645546973741375
3.196172081625469 -70.826677753002144 -294.433979538593348
-142.947443329690060 -69.000288367337163 -291.696742660457517
-152.650538369427238 -69.895631162811597 -298.959530711978630
-157.505482518884889 -68.933633652614560 -317.202559798032041
-154.736509938859712 -68.558711761929402 -314.859861914236944
45.333466985294137 -73.147089501588340 -25.311773670330247
20.914278319088435 -71.028950089147713 -36.414463039746998
28.425346173537154 -71.976196601755191 -37.458327617698892
-47.183330638120957 -72.224287606088822 -49.145284156034919
-14.825732248528158 -68.616404187141939 -63.538479869813500
92.215415786784604 -72.342200620327063 -68.564192866009876
66.615658524158789 -66.991987576153633 -70.034016146431341
-26.230761890646754 -70.207723742870428 -75.843382347566006
-99.963684913755785 -73.460432308215417 -88.610388547356322
-44.458194361027275 -70.152480169903029 -84.188369266308968
59.571715569304558 -70.170363539808307 -81.957204278743788
60.270436992508905 -73.219851991541731 -86.465055008031712
51.572078845931273 -68.598441058069483 -88.169635918891416
-60.785878343002061 -68.802945443869760 -92.101585614401827
64.930246874619584 -67.193603455332010 -89.746535195693468
41.836117801111058 -73.801635590483997 -98.587237024091550
66.612837425504807 -72.438900947062123 -95.112721499420843
-64.087519043136339 -68.043641734211405 -97.845806035322127
48.265278955540353 -72.531418265431057 -93.811192180786918
43.861247139605730 -72.257254895760042 -99.064059857589001
101.553619816244208 -68.390188660093870 -100.587281160239897
-68.300902123738069 -69.666628529085301 -100.734932324387728
108.797576613278380 -70.542136530342447 -100.322937748924076
-80.819407077591848 -71.636863317976918 -103.101136503388432
52.735628856727111 -73.212615752549226 -105.548524994100930
46.219515923691695 -68.913033186046135 -101.339209932348126
90.079421127704634 -69.208400736158040 -103.967944115789308
82.771169546329602 -69.396529011297105 -106.869862440896853
53.050942044424573 -70.551484338319028 -105.102693847608748
-77.981130546889801 -70.189172870142059 -113.017520975440533
-78.449372775289063 -68.806263077241709 -116.876292622558140
-81.988054496840235 -70.718089261679751 -120.321418803557705
-94.809680033185856 -74.032520728369832 -120.580122192888425
103.296053353322762 -66.049328735443112 -116.494735399683037
-89.994330256138582 -71.736505558275809 -121.069418130255272
-78.225432039221602 -66.027371609264520 -123.178165920385325
107.920553809985790 -69.773693554039880 -115.975528065868758
-63.148027521953708 -62.433049783776006 -119.805925436247307
112.234961526667036 -74.218395176629897 -131.321573783705844
108.559184892511951 -72.273735172414447 -129.342225973512654
105.757879302574423 -71.904453173475147 -125.752888274348905
-94.829209157100365 -69.803084430828619 -139.866676871652743
-48.368827754227588 -69.621612924976034 -143.388915570344551
-80.437789866065273 -67.460609612644248 -146.417241055911802
-70.581661744143858 -69.494699981027253 -150.806158489321490
-71.520033925819718 -68.129432262044986 -149.773126700350417
-56.472961502168260 -68.952717994650214 -145.297928498955628
-48.253924836816516 -73.275519200912342 -147.584423954418128
15.103735626176448 -70.198291318432666 -147.297483172152141
-95.445682825795629 -66.378021806539095 -144.968666940932621
-46.974945046818497 -68.282827496827196 -148.839073829300702
-53.386521474968596 -63.862736220737645 -149.293549090921971
-43.276453440551713 -67.917774528988701 -156.373910972295135
26.399695396512421 -72.251144609894922 -162.663170492894665
-51.269683318972639 -69.925116618018251 -152.588436342515678
-101.650409607130129 -65.316733412808375 -151.613410928609937
-46.481776762462374 -66.854783380365944 -158.366980449973909
24.438191307618649 -72.058172038415705 -148.964330523306074
