# This PCD file was generated using the MATLAB® pcwrite function
# from Computer Vision Toolbox®.
# .PCD v.7 - Point Cloud Data file format
VERSION .7
FIELDS x y z
SIZE 8 8 8
TYPE F F F
COUNT 1 1 1
WIDTH 784
HEIGHT 1
VIEWPOINT 0 0 0 1 0 0 0
POINTS 784
DATA ascii
97.444262182992048 -72.352567307447828 -68.158297346767910
-12.708001665202239 -66.864322815271422 -67.238182308111021
68.617906307269152 -72.693776108553919 -78.203219962576767
-40.973936809337921 -73.557131656566000 -78.523060921768192
-26.223359583096634 -73.112381649290654 -75.060144118653213
57.212427854225410 -66.852950715647339 -85.557229857359857
-43.135161471273193 -79.333818311564698 -83.692798698141658
65.868845332895390 -63.005664429694718 -86.310886796455904
53.841981561025960 -73.945831846397169 -89.095754384719143
54.623970894580665 -70.065072009703343 -93.022463666313087
60.516332514054703 -74.377143329875622 -90.183262269416701
57.802744194161846 -67.134506370724935 -95.070053048909088
100.694659522611346 -67.385492930679106 -97.106375785087351
106.934994515615131 -66.275488344232727 -98.000188928017536
60.712463724335556 -72.369411798187556 -99.284227364772264
107.865774302805875 -66.302835996421607 -98.901107498596033
-75.993248827003782 -68.654006603371172 -98.364328816047617
-71.749588314306607 -68.571164766407136 -101.133260428963936
101.260858628432075 -67.106466473537026 -97.857379812749841
54.161459055753085 -70.399949369508619 -100.154727047851182
71.351537544404479 -71.286550280128807 -98.025005923348303
-71.578012651000833 -69.074513685965570 -106.479191347502436
-84.231464126592314 -67.619637164264418 -106.290565690033091
90.077137283481406 -72.690966284592477 -103.713241992621960
41.112288322609878 -70.810826875230092 -103.556388620082615
105.774829335855273 -66.745887257251212 -105.191672768359709
47.431040502321693 -71.742968579118354 -112.798157078229181
111.016845509851748 -70.183664894689130 -102.925059259977303
-77.806929833890010 -68.378743305630607 -110.150759131403916
105.444915555030533 -65.938127932265431 -107.915034996879797
-83.420220094119188 -66.415381611401969 -120.267571503750034
-57.739339668806686 -71.036265735868241 -127.642815275149715
-55.059508938214861 -67.879381079151329 -123.971946748021296
-71.663669446309157 -70.029477351864571 -129.036802971879553
-50.156120427672008 -70.123473993783392 -130.065624219029758
-83.244938313671071 -70.163398050083273 -131.988258232175781
-76.694950586924350 -65.722264931319600 -132.099638097288818
-79.792278170261696 -68.725572362036445 -130.032848011322983
-59.467801045296966 -73.021015504014827 -140.657531311180861
-70.846693473066054 -68.385437873179995 -139.750263150644400
-59.258080068529459 -71.847819797221533 -134.226191944455906
-57.840104883927651 -68.976657066948803 -140.960189956433993
17.501127227852820 -65.749826278881628 -143.023980843303349
-90.254655077872698 -68.919795849335017 -141.283935562920817
-46.965414103293050 -72.301298434793722 -145.827511588743363
-95.772374448474736 -66.654200398705555 -148.796582160530278
-100.183795749273358 -66.184948583305726 -148.296371243530956
19.814476403311851 -70.841984730907157 -153.014201585784377
14.707344318739644 -70.225204150576701 -157.371964204588977
-95.198618322673283 -69.981953246775433 -158.824724516939483
-102.836069697917736 -68.489261154407274 -153.281834915134453
-99.759564961462530 -67.150210340497125 -167.468562451239279
22.659339357366459 -68.242968151984044 -169.114147133911729
-109.928906818897048 -67.940446700470417 -171.834063766500947
23.290964960189360 -69.049906856601638 -165.696397947096870
-147.049110553646955 -68.095454684304173 -175.618525246836185
18.394313104718481 -68.601248296215672 -175.661715689651544
24.685499562875325 -69.502330536298032 -185.145077830672534
-151.800637135653858 -66.608269976669533 -185.698034913846413
21.968627209029599 -69.594285043985792 -175.646572982666868
19.684712520011601 -63.465610692786925 -179.636111511201420
-143.161932874164364 -71.344963113583177 -183.922144602051446
-151.353452147322059 -65.587393240544628 -188.346163983100752
20.435434156501117 -68.808284163982265 -187.586535222808038
18.977736732880686 -70.382195549772931 -189.081917200172938
-141.680424522153174 -69.767971382207207 -192.933993017365424
-108.554592700041141 -68.442972355708449 -196.886564624302594
24.361807259610419 -69.235988600467536 -197.768890292184153
-124.367765719909087 -67.817007565294034 -193.990504416241748
11.132907682400459 -70.665468274082812 -199.179930843038335
-129.686359450865922 -63.244098081069581 -193.538363953993780
-158.930646048439542 -65.656180538232647 -189.817993599744653
-161.027623794034326 -67.165822030823364 -195.921104221055742
-158.328730246522895 -68.740613324008379 -194.281877172019449
-19.746807459518067 -68.414092764104325 -203.844817185993350
-167.170385810920521 -69.825620072740008 -198.785895547628940
-25.987890979913594 -65.494308255773021 -191.923946004950949
-15.016793385745302 -69.749945264721660 -195.172971206520799
10.269490859850796 -64.303242311110282 -194.912282516705147
-157.377998317286256 -67.716229942911681 -203.094074410792587
-107.687755854174085 -66.822803921547390 -201.458505536321411
-17.050131456169265 -65.570988384699376 -200.908304089095196
-159.719469530307265 -63.726204210963431 -200.896113483006786
17.173347470797093 -68.793894081824860 -200.810954623097160
-168.397213447732355 -65.684739480103531 -204.241910194191291
-120.326765997829227 -70.132347052893721 -202.048086877423174
-114.988944151015502 -65.351638534215937 -206.525918073488185
-122.571694857505989 -66.985251964832628 -203.511268683326733
-14.394804884265429 -67.605207362367665 -202.886790042117070
-16.951095210704775 -68.645861065786150 -203.775602967729128
-163.917837742337667 -66.926345279092516 -209.995890984814281
-159.693602024170872 -65.716400067461564 -211.684391820366216
-164.476531777522638 -67.904006919168538 -218.813015891449140
-140.983745371463669 -69.589636779564884 -213.427686878133812
-144.422644047346154 -67.725133937512794 -223.167084378146455
-2.585334453304526 -66.762242739728677 -219.267855380041880
-9.190078713358908 -71.691431797396291 -216.257635585804223
-99.618856458920661 -66.304682635916194 -220.139953427486972
-6.438280189821186 -66.859037574162471 -231.464171444128567
-166.732050108872670 -65.112472677201424 -228.290821671085723
-106.433225615491807 -65.699036774761055 -231.615967192189117
1.778591681087934 -68.330035661281045 -225.958201669316111
3.194498048510371 -67.258098926032673 -229.186233101957839
-111.459383009341380 -68.242936460430698 -232.364877473099057
-1.110852716949747 -68.952008111086954 -228.101816240569264
-117.377476653196652 -64.989309805335225 -233.579291938006349
-7.370591999085052 -65.465758213984074 -232.440719026487443
-1.842610169465604 -67.145564466590486 -234.195278355961307
-1.226332844908835 -67.801290027539579 -236.983127574927380
72.033653374095678 -65.826175204294330 -235.741085082250009
-10.408578249119021 -70.919883912208974 -236.925855432566038
7.723860382556766 -68.793511963688317 -236.534160978523175
11.519546112632051 -67.323967023816436 -238.418956909973360
5.802324422177211 -68.822845683110870 -238.149907965032668
2.928100536319006 -69.552429216875979 -240.429465018199039
64.563814393898326 -64.608166345933540 -237.844317845276549
69.348892631105855 -65.686973409508511 -239.521338529909599
8.704692201086811 -67.899442333514301 -246.211267622851068
54.417161461035626 -69.314956326114341 -241.513605492091898
55.936489491862353 -71.921024941347454 -239.990435279950987
47.353515277423824 -65.266811565350892 -248.640636766724043
41.677368377353957 -66.202775702952380 -250.565956444854550
41.059674135686393 -67.142312125383455 -255.694507171153504
-131.552468150886568 -63.665323144390030 -257.125080335587654
-10.039850967593251 -67.519271136129078 -249.309836479280563
28.707257589351244 -66.957007498788201 -257.323707582314398
45.397577390209932 -67.406392308450236 -247.369097903904645
27.704470699809153 -70.418785044727912 -253.174744545474226
-102.605820276321538 -68.989041512712163 -258.045488170288763
31.570724707169770 -68.908833040874896 -255.538218111442944
-146.871973381774353 -69.102579877436071 -260.221013566702709
-116.099800746873825 -68.773149592461706 -256.127320353538323
-108.560649212397223 -67.246970563040506 -257.176296137569750
-3.264345889328125 -69.851490203870753 -258.316991961973144
-150.180775361802404 -68.491843877674526 -256.625488982515435
35.575552413401006 -67.843103975661748 -261.114439473138589
-109.481649657554982 -66.175022105963336 -255.926722053503653
26.451797907984588 -71.256072157998773 -258.499775532505225
-134.706321993474546 -68.840634225961637 -262.061972655497016
-116.257135048453094 -66.410724867352570 -263.307995620462179
-109.300599261861279 -66.706947440299800 -260.587878097364921
-114.766960672375561 -71.346963294666494 -260.779360968915455
-139.764179561402869 -68.672067867948158 -257.141473084605195
29.279924564100209 -68.470900668603690 -259.464137358925427
-117.133519741834050 -66.036728627110932 -262.283568118908988
-144.112122847819649 -68.686321200991884 -262.793300932582326
-4.834333695321080 -65.877517944748234 -270.013405748514799
-150.590210639000304 -69.351289518775914 -280.440466820017377
-8.158168486460688 -68.323869845323998 -285.524281228386201
-5.172624231023070 -65.566984847772673 -282.168053608993091
-134.165025301309385 -66.825279860107386 -287.004301810634672
-127.397973399943950 -67.440729377901647 -289.744814856037408
-135.537165712801425 -66.972784417154713 -293.271271361210836
-126.434494251446523 -65.949021097643467 -291.075808307403463
-154.717680550370318 -67.460939255958962 -293.766094571517783
-156.025006541972857 -67.268105505877813 -299.485737507669285
-147.747864805367243 -70.036735682248036 -300.292724445649355
-149.660035797818551 -67.659431037097335 -302.633213651766312
-144.967801073564175 -66.910820714422243 -298.400334412416385
-149.365690615560595 -66.164542027785870 -303.517895401607348
-146.142613836833448 -64.784467609534104 -314.109939809658044
20.339090314566775 -72.571870148030740 -26.763349117038842
50.231501139395462 -72.558634979255331 -35.170531022156140
26.325546167609385 -75.104262202977054 -37.048127518633642
33.341173845936396 -70.699868681159984 -41.840777707179868
-41.705095415638347 -63.819206863730443 -47.121266967116959
-75.692502939460368 -66.659677157515745 -49.750673111966385
81.230916086741885 -68.416169677898949 -60.832888692616663
75.403082419796604 -69.819998141357146 -61.645819536014002
72.399109470341017 -70.823884041132345 -65.606656833747323
-98.518655660603031 -68.086416079300164 -71.941204043027597
100.093624455326989 -72.496366831184247 -75.175701048451700
-29.732365912543631 -69.562866262241400 -81.879287900286172
63.871537084586670 -67.642052042140406 -75.847617858157705
-42.442662709775753 -65.509254392043587 -81.899583270576073
-53.208051996402148 -66.210427323862987 -81.867042215977762
51.540946009184857 -69.916771950726826 -89.805692212688399
103.064486400363563 -68.642800099385056 -89.816601283525571
64.812819210297576 -66.832561848943485 -93.095452548228081
57.501106212593463 -67.457718145839564 -92.241353356303961
49.386319140645035 -66.382721565072373 -100.753501263753932
57.333909063089116 -65.463652407215704 -99.710328731517023
103.831597997070574 -67.199046128114119 -97.228119234300067
70.475150537282161 -68.161434865449024 -105.649454205631372
50.857491460195341 -68.452486350997276 -105.085563820994281
77.287520795693382 -73.244172169517682 -106.357085833298527
96.330949060067525 -65.626861666427686 -107.231776337201225
-74.555867103785999 -66.190292485406601 -100.813790056145251
-86.151190957995141 -68.506403257934195 -109.438818530366305
-81.561299796613099 -68.697363664821381 -112.017169242274107
-59.520965453757555 -67.062552321059073 -117.889680911049780
-56.564320479712549 -71.264266332845395 -125.266289802575798
-93.997673864791096 -67.366814670946482 -120.971369659539690
-74.475893514963659 -69.194631944042200 -118.692582510496706
-76.121499619450191 -71.093048873592551 -131.588995018582921
-60.253376434938801 -65.655421056556236 -127.547883659960505
-87.958998045496514 -64.379049793602491 -129.607914032748283
-89.171631470433226 -67.090205547327017 -129.307971146931038
-47.579619800491258 -71.366720253758132 -134.594378182229804
-50.878239247677136 -68.498423217233409 -135.897951059388419
-76.694142580472800 -69.306920509409139 -137.723797889463128
-53.382888189396397 -69.483838510308075 -140.789524024334924
-73.821777681681695 -70.540180782717869 -143.074424978254939
21.741402605426551 -66.072322169712450 -138.043460098898521
-56.884601224708291 -71.530272811748659 -144.069846101674614
-54.428328304759056 -65.034604728949645 -144.812232724140614
9.745908539421466 -71.021275166399519 -154.437961812913130
17.310762749707965 -66.526183345876490 -150.364657091322698
-141.785671730707293 -67.610919321530346 -173.345773662485243
-109.806361142964050 -66.567314268361784 -177.324394218423066
-109.141438363034979 -64.261357181174773 -188.912366453111616
-152.039747233032102 -68.742539409206316 -190.641163041885676
-112.507924280175388 -66.621733869002782 -184.930398699608787
-151.542011537312050 -63.464644700050400 -195.393526192393068
-113.613676614383394 -65.926692863323765 -197.745800977025482
-149.771749728371390 -64.749259319636892 -199.534730999664220
-150.046389060774828 -67.109777022057358 -205.461685324159532
-152.432009375574182 -70.566382655173328 -207.150779291298846
-147.345324229512812 -66.716530978064739 -223.094775625844676
-149.829524416237660 -69.589853686897229 -224.488883669268375
-104.565949998661452 -65.077615214840222 -225.248492303375286
-101.405312002144512 -66.949745721097159 -221.675631688425341
-122.809291461991194 -62.932410770062688 -229.690537222887201
-107.580707375214288 -66.506592459911573 -225.349834943310412
-155.995021909492579 -67.917999833027579 -229.821596162958940
-2.434459321375464 -67.110550443606854 -225.306652360915393
-133.378798608401098 -68.642238904649830 -229.989678899574727
-152.939858351848784 -68.048097236506408 -234.353466891991104
-136.478338362489978 -69.197445765851711 -232.464840716577811
-10.767900236646504 -66.659689893110254 -235.335191529070556
9.320229621723961 -67.720075239588184 -242.338468305267270
63.361738854621613 -63.836302464347426 -240.033315170584331
18.702321552242402 -70.379258830738621 -247.903271428990053
56.466799561745319 -67.188218118130450 -242.959745095501631
41.689818831233993 -69.115184968303140 -248.942082482466247
59.303270528184349 -65.321068893373848 -250.876640477083896
-152.021917366874789 -66.728704751746321 -249.470095274139027
-149.030470659114087 -70.215880670925017 -253.606268569155390
43.235231147701839 -66.302968203453531 -256.075120636561053
29.842477360287710 -67.092170960738315 -254.992958206963436
48.179849793344765 -65.336795582886893 -251.989954519145130
-144.370786113584074 -69.437472679439054 -258.751465607035357
-135.955490873031295 -65.254377625828695 -254.503710332926261
-124.492857903574460 -64.614839723202635 -257.116427761988177
-133.586750373900117 -67.007491211434782 -255.254003753362014
-140.424249833560339 -67.396258179269708 -257.128162441213988
-123.261132414274186 -66.066510767303981 -258.672488594954416
-142.349309898009352 -65.131425302629665 -259.474337972515343
-125.867962934490578 -68.421729669958907 -258.706920207025235
-122.020389776605711 -66.876195795567696 -263.602777881298209
-127.186032114303856 -67.256306888118388 -264.023222545929798
-120.031773016704122 -63.803217599220019 -263.243821286669288
-4.861061363085171 -67.621024009326874 -265.277915163277839
28.384469622801642 -64.942988507763971 -261.377444481334351
-145.848315833683301 -63.142716446134472 -266.079771012916410
26.590501092295305 -67.628496476182178 -268.388252882785480
-4.504521926139818 -63.022433232838679 -273.629167413917799
17.386211569950902 -72.417395704985751 -282.861634188556820
-141.314979388658941 -67.023303267628251 -288.372119429694351
-125.147707780415217 -67.708310879527005 -286.502146998578439
-131.937686079042834 -62.948693949157203 -289.505210156387193
-158.211072194981966 -62.544066886218687 -291.106627201330582
-125.748285850165828 -62.255339830542937 -288.495356188635697
-117.803332047519703 -64.571438772729195 -288.426012490510004
-125.331042315687355 -68.218073368585337 -294.896786644628207
-150.612182193454203 -68.976380199026039 -292.818245294060546
29.031824271175555 -72.739951696752115 -11.717222841424578
32.235365323488821 -73.325848308468991 -16.685632712310621
38.743118228961976 -69.956683258360684 -19.151955350650219
48.853175588959218 -64.211264618505837 -22.819848614057115
28.123545615314349 -74.275176092774075 -27.211601021780261
21.135401697203953 -72.499221135392503 -33.749799319623683
-33.619527340704316 -68.795441044699089 -45.561703483741006
-81.673288152173754 -69.445603297375882 -52.309779913367443
-15.736346124601742 -68.052099220568564 -57.833428220286152
73.427300014813213 -66.840938203394714 -64.075908650615943
102.400846536942169 -67.793051589744024 -67.963972107636508
65.350973593655951 -66.792100718921816 -82.230819665366838
61.975220139763785 -63.731517693944170 -82.376640973338951
100.893051691690985 -68.321558424450330 -83.705940042674726
-63.475183679472089 -65.200828147349270 -89.734781038670079
-64.830778365205518 -67.471168384156186 -90.418400854227031
50.239629052640232 -66.004976555866833 -92.615824964070200
-66.619531616933685 -68.883082821283736 -95.169072218452087
-70.968915457976038 -67.143930313900853 -100.017568542151395
-96.111602175133896 -66.199747096100978 -99.004794088007344
-75.180296689000841 -64.232854889186399 -99.300720687625954
47.465393229567326 -64.863264304890592 -100.892779387503154
-66.940305336676104 -69.302877702304812 -102.628970314130726
50.069525079595273 -65.808916945368054 -102.315238965941518
96.767786369072681 -67.637804340523360 -104.001000807634369
91.364182920897136 -67.610783314439146 -110.526593218609037
-72.353723902736206 -66.833235496333828 -113.663062017339456
-83.987489165958891 -68.005829889186487 -111.660546054596679
-61.364974799468598 -67.017133791828073 -118.362304515141389
-95.680751196308137 -63.697516617665244 -118.326605584872240
-76.190941571701785 -68.755832053374334 -126.477483772834390
-92.919472368538933 -60.933845239868589 -124.511900606790775
-62.819881514814476 -65.417280871322347 -117.144832637296446
-59.701494604616066 -61.648108248846754 -119.637200084908912
-88.190480184150104 -67.362513987846114 -128.775755296270432
-62.782561987101609 -70.073942904154976 -126.662197556012089
-83.641410690766648 -65.921661651172414 -131.704906101886820
-79.052884505471397 -67.610578409942150 -133.101825183758450
-61.623253871302921 -70.316951779951907 -133.756399051537159
-60.371593824409054 -63.352519896161766 -133.817700886124271
-54.192731712271780 -62.370060783310066 -134.685869189797131
-95.814858993268103 -64.406919268197640 -131.544822923976454
-96.513521142648187 -64.203225219884445 -143.333075102537720
-88.015079861405042 -67.092792149590139 -134.179394336974809
21.095184994056009 -69.298878558439810 -147.769321129768855
-49.445959753333618 -67.493433634568419 -141.077575748071837
18.488283875275169 -66.825988387064939 -149.503572052067767
-97.684421582161846 -67.126221665420616 -163.744084077402704
-102.432045394318564 -70.453018880264437 -170.645063715047314
-101.973602735665310 -63.417392912681052 -170.519249388037849
-107.362170258990858 -61.911759711285015 -170.539049016353431
-107.023997297449426 -67.033613762733140 -178.798949374953139
-110.091767687632355 -66.034004278586025 -177.560267352640011
-141.646104890933714 -64.698307514592898 -186.268102566190976
-111.434804044565283 -65.086518820293691 -185.709976299171132
-133.220867550841319 -63.351995778527922 -198.886217905492202
-148.809115555012824 -67.998673509694882 -197.628426009157607
-125.969206143254127 -66.384612331968839 -197.283842924327416
-156.358944594656862 -67.752489288310770 -195.742098662718973
-146.752570920552813 -69.121726501361550 -201.268507089919893
-124.687225546859821 -61.760534268184543 -198.049353874170862
-134.056215801957649 -65.066564672221702 -200.695594956809828
-141.032691648136279 -70.678452736943726 -205.738620359590698
-131.621556532658900 -68.219685925197183 -222.785891097590877
-110.102889445664189 -67.571498066058837 -228.858886117223363
-143.592326405444709 -66.877968052861135 -227.620526479950968
-118.249105519147719 -64.493425813501929 -230.376740425750540
-115.276985079786982 -62.170566767700095 -230.177016143192958
-122.303088606660125 -66.811826253052018 -232.439919329328404
-130.245045086498408 -65.901141296989266 -233.713965621759911
-115.232728694255812 -63.233926028621227 -235.794544767949930
4.901613058325654 -65.577084967486755 -235.084924834195220
-151.564310893931832 -67.520186965142543 -237.011737438569014
6.948143848036236 -67.417370835770967 -234.355980479176480
5.954128229032153 -63.198522634690235 -241.447559570443048
2.330627773642958 -68.130136309286826 -240.625719132230984
14.474356157383669 -63.199423636264683 -240.037692055710494
-144.021565054569237 -64.402608735652947 -234.510865906525851
-4.591502469215051 -67.429787555087529 -246.447907776957067
19.895484387240256 -66.015000546244835 -240.581325567814957
50.085524171775020 -64.733687152373193 -248.997350038077144
51.133925022720568 -64.885097913774231 -249.623443910470911
-146.404691276769682 -67.460447968372080 -251.769092123315573
-5.428150419125133 -67.026230450693745 -250.850959995675595
23.243661379568913 -66.898038117589593 -255.168690478799448
-132.009404701462159 -60.995446019023547 -257.754456180824661
-123.769492204010817 -64.228123517572371 -257.960611014321330
-124.450331925202576 -66.516700965031859 -257.436286026372613
26.863383120255623 -65.956105581809680 -258.197484331049509
-133.659214844865403 -63.610318904128263 -264.927930230076981
31.010753255904770 -64.249602784281805 -259.954338626468655
32.925422439107599 -66.346485271437132 -262.814627800195865
-152.734602610801971 -67.698033169711906 -266.434201067816616
-146.480971218810538 -70.694514183551547 -286.380060684439059
-149.358948145930867 -62.498064337297308 -287.371277074701766
-143.765161828248381 -63.335809584665128 -293.640383151762421
12.265369464098399 -69.003956886224586 -291.627951275802104
-154.313008089871801 -63.392447538922937 -299.347105330878321
46.395421230463249 -72.696411294640640 -25.618560613341941
35.983457173616650 -73.917991042829357 -39.706886890752614
-60.805551295141392 -65.061495182894703 -45.444307812175161
-71.698233158233023 -65.066124102687368 -45.988148464289345
-26.541683551224928 -65.210334711361853 -50.075041159377655
-21.642084037816666 -70.281490878712901 -54.003208632418463
-10.957000572881046 -63.814079599730306 -66.203114551142662
-25.954342702115099 -63.787998549113610 -69.288838763413978
65.320406255782316 -67.122150188350048 -73.367481760631165
-96.463011671364541 -61.770305450240741 -78.159579469517809
-46.048645914437358 -67.123763282144068 -85.734002872312260
55.018412815890613 -68.298509830788035 -85.471498818917269
59.038942111066561 -67.214728820197010 -86.075675906805486
62.633538211248919 -67.714118551034701 -88.390075833446645
106.643524733911775 -66.426684481707298 -90.410430594276647
52.605136727173928 -64.524242653517732 -90.418319192308715
99.298877313976604 -62.904212004389763 -99.891902924775536
-81.651929811372597 -68.307839434740146 -102.754202008413159
-93.785023465696028 -66.520904574002699 -101.314829808453680
75.604338098315480 -63.734483554920743 -111.592972423952318
-77.199358011848517 -65.877978711708252 -103.267973691488223
-77.424947015238899 -70.253168692234965 -114.280408230223316
-83.694033327425416 -70.578834703683015 -118.515098398250544
-55.032460469445006 -67.467256370052496 -126.148989919141073
-77.182144538574761 -66.567372237566971 -128.353058767166260
-62.243629163484904 -63.427168747717374 -129.105751127166116
-83.615695149720494 -67.753001604881007 -134.527598983524911
-75.623184372637297 -65.045140390580215 -132.577803068759692
-79.462277457136253 -63.342758287801757 -124.921539789818453
-88.409183744515474 -64.563423433075769 -129.862841961835528
-65.328321369975313 -63.580737049238351 -133.925885903453548
-90.257082354040421 -65.855729099127430 -132.350620842205473
-49.730444380333836 -68.018075715702466 -133.060295116092078
-55.394129768334082 -70.279206445379145 -138.696253424051605
28.110892078983792 -66.420552718845542 -139.208354216494939
-56.593712398065058 -61.017954371115422 -136.546292492683506
15.596975089870382 -70.033823483529346 -143.737647910523918
16.774326479690782 -65.366194354839692 -147.766052543354846
18.102477204452487 -63.004188196202549 -153.054889531790792
-97.644115742645710 -64.585211314754744 -144.760718349826419
-91.013532638010361 -66.179115121423877 -149.641175782314889
-95.897168008583648 -62.665039289945994 -150.795215148117592
-104.511698619816897 -66.069483117854077 -160.842506794449264
-97.274654412648673 -64.694598959242981 -158.772180467961135
-151.657708894916624 -65.631976183534221 -175.047985298783232
-153.495006762401857 -65.724833064551191 -175.419801357149083
-110.105034077375080 -63.686525580635603 -181.248072142387173
-141.586853760062212 -63.516266846994071 -177.142947021521337
-109.686343149873736 -62.582355558046444 -180.844977381283684
-149.442199441572598 -59.693502038608315 -186.640811824967045
-111.238768056705325 -62.584850062876384 -191.805776539952262
-110.015704208616654 -65.788774654928503 -183.437839682469274
-143.735560302214083 -64.987957244707303 -198.468572116943449
-129.988469121998662 -66.596710508762897 -196.297705079781252
-106.922451773328703 -65.565289068925836 -197.309685922097231
-115.699827442552163 -60.734550284502461 -198.468136745169062
-112.633469677623182 -65.974014433879333 -199.957618895209777
-115.769749224838947 -61.573032503509509 -202.200223069074923
-133.957682816852810 -62.930391264936432 -197.081223089486116
-138.100267405642569 -64.993856053244897 -202.373042488312905
-130.718903197774353 -63.819260488318463 -206.589799054293309
-127.217004933671404 -60.733528294732423 -200.807802621662375
-124.162601149382468 -63.984440280912295 -204.434267282739029
-113.484859797600052 -64.262430881321407 -204.248754622177159
-147.786523019314672 -64.344107862302621 -213.501731053342013
-151.778908278028098 -64.805403022643006 -219.610340386509449
-152.792234743309962 -63.741253064119789 -222.097523663385402
-140.127735603599064 -69.382471101230593 -224.849326251400612
-131.800701421957484 -61.399713152989875 -226.705606745383079
-122.114584055448020 -66.787638482016334 -220.035038071185824
-140.592721087917255 -66.630898860232193 -228.546587914029686
-150.946131317777855 -66.859336462136923 -225.759314054638423
-133.837899568172446 -65.881695991665808 -225.910559243316015
-133.256492302475721 -62.215795691134332 -227.999365759721314
-147.439542603319751 -65.196600070378778 -228.987861794359418
-134.616131453712399 -59.742122691432755 -229.335457836997534
-127.435432466639966 -63.514767756836889 -230.213572685685136
-10.341488142923627 -67.494231077968195 -236.578228967754143
5.154117877386866 -64.040370884413903 -240.236952078155127
13.916304199714199 -61.149269906379743 -242.578509442187254
9.701242108320113 -67.599384271302000 -243.333790071218402
-8.177039364617938 -67.407745781817894 -239.638784148727268
-12.129717533160381 -65.545052855068406 -246.397499380199093
38.228684109922469 -63.780873783374645 -249.958724837789617
48.061044319243450 -64.907321793296447 -252.549321857938907
-145.801288643920969 -63.240343517767698 -253.659708235450154
42.197218391054719 -63.523330040599632 -254.593000046953449
38.585059389713180 -66.078690497859199 -253.099414745119446
-158.347620388314510 -67.743523588422718 -256.868264698653775
-150.713213665536074 -64.025714627808327 -256.844147324518360
-150.651458086315131 -67.623173916853162 -258.877323215615661
2.761384404018126 -66.041090461720330 -263.168236295335419
-150.839187394157420 -64.982817467642889 -266.174547673641371
-0.304913236873102 -65.246409419425689 -273.887303609891262
-146.337039655747816 -66.723139672356581 -274.263624364779503
-147.791418394785666 -64.606761607848469 -281.062024159327507
-151.057619286925956 -64.260791193561772 -284.508033030611614
-149.812446121034014 -58.415804755201094 -282.983528805537674
-145.205835968165388 -62.838007205501583 -288.818120731004115
-155.305116828322156 -63.510211741712752 -284.718358876198124
-151.149261821267800 -64.227345337311917 -285.611769955999080
-151.638431516220408 -62.004215208601437 -286.979312489413019
-147.533840255208418 -63.681205256985223 -286.891484298619275
-143.973642452471552 -63.773858434671070 -286.664136512663049
11.493184332269939 -66.170600948801820 -284.756694127824630
-146.886445946327484 -63.740619477582030 -292.730835967162761
-157.062642809556337 -60.922919696197397 -290.912569131982764
-155.240908858068252 -59.872251206895442 -288.044583081405676
-150.635629027996231 -62.225864244162224 -292.720907128544241
-148.810559720392575 -58.802749515251065 -288.654180335752812
-146.636048215470481 -65.479461951700344 -291.378763036034229
4.104868679633043 -66.260804560660233 -292.077336077284087
-144.156835068435981 -62.089712602859734 -293.816184589689897
-147.854380452023833 -61.109773247849986 -292.804787696642791
29.585185515554628 -61.132732242620150 -16.182283816817232
42.810866001777171 -71.530926192505333 -20.139667718870619
43.245787341682444 -64.231139066537111 -21.170917419127917
18.385921732392813 -71.785794607900158 -31.153037538091148
27.234939513846882 -58.964431597325273 -34.696640752117148
38.109805929471094 -68.549473083966319 -35.569414564151742
-56.057553496886662 -64.411450277560874 -43.865956535157544
-50.268837757106404 -65.741949547512007 -41.607337082176322
90.420561065679166 -66.737133755927715 -63.994411200490603
-95.250127768075572 -63.886543958966953 -64.798604154667089
96.800485851682382 -73.934752536117344 -62.592077077298953
68.472023511397310 -67.484966703577570 -69.552602743442534
101.034854239800225 -68.403030278018932 -77.440043987985277
64.106182508499785 -70.046180853243570 -75.851035391634014
-41.530214526632918 -66.546137216117216 -77.276584490973462
60.436629112860558 -63.212900844247798 -81.416947641835648
-53.138801916466221 -62.773316637148170 -77.948508853970338
59.383547912076729 -65.509827774541023 -83.744467820115631
62.762340067312699 -63.601519738521404 -84.916095125281998
-97.839718885568573 -65.325329232938586 -82.962793534127044
52.007308022309338 -64.785385576843495 -85.875600661376154
52.398072627167977 -69.999534238888828 -92.659419928012653
65.310586355733847 -67.267490904225980 -91.736044045372495
52.764136253947456 -64.716511788218298 -95.930153465598536
-80.600537918680317 -63.702777034482693 -106.029503215899126
83.356125449546539 -69.613316599438775 -105.552091262318811
-80.510278189620806 -67.893044830673034 -116.856045817998620
-76.419659154829205 -63.376348580993849 -105.965147775089221
-79.352054013707274 -66.151409996793035 -121.878767247873597
-85.524741491298187 -64.366294504857137 -114.295666318337695
-93.380006863664860 -63.128631863471000 -119.119259654503352
-80.137241345658836 -65.945884934024065 -122.265380872906618
-52.367047257866062 -63.054103152635705 -125.139660687032901
-77.747901964847628 -63.150009610634086 -133.959307182922259
-56.419473376744669 -60.493887473181744 -129.942459549615705
-87.845820669795245 -62.663999239187874 -136.220255422225023
29.896426700040454 -64.621604678687220 -137.408569688883517
19.964608554347020 -65.522721261462593 -140.270391176240622
-92.781287862686497 -57.357276345339926 -141.487834748503872
21.195717805266014 -66.614157959698488 -147.888648434021036
-89.772667659240952 -66.807521772398033 -145.714133045701942
-93.757460123110548 -60.786376926477786 -146.874841051707762
19.227916464673964 -65.403405060838708 -157.886773959931219
-95.685418470859886 -63.561505510310226 -146.192208024918813
-97.829941351092984 -62.412281131035613 -146.853606901436535
-102.984623530795773 -63.405780130358494 -155.915969674146396
-95.631369787881368 -63.822216847450235 -160.500740240315054
-103.705316273539694 -65.844051244956503 -177.356485600813585
-108.450139686706393 -68.884314493239827 -168.248335720576335
-99.032524319221565 -64.547950962592296 -164.567128860392671
-105.173775020638459 -64.618264067436797 -168.683998953660279
-140.366892804944456 -65.281347740333217 -177.396526046247459
-109.687373461756309 -63.718732200128755 -177.444042409320247
-141.035073672581660 -63.855583933952673 -186.982858057012805
-148.292028386129033 -61.337155940237949 -189.406933603692778
-152.587198539533063 -60.687373647564527 -189.137901048939455
-122.499186071405489 -61.975079071033505 -195.777091728110321
-129.633721186606977 -66.058160098581311 -195.005411202781659
-122.066811710893631 -62.378151196244872 -199.775655550873921
-142.830049270454992 -65.995962112460091 -201.195687834684634
-123.248049318865810 -66.416642919178969 -203.133495568921347
-146.070107336145526 -64.749930663052140 -203.682354236324755
-151.053379972680062 -63.746154639740354 -205.007331495056235
-154.552189524533389 -61.994631813887096 -226.946183140932646
-142.471203268979224 -68.142092234534815 -230.928937561877177
-127.235891735128305 -61.850576613886574 -231.287550908566516
-153.523142607496595 -61.733060673844420 -229.952100119684872
-2.597745883046774 -68.529216125396104 -238.318136115780646
12.710538196002400 -61.782662333820753 -238.401009857147784
-2.166020956752998 -67.252508904080329 -242.843475507628085
-149.281872432174708 -62.347270482257301 -244.242908331251613
-7.468233952581057 -62.409288684753065 -242.759181718559660
-150.795626802101168 -66.778691253759774 -252.790454389790597
-6.281129825574118 -66.985992896677331 -248.953698995093731
-149.200812448249366 -64.611202101462027 -253.230224518379117
22.236241406144025 -66.190403505705746 -251.994190650166473
-152.148692295440611 -59.624611066736236 -254.624536941372099
-148.894349664793879 -62.867293930425220 -254.607661016067169
-152.329814394985647 -62.804352330186092 -253.582569247008649
-149.196871168551297 -61.744366090333145 -257.125310399021032
34.158081992140886 -64.297134475685795 -257.697020683390633
31.071301983707990 -63.611090429898397 -262.949378971188821
-145.729073286281078 -63.024576072571534 -255.378478196697785
-151.293386149190923 -59.380844860063505 -259.634590374083643
-153.920620882787858 -65.408810193121070 -259.347298109554458
-147.045922947349652 -60.876086158768260 -259.159272608024594
27.355584089929842 -62.862651243778856 -262.095762921246944
29.378264791072802 -63.627356432901252 -265.380116551829758
-153.704069181373427 -63.950090046610228 -262.284697103099688
-143.121358460166107 -62.529259883446983 -262.647170297217201
-149.430894879486601 -60.088157184067299 -262.612301896111717
-143.960562249620153 -62.304854055367898 -263.581654645696744
-144.582363230996492 -65.162844233465364 -263.060070035110243
-146.987063024649615 -66.371896183585250 -265.156850739509366
-148.198600479885954 -60.866865757255908 -265.361868197332058
-149.854659426663630 -59.744113221257138 -284.917561364819846
-147.916488966725097 -62.464764342145571 -281.707199208916961
-147.895450560620077 -62.819304960024084 -279.079273920792161
17.468733344299018 -64.039197374210588 -281.726524147742907
-153.880747525574549 -60.147891130989080 -284.476030996947145
-146.703476851552637 -61.731771715222735 -287.451588863772827
-4.720459129156731 -68.765621054016648 -286.983214141634619
5.269056376323015 -63.465745505991876 -291.942357201572008
-151.781201165646166 -63.404957782411941 -294.281998674863644
27.560225482982922 -72.748262444250500 -21.317136975585747
45.972623432396610 -66.661999464733611 -27.915587340465073
50.208821316417428 -71.985451818532127 -32.324251839136835
41.668113285168765 -62.696600971802638 -34.518688377683198
25.969159618892693 -73.221330263731730 -36.779869028638004
45.446446557491583 -70.505773234600440 -39.695714438917022
80.368777849661129 -63.442188093948062 -61.714607590821387
77.410542225268472 -66.010129944055393 -61.856089907454262
-15.734074098558281 -65.981284824659724 -68.713635356889668
67.674691595705539 -62.790842217985059 -70.647768572964921
-27.455141247820908 -67.865379476712164 -73.038777513477370
-33.920295884536479 -69.457103243179930 -79.204751433255709
-56.313420853032902 -63.416002808050365 -75.856944346224907
-53.992044082989686 -62.079339053665350 -78.695351505866384
64.627229924032108 -69.619291974017258 -82.016965732270407
107.345455105280962 -70.041277205026120 -89.230405085788092
-59.955333253877718 -62.391608742720365 -85.691257331674720
57.489989705541475 -65.585510262568903 -95.364278234210403
64.308016635433418 -63.362490575910300 -93.316853763641333
104.009646642750326 -65.293144171233649 -94.196739622696597
-65.505368716262467 -66.981393777875738 -93.203301603025835
55.775943353669810 -61.623660498356685 -95.503397788137448
-65.304580686102256 -67.766323109046738 -104.626556575350349
68.647824958879809 -66.289860030527961 -96.298788308969804
68.142205782093114 -64.784465911298199 -102.706333281593587
-74.373721360449053 -62.982711069069808 -107.918538925365638
-97.005694972366598 -61.899768390483942 -111.612053892124578
-69.352458140813226 -59.135413474997264 -110.317124349878128
-83.150133145465489 -65.123262687030959 -110.967067339021270
-62.382756870950288 -65.960432240116049 -114.367714364548547
-83.613010996608907 -61.923722176398684 -108.688960485484458
-76.136956318878092 -64.797349685616766 -114.712385801141110
-76.201889976325134 -66.148992469855045 -115.459183641150190
-67.847483349541335 -66.869731141782864 -119.348199575470758
-84.266120461252626 -66.352925805974337 -125.644105555857422
35.253804233787086 -64.233159909184209 -127.596665535139309
-49.358120399956221 -64.053950574339112 -128.894665848060015
31.992015369439990 -63.926449803809206 -133.756434262463216
31.188892824186155 -65.189424178518735 -132.043210256188104
31.096324781751427 -66.365040539992435 -131.809610338524124
-53.007134166532119 -62.372271792001371 -131.808863258263301
21.450324357105707 -64.369364147869618 -145.448091261901055
23.785338783058840 -64.946752371316293 -143.637945280324175
-145.243211619933078 -64.014209423559109 -176.676198916859278
-149.990700515412982 -59.752829816021517 -174.531139297478006
-151.924033705266595 -62.910570084491866 -180.948184369761123
-147.045763772586810 -60.893535726818726 -184.745531772157705
-148.228218780163900 -63.610070877547017 -191.399793523954287
-148.921837659878719 -65.119842758106401 -192.405739354753990
-140.588321866707531 -65.096993080716629 -192.447774927818699
-143.861014589956085 -60.335867273272910 -199.393806427280509
-121.738857479041855 -65.090225295961218 -199.485536686706098
-133.655351441553108 -63.958494657408309 -203.125064173800524
-147.410547369347910 -64.142021335473288 -212.600027870210567
-146.725278432452853 -57.652050720383158 -221.925111871543010
-151.489636304093636 -61.741033096493851 -226.027129844297008
-145.864137782906397 -62.737420417843708 -227.790856013320024
-151.732017303878621 -61.799678759101425 -227.725935083562746
-149.865885888932866 -59.504759950172840 -227.660126322687546
-147.537738586771411 -63.194113250682079 -229.864537960218712
-145.451713196513282 -62.997619415848817 -231.561347121481987
-141.825059860931418 -61.079384814023669 -236.171759391836616
-146.548299997596899 -63.904654029512798 -229.311301695022337
-154.350538437372990 -61.641706267690708 -233.422577506340417
10.496636035438906 -62.884173974035576 -239.349015807988195
-8.616972813504821 -67.786227932318951 -240.625841698325132
-145.245503189417661 -60.358837013104932 -240.129854382167053
-151.667577567895336 -62.928026572101118 -236.255147524096287
-152.412302499722273 -63.715166134655476 -238.428944446460093
9.054325366653666 -64.567316291958761 -242.921231329960420
-149.514557735270643 -61.339677232139849 -237.871291512475977
-148.505010329667556 -64.901371088370567 -252.808747021667358
-3.191823009100234 -63.769807556600909 -249.011145875716210
-147.701334838145840 -61.620105289846137 -251.136103208184153
-144.398677652831736 -61.335832745382064 -253.477933341159513
-142.078990745236695 -62.535656459524915 -255.671908653046756
-142.628739770870197 -62.059952705237052 -255.134145267364062
28.462750771113352 -65.736437595271624 -261.829556621797565
-149.156452163416674 -65.229674807666285 -263.821225042828985
27.908388902385543 -65.019491423084020 -271.020284557708464
14.873183158955950 -63.014082417671673 -287.500354076698727
1.903146017672306 -62.571400419703650 -287.781229029221151
9.261203557604871 -60.453846229756607 -292.999384986713324
32.541034530290077 -64.607555003131878 -19.491796827349972
44.006340823987863 -74.001310931060360 -37.437328230759483
36.558407756475376 -73.244334706771056 -38.476495759110200
-43.069213121523809 -63.508476095867735 -46.460308159542024
-89.911718269812610 -64.573093123398550 -54.424922176992780
-93.768767780004268 -63.916749781632973 -59.343116055370004
-21.233183477438587 -62.970978041919224 -66.148821539503743
102.256356660084492 -66.419508211814303 -68.397557191809724
106.977874941785686 -62.903112785887430 -74.974728486965020
106.006935666478100 -66.624783743938337 -76.900785476103010
-49.476559613794592 -65.493216142040325 -82.548663065396084
-61.648151682319266 -62.193666896391079 -84.136088169175693
59.042111958785227 -63.168968019846957 -88.445255966379534
54.729333950772798 -66.852739529684399 -89.946872301175787
-60.985080822459039 -67.218975944816094 -96.305666631237401
-95.923670174255975 -59.887598239385142 -106.691171098649761
78.174109266081516 -64.557563865780651 -108.210512135212326
-79.528952278135279 -63.194361870811463 -108.086575626156900
-66.894690491340029 -64.398668032154774 -108.540694686250745
-79.758063714689001 -66.472235027333710 -113.141636011383270
-83.986434035028765 -57.915738067508514 -114.791441273529315
-82.057237219120864 -64.155255057141531 -115.960547034082040
-69.065819216530016 -57.176107318186823 -117.957697387984339
-65.509898551180257 -62.732359966074853 -116.724374616078094
-81.132970187942504 -59.078129741796459 -117.399517406177168
-76.583078124217664 -62.873010198448284 -116.347814101179637
-62.578842036449089 -62.108058466916233 -119.362609882449178
-83.922134133762469 -62.507484903850170 -117.120860811507569
-74.528204590009082 -63.547399859028886 -119.838871809417142
-73.589691344460434 -62.292482465043662 -128.486941307857393
-79.539333811882116 -62.847192109502373 -128.111162911505801
28.355149377800448 -61.689964454978693 -124.122684548776633
-56.746815588795030 -61.357439072905464 -132.023046531791806
27.924981406415338 -64.544721000803108 -133.398245770764788
23.023342422881761 -66.818902167799138 -138.455000107169809
-142.950310025844090 -62.792066368211181 -193.729756271294860
-136.667025890648148 -63.617565229103988 -198.120661484672581
-152.098126758426304 -62.305659924081212 -201.857896999547251
-150.074742905963063 -59.666289108820123 -199.284003373698454
-156.245798453810892 -65.567216124920435 -201.721086069414895
-147.619174754526455 -58.924158881496311 -202.086031205994715
-141.365391077719892 -60.944952386090080 -202.276381963258672
-149.186155240336802 -59.820208565972464 -206.141534277312132
-148.225393882203065 -63.537312166336150 -222.747100624849963
-148.045990725046863 -60.949559695384053 -220.233825474714706
-144.496283944981769 -59.847060186868589 -223.398690775669650
-144.370708212126061 -62.043759219240442 -221.292972498366538
-149.693509405070159 -61.688225747174812 -226.367382534265545
-145.249531196072354 -60.110650873671943 -223.829060644753213
-146.640806893202836 -60.352063461588187 -226.852356139875781
-141.481301152110888 -59.916711283263169 -225.824095066739488
-141.702178664916232 -64.063042108200719 -227.694321767874243
-143.124770141476574 -60.737039020402733 -232.713237157499236
-148.416085986622988 -58.978545081399744 -234.436789499574019
-147.257453095776299 -59.387548298222811 -233.319004064397376
3.111179666064490 -64.484384092327190 -238.011147824847768
18.774130166837086 -62.729064044700991 -242.387424192494223
24.791443794345795 -58.544076862580994 -254.229212188110779
24.701451016159456 -61.434537814456746 -256.933576434517249
9.019749416211052 -63.850547919887020 -263.089428735224089
22.110807020798831 -65.015947160824894 -278.364898436520889
5.554177408067052 -64.070038492709642 -279.693005686376750
7.622747930669027 -61.154624709629616 -291.634352638953487
11.139376330228435 -63.947275031845237 -288.455299371601427
50.342254972900726 -71.623481775190967 -20.622343140176994
33.280322412267367 -62.304893391732406 -37.643916986679450
-29.395812015039919 -62.344782405077183 -49.284599428905196
-16.060409236030512 -62.993930451960949 -51.404553156783578
-11.549905144933003 -60.125738289186828 -58.571172923152716
95.711070885682318 -64.888048164822834 -60.690641287182387
-96.056707591249747 -59.467521240813269 -70.971026131541706
101.546104523123958 -66.341515512878587 -72.559422476261815
56.602095436825998 -63.758098697526535 -86.047403687364650
67.842158173982043 -62.492738568215529 -88.683552816007335
-64.011204981987447 -61.587905872421587 -90.844043591934962
54.043485980954927 -64.718460355053750 -93.077111206592519
61.585313902498378 -59.519958819010000 -89.452104453150142
104.736615210553694 -63.121840477956624 -97.234540159991241
-67.741176367205085 -61.482129831748367 -94.411250774690984
-70.092837105266071 -59.799822147436615 -96.215095906723832
79.388707849948005 -65.192674050550892 -107.317816864538031
-75.071768729981073 -63.411885457324644 -106.790314501044520
-62.733847739385503 -62.460960582121615 -107.656549654292419
39.448457462488250 -60.529772535572974 -120.045405030714662
-82.768617561384204 -63.041846249523402 -124.028964820273856
41.132425935054393 -62.913856937523022 -120.472705903397653
-89.227898252590293 -64.426278756390076 -117.502991882799662
-96.812486914528407 -60.539529225696810 -125.845665900795140
-67.364202394387220 -60.833942971353011 -122.234520084390496
36.025404572824478 -62.256347148204767 -124.745537225681559
-62.644153162528418 -64.039540237596057 -127.769302468818140
-56.640637464571668 -62.093043498112209 -133.112946897095554
-56.585746015433692 -63.993331024242650 -137.556339184371893
-143.551219640813372 -59.727601322015573 -197.327395464667632
-148.498937733663837 -58.275051442673117 -190.653229077460225
-147.208267918863157 -60.542944757683117 -194.164411690778508
-153.110419263209110 -61.386300498076423 -195.887302826692860
-147.367621961478108 -62.582210242760965 -194.695957672838716
-144.136451198750876 -58.494587457399760 -195.954219390452863
-139.326651096700033 -58.829653484066924 -198.921271895992390
-146.103329071375299 -60.996631433746430 -201.017672724557457
-145.366195798576570 -62.480164311433683 -198.401052210739948
-152.765120285066729 -58.546023306961203 -204.710724516569826
-142.031427065268474 -61.862988379029289 -202.511058331949812
-146.078363236658106 -62.941744046786070 -204.992493448289309
-146.393841179112798 -58.133384515374786 -204.730384351917053
-149.680476702760927 -58.862861697695394 -204.873458714051765
-145.655485359368697 -60.491169539660589 -223.239368796614713
-5.085668698430529 -64.778998586146372 -234.342324491685901
6.490814724069349 -60.765830603729128 -241.808084348545577
10.320863037087094 -59.840490674733090 -239.669648984694135
6.113585807352258 -61.713394671751985 -243.758013663346134
20.744645778754194 -61.142098394140788 -248.237471636704896
1.061884984968069 -64.605171930259118 -257.171645105473999
10.315985153623714 -62.836506951841244 -270.267837782640584
26.820928521605008 -65.748675057826986 -267.313225894213303
18.830169762035947 -61.070927326511665 -282.277474641327217
28.467962385120771 -63.792133261114884 -11.781648334076325
-67.303085331856281 -63.825387735612381 -39.742565804410518
