# This PCD file was generated using the MATLAB® pcwrite function
# from Computer Vision Toolbox®.
# .PCD v.7 - Point Cloud Data file format
VERSION .7
FIELDS x y z
SIZE 8 8 8
TYPE F F F
COUNT 1 1 1
WIDTH 795
HEIGHT 1
VIEWPOINT 0 0 0 1 0 0 0
POINTS 795
DATA ascii
-60.988296508789063 -23.346900939941406 -55.549999237060547
-61.765602111816406 -22.858699798583984 -55.549999237060547
-77.968803405761719 -22.912500381469727 -55.950000762939453
-61.765602111816406 -22.623399734497070 -55.950000762939453
-60.812500000000000 -23.022100448608398 -55.950000762939453
-79.705596923828125 -23.346900939941406 -56.349998474121094
-78.921897888183594 -22.900499343872070 -56.349998474121094
-77.968803405761719 -22.643100738525391 -56.349998474121094
-60.812500000000000 -22.694999694824219 -56.349998474121094
-80.514297485351563 -23.346900939941406 -56.750000000000000
-79.875000000000000 -22.964199066162109 -56.750000000000000
-78.921897888183594 -22.653299331665039 -56.750000000000000
-59.859401702880859 -22.989500045776367 -56.750000000000000
-80.828102111816406 -23.202999114990234 -57.150001525878906
-78.921897888183594 -22.515499114990234 -57.150001525878906
-59.859401702880859 -22.753499984741211 -57.150001525878906
-80.828102111816406 -22.848100662231445 -57.549999237060547
-79.875000000000000 -22.545400619506836 -57.549999237060547
-58.906200408935547 -23.138599395751953 -57.549999237060547
-82.386901855468750 -23.346900939941406 -57.950000762939453
-81.781196594238281 -22.934499740600586 -57.950000762939453
-80.828102111816406 -22.595800399780273 -57.950000762939453
-58.906200408935547 -22.903699874877930 -57.950000762939453
-82.639099121093750 -23.346900939941406 -58.349998474121094
-81.781196594238281 -22.778200149536133 -58.349998474121094
-83.687500000000000 -23.346900939941406 -59.110801696777344
-82.734397888183594 -23.031400680541992 -58.750000000000000
-58.906200408935547 -22.573699951171875 -58.750000000000000
-82.734397888183594 -22.746599197387695 -59.150001525878906
-81.781196594238281 -22.409700393676758 -59.150001525878906
-57.670700073242188 -23.346900939941406 -59.150001525878906
-83.687500000000000 -23.100599288940430 -59.550003051757813
-82.734397888183594 -22.636100769042969 -59.550003051757813
-57.953098297119141 -22.959499359130859 -59.550003051757813
-84.640602111816406 -23.346900939941406 -60.085601806640625
-83.687500000000000 -22.797000885009766 -59.949996948242188
-57.367401123046875 -23.346900939941406 -59.949996948242188
-84.640602111816406 -23.060899734497070 -60.349998474121094
-83.687500000000000 -22.577600479125977 -60.349998474121094
-57.242000579833984 -23.346900939941406 -60.349998474121094
-57.953098297119141 -22.663999557495117 -60.349998474121094
-57.227798461914063 -23.346900939941406 -60.750000000000000
-57.953098297119141 -22.648799896240234 -60.750000000000000
-84.640602111816406 -22.737300872802734 -61.150001525878906
-57.000000000000000 -23.346900939941406 -61.507102966308594
-85.593803405761719 -23.129499435424805 -61.550003051757813
-57.953098297119141 -22.479400634765625 -61.550003051757813
-57.953098297119141 -22.457300186157227 -61.949996948242188
-86.546897888183594 -23.346900939941406 -62.716697692871094
-85.593803405761719 -22.771699905395508 -62.349998474121094
-56.775299072265625 -23.346900939941406 -62.349998474121094
-57.000000000000000 -23.116500854492188 -62.349998474121094
-85.593803405761719 -22.511499404907227 -63.150001525878906
-57.000000000000000 -23.038099288940430 -63.150001525878906
-86.546897888183594 -22.880500793457031 -63.550003051757813
-86.546897888183594 -22.728200912475586 -63.949996948242188
-57.000000000000000 -22.888900756835938 -63.949996948242188
-87.500000000000000 -23.247999191284180 -64.750000000000000
-86.546897888183594 -22.409999847412109 -65.150001525878906
-57.000000000000000 -22.829599380493164 -65.150001525878906
-87.500000000000000 -22.830900192260742 -65.550003051757813
-57.000000000000000 -22.945899963378906 -65.949996948242188
-87.500000000000000 -22.684700012207031 -66.349998474121094
-87.500000000000000 -22.515600204467773 -66.750000000000000
-57.000000000000000 -22.932800292968750 -66.750000000000000
-87.500000000000000 -22.507099151611328 -67.150001525878906
-57.000000000000000 -23.026599884033203 -67.150001525878906
-88.453102111816406 -22.949699401855469 -67.949996948242188
-56.654098510742188 -23.346900939941406 -67.949996948242188
-57.000000000000000 -22.993099212646484 -67.949996948242188
-57.953098297119141 -22.436899185180664 -68.349998474121094
-57.000000000000000 -23.198799133300781 -68.349998474121094
-88.453102111816406 -22.847299575805664 -68.750000000000000
-57.953098297119141 -22.467599868774414 -69.150001525878906
-57.000000000000000 -23.282100677490234 -69.150001525878906
-88.453102111816406 -22.724500656127930 -69.550003051757813
-57.953098297119141 -22.570499420166016 -69.550003051757813
-88.453102111816406 -22.671600341796875 -70.349998474121094
-57.953098297119141 -22.612400054931641 -70.349998474121094
-89.227203369140625 -23.346900939941406 -70.750000000000000
-57.953098297119141 -22.731800079345703 -70.750000000000000
-88.453102111816406 -22.602100372314453 -71.150001525878906
-57.953098297119141 -22.819599151611328 -71.550003051757813
-89.238098144531250 -23.346900939941406 -71.949996948242188
-88.453102111816406 -22.573299407958984 -71.949996948242188
-57.953098297119141 -22.965599060058594 -71.949996948242188
-58.906200408935547 -22.448099136352539 -72.750000000000000
-57.953098297119141 -23.119600296020508 -72.750000000000000
-88.453102111816406 -22.535299301147461 -73.150001525878906
-57.944801330566406 -23.346900939941406 -73.150001525878906
-88.453102111816406 -22.654199600219727 -73.949996948242188
-58.906200408935547 -22.710100173950195 -74.349998474121094
-88.453102111816406 -22.646099090576172 -74.750000000000000
-89.095596313476563 -23.346900939941406 -75.550003051757813
-88.453102111816406 -22.714899063110352 -75.550003051757813
-58.906200408935547 -22.969100952148438 -75.550003051757813
-59.859401702880859 -22.503200531005859 -75.949996948242188
-58.862499237060547 -23.346900939941406 -75.949996948242188
-88.453102111816406 -22.889400482177734 -76.349998474121094
-88.958503723144531 -23.346900939941406 -76.750000000000000
-59.859401702880859 -22.599300384521484 -76.750000000000000
-88.890502929687500 -23.346900939941406 -77.150001525878906
-88.453102111816406 -22.893999099731445 -77.150001525878906
-59.859401702880859 -22.762699127197266 -77.150001525878906
-88.453102111816406 -23.067499160766602 -77.550003051757813
-87.500000000000000 -22.397399902343750 -77.550003051757813
-88.596099853515625 -23.346900939941406 -77.949996948242188
-87.500000000000000 -22.412399291992188 -77.949996948242188
-59.859401702880859 -22.893999099731445 -77.949996948242188
-87.500000000000000 -22.477500915527344 -78.349998474121094
-59.859401702880859 -23.153499603271484 -78.349998474121094
-87.500000000000000 -22.610000610351563 -78.750000000000000
-60.812500000000000 -22.603900909423828 -79.150001525878906
-87.500000000000000 -22.689199447631836 -79.550003051757813
-60.812500000000000 -22.755599975585938 -79.550003051757813
-61.765602111816406 -22.402799606323242 -80.349998474121094
-60.812500000000000 -22.899299621582031 -80.349998474121094
-87.500000000000000 -22.964300155639648 -80.750000000000000
-61.765602111816406 -22.522800445556641 -80.750000000000000
-60.812500000000000 -23.129600524902344 -80.750000000000000
-87.500000000000000 -23.189599990844727 -81.150001525878906
-86.546897888183594 -22.441600799560547 -81.150001525878906
-86.546897888183594 -22.531600952148438 -81.550003051757813
-61.765602111816406 -22.661199569702148 -81.550003051757813
-86.546897888183594 -22.570400238037109 -81.949996948242188
-86.546897888183594 -22.722099304199219 -82.349998474121094
-62.718803405761719 -22.532300949096680 -82.750000000000000
-61.765602111816406 -23.066499710083008 -82.750000000000000
-86.546897888183594 -22.802999496459961 -83.150001525878906
-61.765602111816406 -23.276599884033203 -83.150001525878906
-62.718803405761719 -22.767400741577148 -83.550003051757813
-86.546897888183594 -23.172700881958008 -83.949996948242188
-85.593803405761719 -22.609100341796875 -84.349998474121094
-62.259101867675781 -23.346900939941406 -84.349998474121094
-62.718803405761719 -22.978599548339844 -84.349998474121094
-63.671897888183594 -22.653999328613281 -84.750000000000000
-62.718803405761719 -23.246900558471680 -84.750000000000000
-64.625000000000000 -22.396600723266602 -85.150001525878906
-85.593803405761719 -22.920499801635742 -85.550003051757813
-62.964500427246094 -23.346900939941406 -85.550003051757813
-63.671897888183594 -22.808700561523438 -85.550003051757813
-85.593803405761719 -23.122200012207031 -85.949996948242188
-64.625000000000000 -22.578899383544922 -85.949996948242188
-63.671897888183594 -23.076400756835938 -85.949996948242188
-85.437103271484375 -23.346900939941406 -86.349998474121094
-84.640602111816406 -22.782400131225586 -86.349998474121094
-63.671897888183594 -23.268699645996094 -86.349998474121094
-84.640602111816406 -22.865100860595703 -86.750000000000000
-65.578102111816406 -22.402599334716797 -86.750000000000000
-64.625000000000000 -22.727699279785156 -86.750000000000000
-84.640602111816406 -23.031400680541992 -87.150001525878906
-65.578102111816406 -22.563100814819336 -87.150001525878906
-64.110000610351563 -23.346900939941406 -87.150001525878906
-64.625000000000000 -22.962200164794922 -87.150001525878906
-83.687500000000000 -22.728599548339844 -87.550003051757813
-66.531196594238281 -22.396600723266602 -87.949996948242188
-65.578102111816406 -22.666599273681641 -87.949996948242188
-64.504699707031250 -23.346900939941406 -87.949996948242188
-84.211303710937500 -23.346900939941406 -88.349998474121094
-83.687500000000000 -22.998699188232422 -88.349998474121094
-64.928596496582031 -23.346900939941406 -88.349998474121094
-82.734397888183594 -22.809700012207031 -88.750000000000000
-66.531196594238281 -22.692100524902344 -89.150001525878906
-65.342102050781250 -23.346900939941406 -89.150001525878906
-65.578102111816406 -23.157699584960938 -89.150001525878906
-83.134101867675781 -23.346900939941406 -89.550003051757813
-82.734397888183594 -23.083200454711914 -89.550003051757813
-81.781196594238281 -22.706199645996094 -89.550003051757813
-65.789100646972656 -23.346900939941406 -89.550003051757813
-66.531196594238281 -22.854799270629883 -89.550003051757813
-82.510101318359375 -23.346900939941406 -89.949996948242188
-81.781196594238281 -22.924499511718750 -89.949996948242188
-80.828102111816406 -22.646299362182617 -89.949996948242188
-67.484397888183594 -22.657300949096680 -89.949996948242188
-67.484397888183594 -22.701900482177734 -90.349998474121094
-66.315101623535156 -23.346900939941406 -90.349998474121094
-66.531196594238281 -23.176399230957031 -90.349998474121094
-80.828102111816406 -22.856000900268555 -90.750000000000000
-79.875000000000000 -22.632900238037109 -90.750000000000000
-69.390602111816406 -22.416000366210938 -90.750000000000000
-68.437500000000000 -22.601400375366211 -90.750000000000000
-66.711601257324219 -23.346900939941406 -90.750000000000000
-67.484397888183594 -22.872999191284180 -90.750000000000000
-80.828102111816406 -23.199100494384766 -91.150001525878906
-79.875000000000000 -22.840099334716797 -91.150001525878906
-68.437500000000000 -22.719699859619141 -91.150001525878906
-67.484397888183594 -23.106700897216797 -91.150001525878906
-80.490997314453125 -23.346900939941406 -91.550003051757813
-79.875000000000000 -23.020999908447266 -91.550003051757813
-78.921897888183594 -22.778299331665039 -91.550003051757813
-77.968803405761719 -22.615200042724609 -91.550003051757813
-67.446701049804688 -23.346900939941406 -91.550003051757813
-80.192703247070313 -23.346900939941406 -91.949996948242188
-79.875000000000000 -23.177400588989258 -91.949996948242188
-78.921897888183594 -22.865900039672852 -91.949996948242188
-77.968803405761719 -22.663099288940430 -91.949996948242188
-70.343803405761719 -22.535800933837891 -91.949996948242188
-69.390602111816406 -22.677000045776367 -91.949996948242188
-67.808296203613281 -23.346900939941406 -91.949996948242188
-68.437500000000000 -22.928699493408203 -91.949996948242188
-78.921897888183594 -23.176700592041016 -92.349998474121094
-77.968803405761719 -22.884500503540039 -92.349998474121094
-77.015602111816406 -22.712699890136719 -92.349998474121094
-75.109397888183594 -22.523300170898438 -92.349998474121094
-73.203102111816406 -22.489599227905273 -92.349998474121094
-70.343803405761719 -22.687299728393555 -92.349998474121094
-68.437500000000000 -23.346900939941406 -92.418601989746094
-78.521301269531250 -23.346900939941406 -92.750000000000000
-77.968803405761719 -23.089300155639648 -92.750000000000000
-77.015602111816406 -22.833700180053711 -92.750000000000000
-74.156196594238281 -22.594100952148438 -92.750000000000000
-69.390602111816406 -23.033599853515625 -92.750000000000000
-78.199302673339844 -23.346900939941406 -93.150001525878906
-77.015602111816406 -22.937599182128906 -93.150001525878906
-76.062500000000000 -22.791599273681641 -93.150001525878906
-75.109397888183594 -22.701999664306641 -93.150001525878906
-74.156196594238281 -22.659099578857422 -93.150001525878906
-72.250000000000000 -22.691799163818359 -93.150001525878906
-71.296897888183594 -22.771900177001953 -93.150001525878906
-70.343803405761719 -22.920999526977539 -93.150001525878906
-69.160598754882813 -23.346900939941406 -93.150001525878906
-72.250000000000000 -22.915399551391602 -93.550003051757813
-70.304801940917969 -23.346900939941406 -93.550003051757813
-75.109397888183594 -23.253099441528320 -93.949996948242188
-74.156196594238281 -23.095699310302734 -93.949996948242188
-73.203102111816406 -23.079500198364258 -93.949996948242188
-71.296897888183594 -23.346900939941406 -93.986396789550781
-74.156196594238281 -23.270599365234375 -94.349998474121094
-70.343803405761719 -22.393699645996094 -54.915699005126953
-68.437500000000000 -22.393699645996094 -54.831001281738281
-66.531196594238281 -22.393699645996094 -54.890800476074219
-65.578102111816406 -22.393699645996094 -55.044700622558594
-73.203102111816406 -22.393699645996094 -55.389999389648438
-71.296897888183594 -22.244199752807617 -55.150001525878906
-70.343803405761719 -22.081100463867188 -55.150001525878906
-68.437500000000000 -21.988000869750977 -55.150001525878906
-66.531196594238281 -22.061599731445313 -55.150001525878906
-65.578102111816406 -22.250799179077148 -55.150001525878906
-75.109397888183594 -22.393699645996094 -55.888500213623047
-74.156196594238281 -22.393699645996094 -55.630001068115234
-72.250000000000000 -22.068599700927734 -55.549999237060547
-69.390602111816406 -21.799299240112305 -55.549999237060547
-67.484397888183594 -21.784099578857422 -55.549999237060547
-62.718803405761719 -22.393699645996094 -55.920898437500000
-74.156196594238281 -22.006999969482422 -55.950000762939453
-72.250000000000000 -21.768999099731445 -55.950000762939453
-70.343803405761719 -21.649499893188477 -55.950000762939453
-65.578102111816406 -21.662599563598633 -55.950000762939453
-64.625000000000000 -21.768800735473633 -55.950000762939453
-63.671897888183594 -21.963699340820313 -55.950000762939453
-76.709297180175781 -22.393699645996094 -56.349998474121094
-76.062500000000000 -22.091899871826172 -56.349998474121094
-75.109397888183594 -21.853099822998047 -56.349998474121094
-74.156196594238281 -21.726100921630859 -56.349998474121094
-72.250000000000000 -21.569700241088867 -56.349998474121094
-70.343803405761719 -21.467300415039063 -56.349998474121094
-65.578102111816406 -21.473400115966797 -56.349998474121094
-63.671897888183594 -21.695299148559570 -56.349998474121094
-61.917297363281250 -22.393699645996094 -56.349998474121094
-62.718803405761719 -21.952899932861328 -56.349998474121094
-77.535499572753906 -22.393699645996094 -56.750000000000000
-77.015602111816406 -22.147300720214844 -56.750000000000000
-75.109397888183594 -21.701700210571289 -56.750000000000000
-72.250000000000000 -21.443500518798828 -56.750000000000000
-61.765602111816406 -22.108600616455078 -56.750000000000000
-60.812500000000000 -22.393699645996094 -57.119998931884766
-77.968803405761719 -22.279399871826172 -57.150001525878906
-76.062500000000000 -21.693199157714844 -57.150001525878906
-61.765602111816406 -21.838899612426758 -57.150001525878906
-79.875000000000000 -22.393699645996094 -57.940700531005859
-78.921897888183594 -22.218999862670898 -57.549999237060547
-77.968803405761719 -21.837799072265625 -57.549999237060547
-77.015602111816406 -21.658100128173828 -57.549999237060547
-61.765602111816406 -21.629100799560547 -57.549999237060547
-60.225997924804688 -22.393699645996094 -57.549999237060547
-60.812500000000000 -21.939300537109375 -57.549999237060547
-78.921897888183594 -21.917200088500977 -57.950000762939453
-77.968803405761719 -21.668300628662109 -57.950000762939453
-60.812500000000000 -21.755100250244141 -57.950000762939453
-80.454597473144531 -22.393699645996094 -58.349998474121094
-79.875000000000000 -22.082899093627930 -58.349998474121094
-78.921897888183594 -21.761299133300781 -58.349998474121094
-60.812500000000000 -21.640499114990234 -58.349998474121094
-59.859401702880859 -22.147800445556641 -58.349998474121094
-80.828102111816406 -22.155500411987305 -58.750000000000000
-79.875000000000000 -21.791299819946289 -58.750000000000000
-78.921897888183594 -21.569999694824219 -58.750000000000000
-59.228500366210938 -22.393699645996094 -58.750000000000000
-59.859401702880859 -21.898300170898438 -58.750000000000000
-80.828102111816406 -21.869300842285156 -59.150001525878906
-79.875000000000000 -21.650499343872070 -59.150001525878906
-58.906200408935547 -22.393699645996094 -59.550003051757813
-81.781196594238281 -22.191299438476563 -59.550003051757813
-80.828102111816406 -21.780399322509766 -59.550003051757813
-59.859401702880859 -21.680900573730469 -59.550003051757813
-82.595703125000000 -22.393699645996094 -59.949996948242188
-81.781196594238281 -21.881799697875977 -59.949996948242188
-80.828102111816406 -21.627700805664063 -59.949996948242188
-58.906200408935547 -22.063800811767578 -59.949996948242188
-82.734397888183594 -22.085399627685547 -60.349998474121094
-81.781196594238281 -21.703399658203125 -60.349998474121094
-58.906200408935547 -21.935499191284180 -60.349998474121094
-83.426696777343750 -22.393699645996094 -60.750000000000000
-82.734397888183594 -21.946199417114258 -60.750000000000000
-58.906200408935547 -21.903299331665039 -60.750000000000000
-83.687500000000000 -22.319700241088867 -61.150001525878906
-81.781196594238281 -21.514400482177734 -61.150001525878906
-84.228500366210938 -22.393699645996094 -61.550003051757813
-83.687500000000000 -21.982500076293945 -61.550003051757813
-82.734397888183594 -21.587499618530273 -61.550003051757813
-58.906200408935547 -21.709100723266602 -61.550003051757813
-84.391998291015625 -22.393699645996094 -61.949996948242188
-83.687500000000000 -21.905700683593750 -61.949996948242188
-84.728401184082031 -22.393699645996094 -62.349998474121094
-58.906200408935547 -21.674900054931641 -62.349998474121094
-85.139900207519531 -22.393699645996094 -62.750000000000000
-84.640602111816406 -22.034700393676758 -62.750000000000000
-83.687500000000000 -21.567199707031250 -62.750000000000000
-57.953098297119141 -22.321199417114258 -62.750000000000000
-85.593803405761719 -22.393699645996094 -63.504302978515625
-58.906200408935547 -21.638000488281250 -63.150001525878906
-57.915000915527344 -22.393699645996094 -63.150001525878906
-84.640602111816406 -21.702999114990234 -63.550003051757813
-85.969200134277344 -22.393699645996094 -63.949996948242188
-85.593803405761719 -22.096399307250977 -63.949996948242188
-84.640602111816406 -21.583599090576172 -63.949996948242188
-57.953098297119141 -22.225000381469727 -63.949996948242188
-57.749500274658203 -22.393699645996094 -64.349998474121094
-57.953098297119141 -22.165300369262695 -64.750000000000000
-85.593803405761719 -21.671300888061523 -65.150001525878906
-86.546897888183594 -22.148899078369141 -65.550003051757813
-57.675899505615234 -22.393699645996094 -65.550003051757813
-57.953098297119141 -22.135299682617188 -65.550003051757813
-57.953098297119141 -22.222900390625000 -65.949996948242188
-86.546897888183594 -21.950700759887695 -66.349998474121094
-85.593803405761719 -21.468900680541992 -66.349998474121094
-58.906200408935547 -21.576799392700195 -66.349998474121094
-86.546897888183594 -21.767599105834961 -66.750000000000000
-58.906200408935547 -21.587299346923828 -66.750000000000000
-57.685600280761719 -22.393699645996094 -66.750000000000000
-57.953098297119141 -22.133100509643555 -66.750000000000000
-57.909301757812500 -22.393699645996094 -67.150001525878906
-86.546897888183594 -21.637699127197266 -67.550003051757813
-87.500000000000000 -22.273399353027344 -67.949996948242188
-58.906200408935547 -21.633499145507813 -67.949996948242188
-57.888900756835938 -22.393699645996094 -67.949996948242188
-58.906200408935547 -21.712900161743164 -68.349998474121094
-87.808403015136719 -22.393699645996094 -68.750000000000000
-87.500000000000000 -22.122600555419922 -68.750000000000000
-87.500000000000000 -21.993200302124023 -69.150001525878906
-58.906200408935547 -21.720199584960938 -69.150001525878906
-58.906200408935547 -21.812099456787109 -69.550003051757813
-88.001602172851563 -22.393699645996094 -69.949996948242188
-87.500000000000000 -21.833400726318359 -70.349998474121094
-58.906200408935547 -21.863100051879883 -70.349998474121094
-87.500000000000000 -21.782899856567383 -71.150001525878906
-59.859401702880859 -21.552600860595703 -71.550003051757813
-58.906200408935547 -22.131999969482422 -71.550003051757813
-87.500000000000000 -21.695800781250000 -71.949996948242188
-59.859401702880859 -21.636800765991211 -71.949996948242188
-58.850200653076172 -22.393699645996094 -71.949996948242188
-87.500000000000000 -21.802499771118164 -72.349998474121094
-59.859401702880859 -21.694799423217773 -72.750000000000000
-87.500000000000000 -21.735399246215820 -73.150001525878906
-87.500000000000000 -21.792299270629883 -73.949996948242188
-87.500000000000000 -21.746799468994141 -74.349998474121094
-59.368000030517578 -22.393699645996094 -74.349998474121094
-59.859401702880859 -21.968399047851563 -74.349998474121094
-87.500000000000000 -21.868499755859375 -75.150001525878906
-60.812500000000000 -21.649900436401367 -75.550003051757813
-59.859401702880859 -22.309200286865234 -75.550003051757813
-87.500000000000000 -21.890199661254883 -75.949996948242188
-60.812500000000000 -21.767099380493164 -75.949996948242188
-87.500000000000000 -22.015300750732422 -76.349998474121094
-61.765602111816406 -21.446399688720703 -76.750000000000000
-60.812500000000000 -21.885099411010742 -76.750000000000000
-87.500000000000000 -22.142099380493164 -77.150001525878906
-60.812500000000000 -22.113800048828125 -77.150001525878906
-86.546897888183594 -21.603399276733398 -77.550003051757813
-61.765602111816406 -21.652799606323242 -77.949996948242188
-60.812500000000000 -22.297700881958008 -77.949996948242188
-86.546897888183594 -21.644599914550781 -78.349998474121094
-60.999900817871094 -22.393699645996094 -78.349998474121094
-61.765602111816406 -21.798599243164063 -78.349998474121094
-62.718803405761719 -21.473899841308594 -79.150001525878906
-61.160202026367188 -22.393699645996094 -79.150001525878906
-61.765602111816406 -21.892400741577148 -79.150001525878906
-86.546897888183594 -21.881000518798828 -79.550003051757813
-62.718803405761719 -21.607299804687500 -79.550003051757813
-86.546897888183594 -22.069000244140625 -79.949996948242188
-61.765602111816406 -22.282899856567383 -79.949996948242188
-62.718803405761719 -21.736200332641602 -80.349998474121094
-85.593803405761719 -21.603200912475586 -80.750000000000000
-85.593803405761719 -21.738199234008789 -81.150001525878906
-63.671897888183594 -21.629299163818359 -81.550003051757813
-62.718803405761719 -22.070400238037109 -81.550003051757813
-85.593803405761719 -21.865900039672852 -81.949996948242188
-84.640602111816406 -21.443700790405273 -81.949996948242188
-62.718803405761719 -22.393699645996094 -82.123298645019531
-86.018997192382813 -22.393699645996094 -82.349998474121094
-63.671897888183594 -21.816099166870117 -82.349998474121094
-85.593803405761719 -22.185499191284180 -82.750000000000000
-84.640602111816406 -21.641500473022461 -82.750000000000000
-85.718597412109375 -22.393699645996094 -83.150001525878906
-84.640602111816406 -21.684700012207031 -83.150001525878906
-64.625000000000000 -21.626499176025391 -83.150001525878906
-63.207099914550781 -22.393699645996094 -83.150001525878906
-63.671897888183594 -22.056999206542969 -83.150001525878906
-65.578102111816406 -21.463899612426758 -83.550003051757813
-64.625000000000000 -21.768699645996094 -83.550003051757813
-63.671897888183594 -22.330699920654297 -83.550003051757813
-85.234397888183594 -22.393699645996094 -83.949996948242188
-84.640602111816406 -21.959999084472656 -83.949996948242188
-85.161201477050781 -22.393699645996094 -84.349998474121094
-84.640602111816406 -21.999099731445313 -84.349998474121094
-65.578102111816406 -21.611000061035156 -84.349998474121094
-63.875602722167969 -22.393699645996094 -84.349998474121094
-64.625000000000000 -21.900400161743164 -84.349998474121094
-64.625000000000000 -22.167800903320313 -84.750000000000000
-84.513999938964844 -22.393699645996094 -85.150001525878906
-83.687500000000000 -21.885099411010742 -85.150001525878906
-65.578102111816406 -21.804100036621094 -85.150001525878906
-84.374099731445313 -22.393699645996094 -85.550003051757813
-83.687500000000000 -21.960500717163086 -85.550003051757813
-66.531196594238281 -21.563299179077148 -85.550003051757813
-64.720298767089844 -22.393699645996094 -85.550003051757813
-65.578102111816406 -21.827699661254883 -85.550003051757813
-83.687500000000000 -22.150499343872070 -85.949996948242188
-66.531196594238281 -21.704099655151367 -85.949996948242188
-65.172500610351563 -22.393699645996094 -85.949996948242188
-65.578102111816406 -22.109199523925781 -85.949996948242188
-83.582496643066406 -22.393699645996094 -86.349998474121094
-82.734397888183594 -21.895900726318359 -86.349998474121094
-83.453697204589844 -22.393699645996094 -86.750000000000000
-82.734397888183594 -21.970100402832031 -86.750000000000000
-80.828102111816406 -21.449100494384766 -86.750000000000000
-67.484397888183594 -21.576299667358398 -86.750000000000000
-66.531196594238281 -21.826599121093750 -86.750000000000000
-81.781196594238281 -21.792600631713867 -87.150001525878906
-67.484397888183594 -21.725000381469727 -87.150001525878906
-66.118202209472656 -22.393699645996094 -87.150001525878906
-66.531196594238281 -22.122400283813477 -87.150001525878906
-82.562797546386719 -22.393699645996094 -87.550003051757813
-81.781196594238281 -21.978000640869141 -87.550003051757813
-80.828102111816406 -21.712400436401367 -87.550003051757813
-78.921897888183594 -21.448900222778320 -87.949996948242188
-68.437500000000000 -21.652799606323242 -87.949996948242188
-67.484397888183594 -21.885400772094727 -87.949996948242188
-81.875396728515625 -22.393699645996094 -88.349998474121094
-80.828102111816406 -21.877700805664063 -88.349998474121094
-79.875000000000000 -21.697099685668945 -88.349998474121094
-70.343803405761719 -21.443300247192383 -88.349998474121094
-68.437500000000000 -21.776100158691406 -88.349998474121094
-67.484397888183594 -22.169099807739258 -88.349998474121094
-81.265403747558594 -22.393699645996094 -88.750000000000000
-80.828102111816406 -22.137399673461914 -88.750000000000000
-79.875000000000000 -21.853900909423828 -88.750000000000000
-78.921897888183594 -21.688800811767578 -88.750000000000000
-77.015602111816406 -21.465000152587891 -88.750000000000000
-67.484397888183594 -22.393699645996094 -88.750000000000000
-79.875000000000000 -21.971300125122070 -89.150001525878906
-70.343803405761719 -21.601800918579102 -89.150001525878906
-69.390602111816406 -21.735000610351563 -89.150001525878906
-67.619201660156250 -22.393699645996094 -89.150001525878906
-68.437500000000000 -21.953399658203125 -89.150001525878906
-80.413696289062500 -22.393699645996094 -89.550003051757813
-79.875000000000000 -22.142599105834961 -89.550003051757813
-78.921897888183594 -21.866699218750000 -89.550003051757813
-77.968803405761719 -21.708499908447266 -89.550003051757813
-74.156196594238281 -21.456499099731445 -89.550003051757813
-71.296897888183594 -21.603799819946289 -89.550003051757813
-68.437500000000000 -22.228300094604492 -89.550003051757813
-79.433998107910156 -22.393699645996094 -89.949996948242188
-78.921897888183594 -22.158700942993164 -89.949996948242188
-77.968803405761719 -21.882299423217773 -89.949996948242188
-76.062500000000000 -21.675699234008789 -89.949996948242188
-75.109397888183594 -21.622900009155273 -89.949996948242188
-68.616203308105469 -22.393699645996094 -89.949996948242188
-78.938598632812500 -22.393699645996094 -90.349998474121094
-70.343803405761719 -21.885999679565430 -90.349998474121094
-69.390602111816406 -22.155500411987305 -90.349998474121094
-78.510696411132813 -22.393699645996094 -90.750000000000000
-77.968803405761719 -22.199100494384766 -90.750000000000000
-77.015602111816406 -21.995399475097656 -90.750000000000000
-75.109397888183594 -21.769399642944336 -90.750000000000000
-74.156196594238281 -21.737400054931641 -90.750000000000000
-73.203102111816406 -21.754800796508789 -90.750000000000000
-72.250000000000000 -21.806900024414063 -90.750000000000000
-71.296897888183594 -21.886600494384766 -90.750000000000000
-70.343803405761719 -22.046600341796875 -90.750000000000000
-77.195999145507813 -22.393699645996094 -91.150001525878906
-76.062500000000000 -22.127300262451172 -91.150001525878906
-75.109397888183594 -21.991600036621094 -91.150001525878906
-73.203102111816406 -21.933599472045898 -91.150001525878906
-70.305603027343750 -22.393699645996094 -91.150001525878906
-76.062500000000000 -22.393699645996094 -91.611503601074219
-75.109397888183594 -22.124099731445313 -91.550003051757813
-71.296897888183594 -22.295400619506836 -91.550003051757813
-75.495796203613281 -22.393699645996094 -91.949996948242188
-74.156196594238281 -22.393699645996094 -92.136703491210938
-74.156196594238281 -22.211000442504883 -91.949996948242188
-73.203102111816406 -22.393699645996094 -92.116699218750000
-73.203102111816406 -22.227100372314453 -91.949996948242188
-71.909599304199219 -22.393699645996094 -91.949996948242188
-72.250000000000000 -22.319299697875977 -91.949996948242188
-68.437500000000000 -21.440599441528320 -56.326900482177734
-67.484397888183594 -21.440599441528320 -56.220798492431641
-67.484397888183594 -21.253599166870117 -56.349998474121094
-66.531196594238281 -21.327400207519531 -56.349998474121094
-73.203102111816406 -21.440599441528320 -56.945701599121094
-70.343803405761719 -21.130500793457031 -56.750000000000000
-68.437500000000000 -21.079099655151367 -56.750000000000000
-67.484397888183594 -21.005100250244141 -56.750000000000000
-66.531196594238281 -21.059400558471680 -56.750000000000000
-65.578102111816406 -21.253400802612305 -56.750000000000000
-63.671897888183594 -21.440599441528320 -57.125801086425781
-75.109397888183594 -21.440599441528320 -57.391399383544922
-72.250000000000000 -21.068500518798828 -57.150001525878906
-70.343803405761719 -20.889400482177734 -57.150001525878906
-69.390602111816406 -20.862300872802734 -57.150001525878906
-65.578102111816406 -20.908800125122070 -57.150001525878906
-64.625000000000000 -21.072999954223633 -57.150001525878906
-75.109397888183594 -21.239500045776367 -57.549999237060547
-74.156196594238281 -21.034000396728516 -57.549999237060547
-72.250000000000000 -20.808000564575195 -57.549999237060547
-70.343803405761719 -20.682300567626953 -57.549999237060547
-69.390602111816406 -20.653099060058594 -57.549999237060547
-68.437500000000000 -20.678100585937500 -57.549999237060547
-66.531196594238281 -20.664499282836914 -57.549999237060547
-63.671897888183594 -20.990400314331055 -57.549999237060547
-62.635101318359375 -21.440599441528320 -57.549999237060547
-76.610000610351563 -21.440599441528320 -57.950000762939453
-76.062500000000000 -21.224399566650391 -57.950000762939453
-75.109397888183594 -21.005199432373047 -57.950000762939453
-74.156196594238281 -20.867799758911133 -57.950000762939453
-72.250000000000000 -20.665800094604492 -57.950000762939453
-65.578102111816406 -20.607900619506836 -57.950000762939453
-63.671897888183594 -20.791000366210938 -57.950000762939453
-62.718803405761719 -21.075099945068359 -57.950000762939453
-77.015602111816406 -21.277200698852539 -58.349998474121094
-62.718803405761719 -20.902799606323242 -58.349998474121094
-61.599197387695313 -21.440599441528320 -58.349998474121094
-78.921897888183594 -21.440599441528320 -59.095497131347656
-77.968803405761719 -21.299400329589844 -58.750000000000000
-77.015602111816406 -20.958099365234375 -58.750000000000000
-76.062500000000000 -20.768899917602539 -58.750000000000000
-74.156196594238281 -20.603099822998047 -58.750000000000000
-62.718803405761719 -20.731700897216797 -58.750000000000000
-61.043601989746094 -21.440599441528320 -58.750000000000000
-61.765602111816406 -20.982400894165039 -58.750000000000000
-77.968803405761719 -20.958299636840820 -59.150001525878906
-77.015602111816406 -20.785400390625000 -59.150001525878906
-76.062500000000000 -20.647499084472656 -59.150001525878906
-61.765602111816406 -20.844900131225586 -59.150001525878906
-79.355102539062500 -21.440599441528320 -59.550003051757813
-78.921897888183594 -21.173700332641602 -59.550003051757813
-77.968803405761719 -20.841400146484375 -59.550003051757813
-61.765602111816406 -20.787799835205078 -59.550003051757813
-60.812500000000000 -21.263500213623047 -59.550003051757813
-79.875000000000000 -21.367300033569336 -59.949996948242188
-78.921897888183594 -20.880300521850586 -59.949996948242188
-77.968803405761719 -20.671600341796875 -59.949996948242188
-60.227401733398438 -21.440599441528320 -59.949996948242188
-60.812500000000000 -21.038600921630859 -59.949996948242188
-80.727798461914063 -21.440599441528320 -60.349998474121094
-79.875000000000000 -20.966899871826172 -60.349998474121094
-78.921897888183594 -20.705299377441406 -60.349998474121094
-61.765602111816406 -20.640699386596680 -60.349998474121094
-60.034103393554688 -21.440599441528320 -60.349998474121094
-60.812500000000000 -20.906900405883789 -60.349998474121094
-80.828102111816406 -21.326900482177734 -60.750000000000000
-77.968803405761719 -20.508100509643555 -60.750000000000000
-59.859401702880859 -21.440599441528320 -61.150001525878906
-80.828102111816406 -21.014900207519531 -61.150001525878906
-79.875000000000000 -20.702199935913086 -61.150001525878906
-60.812500000000000 -20.850799560546875 -61.150001525878906
-82.191596984863281 -21.440599441528320 -61.550003051757813
-81.781196594238281 -21.204299926757813 -61.550003051757813
-80.828102111816406 -20.776500701904297 -61.550003051757813
-79.875000000000000 -20.562000274658203 -61.550003051757813
-59.639400482177734 -21.440599441528320 -61.550003051757813
-81.781196594238281 -21.019800186157227 -61.949996948242188
-79.875000000000000 -20.501899719238281 -61.949996948242188
-60.812500000000000 -20.759199142456055 -61.949996948242188
-82.734397888183594 -21.289600372314453 -62.349998474121094
-60.812500000000000 -20.670499801635742 -62.349998474121094
-59.859401702880859 -21.220100402832031 -62.349998474121094
-82.734397888183594 -21.017700195312500 -62.750000000000000
-81.781196594238281 -20.713499069213867 -62.750000000000000
-83.605796813964844 -21.440599441528320 -63.150001525878906
-82.734397888183594 -20.932300567626953 -63.150001525878906
-59.382801055908203 -21.440599441528320 -63.150001525878906
-59.859401702880859 -21.089799880981445 -63.150001525878906
-83.687500000000000 -21.218200683593750 -63.550003051757813
-83.687500000000000 -20.989400863647461 -63.949996948242188
-82.734397888183594 -20.635499954223633 -63.949996948242188
-59.252799987792969 -21.440599441528320 -63.949996948242188
-59.859401702880859 -20.969699859619141 -63.949996948242188
-84.546699523925781 -21.440599441528320 -64.349998474121094
-83.687500000000000 -20.848400115966797 -64.349998474121094
-84.701698303222656 -21.440599441528320 -64.750000000000000
-83.687500000000000 -20.832799911499023 -64.750000000000000
-59.272300720214844 -21.440599441528320 -64.750000000000000
-83.687500000000000 -20.723600387573242 -65.150001525878906
-59.859401702880859 -20.921199798583984 -65.150001525878906
-85.326499938964844 -21.440599441528320 -65.550003051757813
-84.640602111816406 -20.976100921630859 -65.550003051757813
-59.158599853515625 -21.440599441528320 -65.550003051757813
-59.859401702880859 -20.991100311279297 -65.949996948242188
-84.640602111816406 -20.815299987792969 -66.349998474121094
-85.984497070312500 -21.440599441528320 -66.750000000000000
-85.593803405761719 -21.112199783325195 -66.750000000000000
-84.640602111816406 -20.683700561523438 -66.750000000000000
-59.231700897216797 -21.440599441528320 -66.750000000000000
-59.859401702880859 -20.996900558471680 -66.750000000000000
-59.859401702880859 -21.075000762939453 -67.150001525878906
-86.303802490234375 -21.440599441528320 -67.949996948242188
-85.593803405761719 -20.859300613403320 -67.949996948242188
-59.301498413085938 -21.440599441528320 -67.949996948242188
-59.859401702880859 -21.032100677490234 -67.949996948242188
-86.321098327636719 -21.440599441528320 -68.349998474121094
-85.593803405761719 -20.836500167846680 -68.349998474121094
-59.859401702880859 -21.116199493408203 -68.349998474121094
-60.812500000000000 -20.644599914550781 -69.150001525878906
-59.467899322509766 -21.440599441528320 -69.150001525878906
-59.859401702880859 -21.120599746704102 -69.150001525878906
-86.546897888183594 -21.321500778198242 -69.550003051757813
-85.593803405761719 -20.681200027465820 -69.550003051757813
-60.812500000000000 -20.711799621582031 -69.550003051757813
-59.859401702880859 -21.315200805664063 -69.550003051757813
-86.546897888183594 -21.154699325561523 -69.949996948242188
-85.593803405761719 -20.616199493408203 -69.949996948242188
-86.546897888183594 -21.055299758911133 -70.349998474121094
-59.774700164794922 -21.440599441528320 -70.349998474121094
-59.984901428222656 -21.440599441528320 -70.750000000000000
-60.812500000000000 -20.820899963378906 -70.750000000000000
-60.812500000000000 -20.822399139404297 -71.150001525878906
-86.546897888183594 -20.995000839233398 -71.550003051757813
-87.108398437500000 -21.440599441528320 -71.949996948242188
-86.546897888183594 -20.987899780273438 -71.949996948242188
-85.593803405761719 -20.517400741577148 -71.949996948242188
-60.196800231933594 -21.440599441528320 -71.949996948242188
-60.812500000000000 -20.949899673461914 -71.949996948242188
-86.945297241210938 -21.440599441528320 -72.349998474121094
-86.546897888183594 -21.090900421142578 -72.349998474121094
-60.312599182128906 -21.440599441528320 -72.750000000000000
-86.984802246093750 -21.440599441528320 -73.150001525878906
-86.546897888183594 -21.083200454711914 -73.150001525878906
-61.765602111816406 -20.657400131225586 -73.150001525878906
-60.812500000000000 -21.118799209594727 -73.150001525878906
-85.593803405761719 -20.525800704956055 -73.550003051757813
-86.546897888183594 -21.125400543212891 -73.949996948242188
-60.756401062011719 -21.440599441528320 -73.949996948242188
-87.015602111816406 -21.440599441528320 -74.349998474121094
-86.546897888183594 -21.056800842285156 -74.349998474121094
-61.765602111816406 -20.820899963378906 -74.349998474121094
-61.073997497558594 -21.440599441528320 -74.750000000000000
-86.546897888183594 -21.204299926757813 -75.150001525878906
-86.872901916503906 -21.440599441528320 -75.550003051757813
-86.546897888183594 -21.161100387573242 -75.550003051757813
-61.209602355957031 -21.440599441528320 -75.550003051757813
-61.765602111816406 -20.991199493408203 -75.550003051757813
-62.718803405761719 -20.723300933837891 -75.949996948242188
-86.601699829101563 -21.440599441528320 -76.349998474121094
-85.593803405761719 -20.702699661254883 -76.349998474121094
-61.765602111816406 -21.347600936889648 -76.349998474121094
-62.718803405761719 -20.818399429321289 -76.750000000000000
-62.063499450683594 -21.440599441528320 -77.150001525878906
-85.593803405761719 -20.880199432373047 -77.550003051757813
-63.671897888183594 -20.639499664306641 -77.949996948242188
-62.186897277832031 -21.440599441528320 -77.949996948242188
-62.718803405761719 -21.035200119018555 -77.949996948242188
-86.208503723144531 -21.440599441528320 -78.349998474121094
-85.593803405761719 -20.955900192260742 -78.349998474121094
-84.640602111816406 -20.521999359130859 -78.349998474121094
-63.671897888183594 -20.761999130249023 -78.349998474121094
-62.718803405761719 -21.312000274658203 -78.349998474121094
-85.593803405761719 -21.114000320434570 -78.750000000000000
-64.625000000000000 -20.512899398803711 -78.750000000000000
-63.671897888183594 -20.885700225830078 -79.150001525878906
-84.640602111816406 -20.736600875854492 -79.550003051757813
-63.097000122070313 -21.440599441528320 -79.550003051757813
-63.671897888183594 -21.028999328613281 -79.550003051757813
-85.467102050781250 -21.440599441528320 -79.949996948242188
-84.640602111816406 -20.852399826049805 -79.949996948242188
-64.625000000000000 -20.723199844360352 -79.949996948242188
-65.578102111816406 -20.490299224853516 -80.349998474121094
-63.671897888183594 -21.440599441528320 -80.652999877929688
-63.671897888183594 -21.269199371337891 -80.349998474121094
-84.640602111816406 -20.966600418090820 -80.750000000000000
-64.625000000000000 -20.889299392700195 -80.750000000000000
-85.011703491210938 -21.440599441528320 -81.150001525878906
-64.007797241210938 -21.440599441528320 -81.150001525878906
-84.640602111816406 -21.307800292968750 -81.550003051757813
-83.687500000000000 -20.763099670410156 -81.550003051757813
-65.578102111816406 -20.736900329589844 -81.550003051757813
-64.625000000000000 -21.115299224853516 -81.550003051757813
-83.687500000000000 -20.802499771118164 -81.949996948242188
-82.734397888183594 -20.508199691772461 -81.949996948242188
-64.625000000000000 -21.303499221801758 -81.949996948242188
-66.531196594238281 -20.676200866699219 -82.349998474121094
-64.754203796386719 -21.440599441528320 -82.349998474121094
-65.578102111816406 -20.942100524902344 -82.349998474121094
-83.687500000000000 -21.147399902343750 -82.750000000000000
-82.734397888183594 -20.719499588012695 -82.750000000000000
-83.995002746582031 -21.440599441528320 -83.150001525878906
-82.734397888183594 -20.759300231933594 -83.150001525878906
-66.531196594238281 -20.779300689697266 -83.150001525878906
-65.159896850585938 -21.440599441528320 -83.150001525878906
-65.578102111816406 -21.159900665283203 -83.150001525878906
-82.734397888183594 -20.941400527954102 -83.550003051757813
-68.437500000000000 -20.501399993896484 -83.550003051757813
-67.484397888183594 -20.687500000000000 -83.550003051757813
-66.531196594238281 -20.921600341796875 -83.550003051757813
-83.309700012207031 -21.440599441528320 -83.949996948242188
-83.205703735351563 -21.440599441528320 -84.349998474121094
-82.734397888183594 -21.165700912475586 -84.349998474121094
-81.781196594238281 -20.802700042724609 -84.349998474121094
-68.437500000000000 -20.586999893188477 -84.349998474121094
-67.484397888183594 -20.777099609375000 -84.349998474121094
-66.531196594238281 -21.176300048828125 -84.349998474121094
-81.781196594238281 -20.929899215698242 -84.750000000000000
-66.685600280761719 -21.440599441528320 -84.750000000000000
-67.484397888183594 -20.969400405883789 -84.750000000000000
-82.227401733398438 -21.440599441528320 -85.150001525878906
-81.781196594238281 -21.171800613403320 -85.150001525878906
-80.828102111816406 -20.821899414062500 -85.150001525878906
-78.921897888183594 -20.498399734497070 -85.150001525878906
-82.120903015136719 -21.440599441528320 -85.550003051757813
-81.781196594238281 -21.233999252319336 -85.550003051757813
-80.828102111816406 -20.859600067138672 -85.550003051757813
-69.390602111816406 -20.658599853515625 -85.550003051757813
-68.437500000000000 -20.841299057006836 -85.550003051757813
-67.484397888183594 -21.200700759887695 -85.550003051757813
-81.592697143554688 -21.440599441528320 -85.949996948242188
-80.828102111816406 -21.054100036621094 -85.949996948242188
-70.343803405761719 -20.649900436401367 -85.949996948242188
-69.390602111816406 -20.807699203491211 -85.949996948242188
-67.622200012207031 -21.440599441528320 -85.949996948242188
-68.437500000000000 -21.051700592041016 -85.949996948242188
-79.875000000000000 -21.008699417114258 -86.349998474121094
-78.921897888183594 -20.800399780273438 -86.349998474121094
-77.968803405761719 -20.670700073242188 -86.349998474121094
-73.203102111816406 -20.497800827026367 -86.349998474121094
-67.998596191406250 -21.440599441528320 -86.349998474121094
-68.437500000000000 -21.215200424194336 -86.349998474121094
-79.875000000000000 -21.082500457763672 -86.750000000000000
-78.921897888183594 -20.862499237060547 -86.750000000000000
-77.968803405761719 -20.726600646972656 -86.750000000000000
-75.109397888183594 -20.546199798583984 -86.750000000000000
-74.156196594238281 -20.527200698852539 -86.750000000000000
-72.250000000000000 -20.583099365234375 -86.750000000000000
-71.296897888183594 -20.639499664306641 -86.750000000000000
-70.343803405761719 -20.744600296020508 -86.750000000000000
-69.390602111816406 -20.936800003051758 -86.750000000000000
-68.437500000000000 -21.279300689697266 -86.750000000000000
-78.921897888183594 -21.013700485229492 -87.150001525878906
-72.250000000000000 -20.719699859619141 -87.150001525878906
-71.296897888183594 -20.787700653076172 -87.150001525878906
-70.343803405761719 -20.924299240112305 -87.150001525878906
-68.818801879882813 -21.440599441528320 -87.150001525878906
-79.316299438476563 -21.440599441528320 -87.550003051757813
-78.921897888183594 -21.273599624633789 -87.550003051757813
-77.968803405761719 -21.022100448608398 -87.550003051757813
-76.062500000000000 -20.798200607299805 -87.550003051757813
-74.156196594238281 -20.734699249267578 -87.550003051757813
-69.390602111816406 -21.379999160766602 -87.550003051757813
-77.968803405761719 -21.114900588989258 -87.949996948242188
-77.015602111816406 -20.973100662231445 -87.949996948242188
-74.156196594238281 -20.794700622558594 -87.949996948242188
-72.250000000000000 -20.866500854492188 -87.949996948242188
-71.296897888183594 -20.950700759887695 -87.949996948242188
-69.513603210449219 -21.440599441528320 -87.949996948242188
-70.343803405761719 -21.116899490356445 -87.949996948242188
-78.015197753906250 -21.440599441528320 -88.349998474121094
-77.015602111816406 -21.149999618530273 -88.349998474121094
-72.250000000000000 -21.031499862670898 -88.349998474121094
-71.296897888183594 -21.146900177001953 -88.349998474121094
-76.062500000000000 -21.270399093627930 -88.750000000000000
-75.109397888183594 -21.145000457763672 -88.750000000000000
-73.203102111816406 -21.122900009155273 -88.750000000000000
-71.296897888183594 -21.440599441528320 -88.816703796386719
-75.109397888183594 -21.440599441528320 -89.331802368164063
-74.156196594238281 -21.248699188232422 -89.150001525878906
-73.203102111816406 -21.440599441528320 -89.442703247070313
-73.203102111816406 -21.242099761962891 -89.150001525878906
-72.250000000000000 -21.381099700927734 -89.150001525878906
-70.343803405761719 -20.487499237060547 -58.197101593017578
-69.390602111816406 -20.487499237060547 -58.155101776123047
-68.437500000000000 -20.487499237060547 -58.226898193359375
-66.531196594238281 -20.487499237060547 -58.261100769042969
-72.250000000000000 -20.487499237060547 -58.576099395751953
-72.250000000000000 -20.312599182128906 -58.750000000000000
-71.296897888183594 -20.139699935913086 -58.750000000000000
-70.343803405761719 -20.033399581909180 -58.750000000000000
