# This PCD file was generated using the MATLAB® pcwrite function
# from Computer Vision Toolbox®.
# .PCD v.7 - Point Cloud Data file format
VERSION .7
FIELDS x y z
SIZE 8 8 8
TYPE F F F
COUNT 1 1 1
WIDTH 789
HEIGHT 1
VIEWPOINT 0 0 0 1 0 0 0
POINTS 789
DATA ascii
90.325599670410156 -61.956298828125000 -209.750000000000000
-102.912002563476563 -61.956298828125000 -210.149993896484375
-0.344024986028671 -61.956298828125000 -210.149993896484375
6.273300170898438 -61.956298828125000 -210.149993896484375
84.706497192382813 -61.956298828125000 -210.149993896484375
85.788299560546875 -61.956298828125000 -210.149993896484375
89.593803405761719 -61.956298828125000 -210.479995727539063
-92.438499450683594 -61.956298828125000 -210.550003051757813
-23.828100204467773 -61.556396484375000 -210.550003051757813
-22.875000000000000 -61.280700683593750 -210.550003051757813
-19.062500000000000 -61.278701782226563 -210.550003051757813
0.000000000000000 -61.956298828125000 -210.850006103515625
9.531250000000000 -61.325202941894531 -210.550003051757813
-18.109399795532227 -61.396598815917969 -210.949996948242188
-2.738679885864258 -61.956298828125000 -210.949996948242188
-20.015600204467773 -61.016403198242188 -211.350006103515625
0.650542974472046 -61.956298828125000 -211.350006103515625
83.488800048828125 -61.956298828125000 -211.350006103515625
84.828102111816406 -61.900199890136719 -211.350006103515625
-94.731597900390625 -61.956298828125000 -211.750000000000000
-22.875000000000000 -61.399902343750000 -211.750000000000000
-16.203100204467773 -61.613700866699219 -211.750000000000000
8.879839897155762 -61.956298828125000 -211.750000000000000
13.343799591064453 -61.019302368164063 -211.750000000000000
79.200302124023438 -61.956298828125000 -211.750000000000000
-1.792209982872009 -61.956298828125000 -212.149993896484375
1.208299994468689 -61.956298828125000 -212.149993896484375
-96.642898559570313 -61.956298828125000 -212.550003051757813
-21.921899795532227 -61.287002563476563 -212.550003051757813
6.334060192108154 -61.956298828125000 -212.550003051757813
81.968803405761719 -61.956298828125000 -212.611999511718750
-98.171897888183594 -61.956298828125000 -213.261993408203125
87.592796325683594 -61.956298828125000 -212.949996948242188
-144.679000854492188 -61.956298828125000 -213.350006103515625
-21.921899795532227 -61.459899902343750 -213.350006103515625
-14.296899795532227 -61.412399291992188 -213.350006103515625
-8.871020317077637 -61.956298828125000 -213.350006103515625
-0.953125000000000 -61.414001464843750 -213.350006103515625
14.347599983215332 -61.956298828125000 -213.350006103515625
77.577796936035156 -61.956298828125000 -213.350006103515625
-143.949005126953125 -61.956298828125000 -213.750000000000000
-99.125000000000000 -61.956298828125000 -213.792999267578125
2.758640050888062 -61.956298828125000 -213.750000000000000
81.968803405761719 -61.666000366210938 -213.750000000000000
83.255798339843750 -61.956298828125000 -213.750000000000000
87.093902587890625 -61.956298828125000 -213.750000000000000
-108.655998229980469 -61.358398437500000 -214.149993896484375
-12.390600204467773 -61.956298828125000 -214.264007568359375
-10.639800071716309 -61.956298828125000 -214.149993896484375
-142.968994140625000 -61.381103515625000 -214.550003051757813
-127.719001770019531 -61.956298828125000 -214.781005859375000
-123.905998229980469 -61.956298828125000 -214.789993286132813
-21.626899719238281 -61.956298828125000 -214.550003051757813
-7.968120098114014 -61.956298828125000 -214.550003051757813
76.250000000000000 -61.956298828125000 -214.841995239257813
-142.514999389648438 -61.956298828125000 -214.949996948242188
-129.625000000000000 -61.956298828125000 -214.981994628906250
-121.046997070312500 -61.956298828125000 -215.000000000000000
-118.188003540039063 -61.721496582031250 -214.949996948242188
-108.655998229980469 -61.774597167968750 -214.949996948242188
79.728897094726563 -61.956298828125000 -214.949996948242188
81.015602111816406 -61.598396301269531 -214.949996948242188
-10.727299690246582 -61.956298828125000 -215.350006103515625
-9.982060432434082 -61.956298828125000 -215.350006103515625
4.170639991760254 -61.956298828125000 -215.350006103515625
14.296899795532227 -61.903297424316406 -215.350006103515625
79.109397888183594 -61.956298828125000 -215.350006103515625
82.015800476074219 -61.956298828125000 -215.350006103515625
85.576202392578125 -61.956298828125000 -215.350006103515625
-142.016006469726563 -61.479698181152344 -215.750000000000000
-115.328002929687500 -61.034400939941406 -215.750000000000000
-20.628700256347656 -61.956298828125000 -215.750000000000000
-10.509900093078613 -61.956298828125000 -215.750000000000000
1.734249949455261 -61.956298828125000 -215.750000000000000
10.484399795532227 -61.386497497558594 -215.750000000000000
11.437500000000000 -61.181800842285156 -215.750000000000000
12.390600204467773 -61.258499145507813 -215.750000000000000
75.339202880859375 -61.956298828125000 -215.750000000000000
84.828102111816406 -61.035400390625000 -215.750000000000000
-140.108993530273438 -61.956298828125000 -216.304000854492188
-138.203002929687500 -61.687202453613281 -216.149993896484375
-20.038900375366211 -61.956298828125000 -216.149993896484375
-9.453000068664551 -61.956298828125000 -216.149993896484375
80.062500000000000 -61.469100952148438 -216.149993896484375
-118.188003540039063 -61.956298828125000 -216.647994995117188
-110.561996459960938 -61.689903259277344 -216.550003051757813
-103.890998840332031 -61.526603698730469 -216.550003051757813
-14.296899795532227 -61.956298828125000 -216.820999145507813
-9.531250000000000 -61.552597045898438 -216.550003051757813
5.017149925231934 -61.956298828125000 -216.550003051757813
13.343799591064453 -61.477096557617188 -216.550003051757813
-112.469001770019531 -61.431198120117188 -216.949996948242188
-19.555099487304688 -61.956298828125000 -216.949996948242188
9.471679687500000 -61.956298828125000 -216.949996948242188
14.304100036621094 -61.956298828125000 -216.949996948242188
16.970399856567383 -61.956298828125000 -216.949996948242188
77.646202087402344 -61.956298828125000 -216.949996948242188
78.156196594238281 -61.521400451660156 -216.949996948242188
-121.681999206542969 -61.956298828125000 -217.350006103515625
-116.280998229980469 -61.704399108886719 -217.350006103515625
-115.328002929687500 -61.552696228027344 -217.350006103515625
-107.703002929687500 -61.956298828125000 -217.610992431640625
-14.296899795532227 -61.905998229980469 -217.350006103515625
-12.390600204467773 -61.956298828125000 -217.425003051757813
-8.578120231628418 -61.243797302246094 -217.350006103515625
7.625000000000000 -61.043098449707031 -217.350006103515625
-119.140998840332031 -61.956298828125000 -217.835998535156250
-114.375000000000000 -61.956298828125000 -218.106994628906250
-113.421997070312500 -61.463798522949219 -217.750000000000000
-111.515998840332031 -61.841903686523438 -217.750000000000000
-105.796997070312500 -61.401901245117188 -217.750000000000000
-11.437500000000000 -61.956298828125000 -217.919006347656250
3.328219890594482 -61.956298828125000 -217.750000000000000
5.718750000000000 -61.956298828125000 -217.875000000000000
16.203100204467773 -61.043098449707031 -217.750000000000000
78.156196594238281 -61.256500244140625 -217.750000000000000
-106.750000000000000 -61.365699768066406 -218.149993896484375
-18.439800262451172 -61.956298828125000 -218.149993896484375
-12.390600204467773 -61.661300659179688 -218.149993896484375
-5.272490024566650 -61.956298828125000 -218.149993896484375
-13.773799896240234 -61.956298828125000 -218.550003051757813
77.203102111816406 -61.084396362304688 -218.550003051757813
79.109397888183594 -61.786903381347656 -218.550003051757813
-109.609001159667969 -61.797996520996094 -218.949996948242188
-17.156200408935547 -61.956298828125000 -219.313003540039063
-9.531250000000000 -61.956298828125000 -219.184005737304688
12.390600204467773 -61.455902099609375 -218.949996948242188
13.343799591064453 -61.607101440429688 -218.949996948242188
71.806800842285156 -61.956298828125000 -218.949996948242188
-108.655998229980469 -61.032897949218750 -219.350006103515625
-13.382800102233887 -61.956298828125000 -219.350006103515625
-12.390600204467773 -61.494003295898438 -219.350006103515625
10.484399795532227 -61.743400573730469 -219.350006103515625
77.203102111816406 -61.134101867675781 -219.350006103515625
-109.609001159667969 -61.516296386718750 -219.750000000000000
-10.484399795532227 -61.203796386718750 -219.750000000000000
7.625000000000000 -61.494598388671875 -219.750000000000000
74.739501953125000 -61.956298828125000 -219.750000000000000
78.203903198242188 -61.956298828125000 -219.750000000000000
81.624000549316406 -61.956298828125000 -219.750000000000000
-113.882003784179688 -61.956298828125000 -220.149993896484375
70.531196594238281 -61.956298828125000 -220.277999877929688
-111.515998840332031 -61.166099548339844 -220.550003051757813
-12.113900184631348 -61.956298828125000 -220.550003051757813
-7.819660186767578 -61.956298828125000 -220.550003051757813
-2.859380006790161 -61.154197692871094 -220.550003051757813
7.625000000000000 -61.397499084472656 -220.550003051757813
11.437500000000000 -61.672897338867188 -220.550003051757813
-122.953002929687500 -61.956298828125000 -221.276000976562500
-117.234001159667969 -61.956298828125000 -221.167007446289063
-15.682100296020508 -61.956298828125000 -220.949996948242188
76.932601928710938 -61.956298828125000 -220.949996948242188
80.417900085449219 -61.956298828125000 -220.949996948242188
-113.421997070312500 -61.821502685546875 -221.350006103515625
8.578120231628418 -61.020103454589844 -221.350006103515625
17.259300231933594 -61.956298828125000 -221.350006103515625
-122.000000000000000 -61.814498901367188 -221.750000000000000
-119.140998840332031 -61.729202270507813 -221.750000000000000
-114.375000000000000 -61.322898864746094 -221.750000000000000
-14.296899795532227 -61.956298828125000 -222.007003784179688
-14.296899795532227 -61.034400939941406 -221.750000000000000
-10.573900222778320 -61.956298828125000 -221.750000000000000
-1.906250000000000 -61.616401672363281 -221.750000000000000
68.625000000000000 -61.956298828125000 -221.986999511718750
72.372200012207031 -61.956298828125000 -221.750000000000000
-122.953002929687500 -61.623802185058594 -222.149993896484375
-120.094001770019531 -61.463500976562500 -222.149993896484375
16.203100204467773 -61.038002014160156 -222.149993896484375
-166.414993286132813 -61.956298828125000 -222.550003051757813
-142.134002685546875 -61.956298828125000 -222.550003051757813
-140.108993530273438 -61.540100097656250 -222.550003051757813
-136.296997070312500 -61.770301818847656 -222.550003051757813
-8.578120231628418 -61.956298828125000 -222.783004760742188
-5.844439983367920 -61.956298828125000 -222.550003051757813
-141.061996459960938 -61.068099975585938 -222.949996948242188
-0.956772029399872 -61.956298828125000 -222.949996948242188
12.390600204467773 -61.876800537109375 -222.949996948242188
13.395299911499023 -61.956298828125000 -222.949996948242188
74.708099365234375 -61.956298828125000 -222.949996948242188
-123.949996948242188 -61.956298828125000 -223.350006103515625
-12.784399986267090 -61.956298828125000 -223.350006103515625
6.090149879455566 -61.956298828125000 -223.350006103515625
17.156200408935547 -61.726799011230469 -223.350006103515625
70.817199707031250 -61.956298828125000 -223.350006103515625
77.859298706054688 -61.956298828125000 -223.350006103515625
-166.485992431640625 -61.956298828125000 -223.750000000000000
-143.102996826171875 -61.956298828125000 -223.750000000000000
-4.765620231628418 -61.579299926757813 -223.750000000000000
66.430198669433594 -61.956298828125000 -223.750000000000000
-128.671997070312500 -61.956298828125000 -224.298004150390625
-125.811996459960938 -61.956298828125000 -224.378997802734375
-124.588996887207031 -61.956298828125000 -224.149993896484375
-6.671879768371582 -61.532096862792969 -224.149993896484375
17.156200408935547 -61.510398864746094 -224.149993896484375
-143.660003662109375 -61.956298828125000 -224.550003051757813
-132.483993530273438 -61.109001159667969 -224.550003051757813
-129.625000000000000 -61.216300964355469 -224.550003051757813
-10.484399795532227 -61.956298828125000 -224.947006225585938
-144.875000000000000 -61.956298828125000 -225.322998046875000
65.060203552246094 -61.956298828125000 -224.949996948242188
69.131599426269531 -61.956298828125000 -224.949996948242188
72.573196411132813 -61.956298828125000 -224.949996948242188
76.026000976562500 -61.956298828125000 -224.949996948242188
17.156200408935547 -61.559799194335938 -225.350006103515625
-166.617996215820313 -61.956298828125000 -225.750000000000000
6.983640193939209 -61.956298828125000 -225.750000000000000
-8.578120231628418 -61.956298828125000 -226.401000976562500
-2.859380006790161 -61.202102661132813 -226.149993896484375
-13.343799591064453 -61.956298828125000 -226.869995117187500
17.156200408935547 -61.582702636718750 -226.550003051757813
-16.203100204467773 -61.956298828125000 -227.126998901367188
-11.437500000000000 -61.956298828125000 -227.050994873046875
62.713699340820313 -61.956298828125000 -226.949996948242188
66.718803405761719 -61.856300354003906 -226.949996948242188
-6.671879768371582 -61.956298828125000 -227.720993041992188
1.186540007591248 -61.956298828125000 -227.350006103515625
73.190399169921875 -61.956298828125000 -227.350006103515625
-8.578120231628418 -61.607902526855469 -227.750000000000000
-7.625000000000000 -61.160301208496094 -227.750000000000000
-1.906250000000000 -61.049400329589844 -227.750000000000000
17.156200408935547 -61.546897888183594 -227.750000000000000
-6.671879768371582 -61.382400512695313 -228.149993896484375
0.913773000240326 -61.956298828125000 -228.149993896484375
-19.062500000000000 -61.295997619628906 -228.550003051757813
-18.109399795532227 -61.019996643066406 -228.550003051757813
-1.906250000000000 -61.170097351074219 -228.550003051757813
7.906109809875488 -61.956298828125000 -228.550003051757813
60.851699829101563 -61.956298828125000 -228.550003051757813
66.718803405761719 -61.956298828125000 -229.059997558593750
71.095497131347656 -61.956298828125000 -228.949996948242188
-166.727005004882813 -61.956298828125000 -229.350006103515625
-20.015600204467773 -61.402496337890625 -229.350006103515625
-4.765620231628418 -61.771301269531250 -229.350006103515625
-2.635799884796143 -61.956298828125000 -229.350006103515625
-1.471740007400513 -61.956298828125000 -229.350006103515625
0.953125000000000 -61.519401550292969 -229.350006103515625
8.003510475158691 -61.956298828125000 -229.350006103515625
64.812500000000000 -61.856300354003906 -229.350006103515625
70.162101745605469 -61.956298828125000 -229.750000000000000
17.156200408935547 -61.528800964355469 -230.149993896484375
63.859401702880859 -61.640502929687500 -230.149993896484375
-7.625000000000000 -61.581199645996094 -230.550003051757813
61.953098297119141 -61.238403320312500 -230.550003051757813
64.812500000000000 -61.495399475097656 -230.550003051757813
-166.757995605468750 -61.956298828125000 -230.949996948242188
-8.578120231628418 -61.894996643066406 -230.949996948242188
-7.093870162963867 -61.956298828125000 -230.949996948242188
15.250000000000000 -61.049301147460938 -230.949996948242188
68.441398620605469 -61.956298828125000 -230.949996948242188
-20.408100128173828 -61.956298828125000 -231.350006103515625
-19.062500000000000 -61.167999267578125 -231.350006103515625
-7.625000000000000 -61.956298828125000 -231.636001586914063
11.437500000000000 -61.304397583007813 -231.350006103515625
-16.203100204467773 -61.956298828125000 -232.132003784179688
-10.484399795532227 -61.956298828125000 -231.802001953125000
61.953098297119141 -61.373100280761719 -231.750000000000000
-18.109399795532227 -61.956298828125000 -232.166000366210938
-13.343799591064453 -61.956298828125000 -232.257995605468750
1.902070045471191 -61.956298828125000 -232.149993896484375
4.765620231628418 -61.956298828125000 -232.423004150390625
12.390600204467773 -61.362197875976563 -232.149993896484375
13.343799591064453 -61.200996398925781 -232.149993896484375
14.296899795532227 -61.149101257324219 -232.149993896484375
55.281200408935547 -61.030899047851563 -232.149993896484375
2.859380006790161 -61.956298828125000 -232.664001464843750
-9.531250000000000 -61.098396301269531 -232.949996948242188
-8.578120231628418 -61.672996520996094 -232.949996948242188
7.625000000000000 -61.956298828125000 -233.145996093750000
12.390600204467773 -61.678802490234375 -233.350006103515625
14.296899795532227 -61.373298645019531 -233.350006103515625
16.203100204467773 -61.520797729492188 -233.350006103515625
17.156200408935547 -61.822998046875000 -233.350006103515625
65.022201538085938 -61.956298828125000 -233.350006103515625
53.375000000000000 -61.542396545410156 -233.750000000000000
12.079799652099609 -61.956298828125000 -234.149993896484375
11.437500000000000 -61.956298828125000 -234.281005859375000
12.390600204467773 -61.068901062011719 -234.550003051757813
13.343799591064453 -61.504798889160156 -234.550003051757813
-166.878997802734375 -61.956298828125000 -234.949996948242188
15.250000000000000 -61.484497070312500 -234.949996948242188
17.156200408935547 -61.724197387695313 -234.949996948242188
51.468799591064453 -61.363098144531250 -234.949996948242188
61.000000000000000 -61.840896606445313 -235.750000000000000
17.730400085449219 -61.956298828125000 -236.149993896484375
-61.953098297119141 -61.956298828125000 -236.761001586914063
-167.111999511718750 -61.956298828125000 -236.949996948242188
17.525499343872070 -61.956298828125000 -236.949996948242188
48.609401702880859 -61.464797973632813 -236.949996948242188
-70.531196594238281 -61.640296936035156 -237.350006103515625
-66.718803405761719 -61.188400268554688 -237.350006103515625
-64.812500000000000 -61.274101257324219 -237.350006103515625
-62.906200408935547 -61.461898803710938 -237.350006103515625
-12.390600204467773 -61.326599121093750 -237.350006103515625
-144.936004638671875 -61.956298828125000 -237.750000000000000
-73.390602111816406 -61.663002014160156 -237.750000000000000
-71.484397888183594 -61.170600891113281 -237.750000000000000
-68.625000000000000 -61.097198486328125 -237.750000000000000
-61.242099761962891 -61.956298828125000 -237.750000000000000
-144.875000000000000 -61.069602966308594 -238.149993896484375
-76.250000000000000 -61.806503295898438 -238.149993896484375
-72.437500000000000 -61.122299194335938 -238.149993896484375
-13.343799591064453 -61.484901428222656 -238.149993896484375
-11.384900093078613 -61.956298828125000 -238.149993896484375
18.471599578857422 -61.956298828125000 -238.149993896484375
46.703098297119141 -61.252899169921875 -238.149993896484375
47.656200408935547 -61.731201171875000 -238.149993896484375
56.234401702880859 -61.785003662109375 -238.149993896484375
57.187500000000000 -61.201698303222656 -238.149993896484375
-79.109397888183594 -61.956298828125000 -238.707000732421875
-62.858600616455078 -61.956298828125000 -238.550003051757813
-12.390600204467773 -61.956298828125000 -238.843002319335938
-80.062500000000000 -61.956298828125000 -239.000000000000000
-65.765602111816406 -61.204299926757813 -238.949996948242188
-63.002799987792969 -61.956298828125000 -238.949996948242188
-63.859401702880859 -61.541099548339844 -238.949996948242188
-82.921897888183594 -61.956298828125000 -239.552993774414063
19.617399215698242 -61.956298828125000 -239.350006103515625
45.750000000000000 -61.535102844238281 -239.350006103515625
53.375000000000000 -61.493797302246094 -239.350006103515625
-65.765602111816406 -61.956298828125000 -240.039001464843750
47.852500915527344 -61.956298828125000 -239.750000000000000
-66.718803405761719 -61.425498962402344 -240.149993896484375
20.527700424194336 -61.956298828125000 -240.149993896484375
-86.245796203613281 -61.956298828125000 -240.550003051757813
43.843799591064453 -61.349197387695313 -240.550003051757813
-167.354003906250000 -61.956298828125000 -240.949996948242188
-68.625000000000000 -61.441101074218750 -240.949996948242188
21.547599792480469 -61.956298828125000 -240.949996948242188
44.796901702880859 -61.673301696777344 -240.949996948242188
47.656200408935547 -61.835899353027344 -240.949996948242188
50.515598297119141 -61.298301696777344 -240.949996948242188
-89.780998229980469 -61.956298828125000 -241.350006103515625
-70.531196594238281 -61.267402648925781 -241.350006103515625
48.609401702880859 -61.696899414062500 -241.350006103515625
41.937500000000000 -61.081298828125000 -241.750000000000000
43.843799591064453 -61.544296264648438 -241.750000000000000
-93.406196594238281 -61.956298828125000 -242.389007568359375
-91.846603393554688 -61.956298828125000 -242.149993896484375
-73.390602111816406 -61.041999816894531 -242.149993896484375
-72.437500000000000 -61.312698364257813 -242.149993896484375
45.750000000000000 -61.678497314453125 -242.149993896484375
46.703098297119141 -61.592498779296875 -242.149993896484375
-73.693901062011719 -61.956298828125000 -242.550003051757813
22.875000000000000 -61.040901184082031 -242.550003051757813
-167.444000244140625 -61.956298828125000 -242.949996948242188
-74.343803405761719 -61.956298828125000 -243.044006347656250
42.890598297119141 -61.496902465820313 -242.949996948242188
45.750000000000000 -61.496101379394531 -242.949996948242188
-76.250000000000000 -61.956298828125000 -243.501007080078125
40.984401702880859 -61.375396728515625 -243.350006103515625
-99.125000000000000 -61.956298828125000 -244.044006347656250
-77.994201660156250 -61.956298828125000 -243.750000000000000
-13.800499916076660 -61.956298828125000 -243.750000000000000
-132.483993530273438 -61.956298828125000 -244.352996826171875
-124.859001159667969 -61.956298828125000 -244.535995483398438
43.843799591064453 -61.207901000976563 -244.149993896484375
-81.015602111816406 -61.956298828125000 -244.781997680664063
22.875000000000000 -61.437202453613281 -244.550003051757813
40.984401702880859 -61.282096862792969 -244.550003051757813
-134.893997192382813 -61.956298828125000 -244.949996948242188
-82.921897888183594 -61.063400268554688 -244.949996948242188
-141.061996459960938 -61.956298828125000 -245.544998168945313
-136.296997070312500 -61.956298828125000 -245.636001586914063
-134.841995239257813 -61.956298828125000 -245.350006103515625
-122.000000000000000 -61.956298828125000 -245.481002807617188
-118.188003540039063 -61.956298828125000 -245.449005126953125
-84.964302062988281 -61.956298828125000 -245.750000000000000
-115.546997070312500 -61.956298828125000 -246.149993896484375
-116.280998229980469 -61.019996643066406 -246.149993896484375
-14.585900306701660 -61.956298828125000 -246.149993896484375
-110.561996459960938 -61.041297912597656 -246.549987792968750
-89.593803405761719 -61.956298828125000 -246.861999511718750
23.520999908447266 -61.956298828125000 -246.549987792968750
-114.375000000000000 -61.956298828125000 -247.102996826171875
-167.501998901367188 -61.956298828125000 -247.350006103515625
-112.469001770019531 -61.791397094726563 -247.350006103515625
-91.834396362304688 -61.956298828125000 -247.350006103515625
-92.453102111816406 -61.956298828125000 -247.690002441406250
-95.312500000000000 -61.956298828125000 -248.121002197265625
-97.218803405761719 -61.956298828125000 -248.872009277343750
23.828100204467773 -61.531700134277344 -248.549987792968750
-167.572998046875000 -61.956298828125000 -249.750000000000000
-102.938003540039063 -61.956298828125000 -250.144012451171875
-113.421997070312500 -61.829200744628906 -251.750000000000000
-141.061996459960938 -61.956298828125000 -252.542999267578125
-123.905998229980469 -61.956298828125000 -252.437011718750000
-142.016006469726563 -61.956298828125000 -252.903991699218750
-135.343994140625000 -61.956298828125000 -252.928009033203125
-15.250000000000000 -61.956298828125000 -252.802001953125000
23.990400314331055 -61.956298828125000 -252.549987792968750
-167.705993652343750 -61.956298828125000 -252.950012207031250
-139.156005859375000 -61.479698181152344 -252.950012207031250
-136.296997070312500 -61.579200744628906 -252.950012207031250
-142.968994140625000 -61.956298828125000 -254.108001708984375
-134.229995727539063 -61.956298828125000 -254.149993896484375
-133.438003540039063 -61.956298828125000 -254.492004394531250
-14.958100318908691 -61.956298828125000 -254.149993896484375
-128.671997070312500 -61.956298828125000 -254.734985351562500
-144.227005004882813 -61.956298828125000 -255.350006103515625
-144.875000000000000 -61.956298828125000 -255.684997558593750
23.828100204467773 -61.348999023437500 -256.149993896484375
-145.139007568359375 -61.956298828125000 -256.950012207031250
23.464799880981445 -61.956298828125000 -257.350006103515625
-167.858001708984375 -61.956298828125000 -258.149993896484375
-167.750000000000000 -61.956298828125000 -259.635986328125000
-145.194000244140625 -61.956298828125000 -260.549987792968750
-14.229900360107422 -61.956298828125000 -260.950012207031250
-13.916399955749512 -61.956298828125000 -262.149993896484375
-167.878997802734375 -61.956298828125000 -262.549987792968750
-145.242004394531250 -61.956298828125000 -262.950012207031250
-13.343799591064453 -61.956298828125000 -263.028015136718750
21.921899795532227 -61.774902343750000 -262.950012207031250
-168.132995605468750 -61.956298828125000 -264.549987792968750
-12.281599998474121 -61.956298828125000 -264.950012207031250
21.208599090576172 -61.956298828125000 -264.950012207031250
-168.011001586914063 -61.956298828125000 -266.149993896484375
20.714300155639648 -61.956298828125000 -266.149993896484375
-168.261001586914063 -61.956298828125000 -268.149993896484375
19.710500717163086 -61.956298828125000 -268.549987792968750
20.015600204467773 -61.117103576660156 -268.549987792968750
-168.235992431640625 -61.956298828125000 -269.350006103515625
-9.956009864807129 -61.956298828125000 -269.750000000000000
-9.531250000000000 -61.956298828125000 -270.114013671875000
18.632400512695313 -61.956298828125000 -269.750000000000000
-168.235992431640625 -61.956298828125000 -270.549987792968750
-145.365005493164063 -61.956298828125000 -270.549987792968750
-159.171997070312500 -61.080902099609375 -270.950012207031250
-145.317993164062500 -61.956298828125000 -271.750000000000000
-160.125000000000000 -61.025199890136719 -272.149993896484375
-158.218994140625000 -61.064796447753906 -272.149993896484375
16.857599258422852 -61.956298828125000 -272.149993896484375
-144.207992553710938 -61.956298828125000 -272.950012207031250
-168.279006958007813 -61.956298828125000 -273.350006103515625
-159.171997070312500 -61.111999511718750 -273.750000000000000
-143.169006347656250 -61.956298828125000 -273.750000000000000
-134.391006469726563 -61.956298828125000 -274.087005615234375
-133.438003540039063 -61.956298828125000 -273.854003906250000
-129.625000000000000 -61.956298828125000 -273.777008056640625
-126.765998840332031 -61.956298828125000 -273.752990722656250
-142.968994140625000 -61.956298828125000 -274.350006103515625
-168.201004028320313 -61.956298828125000 -274.549987792968750
-135.192993164062500 -61.956298828125000 -274.549987792968750
15.060099601745605 -61.956298828125000 -274.549987792968750
-155.358993530273438 -61.008499145507813 -274.950012207031250
-142.016006469726563 -61.956298828125000 -275.079986572265625
-141.061996459960938 -61.956298828125000 -275.272003173828125
-7.088870048522949 -61.956298828125000 -274.950012207031250
-137.250000000000000 -61.956298828125000 -275.377990722656250
13.862600326538086 -61.956298828125000 -275.350006103515625
-160.125000000000000 -61.153701782226563 -275.750000000000000
-159.171997070312500 -61.231101989746094 -275.750000000000000
-124.902000427246094 -61.956298828125000 -275.750000000000000
-123.905998229980469 -61.956298828125000 -275.933013916015625
-120.094001770019531 -61.956298828125000 -276.066986083984375
-6.671879768371582 -61.728202819824219 -275.750000000000000
-116.280998229980469 -61.956298828125000 -276.317993164062500
-81.968803405761719 -61.956298828125000 -276.486999511718750
-77.203102111816406 -61.956298828125000 -276.364013671875000
-73.390602111816406 -61.956298828125000 -276.343994140625000
-68.625000000000000 -61.956298828125000 -276.247009277343750
-101.984001159667969 -61.956298828125000 -276.795989990234375
-99.125000000000000 -61.956298828125000 -276.682006835937500
-93.406196594238281 -61.956298828125000 -276.627014160156250
-86.162498474121094 -61.956298828125000 -276.549987792968750
-73.390602111816406 -61.425796508789063 -276.549987792968750
-69.578102111816406 -61.244903564453125 -276.549987792968750
-60.046901702880859 -61.283096313476563 -276.549987792968750
-54.328098297119141 -61.572998046875000 -276.549987792968750
-5.718750000000000 -61.956298828125000 -276.930999755859375
-167.600997924804688 -61.956298828125000 -276.950012207031250
-159.171997070312500 -61.179496765136719 -276.950012207031250
-157.266006469726563 -61.176399230957031 -276.950012207031250
-113.421997070312500 -61.956298828125000 -277.010009765625000
-107.703002929687500 -61.956298828125000 -276.959014892578125
-63.859401702880859 -61.043098449707031 -276.950012207031250
-53.375000000000000 -61.255401611328125 -276.950012207031250
-49.562500000000000 -61.436401367187500 -276.950012207031250
-44.796901702880859 -61.956298828125000 -277.053009033203125
-52.421901702880859 -61.160797119140625 -277.350006103515625
-46.703098297119141 -61.403099060058594 -277.350006103515625
-44.796901702880859 -61.619201660156250 -277.350006103515625
-42.890598297119141 -61.956298828125000 -277.476013183593750
-167.305999755859375 -61.956298828125000 -277.750000000000000
-166.796997070312500 -61.020103454589844 -277.750000000000000
-38.125000000000000 -61.956298828125000 -278.125000000000000
-13.343799591064453 -61.956298828125000 -277.981994628906250
-5.581009864807129 -61.956298828125000 -277.750000000000000
-5.718750000000000 -61.956298828125000 -278.149993896484375
-55.281200408935547 -61.010101318359375 -278.149993896484375
-42.890598297119141 -61.495300292968750 -278.149993896484375
-33.359401702880859 -61.956298828125000 -278.319000244140625
-27.640600204467773 -61.956298828125000 -278.265991210937500
-20.015600204467773 -61.956298828125000 -278.282989501953125
-15.250000000000000 -61.574996948242188 -278.149993896484375
-8.578120231628418 -61.532600402832031 -278.149993896484375
-48.609401702880859 -61.174797058105469 -278.549987792968750
-42.890598297119141 -61.347702026367188 -278.549987792968750
-39.078098297119141 -61.476799011230469 -278.549987792968750
-30.500000000000000 -61.624702453613281 -278.549987792968750
-26.687500000000000 -61.761497497558594 -278.549987792968750
-12.390600204467773 -61.587600708007813 -278.549987792968750
-166.436004638671875 -61.956298828125000 -278.950012207031250
-39.078098297119141 -61.456298828125000 -278.950012207031250
-33.359401702880859 -61.604301452636719 -278.950012207031250
-29.546899795532227 -61.566703796386719 -278.950012207031250
-23.828100204467773 -61.657203674316406 -278.950012207031250
-17.156200408935547 -61.518501281738281 -278.950012207031250
-15.250000000000000 -61.300598144531250 -278.950012207031250
-9.531250000000000 -61.429199218750000 -278.950012207031250
-7.625000000000000 -61.361900329589844 -278.950012207031250
-5.718750000000000 -61.399803161621094 -278.950012207031250
9.861660003662109 -61.956298828125000 -278.950012207031250
-53.375000000000000 -61.005996704101563 -279.350006103515625
-47.656200408935547 -61.241401672363281 -279.350006103515625
-42.890598297119141 -61.408699035644531 -279.350006103515625
-33.359401702880859 -61.691497802734375 -279.350006103515625
-29.546899795532227 -61.653701782226563 -279.350006103515625
-23.828100204467773 -61.680099487304688 -279.350006103515625
9.272000312805176 -61.956298828125000 -279.350006103515625
-54.328098297119141 -61.123199462890625 -279.750000000000000
-48.609401702880859 -61.380699157714844 -279.750000000000000
-43.843799591064453 -61.638496398925781 -279.750000000000000
-41.937500000000000 -61.956298828125000 -279.872009277343750
-29.546899795532227 -61.956298828125000 -279.792999267578125
-23.741500854492188 -61.956298828125000 -279.750000000000000
-20.968799591064453 -61.956298828125000 -280.048004150390625
-20.968799591064453 -61.654296875000000 -279.750000000000000
-19.062500000000000 -61.720298767089844 -279.750000000000000
-16.203100204467773 -61.442497253417969 -279.750000000000000
-14.296899795532227 -61.245201110839844 -279.750000000000000
-12.390600204467773 -61.464302062988281 -279.750000000000000
-7.625000000000000 -61.369003295898438 -279.750000000000000
-57.187500000000000 -61.233497619628906 -280.149993896484375
-52.421901702880859 -61.348602294921875 -280.149993896484375
-48.609401702880859 -61.956298828125000 -280.236999511718750
-17.056999206542969 -61.956298828125000 -280.149993896484375
7.625000000000000 -61.956298828125000 -280.377014160156250
-164.772994995117188 -61.956298828125000 -280.549987792968750
-163.938003540039063 -61.956298828125000 -280.941009521484375
-68.625000000000000 -61.956298828125000 -280.942993164062500
-61.000000000000000 -61.244201660156250 -280.549987792968750
-60.046901702880859 -61.956298828125000 -280.795013427734375
-54.328098297119141 -61.795600891113281 -280.549987792968750
-12.390600204467773 -61.956298828125000 -280.571014404296875
-8.578120231628418 -61.956298828125000 -280.736999511718750
-6.671879768371582 -61.497596740722656 -280.549987792968750
-3.812500000000000 -61.956298828125000 -280.842010498046875
6.671879768371582 -61.956298828125000 -280.761993408203125
-80.062500000000000 -61.956298828125000 -281.247009277343750
-75.296897888183594 -61.956298828125000 -281.175994873046875
-75.296897888183594 -61.059600830078125 -280.950012207031250
-15.250000000000000 -61.354301452636719 -280.950012207031250
-0.953125000000000 -61.956298828125000 -281.191009521484375
2.859380006790161 -61.956298828125000 -281.230987548828125
-91.500000000000000 -61.133903503417969 -281.350006103515625
-87.687500000000000 -61.956298828125000 -281.378997802734375
-163.317001342773438 -61.956298828125000 -281.750000000000000
-162.031005859375000 -61.956298828125000 -282.140014648437500
-114.375000000000000 -61.956298828125000 -282.118011474609375
-109.609001159667969 -61.956298828125000 -282.148986816406250
-105.796997070312500 -61.956298828125000 -282.105987548828125
-97.218803405761719 -61.956298828125000 -282.050994873046875
-94.359397888183594 -61.956298828125000 -282.000000000000000
-89.593803405761719 -61.956298828125000 -281.812011718750000
-141.061996459960938 -61.956298828125000 -282.549011230468750
-123.905998229980469 -61.956298828125000 -282.484985351562500
-118.188003540039063 -61.956298828125000 -282.506988525390625
-142.016006469726563 -61.956298828125000 -282.805999755859375
-138.203002929687500 -61.956298828125000 -282.937988281250000
-136.296997070312500 -61.956298828125000 -282.932006835937500
-116.280998229980469 -61.956298828125000 -282.618988037109375
-161.266006469726563 -61.956298828125000 -282.950012207031250
-142.942993164062500 -61.956298828125000 -283.350006103515625
-135.518005371093750 -61.956298828125000 -283.350006103515625
-159.421005249023438 -61.956298828125000 -283.750000000000000
-159.300003051757813 -61.956298828125000 -284.149993896484375
-143.358001708984375 -61.956298828125000 -284.149993896484375
-135.117996215820313 -61.956298828125000 -284.149993896484375
-133.438003540039063 -61.956298828125000 -284.526000976562500
-125.137001037597656 -61.956298828125000 -284.149993896484375
-126.765998840332031 -61.956298828125000 -284.750000000000000
-157.356002807617188 -61.956298828125000 -284.950012207031250
-144.524993896484375 -61.956298828125000 -284.950012207031250
-156.503005981445313 -61.956298828125000 -285.750000000000000
-145.378005981445313 -61.956298828125000 -286.149993896484375
-154.054992675781250 -61.956298828125000 -287.350006103515625
-145.546997070312500 -61.956298828125000 -288.149993896484375
-154.005004882812500 -61.956298828125000 -288.950012207031250
-145.602005004882813 -61.956298828125000 -289.350006103515625
-145.024993896484375 -61.956298828125000 -290.149993896484375
-144.304992675781250 -61.956298828125000 -290.549987792968750
-155.731994628906250 -61.956298828125000 -291.350006103515625
-143.718002319335938 -61.956298828125000 -291.350006103515625
-143.889999389648438 -61.956298828125000 -291.750000000000000
-155.835998535156250 -61.956298828125000 -292.950012207031250
-143.847000122070313 -61.956298828125000 -293.750000000000000
-155.912002563476563 -61.956298828125000 -294.549987792968750
-144.039993286132813 -61.956298828125000 -295.750000000000000
-144.046997070312500 -61.956298828125000 -300.149993896484375
-144.375000000000000 -61.956298828125000 -301.750000000000000
-149.641006469726563 -61.617202758789063 -302.549987792968750
-146.733993530273438 -61.956298828125000 -302.950012207031250
34.312500000000000 -61.003097534179688 -2.034299850463867
36.218799591064453 -61.003097534179688 -2.018300056457520
31.453100204467773 -61.003097534179688 -2.385000228881836
38.125000000000000 -61.003097534179688 -2.352199554443359
29.167299270629883 -61.003097534179688 -3.350000381469727
41.302101135253906 -61.003097534179688 -3.350000381469727
27.924900054931641 -61.003097534179688 -3.750000000000000
26.687500000000000 -60.080703735351563 -4.550000190734863
26.032600402832031 -61.003097534179688 -4.949999809265137
24.111200332641602 -61.003097534179688 -6.549999237060547
35.265598297119141 -61.003097534179688 -6.823699951171875
45.722301483154297 -61.003097534179688 -6.549999237060547
33.359401702880859 -61.003097534179688 -7.152599334716797
31.453100204467773 -61.003097534179688 -7.738100051879883
39.078098297119141 -61.003097534179688 -7.618799209594727
23.119400024414063 -61.003097534179688 -7.750000000000000
30.500000000000000 -61.003097534179688 -8.112400054931641
39.078098297119141 -60.072700500488281 -7.750000000000000
30.247200012207031 -61.003097534179688 -8.549999237060547
29.546899795532227 -61.003097534179688 -8.941200256347656
22.250499725341797 -61.003097534179688 -8.950000762939453
41.263500213623047 -61.003097534179688 -8.950000762939453
21.921899795532227 -61.003097534179688 -9.874599456787109
28.757400512695313 -61.003097534179688 -9.750000000000000
21.366300582885742 -61.003097534179688 -10.549999237060547
42.958400726318359 -61.003097534179688 -10.549999237060547
20.968799591064453 -61.003097534179688 -12.009500503540039
20.599300384521484 -61.003097534179688 -12.549999237060547
27.093500137329102 -61.003097534179688 -12.549999237060547
26.687500000000000 -61.003097534179688 -12.941499710083008
49.269699096679688 -61.003097534179688 -12.549999237060547
20.345199584960938 -61.003097534179688 -13.350000381469727
44.518901824951172 -61.003097534179688 -13.750000000000000
26.146099090576172 -61.003097534179688 -15.350000381469727
49.735801696777344 -61.003097534179688 -15.750000000000000
44.947399139404297 -61.003097534179688 -16.149999618530273
49.972000122070313 -61.003097534179688 -16.549999237060547
20.094200134277344 -61.003097534179688 -16.950000762939453
25.962699890136719 -61.003097534179688 -16.950000762939453
49.762699127197266 -61.003097534179688 -18.149999618530273
44.630100250244141 -61.003097534179688 -18.549999237060547
26.349199295043945 -61.003097534179688 -19.350000381469727
20.314800262451172 -61.003097534179688 -19.750000000000000
26.687500000000000 -61.003097534179688 -20.846300125122070
49.319499969482422 -61.003097534179688 -20.549999237060547
20.584800720214844 -61.003097534179688 -20.950000762939453
21.110700607299805 -61.003097534179688 -22.150001525878906
27.640600204467773 -61.003097534179688 -22.462001800537109
48.792999267578125 -61.003097534179688 -22.549999237060547
28.207799911499023 -61.003097534179688 -22.950000762939453
48.609401702880859 -60.701599121093750 -22.950000762939453
21.597299575805664 -61.003097534179688 -23.349998474121094
21.921899795532227 -61.003097534179688 -23.618598937988281
28.593799591064453 -61.003097534179688 -23.636798858642578
48.262298583984375 -61.003097534179688 -23.750000000000000
29.546899795532227 -61.003097534179688 -24.499099731445313
22.239599227905273 -61.003097534179688 -24.549999237060547
41.036800384521484 -61.003097534179688 -24.549999237060547
22.875000000000000 -61.003097534179688 -25.164901733398438
23.133899688720703 -61.003097534179688 -25.750000000000000
31.896999359130859 -61.003097534179688 -25.750000000000000
38.917198181152344 -61.003097534179688 -25.750000000000000
46.849098205566406 -61.003097534179688 -25.750000000000000
23.828100204467773 -61.003097534179688 -26.418300628662109
33.334899902343750 -61.003097534179688 -26.549999237060547
36.330101013183594 -61.003097534179688 -26.549999237060547
24.166700363159180 -61.003097534179688 -26.950000762939453
33.712600708007813 -61.003097534179688 -26.950000762939453
35.406101226806641 -61.003097534179688 -27.349998474121094
25.100700378417969 -61.003097534179688 -27.750000000000000
33.784599304199219 -61.003097534179688 -28.150001525878906
26.078800201416016 -61.003097534179688 -28.549999237060547
44.190299987792969 -61.003097534179688 -28.549999237060547
26.687500000000000 -60.050003051757813 -28.950000762939453
28.593799591064453 -61.003097534179688 -30.024299621582031
35.277801513671875 -61.003097534179688 -29.750000000000000
33.786701202392578 -61.003097534179688 -30.150001525878906
35.137500762939453 -61.003097534179688 -30.549999237060547
31.453100204467773 -61.003097534179688 -31.008300781250000
35.431598663330078 -61.003097534179688 -30.950000762939453
36.218799591064453 -61.003097534179688 -31.303199768066406
38.125000000000000 -61.003097534179688 -31.240699768066406
-59.093799591064453 -60.102996826171875 -38.150001525878906
-65.765602111816406 -60.492301940917969 -38.549999237060547
-61.953098297119141 -60.711997985839844 -38.549999237060547
-58.140598297119141 -60.770301818847656 -38.549999237060547
-54.328098297119141 -60.743499755859375 -38.549999237060547
-48.609401702880859 -60.379898071289063 -38.549999237060547
-68.625000000000000 -60.387496948242188 -38.950000762939453
-64.812500000000000 -61.003097534179688 -39.248401641845703
-48.609401702880859 -60.775802612304688 -38.950000762939453
-67.671897888183594 -60.575103759765625 -39.349998474121094
-48.609401702880859 -61.003097534179688 -39.390800476074219
-44.796901702880859 -60.524101257324219 -39.349998474121094
-71.484397888183594 -60.621101379394531 -39.750000000000000
-42.890598297119141 -60.711700439453125 -39.750000000000000
-39.078098297119141 -60.666496276855469 -40.549999237060547
-73.352096557617188 -61.003097534179688 -40.950000762939453
-36.218799591064453 -60.376998901367188 -40.950000762939453
-37.171901702880859 -61.003097534179688 -41.412700653076172
-74.772102355957031 -61.003097534179688 -41.750000000000000
-77.203102111816406 -60.643699645996094 -42.150001525878906
-33.895500183105469 -61.003097534179688 -42.549999237060547
-78.156196594238281 -60.627700805664063 -42.950000762939453
-30.916299819946289 -61.003097534179688 -43.750000000000000
-29.546899795532227 -60.648300170898438 -43.750000000000000
-81.015602111816406 -60.300796508789063 -44.549999237060547
-27.640600204467773 -60.469001770019531 -44.549999237060547
-81.968803405761719 -60.710800170898438 -45.750000000000000
-82.921897888183594 -60.559898376464844 -46.549999237060547
-25.226600646972656 -61.003097534179688 -46.549999237060547
-23.828100204467773 -60.673400878906250 -46.950000762939453
-83.875000000000000 -60.549499511718750 -47.349998474121094
-21.921899795532227 -60.533302307128906 -47.750000000000000
-83.847801208496094 -61.003097534179688 -48.150001525878906
-20.015600204467773 -60.480300903320313 -48.950000762939453
-86.734397888183594 -60.102996826171875 -49.750000000000000
-20.141399383544922 -61.003097534179688 -49.750000000000000
-19.062500000000000 -60.598297119140625 -49.750000000000000
-86.562797546386719 -61.003097534179688 -50.950000762939453
-17.156200408935547 -60.367698669433594 -50.950000762939453
-87.687500000000000 -60.617401123046875 -51.750000000000000
-17.156200408935547 -61.003097534179688 -52.248600006103516
-88.516899108886719 -61.003097534179688 -53.349998474121094
-14.296899795532227 -60.659599304199219 -54.949996948242188
-90.546897888183594 -60.415298461914063 -55.349998474121094
81.968803405761719 -60.345199584960938 -55.750000000000000
-90.546897888183594 -60.934097290039063 -56.550003051757813
82.921897888183594 -61.003097534179688 -56.871002197265625
87.687500000000000 -60.668502807617188 -56.550003051757813
89.593803405761719 -60.600700378417969 -56.550003051757813
-91.500000000000000 -60.437896728515625 -56.949996948242188
77.203102111816406 -60.651603698730469 -56.949996948242188
79.109397888183594 -60.516998291015625 -56.949996948242188
86.734397888183594 -60.757202148437500 -56.949996948242188
76.250000000000000 -60.572799682617188 -57.349998474121094
80.062500000000000 -60.833999633789063 -57.349998474121094
84.828102111816406 -60.661201477050781 -57.349998474121094
-14.451199531555176 -61.003097534179688 -57.750000000000000
79.109397888183594 -61.003097534179688 -57.770401000976563
85.819602966308594 -61.003097534179688 -57.750000000000000
90.990196228027344 -61.003097534179688 -58.150001525878906
-14.649200439453125 -61.003097534179688 -58.550003051757813
93.406196594238281 -60.425300598144531 -58.550003051757813
73.390602111816406 -60.367698669433594 -58.949996948242188
-15.405900001525879 -61.003097534179688 -59.349998474121094
74.369796752929688 -61.003097534179688 -59.349998474121094
94.359397888183594 -60.696601867675781 -59.750000000000000
72.437500000000000 -60.664199829101563 -60.550003051757813
71.484397888183594 -60.609199523925781 -62.150001525878906
96.265602111816406 -60.885902404785156 -62.150001525878906
-19.350099563598633 -61.003097534179688 -62.949996948242188
-93.286598205566406 -61.003097534179688 -64.150001525878906
-22.091199874877930 -61.003097534179688 -64.550003051757813
69.578102111816406 -60.374198913574219 -64.550003051757813
99.125000000000000 -60.230300903320313 -64.949996948242188
-24.781200408935547 -60.080596923828125 -65.349998474121094
-24.089799880981445 -61.003097534179688 -65.750000000000000
99.125000000000000 -60.058700561523438 -65.750000000000000
-38.125000000000000 -61.003097534179688 -66.515602111816406
98.546302795410156 -61.003097534179688 -66.150001525878906
-37.171901702880859 -60.098503112792969 -66.550003051757813
-35.265598297119141 -61.003097534179688 -66.579803466796875
69.807403564453125 -61.003097534179688 -66.550003051757813
-26.047399520874023 -61.003097534179688 -66.949996948242188
-31.453100204467773 -60.050003051757813 -67.750000000000000
99.413101196289063 -61.003097534179688 -67.750000000000000
-94.118103027343750 -61.003097534179688 -68.150001525878906
68.778099060058594 -61.003097534179688 -68.150001525878906
99.676597595214844 -61.003097534179688 -68.949996948242188
-94.232803344726563 -61.003097534179688 -69.349998474121094
100.560997009277344 -61.003097534179688 -70.550003051757813
-94.671501159667969 -61.003097534179688 -72.150001525878906
-44.796901702880859 -61.003097534179688 -72.889503479003906
100.649002075195313 -61.003097534179688 -72.550003051757813
-95.312500000000000 -60.155899047851563 -74.150001525878906
-94.960098266601563 -61.003097534179688 -74.550003051757813
-47.656200408935547 -61.003097534179688 -74.993202209472656
-49.562500000000000 -60.594703674316406 -75.349998474121094
59.093799591064453 -60.127296447753906 -75.750000000000000
60.046901702880859 -60.306602478027344 -75.750000000000000
59.093799591064453 -60.404403686523438 -76.150001525878906
62.906200408935547 -60.308097839355469 -76.150001525878906
101.030998229980469 -60.878501892089844 -76.150001525878906
-50.094799041748047 -61.003097534179688 -76.550003051757813
61.000000000000000 -60.787597656250000 -76.550003051757813
56.234401702880859 -60.548400878906250 -76.949996948242188
