# This PCD file was generated using the MATLAB® pcwrite function
# from Computer Vision Toolbox®.
# .PCD v.7 - Point Cloud Data file format
VERSION .7
FIELDS x y z
SIZE 8 8 8
TYPE F F F
COUNT 1 1 1
WIDTH 803
HEIGHT 1
VIEWPOINT 0 0 0 1 0 0 0
POINTS 803
DATA ascii
94.341499328613281 -38.128101348876953 -50.150001525878906
-62.906200408935547 -37.943298339843750 -50.549999237060547
-61.953098297119141 -37.924900054931641 -50.549999237060547
68.977996826171875 -38.128101348876953 -50.549999237060547
94.898696899414063 -38.128101348876953 -50.549999237060547
68.882202148437500 -38.128101348876953 -50.950000762939453
71.484397888183594 -37.795398712158203 -50.950000762939453
70.531196594238281 -37.877300262451172 -51.349998474121094
-29.546899795532227 -38.128101348876953 -52.063201904296875
69.578102111816406 -37.582099914550781 -51.750000000000000
95.784202575683594 -38.128101348876953 -51.750000000000000
67.770500183105469 -38.128101348876953 -52.150001525878906
70.531196594238281 -37.988601684570313 -52.150001525878906
69.460601806640625 -38.128101348876953 -52.549999237060547
70.531196594238281 -37.647998809814453 -52.549999237060547
75.296897888183594 -37.486900329589844 -52.549999237060547
72.437500000000000 -38.128101348876953 -52.972198486328125
69.702499389648438 -38.128101348876953 -53.349998474121094
-98.840599060058594 -38.128101348876953 -53.750000000000000
71.331199645996094 -38.128101348876953 -53.750000000000000
75.518501281738281 -38.128101348876953 -53.750000000000000
78.156196594238281 -37.522598266601563 -53.750000000000000
97.958801269531250 -38.128101348876953 -54.150001525878906
70.641502380371094 -38.128101348876953 -54.550003051757813
68.761199951171875 -38.128101348876953 -54.949996948242188
80.062500000000000 -37.828701019287109 -54.949996948242188
82.921897888183594 -37.408599853515625 -54.949996948242188
-36.218799591064453 -37.269298553466797 -55.750000000000000
68.625000000000000 -37.374198913574219 -55.750000000000000
69.849502563476563 -38.128101348876953 -55.750000000000000
81.968803405761719 -38.128101348876953 -55.791397094726563
83.875000000000000 -37.732799530029297 -55.750000000000000
87.687500000000000 -37.662300109863281 -56.150001525878906
99.839797973632813 -38.128101348876953 -56.150001525878906
67.845199584960938 -38.128101348876953 -56.550003051757813
86.734397888183594 -38.128101348876953 -56.550003051757813
-36.702098846435547 -38.128101348876953 -56.949996948242188
69.578102111816406 -37.306499481201172 -56.949996948242188
90.546897888183594 -37.521198272705078 -56.949996948242188
89.738197326660156 -38.128101348876953 -57.349998474121094
100.609001159667969 -38.128101348876953 -57.750000000000000
68.401901245117188 -38.128101348876953 -58.150001525878906
92.174499511718750 -38.128101348876953 -58.550003051757813
93.406196594238281 -37.582199096679688 -58.550003051757813
64.656196594238281 -38.128101348876953 -58.949996948242188
68.625000000000000 -37.297698974609375 -59.349998474121094
101.198997497558594 -38.128101348876953 -59.349998474121094
67.772201538085938 -38.128101348876953 -59.750000000000000
94.344001770019531 -38.128101348876953 -59.750000000000000
95.312500000000000 -37.666099548339844 -59.750000000000000
94.677101135253906 -38.128101348876953 -60.150001525878906
96.265602111816406 -37.501800537109375 -60.150001525878906
100.078002929687500 -37.249298095703125 -60.150001525878906
101.030998229980469 -37.626098632812500 -60.150001525878906
62.518699645996094 -38.128101348876953 -60.550003051757813
62.278301239013672 -38.128101348876953 -61.349998474121094
65.698196411132813 -38.128101348876953 -61.349998474121094
67.099998474121094 -38.128101348876953 -61.349998474121094
98.171897888183594 -38.128101348876953 -61.595298767089844
99.125000000000000 -37.749198913574219 -61.349998474121094
62.906200408935547 -37.571098327636719 -62.150001525878906
67.671897888183594 -37.382499694824219 -62.150001525878906
66.665802001953125 -38.128101348876953 -62.949996948242188
67.671897888183594 -37.362598419189453 -63.349998474121094
61.499298095703125 -38.128101348876953 -63.750000000000000
-100.178001403808594 -38.128101348876953 -64.150001525878906
62.631599426269531 -38.128101348876953 -64.150001525878906
61.953098297119141 -37.437900543212891 -64.150001525878906
-39.543998718261719 -38.128101348876953 -64.550003051757813
64.778198242187500 -38.128101348876953 -64.550003051757813
66.718803405761719 -37.630100250244141 -64.550003051757813
61.000000000000000 -38.128101348876953 -65.250000000000000
61.953098297119141 -37.716499328613281 -65.750000000000000
61.000000000000000 -37.419399261474609 -66.550003051757813
60.565700531005859 -38.128101348876953 -66.949996948242188
64.812500000000000 -37.434898376464844 -67.349998474121094
65.765602111816406 -38.128101348876953 -67.464302062988281
66.718803405761719 -37.556301116943359 -67.349998474121094
-40.473899841308594 -38.128101348876953 -67.750000000000000
61.997699737548828 -38.128101348876953 -67.750000000000000
-41.263401031494141 -38.128101348876953 -68.550003051757813
61.000000000000000 -37.523998260498047 -68.550003051757813
60.332801818847656 -38.128101348876953 -68.949996948242188
-100.641998291015625 -38.128101348876953 -69.349998474121094
-43.338699340820313 -38.128101348876953 -69.349998474121094
65.765602111816406 -37.810398101806641 -69.349998474121094
67.671897888183594 -37.403999328613281 -69.750000000000000
60.046901702880859 -38.128101348876953 -70.404502868652344
66.718803405761719 -37.502399444580078 -70.150001525878906
-45.081798553466797 -38.128101348876953 -70.550003051757813
61.508300781250000 -38.128101348876953 -70.550003051757813
63.859401702880859 -38.128101348876953 -70.949996948242188
66.718803405761719 -37.524200439453125 -70.949996948242188
-48.609401702880859 -38.128101348876953 -72.253601074218750
60.046901702880859 -37.882198333740234 -72.150001525878906
61.000000000000000 -37.884300231933594 -72.150001525878906
-52.421901702880859 -37.361400604248047 -72.550003051757813
-51.468799591064453 -38.128101348876953 -72.841102600097656
65.380302429199219 -38.128101348876953 -72.550003051757813
-54.328098297119141 -37.515098571777344 -72.949996948242188
61.000000000000000 -37.924800872802734 -73.349998474121094
65.765602111816406 -37.744899749755859 -73.349998474121094
63.734401702880859 -38.128101348876953 -73.750000000000000
-100.726997375488281 -38.128101348876953 -74.150001525878906
-56.216999053955078 -38.128101348876953 -74.150001525878906
65.451499938964844 -38.128101348876953 -74.550003051757813
-57.187500000000000 -38.128101348876953 -75.036499023437500
59.790298461914063 -38.128101348876953 -74.949996948242188
60.046901702880859 -37.572101593017578 -74.949996948242188
69.578102111816406 -37.183300018310547 -74.949996948242188
60.046901702880859 -37.767501831054688 -75.349998474121094
61.000000000000000 -37.782600402832031 -75.349998474121094
-58.140598297119141 -38.128101348876953 -76.126502990722656
66.718803405761719 -37.574001312255859 -75.750000000000000
63.809700012207031 -38.128101348876953 -76.150001525878906
-58.412399291992188 -38.128101348876953 -76.550003051757813
-100.747001647949219 -38.128101348876953 -77.750000000000000
-59.523101806640625 -38.128101348876953 -77.750000000000000
63.804901123046875 -38.128101348876953 -77.750000000000000
65.765602111816406 -37.819400787353516 -77.750000000000000
59.835098266601563 -38.128101348876953 -78.550003051757813
70.531196594238281 -37.174999237060547 -78.550003051757813
60.046901702880859 -38.018199920654297 -78.949996948242188
61.000000000000000 -37.726799011230469 -78.949996948242188
66.718803405761719 -37.647598266601563 -78.949996948242188
-100.813003540039063 -38.128101348876953 -79.349998474121094
-61.313201904296875 -38.128101348876953 -79.349998474121094
65.765602111816406 -37.996700286865234 -79.349998474121094
60.046901702880859 -37.697700500488281 -79.750000000000000
64.063598632812500 -38.128101348876953 -79.750000000000000
65.751403808593750 -38.128101348876953 -79.750000000000000
64.812500000000000 -37.216400146484375 -79.750000000000000
66.718803405761719 -37.622600555419922 -79.750000000000000
70.531196594238281 -37.270301818847656 -79.750000000000000
61.000000000000000 -37.581699371337891 -80.150001525878906
64.058403015136719 -38.128101348876953 -80.150001525878906
65.752601623535156 -38.128101348876953 -80.150001525878906
64.812500000000000 -37.213100433349609 -80.150001525878906
65.765602111816406 -38.128101348876953 -80.250000000000000
66.718803405761719 -37.608898162841797 -80.150001525878906
70.531196594238281 -37.280899047851563 -80.949996948242188
61.984600067138672 -38.128101348876953 -81.349998474121094
66.718803405761719 -37.647201538085938 -81.349998474121094
60.107398986816406 -38.128101348876953 -82.150001525878906
64.291000366210938 -38.128101348876953 -82.150001525878906
66.718803405761719 -37.748798370361328 -82.150001525878906
71.484397888183594 -37.200801849365234 -82.150001525878906
70.531196594238281 -37.323898315429688 -83.349998474121094
60.446998596191406 -38.128101348876953 -83.750000000000000
61.953098297119141 -37.492698669433594 -84.150001525878906
64.935897827148438 -38.128101348876953 -84.949996948242188
67.671897888183594 -37.612899780273438 -84.949996948242188
71.484397888183594 -37.253799438476563 -84.949996948242188
67.671897888183594 -37.614898681640625 -85.750000000000000
-100.425003051757813 -38.128101348876953 -86.150001525878906
71.484397888183594 -37.341800689697266 -86.150001525878906
61.123798370361328 -38.128101348876953 -86.550003051757813
63.066799163818359 -38.128101348876953 -86.550003051757813
65.765602111816406 -37.583499908447266 -86.949996948242188
67.671897888183594 -37.719600677490234 -86.949996948242188
-69.578102111816406 -37.726001739501953 -87.349998474121094
62.906200408935547 -37.636699676513672 -87.349998474121094
71.484397888183594 -37.361198425292969 -87.349998474121094
67.671897888183594 -37.857601165771484 -87.750000000000000
67.671897888183594 -38.128101348876953 -88.372200012207031
68.625000000000000 -37.551399230957031 -88.150001525878906
70.531196594238281 -37.436901092529297 -88.150001525878906
61.628200531005859 -38.128101348876953 -88.550003051757813
62.906200408935547 -37.377201080322266 -88.550003051757813
70.531196594238281 -37.564899444580078 -88.550003051757813
63.744499206542969 -38.128101348876953 -88.949996948242188
-71.550102233886719 -38.128101348876953 -89.349998474121094
62.097900390625000 -38.128101348876953 -89.349998474121094
68.625000000000000 -37.637401580810547 -89.349998474121094
73.390602111816406 -37.183300018310547 -89.349998474121094
66.465202331542969 -38.128101348876953 -89.750000000000000
68.625000000000000 -37.855800628662109 -89.750000000000000
69.578102111816406 -37.660198211669922 -89.750000000000000
101.984001159667969 -37.208999633789063 -89.750000000000000
-71.940399169921875 -38.128101348876953 -90.150001525878906
62.906200408935547 -37.308799743652344 -90.150001525878906
64.273002624511719 -38.128101348876953 -90.150001525878906
68.400100708007813 -38.128101348876953 -90.150001525878906
68.570503234863281 -38.128101348876953 -90.550003051757813
67.671897888183594 -37.202999114990234 -90.550003051757813
68.625000000000000 -38.048698425292969 -90.550003051757813
69.578102111816406 -37.572101593017578 -90.550003051757813
62.574699401855469 -38.128101348876953 -90.949996948242188
72.437500000000000 -37.403999328613281 -90.949996948242188
-72.853698730468750 -38.128101348876953 -91.349998474121094
63.859401702880859 -37.470001220703125 -91.349998474121094
100.078002929687500 -37.352699279785156 -91.349998474121094
-73.390602111816406 -38.128101348876953 -91.836997985839844
70.531196594238281 -37.535400390625000 -91.750000000000000
-99.588500976562500 -38.128101348876953 -92.150001525878906
63.285198211669922 -38.128101348876953 -92.150001525878906
67.625198364257813 -38.128101348876953 -92.150001525878906
69.578102111816406 -37.930900573730469 -92.150001525878906
101.030998229980469 -37.202999114990234 -92.150001525878906
-99.125000000000000 -37.388999938964844 -92.550003051757813
63.859401702880859 -37.676601409912109 -92.550003051757813
64.812500000000000 -37.641601562500000 -92.550003051757813
68.625000000000000 -37.429901123046875 -92.550003051757813
100.078002929687500 -37.451499938964844 -92.550003051757813
99.125000000000000 -37.471401214599609 -92.949996948242188
63.979999542236328 -38.128101348876953 -93.349998474121094
64.812500000000000 -37.405399322509766 -93.349998474121094
68.625000000000000 -37.775901794433594 -93.349998474121094
70.531196594238281 -37.815200805664063 -93.349998474121094
98.171897888183594 -37.304500579833984 -93.349998474121094
74.343803405761719 -37.257900238037109 -93.750000000000000
65.765602111816406 -37.479999542236328 -94.150001525878906
100.078002929687500 -37.313499450683594 -94.150001525878906
64.683097839355469 -38.128101348876953 -94.550003051757813
64.812500000000000 -37.379199981689453 -94.550003051757813
71.484397888183594 -37.875000000000000 -94.550003051757813
97.218803405761719 -37.385898590087891 -94.550003051757813
99.125000000000000 -37.569099426269531 -94.550003051757813
65.765602111816406 -37.274600982666016 -94.949996948242188
66.718803405761719 -37.813899993896484 -94.949996948242188
73.390602111816406 -37.465099334716797 -95.349998474121094
-76.956298828125000 -38.128101348876953 -95.750000000000000
66.718803405761719 -37.186500549316406 -95.750000000000000
70.531196594238281 -37.935398101806641 -95.750000000000000
73.390602111816406 -37.686698913574219 -95.750000000000000
97.218803405761719 -37.761001586914063 -95.750000000000000
99.125000000000000 -37.302101135253906 -95.750000000000000
65.668899536132813 -38.128101348876953 -96.150001525878906
77.203102111816406 -37.262401580810547 -96.150001525878906
98.171897888183594 -37.634201049804688 -96.150001525878906
-98.171897888183594 -37.759899139404297 -96.550003051757813
-77.671897888183594 -38.128101348876953 -96.550003051757813
75.296897888183594 -37.781501770019531 -96.550003051757813
77.203102111816406 -37.557899475097656 -96.550003051757813
81.015602111816406 -37.843101501464844 -96.550003051757813
66.571098327636719 -38.128101348876953 -96.949996948242188
68.625000000000000 -37.615699768066406 -96.949996948242188
72.437500000000000 -37.816699981689453 -96.949996948242188
94.359397888183594 -37.400699615478516 -96.949996948242188
95.312500000000000 -37.819801330566406 -96.949996948242188
98.171897888183594 -37.185298919677734 -97.349998474121094
80.062500000000000 -37.617801666259766 -97.750000000000000
82.921897888183594 -37.644199371337891 -98.150001525878906
92.453102111816406 -37.562999725341797 -98.150001525878906
96.265602111816406 -37.944499969482422 -98.150001525878906
67.795196533203125 -38.128101348876953 -98.550003051757813
87.687500000000000 -37.377498626708984 -98.550003051757813
79.109397888183594 -38.128101348876953 -99.341003417968750
81.968803405761719 -38.041500091552734 -98.949996948242188
90.546897888183594 -37.754199981689453 -98.949996948242188
96.265602111816406 -37.796001434326172 -98.949996948242188
81.015602111816406 -37.572799682617188 -99.349998474121094
82.921897888183594 -37.464298248291016 -99.750000000000000
85.781196594238281 -37.717601776123047 -99.750000000000000
86.734397888183594 -37.386798858642578 -99.750000000000000
-97.218803405761719 -38.128101348876953 -100.241996765136719
-82.032798767089844 -38.128101348876953 -100.150001525878906
70.531196594238281 -38.128101348876953 -100.333000183105469
71.484397888183594 -38.128101348876953 -100.541000366210938
84.828102111816406 -37.658699035644531 -100.150001525878906
81.015602111816406 -37.309398651123047 -100.550003051757813
88.640602111816406 -37.378601074218750 -100.550003051757813
95.312500000000000 -37.346298217773438 -100.550003051757813
78.479301452636719 -38.128101348876953 -100.949996948242188
83.150100708007813 -38.128101348876953 -100.949996948242188
73.390602111816406 -38.128101348876953 -101.386001586914063
88.640602111816406 -37.195098876953125 -101.349998474121094
92.453102111816406 -38.022998809814453 -101.750000000000000
-96.904502868652344 -38.128101348876953 -102.150001525878906
-96.265602111816406 -37.240299224853516 -102.550003051757813
88.640602111816406 -38.029499053955078 -102.550003051757813
90.546897888183594 -37.716999053955078 -102.550003051757813
-96.307701110839844 -38.128101348876953 -103.349998474121094
-96.033500671386719 -38.128101348876953 -104.550003051757813
-85.781196594238281 -37.388198852539063 -104.550003051757813
-95.312500000000000 -37.881599426269531 -105.349998474121094
-85.781196594238281 -37.997100830078125 -105.349998474121094
-86.734397888183594 -37.304298400878906 -105.750000000000000
-94.897796630859375 -38.128101348876953 -106.550003051757813
-94.773803710937500 -38.128101348876953 -106.949996948242188
-87.069297790527344 -38.128101348876953 -106.949996948242188
-88.382698059082031 -38.128101348876953 -107.750000000000000
-89.593803405761719 -38.025100708007813 -108.550003051757813
-74.343803405761719 -37.174999237060547 -34.599998474121094
-62.906200408935547 -36.588500976562500 -35.750000000000000
-61.953098297119141 -36.412498474121094 -36.150001525878906
-83.346900939941406 -37.174999237060547 -36.950000762939453
-61.000000000000000 -36.234798431396484 -36.950000762939453
-60.046901702880859 -36.490699768066406 -36.950000762939453
-60.046901702880859 -36.336700439453125 -37.349998474121094
-85.239700317382813 -37.174999237060547 -37.750000000000000
-52.421901702880859 -36.358001708984375 -38.150001525878906
-60.046901702880859 -36.468799591064453 -38.549999237060547
-50.515598297119141 -37.067100524902344 -38.549999237060547
-49.562500000000000 -36.748199462890625 -38.950000762939453
-88.182296752929688 -37.174999237060547 -39.349998474121094
-60.046901702880859 -37.174999237060547 -39.364299774169922
-59.093799591064453 -36.392799377441406 -39.750000000000000
-89.352500915527344 -37.174999237060547 -40.150001525878906
-62.150798797607422 -37.174999237060547 -40.150001525878906
-45.750000000000000 -36.766498565673828 -40.150001525878906
-89.984397888183594 -37.174999237060547 -40.549999237060547
-59.150299072265625 -37.174999237060547 -40.950000762939453
-62.906200408935547 -37.174999237060547 -41.620601654052734
-42.890598297119141 -37.174999237060547 -41.480800628662109
-59.093799591064453 -36.736099243164063 -41.750000000000000
-41.937500000000000 -36.454700469970703 -42.150001525878906
-40.984401702880859 -36.236900329589844 -42.549999237060547
-34.312500000000000 -36.596500396728516 -42.950000762939453
-32.406200408935547 -36.357498168945313 -43.349998474121094
-13.343799591064453 -37.174999237060547 -43.446998596191406
-93.207901000976563 -37.174999237060547 -43.750000000000000
-15.250000000000000 -36.343399047851563 -43.750000000000000
-93.646896362304688 -37.174999237060547 -44.150001525878906
-63.589900970458984 -37.174999237060547 -44.950000762939453
78.156196594238281 -36.468601226806641 -44.950000762939453
80.062500000000000 -36.528999328613281 -44.950000762939453
-9.178509712219238 -37.174999237060547 -45.349998474121094
81.968803405761719 -36.374401092529297 -45.349998474121094
-63.764099121093750 -37.174999237060547 -45.750000000000000
-95.289802551269531 -37.174999237060547 -46.549999237060547
83.224296569824219 -37.174999237060547 -46.549999237060547
-63.527500152587891 -37.174999237060547 -46.950000762939453
-61.953098297119141 -36.507801055908203 -46.950000762939453
81.968803405761719 -36.410701751708984 -46.950000762939453
-9.042770385742188 -37.174999237060547 -47.349998474121094
81.015602111816406 -37.032001495361328 -47.349998474121094
82.921897888183594 -36.435798645019531 -47.750000000000000
89.593803405761719 -37.174999237060547 -47.918399810791016
91.500000000000000 -37.174999237060547 -47.970199584960938
94.359397888183594 -36.406898498535156 -47.750000000000000
-63.133598327636719 -37.174999237060547 -48.150001525878906
-9.708109855651855 -37.174999237060547 -48.150001525878906
80.062500000000000 -36.934898376464844 -48.150001525878906
72.890197753906250 -37.174999237060547 -48.549999237060547
77.203102111816406 -36.623500823974609 -48.549999237060547
80.062500000000000 -36.487701416015625 -48.549999237060547
82.921897888183594 -36.622798919677734 -48.549999237060547
96.265602111816406 -36.677299499511719 -48.549999237060547
75.142799377441406 -37.174999237060547 -48.950000762939453
96.265602111816406 -36.671298980712891 -48.950000762939453
97.218803405761719 -36.264701843261719 -48.950000762939453
-97.035697937011719 -37.174999237060547 -49.349998474121094
-14.296899795532227 -37.066101074218750 -49.349998474121094
81.968803405761719 -36.406398773193359 -49.349998474121094
94.359397888183594 -37.174999237060547 -49.391201019287109
-20.015600204467773 -37.174999237060547 -50.145401000976563
71.316802978515625 -37.174999237060547 -49.750000000000000
82.921897888183594 -36.582901000976563 -49.750000000000000
83.875000000000000 -36.705200195312500 -49.750000000000000
97.218803405761719 -37.104698181152344 -49.750000000000000
98.171897888183594 -36.720298767089844 -49.750000000000000
95.312500000000000 -36.929000854492188 -50.150001525878906
98.171897888183594 -36.702301025390625 -50.150001525878906
-97.678497314453125 -37.174999237060547 -50.549999237060547
70.346199035644531 -37.174999237060547 -50.549999237060547
76.250000000000000 -36.535598754882813 -50.950000762939453
100.078002929687500 -36.277900695800781 -50.950000762939453
74.797599792480469 -37.174999237060547 -51.349998474121094
77.203102111816406 -36.611801147460938 -51.349998474121094
81.015602111816406 -36.336101531982422 -51.349998474121094
96.265602111816406 -36.743000030517578 -51.349998474121094
-98.020202636718750 -37.174999237060547 -51.750000000000000
-30.500000000000000 -37.174999237060547 -52.126201629638672
67.305999755859375 -37.174999237060547 -51.750000000000000
71.761398315429688 -37.174999237060547 -51.750000000000000
73.390602111816406 -37.174999237060547 -51.923099517822266
82.921897888183594 -36.227001190185547 -51.750000000000000
95.812301635742188 -37.174999237060547 -51.750000000000000
99.125000000000000 -36.782501220703125 -51.750000000000000
100.078002929687500 -36.681301116943359 -51.750000000000000
98.171897888183594 -36.560600280761719 -52.150001525878906
-32.406200408935547 -36.955001831054688 -52.549999237060547
77.927497863769531 -37.174999237060547 -52.549999237060547
79.109397888183594 -36.753299713134766 -52.549999237060547
81.015602111816406 -36.527400970458984 -52.549999237060547
98.171897888183594 -36.571800231933594 -52.549999237060547
101.030998229980469 -36.320098876953125 -52.549999237060547
-98.538497924804688 -37.174999237060547 -52.950000762939453
66.233001708984375 -37.174999237060547 -52.950000762939453
72.233200073242188 -37.174999237060547 -52.950000762939453
83.875000000000000 -36.453399658203125 -52.950000762939453
100.078002929687500 -36.481800079345703 -52.950000762939453
67.671897888183594 -36.857299804687500 -53.349998474121094
86.734397888183594 -36.486801147460938 -53.349998474121094
96.523597717285156 -37.174999237060547 -53.349998474121094
65.818603515625000 -37.174999237060547 -53.750000000000000
72.437500000000000 -36.489398956298828 -53.750000000000000
81.015602111816406 -37.174999237060547 -53.863201141357422
101.030998229980469 -36.572601318359375 -53.750000000000000
66.718803405761719 -36.547100067138672 -54.150001525878906
71.484397888183594 -37.096900939941406 -54.150001525878906
83.875000000000000 -37.174999237060547 -54.471298217773438
87.687500000000000 -36.702999114990234 -54.150001525878906
100.078002929687500 -36.360500335693359 -54.150001525878906
101.984001159667969 -36.285400390625000 -54.150001525878906
-35.248500823974609 -37.174999237060547 -54.550003051757813
69.435203552246094 -37.174999237060547 -54.550003051757813
85.959999084472656 -37.174999237060547 -54.550003051757813
89.593803405761719 -36.628501892089844 -54.550003051757813
97.846298217773438 -37.174999237060547 -54.550003051757813
-99.076599121093750 -37.174999237060547 -54.949996948242188
65.765602111816406 -36.391601562500000 -54.949996948242188
92.453102111816406 -36.247299194335938 -54.949996948242188
98.344398498535156 -37.174999237060547 -54.949996948242188
101.984001159667969 -36.486198425292969 -54.949996948242188
-35.674098968505859 -37.174999237060547 -55.349998474121094
89.366798400878906 -37.174999237060547 -55.349998474121094
64.471397399902344 -37.174999237060547 -55.750000000000000
65.765602111816406 -36.931701660156250 -55.750000000000000
91.037399291992188 -37.174999237060547 -56.150001525878906
92.453102111816406 -36.610298156738281 -56.150001525878906
101.030998229980469 -36.489700317382813 -56.150001525878906
64.812500000000000 -36.633399963378906 -56.550003051757813
99.451103210449219 -37.174999237060547 -56.550003051757813
-37.171901702880859 -36.919700622558594 -56.949996948242188
102.938003540039063 -36.317199707031250 -56.949996948242188
63.616001129150391 -37.174999237060547 -57.349998474121094
64.812500000000000 -36.922698974609375 -57.349998474121094
67.671897888183594 -37.174999237060547 -57.715698242187500
70.531196594238281 -36.673801422119141 -57.349998474121094
99.810897827148438 -37.174999237060547 -57.349998474121094
101.984001159667969 -36.529598236083984 -57.349998474121094
96.265602111816406 -36.232799530029297 -57.750000000000000
99.125000000000000 -36.293201446533203 -57.750000000000000
69.578102111816406 -36.796199798583984 -58.150001525878906
95.312500000000000 -36.618301391601563 -58.150001525878906
63.859401702880859 -36.840900421142578 -58.550003051757813
73.390602111816406 -36.255001068115234 -58.550003051757813
98.171897888183594 -36.367900848388672 -58.550003051757813
101.984001159667969 -36.456001281738281 -58.550003051757813
62.906200408935547 -37.084201812744141 -58.949996948242188
69.578102111816406 -36.809299468994141 -58.949996948242188
95.473098754882813 -37.174999237060547 -58.949996948242188
97.218803405761719 -36.524299621582031 -58.949996948242188
100.078002929687500 -36.776699066162109 -58.949996948242188
-99.867698669433594 -37.174999237060547 -59.349998474121094
63.888500213623047 -37.174999237060547 -59.349998474121094
99.125000000000000 -36.601299285888672 -59.349998474121094
102.938003540039063 -36.487899780273438 -59.349998474121094
62.906200408935547 -36.886901855468750 -59.750000000000000
67.671897888183594 -36.376800537109375 -59.750000000000000
68.625000000000000 -37.174999237060547 -60.105598449707031
69.578102111816406 -36.773700714111328 -59.750000000000000
98.171897888183594 -36.981399536132813 -59.750000000000000
67.671897888183594 -36.277099609375000 -60.150001525878906
66.452201843261719 -37.174999237060547 -60.550003051757813
68.625000000000000 -37.009998321533203 -60.550003051757813
73.390602111816406 -36.247600555419922 -60.550003051757813
103.890998840332031 -36.395900726318359 -60.550003051757813
102.938003540039063 -36.418498992919922 -60.949996948242188
62.906200408935547 -37.174999237060547 -61.489097595214844
-100.030998229980469 -37.174999237060547 -61.750000000000000
62.162399291992188 -37.174999237060547 -62.150001525878906
72.437500000000000 -36.471199035644531 -62.150001525878906
102.938003540039063 -36.257499694824219 -62.150001525878906
103.890998840332031 -36.435398101806641 -62.150001525878906
69.578102111816406 -36.777900695800781 -62.550003051757813
61.703498840332031 -37.174999237060547 -62.949996948242188
104.844001770019531 -36.322200775146484 -62.949996948242188
65.765602111816406 -37.025001525878906 -63.349998474121094
74.343803405761719 -36.276599884033203 -63.349998474121094
71.484397888183594 -36.544300079345703 -63.750000000000000
104.844001770019531 -36.507801055908203 -64.150001525878906
65.765602111816406 -36.887401580810547 -64.550003051757813
103.890998840332031 -36.505199432373047 -64.949996948242188
-40.031200408935547 -36.630401611328125 -65.349998474121094
-100.519996643066406 -37.174999237060547 -65.750000000000000
65.183700561523438 -37.174999237060547 -65.750000000000000
69.578102111816406 -36.771400451660156 -65.750000000000000
74.343803405761719 -36.352199554443359 -65.750000000000000
104.844001770019531 -36.562301635742188 -66.150001525878906
-40.199798583984375 -37.174999237060547 -66.550003051757813
68.386703491210938 -37.174999237060547 -66.550003051757813
70.531196594238281 -36.763301849365234 -66.550003051757813
75.296897888183594 -36.345901489257813 -66.550003051757813
70.531196594238281 -36.717201232910156 -66.949996948242188
103.890998840332031 -36.254398345947266 -66.949996948242188
65.765602111816406 -36.690101623535156 -67.349998474121094
69.578102111816406 -36.890899658203125 -67.349998474121094
64.812500000000000 -37.174999237060547 -67.934600830078125
-41.937500000000000 -36.238998413085938 -68.150001525878906
104.844001770019531 -36.618301391601563 -68.550003051757813
64.812500000000000 -37.043800354003906 -68.949996948242188
75.296897888183594 -36.426101684570313 -69.349998474121094
69.578102111816406 -36.904098510742188 -70.150001525878906
-45.258499145507813 -37.174999237060547 -70.550003051757813
73.390602111816406 -36.612701416015625 -70.550003051757813
104.844001770019531 -36.539600372314453 -70.550003051757813
64.812500000000000 -37.006301879882813 -70.949996948242188
105.796997070312500 -36.390098571777344 -70.949996948242188
76.250000000000000 -36.419799804687500 -71.349998474121094
-47.625801086425781 -37.174999237060547 -71.750000000000000
69.578102111816406 -36.925899505615234 -71.750000000000000
-49.562500000000000 -37.174999237060547 -72.340599060058594
-55.281200408935547 -36.945899963378906 -72.949996948242188
105.796997070312500 -36.473201751708984 -72.949996948242188
78.156196594238281 -36.349498748779297 -73.349998474121094
65.765602111816406 -36.652599334716797 -73.750000000000000
70.531196594238281 -36.873500823974609 -73.750000000000000
69.126602172851563 -37.174999237060547 -74.150001525878906
104.844001770019531 -36.494201660156250 -74.150001525878906
75.296897888183594 -36.599098205566406 -74.550003051757813
64.812500000000000 -37.002498626708984 -75.349998474121094
74.343803405761719 -36.625400543212891 -75.349998474121094
70.531196594238281 -36.921501159667969 -75.750000000000000
78.156196594238281 -36.400100708007813 -75.750000000000000
104.844001770019531 -36.667701721191406 -76.150001525878906
105.796997070312500 -36.513099670410156 -76.150001525878906
75.296897888183594 -36.628398895263672 -76.550003051757813
-100.809997558593750 -37.174999237060547 -76.949996948242188
64.812500000000000 -36.980998992919922 -76.949996948242188
69.244499206542969 -37.174999237060547 -76.949996948242188
77.203102111816406 -36.577598571777344 -77.349998474121094
75.296897888183594 -36.653900146484375 -78.150001525878906
72.437500000000000 -36.890899658203125 -78.550003051757813
79.109397888183594 -36.482498168945313 -78.550003051757813
103.890998840332031 -36.376201629638672 -78.550003051757813
105.796997070312500 -36.451000213623047 -78.550003051757813
-60.476699829101563 -37.174999237060547 -78.949996948242188
64.769203186035156 -37.174999237060547 -79.349998474121094
64.812500000000000 -37.174999237060547 -79.578598022460938
70.362998962402344 -37.174999237060547 -79.349998474121094
71.484397888183594 -36.918800354003906 -79.349998474121094
74.343803405761719 -36.753898620605469 -79.349998474121094
76.250000000000000 -36.607299804687500 -79.349998474121094
65.765602111816406 -36.793701171875000 -79.750000000000000
103.890998840332031 -36.547901153564453 -79.750000000000000
104.844001770019531 -36.735099792480469 -79.750000000000000
65.765602111816406 -36.743198394775391 -80.150001525878906
-100.728996276855469 -37.174999237060547 -80.550003051757813
-62.319698333740234 -37.174999237060547 -80.550003051757813
71.484397888183594 -37.027500152587891 -80.550003051757813
79.109397888183594 -36.530200958251953 -80.550003051757813
67.671897888183594 -36.390998840332031 -80.949996948242188
81.968803405761719 -36.282501220703125 -80.949996948242188
65.054397583007813 -37.174999237060547 -81.750000000000000
78.156196594238281 -36.584999084472656 -81.750000000000000
102.938003540039063 -36.221900939941406 -81.750000000000000
75.296897888183594 -36.789199829101563 -82.150001525878906
103.890998840332031 -36.811199188232422 -82.150001525878906
65.765602111816406 -36.793701171875000 -82.550003051757813
60.940399169921875 -37.174999237060547 -82.949996948242188
72.437500000000000 -36.939498901367188 -82.949996948242188
81.015602111816406 -36.422901153564453 -82.949996948242188
-100.596000671386719 -37.174999237060547 -83.349998474121094
-65.246200561523438 -37.174999237060547 -83.349998474121094
67.671897888183594 -36.405200958251953 -83.349998474121094
72.437500000000000 -37.067600250244141 -83.750000000000000
82.921897888183594 -36.301998138427734 -83.750000000000000
102.938003540039063 -36.755001068115234 -83.750000000000000
61.000000000000000 -37.033798217773438 -84.150001525878906
78.156196594238281 -36.698398590087891 -84.150001525878906
81.015602111816406 -36.500198364257813 -84.150001525878906
65.765602111816406 -36.927501678466797 -84.550003051757813
76.250000000000000 -36.763301849365234 -84.550003051757813
101.984001159667969 -36.358001708984375 -84.550003051757813
-100.430000305175781 -37.174999237060547 -84.949996948242188
60.937500000000000 -37.174999237060547 -84.949996948242188
66.718803405761719 -36.771099090576172 -84.949996948242188
67.671897888183594 -36.640800476074219 -84.949996948242188
74.343803405761719 -36.806301116943359 -84.949996948242188
103.890998840332031 -36.882301330566406 -84.949996948242188
104.844001770019531 -36.358001708984375 -84.949996948242188
61.953098297119141 -37.115398406982422 -85.349998474121094
73.390602111816406 -37.026699066162109 -85.349998474121094
71.749099731445313 -37.174999237060547 -85.750000000000000
72.437500000000000 -36.978298187255859 -85.750000000000000
77.203102111816406 -36.723098754882813 -85.750000000000000
102.938003540039063 -36.981098175048828 -85.750000000000000
77.203102111816406 -36.825801849365234 -86.150001525878906
80.062500000000000 -36.626399993896484 -86.150001525878906
82.921897888183594 -36.439998626708984 -86.150001525878906
61.045398712158203 -37.174999237060547 -86.550003051757813
61.953098297119141 -36.894699096679688 -86.550003051757813
67.671897888183594 -36.688301086425781 -86.550003051757813
73.390602111816406 -36.961799621582031 -86.550003051757813
103.890998840332031 -36.742500305175781 -86.550003051757813
75.296897888183594 -36.845699310302734 -86.949996948242188
79.109397888183594 -36.631401062011719 -86.949996948242188
101.030998229980469 -36.376998901367188 -86.949996948242188
66.718803405761719 -37.003299713134766 -87.349998474121094
68.625000000000000 -36.596298217773438 -87.349998474121094
81.015602111816406 -36.570899963378906 -87.349998474121094
66.718803405761719 -37.174999237060547 -88.038902282714844
74.343803405761719 -36.982101440429688 -87.750000000000000
79.109397888183594 -36.726501464843750 -87.750000000000000
82.921897888183594 -36.450599670410156 -87.750000000000000
101.984001159667969 -37.153800964355469 -87.750000000000000
102.938003540039063 -36.945201873779297 -87.750000000000000
61.953098297119141 -36.973201751708984 -88.150001525878906
74.343803405761719 -36.882598876953125 -88.150001525878906
81.015602111816406 -36.567199707031250 -88.150001525878906
67.031196594238281 -37.174999237060547 -88.550003051757813
77.203102111816406 -36.865398406982422 -88.550003051757813
82.921897888183594 -36.514598846435547 -88.550003051757813
67.671897888183594 -36.851799011230469 -88.949996948242188
77.203102111816406 -36.742500305175781 -88.949996948242188
81.015602111816406 -36.555801391601563 -88.949996948242188
101.030998229980469 -37.174999237060547 -89.378601074218750
102.938003540039063 -36.753299713134766 -89.349998474121094
-71.484397888183594 -36.669300079345703 -89.750000000000000
69.578102111816406 -36.531898498535156 -89.750000000000000
74.343803405761719 -37.076900482177734 -89.750000000000000
79.109397888183594 -36.742401123046875 -89.750000000000000
82.921897888183594 -36.430400848388672 -89.750000000000000
73.569297790527344 -37.174999237060547 -90.150001525878906
75.296897888183594 -36.860801696777344 -90.150001525878906
-72.398101806640625 -37.174999237060547 -90.550003051757813
68.625000000000000 -36.790199279785156 -90.550003051757813
81.968803405761719 -36.511299133300781 -90.550003051757813
67.950500488281250 -37.174999237060547 -90.949996948242188
83.875000000000000 -36.329601287841797 -90.949996948242188
75.296897888183594 -37.118099212646484 -92.150001525878906
77.203102111816406 -36.842700958251953 -92.150001525878906
81.968803405761719 -36.556598663330078 -92.150001525878906
98.171897888183594 -36.410198211669922 -92.150001525878906
-73.898002624511719 -37.174999237060547 -92.550003051757813
69.578102111816406 -36.766498565673828 -92.550003051757813
71.484397888183594 -36.312599182128906 -92.550003051757813
-74.764396667480469 -37.174999237060547 -93.349998474121094
71.484397888183594 -36.565601348876953 -93.349998474121094
78.156196594238281 -36.840099334716797 -93.349998474121094
82.921897888183594 -36.495300292968750 -93.349998474121094
76.250000000000000 -36.952999114990234 -93.750000000000000
97.218803405761719 -36.630401611328125 -93.750000000000000
81.968803405761719 -36.532001495361328 -94.150001525878906
-76.161102294921875 -37.174999237060547 -94.550003051757813
70.205802917480469 -37.174999237060547 -94.550003051757813
71.484397888183594 -36.730701446533203 -94.949996948242188
96.265602111816406 -36.762001037597656 -94.949996948242188
-98.171897888183594 -36.412498474121094 -95.349998474121094
75.720497131347656 -37.174999237060547 -95.349998474121094
79.109397888183594 -36.707801818847656 -95.349998474121094
81.015602111816406 -36.683101654052734 -95.349998474121094
65.765602111816406 -36.918800354003906 -95.750000000000000
71.484397888183594 -37.079700469970703 -95.750000000000000
81.015602111816406 -37.174999237060547 -96.169998168945313
82.921897888183594 -36.783000946044922 -96.150001525878906
95.312500000000000 -37.174999237060547 -96.194999694824219
73.390602111816406 -36.709701538085938 -96.550003051757813
83.875000000000000 -36.778701782226563 -96.550003051757813
66.372200012207031 -37.174999237060547 -97.349998474121094
67.671897888183594 -36.880401611328125 -97.349998474121094
75.296897888183594 -36.907501220703125 -97.349998474121094
78.156196594238281 -36.661201477050781 -97.349998474121094
81.015602111816406 -36.702301025390625 -97.349998474121094
82.921897888183594 -36.252601623535156 -97.349998474121094
85.781196594238281 -36.632900238037109 -97.349998474121094
93.828598022460938 -37.174999237060547 -97.349998474121094
96.265602111816406 -36.373699188232422 -97.349998474121094
68.625000000000000 -36.877799987792969 -97.750000000000000
86.734397888183594 -36.997699737548828 -98.150001525878906
97.722801208496094 -37.174999237060547 -98.150001525878906
-81.968803405761719 -36.534198760986328 -98.550003051757813
67.354202270507813 -37.174999237060547 -98.550003051757813
69.578102111816406 -36.830799102783203 -98.550003051757813
94.359397888183594 -36.514099121093750 -98.550003051757813
68.625000000000000 -36.533798217773438 -98.949996948242188
95.312500000000000 -36.339900970458984 -98.949996948242188
70.531196594238281 -36.521598815917969 -99.349998474121094
92.453102111816406 -36.796901702880859 -99.349998474121094
68.211601257324219 -37.174999237060547 -99.750000000000000
68.625000000000000 -36.677700042724609 -99.750000000000000
72.021301269531250 -37.174999237060547 -99.750000000000000
80.062500000000000 -36.806999206542969 -99.750000000000000
81.015602111816406 -36.677299499511719 -99.750000000000000
88.640602111816406 -36.569999694824219 -99.750000000000000
89.593803405761719 -36.532199859619141 -99.750000000000000
94.359397888183594 -36.444000244140625 -99.750000000000000
73.390602111816406 -37.174999237060547 -100.179000854492188
90.546897888183594 -36.958698272705078 -100.150001525878906
72.437500000000000 -36.266201019287109 -100.550003051757813
75.296897888183594 -36.693401336669922 -100.550003051757813
77.203102111816406 -36.488800048828125 -100.550003051757813
84.828102111816406 -36.986400604248047 -100.550003051757813
92.453102111816406 -36.757099151611328 -100.550003051757813
93.406196594238281 -36.271999359130859 -100.550003051757813
-83.875000000000000 -36.925701141357422 -100.949996948242188
70.421302795410156 -37.174999237060547 -100.949996948242188
71.484397888183594 -36.276298522949219 -100.949996948242188
75.296897888183594 -36.390098571777344 -100.949996948242188
80.062500000000000 -36.963199615478516 -100.949996948242188
81.015602111816406 -36.788101196289063 -100.949996948242188
71.484397888183594 -37.111499786376953 -101.349998474121094
72.437500000000000 -36.614299774169922 -101.349998474121094
74.343803405761719 -37.174999237060547 -101.722000122070313
74.343803405761719 -36.299400329589844 -101.349998474121094
87.687500000000000 -37.110698699951172 -101.349998474121094
91.500000000000000 -36.558700561523438 -101.349998474121094
76.250000000000000 -37.174999237060547 -101.898002624511719
77.356796264648438 -37.174999237060547 -101.750000000000000
82.921897888183594 -36.416599273681641 -101.750000000000000
83.875000000000000 -36.505500793457031 -101.750000000000000
93.596900939941406 -37.174999237060547 -101.750000000000000
91.500000000000000 -37.174999237060547 -102.530998229980469
85.781196594238281 -36.791301727294922 -102.550003051757813
-84.806900024414063 -37.174999237060547 -102.949996948242188
-85.781196594238281 -36.367599487304688 -103.349998474121094
-85.417503356933594 -37.174999237060547 -104.150001525878906
-88.640602111816406 -36.863399505615234 -107.349998474121094
-92.453102111816406 -36.507801055908203 -107.750000000000000
-89.593803405761719 -36.828399658203125 -107.750000000000000
-91.500000000000000 -36.964599609375000 -108.150001525878906
-70.531196594238281 -36.221900939941406 -34.812301635742188
-78.156196594238281 -36.221900939941406 -35.618999481201172
-68.625000000000000 -35.298099517822266 -35.349998474121094
-66.718803405761719 -35.705600738525391 -35.349998474121094
-64.812500000000000 -36.221900939941406 -35.480201721191406
-62.906200408935547 -35.780200958251953 -36.150001525878906
-81.015602111816406 -35.315200805664063 -36.549999237060547
-60.607498168945313 -36.221900939941406 -37.349998474121094
-58.140598297119141 -36.221900939941406 -37.720401763916016
-55.281200408935547 -36.221900939941406 -37.645198822021484
-61.953098297119141 -35.390800476074219 -37.750000000000000
-62.077999114990234 -36.221900939941406 -38.950000762939453
-58.996101379394531 -36.221900939941406 -38.950000762939453
-45.750000000000000 -35.622398376464844 -40.950000762939453
-91.132003784179688 -36.221900939941406 -41.750000000000000
-91.323699951171875 -36.221900939941406 -42.150001525878906
-63.117198944091797 -36.221900939941406 -42.150001525878906
-39.078098297119141 -36.221900939941406 -42.792701721191406
-59.152900695800781 -36.221900939941406 -42.950000762939453
-92.527297973632813 -36.221900939941406 -43.349998474121094
-59.464401245117188 -36.221900939941406 -43.349998474121094
-37.171901702880859 -35.428298950195313 -43.349998474121094
-28.593799591064453 -36.221900939941406 -43.875999450683594
-25.734399795532227 -36.221900939941406 -44.056301116943359
-22.875000000000000 -36.221900939941406 -44.132999420166016
-19.062500000000000 -36.221900939941406 -43.967098236083984
-63.094898223876953 -36.221900939941406 -44.150001525878906
-13.343799591064453 -35.331199645996094 -44.150001525878906
-12.390600204467773 -35.529399871826172 -44.150001525878906
-61.000000000000000 -35.735801696777344 -44.549999237060547
-62.385601043701172 -36.221900939941406 -44.950000762939453
-60.046901702880859 -36.143699645996094 -44.950000762939453
75.363403320312500 -36.221900939941406 -45.349998474121094
-61.000000000000000 -35.965301513671875 -45.750000000000000
83.875000000000000 -35.300201416015625 -45.750000000000000
-95.014602661132813 -36.221900939941406 -46.150001525878906
73.390602111816406 -35.314098358154297 -46.150001525878906
79.109397888183594 -36.221900939941406 -46.154899597167969
81.015602111816406 -35.848899841308594 -46.150001525878906
-9.069669723510742 -36.221900939941406 -46.549999237060547
72.437500000000000 -36.221900939941406 -46.771400451660156
-95.312500000000000 -35.423900604248047 -46.950000762939453
74.343803405761719 -35.552898406982422 -46.950000762939453
-9.531250000000000 -35.734699249267578 -47.349998474121094
71.762802124023438 -36.221900939941406 -47.349998474121094
92.453102111816406 -36.221900939941406 -47.372501373291016
70.960700988769531 -36.221900939941406 -47.750000000000000
73.390602111816406 -35.879199981689453 -47.750000000000000
89.593803405761719 -36.221900939941406 -47.819400787353516
-96.259696960449219 -36.221900939941406 -48.150001525878906
87.687500000000000 -36.221900939941406 -48.470001220703125
91.500000000000000 -35.415401458740234 -48.150001525878906
92.453102111816406 -35.411300659179688 -48.150001525878906
70.315696716308594 -36.221900939941406 -48.549999237060547
86.734397888183594 -35.883300781250000 -48.549999237060547
91.500000000000000 -35.434101104736328 -48.549999237060547
93.406196594238281 -35.291999816894531 -48.549999237060547
-12.390600204467773 -36.221900939941406 -49.227600097656250
-11.387299537658691 -36.221900939941406 -48.950000762939453
71.484397888183594 -35.754299163818359 -48.950000762939453
84.828102111816406 -35.598999023437500 -48.950000762939453
89.593803405761719 -35.279598236083984 -48.950000762939453
69.134803771972656 -36.221900939941406 -49.349998474121094
69.578102111816406 -35.684898376464844 -49.349998474121094
76.250000000000000 -35.616100311279297 -49.349998474121094
87.687500000000000 -35.341800689697266 -49.349998474121094
93.406196594238281 -35.804901123046875 -49.349998474121094
95.312500000000000 -35.716800689697266 -49.349998474121094
-17.156200408935547 -36.221900939941406 -49.885700225830078
69.051101684570313 -36.221900939941406 -49.750000000000000
86.734397888183594 -35.527301788330078 -49.750000000000000
92.453102111816406 -35.575500488281250 -49.750000000000000
96.265602111816406 -35.369998931884766 -49.750000000000000
-19.062500000000000 -35.593200683593750 -50.150001525878906
68.522903442382813 -36.221900939941406 -50.150001525878906
74.343803405761719 -36.073799133300781 -50.150001525878906
77.203102111816406 -36.221900939941406 -50.331001281738281
83.875000000000000 -36.221900939941406 -50.503501892089844
89.593803405761719 -35.612098693847656 -50.150001525878906
92.453102111816406 -35.322200775146484 -50.150001525878906
94.359397888183594 -35.472099304199219 -50.150001525878906
95.312500000000000 -35.659801483154297 -50.150001525878906
-21.210399627685547 -36.221900939941406 -50.549999237060547
69.578102111816406 -35.924701690673828 -50.549999237060547
77.203102111816406 -35.908699035644531 -50.549999237060547
80.062500000000000 -36.056900024414063 -50.549999237060547
90.546897888183594 -35.310298919677734 -50.549999237060547
97.218803405761719 -35.461200714111328 -50.549999237060547
-22.875000000000000 -36.221900939941406 -51.108299255371094
73.390602111816406 -35.985900878906250 -50.950000762939453
75.296897888183594 -36.221900939941406 -51.116699218750000
84.828102111816406 -36.027099609375000 -50.950000762939453
87.687500000000000 -35.693298339843750 -50.950000762939453
67.671897888183594 -36.033798217773438 -51.349998474121094
75.296897888183594 -35.796001434326172 -51.349998474121094
80.062500000000000 -35.484798431396484 -51.349998474121094
68.635696411132813 -36.221900939941406 -51.750000000000000
72.437500000000000 -36.131099700927734 -51.750000000000000
74.605400085449219 -36.221900939941406 -51.750000000000000
