# This PCD file was generated using the MATLAB® pcwrite function
# from Computer Vision Toolbox®.
# .PCD v.7 - Point Cloud Data file format
VERSION .7
FIELDS x y z
SIZE 4 4 4
TYPE F F F
COUNT 1 1 1
WIDTH 1456
HEIGHT 1
VIEWPOINT 0 0 0 1 0 0 0
POINTS 1456
DATA ascii
64.723495 -50.501667 -87.828011
96.701691 -53.503513 -89.216133
103.015747 -54.928379 -88.175880
64.437050 -49.093941 -88.607254
103.406723 -52.362720 -89.812035
99.285164 -50.464539 -91.607140
104.392532 -52.593132 -91.119072
63.205891 -52.564587 -91.714012
103.769882 -51.643093 -92.837296
64.101318 -53.207172 -96.160553
99.646828 -51.727879 -93.114304
101.859009 -51.080231 -94.214027
102.384804 -50.793453 -94.133759
99.969795 -52.900673 -94.899094
63.798500 -51.392277 -96.026665
101.414772 -51.577755 -97.907562
61.946930 -52.643276 -96.194649
-70.996506 -51.900387 -97.857559
-71.970009 -53.418049 -99.445602
-100.677177 -51.631710 -99.469620
-72.230576 -54.301224 -99.931839
65.719093 -51.005138 -100.062073
65.117790 -52.526859 -100.245407
65.799911 -49.701283 -102.921616
-73.355507 -50.104061 -105.958633
-62.759243 -52.596359 -105.652542
-63.867744 -53.293011 -106.507172
-64.077545 -52.030525 -107.633392
-98.103142 -54.711716 -106.909424
-76.158966 -49.739964 -106.387810
-66.500137 -52.113232 -107.272873
-69.127335 -51.199799 -106.430672
-63.487499 -52.248756 -107.846222
-76.660347 -50.716637 -108.812698
-70.742447 -52.124607 -109.512688
-69.375526 -51.509975 -106.676247
-74.914360 -53.431965 -109.993790
-64.262329 -51.539200 -110.789742
-77.435097 -51.346439 -109.387726
-69.717110 -52.066040 -110.937386
-62.951633 -52.392292 -110.807785
-77.885422 -54.020039 -112.510353
-69.119888 -51.702881 -112.758148
-80.426086 -51.866611 -110.934410
-61.995358 -51.852364 -110.312782
-96.764221 -51.291222 -113.297249
-78.860039 -55.154495 -113.440979
-70.845810 -53.271763 -113.435066
-82.201950 -53.351246 -114.362579
-63.793404 -52.617748 -113.004501
-67.795120 -50.881660 -113.367195
-83.704987 -51.146507 -116.542557
-62.187912 -51.869877 -115.582680
-64.616280 -51.620556 -114.298187
-96.621925 -50.966545 -114.776054
-96.743858 -53.540775 -117.683678
-94.406342 -52.446377 -117.148056
-95.790176 -53.400021 -118.785828
-94.264984 -52.556610 -120.230766
-93.323547 -51.602524 -119.101463
-92.082893 -52.340893 -121.507126
-91.113708 -51.028549 -121.066162
-4.533764 -52.407570 -235.728241
-1.749278 -51.434692 -234.917587
0.770865 -52.114613 -237.153778
2.551871 -52.345638 -234.130753
4.061890 -52.609524 -236.240662
-2.651663 -52.879917 -236.285660
8.271731 -52.053356 -238.732300
13.243755 -52.535461 -235.972595
-2.912566 -50.380753 -236.769806
-1.264941 -51.195530 -237.618439
3.608781 -52.287575 -237.546082
8.267192 -51.468048 -236.053406
10.723081 -53.190914 -236.292923
12.575796 -51.340557 -237.116943
15.287861 -52.879200 -237.653717
3.700866 -51.748337 -237.902115
19.331959 -52.180370 -238.454498
3.312503 -52.567940 -237.842834
4.139880 -52.058762 -238.555435
9.564103 -51.060776 -239.921463
11.853004 -51.480423 -238.262939
3.132550 -51.210224 -238.476486
6.071524 -51.185680 -238.675690
8.666120 -50.757233 -238.093307
6.176270 -51.263447 -241.060989
7.543292 -52.765800 -238.016327
15.135029 -51.539623 -240.263931
0.666546 -50.167519 -239.273972
3.671544 -52.012608 -239.000061
20.147985 -53.798466 -238.824295
3.797850 -50.272491 -239.344849
7.470191 -52.714832 -238.407913
4.623295 -52.602669 -240.246338
3.369558 -53.071625 -239.133545
21.471191 -53.567612 -239.817001
11.949203 -53.080597 -240.069641
-0.443357 -52.937412 -240.733582
1.188051 -52.004620 -240.353531
12.644238 -51.355503 -241.213165
16.409689 -53.310089 -241.017685
22.113813 -50.788521 -242.580658
16.835997 -51.510975 -240.224426
17.608335 -51.300602 -241.640762
-12.520897 -52.555870 -241.064835
-11.467804 -51.449711 -241.321640
-8.026539 -53.672287 -241.974060
-3.602939 -52.577656 -242.197220
8.096245 -53.335068 -240.779373
-15.142493 -50.968525 -241.353271
16.418840 -51.618645 -242.319305
-5.080055 -53.201302 -241.764359
0.336113 -50.908554 -242.273346
4.510468 -53.159992 -242.309662
19.253746 -53.531578 -242.486786
22.808575 -53.279007 -242.413681
-11.072544 -52.567112 -244.712601
-8.678154 -52.832638 -242.597977
0.247823 -51.215477 -242.527832
11.147285 -51.487297 -242.872086
21.693779 -52.573792 -242.240479
8.182791 -52.282761 -243.781799
19.772413 -52.137581 -243.094284
-11.322077 -50.988403 -243.036591
5.375659 -52.081005 -244.250504
16.492506 -49.184135 -244.125580
18.122318 -51.046501 -244.806503
17.663858 -51.631119 -243.483124
23.743420 -52.892536 -243.753693
18.105955 -52.587280 -244.819031
21.915503 -51.698048 -243.049225
24.335592 -50.060925 -243.899765
25.393803 -50.963276 -245.615479
13.557297 -50.675053 -244.243103
23.007940 -52.175217 -243.807434
21.835371 -51.580406 -244.386841
25.457104 -52.590569 -246.698227
24.399164 -51.349220 -245.662186
20.391743 -49.654408 -245.281586
-9.568747 -51.781036 -246.138962
22.186924 -51.663219 -246.823303
26.902000 -51.596210 -245.253220
-13.354858 -53.544922 -245.443909
-11.975245 -52.758251 -246.296768
14.008900 -53.916470 -245.904297
27.339401 -51.010830 -248.600815
-13.082150 -51.951950 -249.856720
24.517519 -55.484909 -249.498230
-11.326476 -51.892708 -247.991409
15.620150 -51.804218 -248.446045
12.604207 -51.904175 -249.138870
29.838760 -51.403069 -247.790939
14.722175 -52.098953 -251.140656
25.198444 -52.703987 -248.091614
-13.163952 -50.947559 -250.988907
27.649576 -50.787434 -248.305359
29.041231 -52.035843 -249.037491
-12.672183 -51.512501 -249.586487
-11.803936 -50.303051 -251.674896
-11.831633 -52.744179 -250.897202
-12.527631 -51.084736 -250.674637
-10.247596 -49.623024 -250.879562
25.863293 -53.426498 -251.984589
31.902388 -52.581657 -250.713959
-13.538335 -51.855057 -250.312561
-13.049227 -51.471916 -252.609009
-13.012697 -50.272961 -251.636566
26.773125 -52.961212 -252.590424
27.917944 -52.990475 -251.111206
-13.531549 -51.929100 -251.859207
-13.299602 -51.895054 -251.534927
7.114546 -50.885605 -251.601791
31.702324 -51.452274 -252.884430
-13.544323 -51.327190 -252.098236
-14.453082 -51.407658 -252.354309
-12.707869 -51.648735 -252.392853
-12.749819 -49.499290 -252.953430
-12.858904 -50.616341 -251.416901
-12.597868 -50.730656 -253.378494
-12.252666 -50.516903 -253.152298
-11.637098 -51.392792 -253.112381
7.676971 -51.809162 -253.996414
10.125457 -49.727470 -253.602402
25.519880 -52.695351 -254.632553
29.314661 -51.209629 -253.733902
15.292276 -52.323505 -254.167969
-11.742570 -52.432693 -252.601440
-14.345454 -51.180779 -252.745880
8.740109 -49.879799 -256.577972
-15.106264 -51.417610 -256.194061
-9.077969 -50.618427 -252.428864
9.421012 -51.152390 -254.549500
11.747427 -51.340187 -253.230423
-13.267897 -51.131966 -256.646729
16.480145 -51.427750 -256.862732
-13.813191 -51.563095 -255.335007
16.138426 -50.683632 -255.146286
26.113388 -51.199806 -256.251465
28.651423 -51.641468 -252.175629
7.236411 -50.735809 -257.106567
10.767134 -50.669544 -254.857239
14.706044 -51.197517 -255.113037
17.178270 -51.796944 -256.331512
24.824484 -52.506943 -257.025055
29.920334 -52.810020 -258.075867
-9.840080 -50.566811 -256.919800
26.481606 -53.212532 -256.113373
11.476972 -50.438030 -257.042633
16.020607 -51.181000 -259.046478
-14.488743 -51.237556 -255.230103
-9.511443 -51.298290 -256.571075
27.165859 -51.852989 -258.135010
-10.860985 -51.002701 -257.551300
-9.447446 -52.570274 -257.976593
6.628795 -52.423550 -260.062073
18.180763 -51.150513 -258.047333
27.284307 -51.567635 -256.623108
29.444284 -52.820103 -257.752319
25.786810 -51.052097 -259.466400
13.667776 -50.918758 -258.758484
17.203526 -50.071339 -257.764069
23.531013 -52.128494 -258.962402
30.192310 -52.681736 -257.287292
-8.438827 -50.285812 -258.760468
-12.889424 -53.184017 -258.323822
4.767318 -51.236637 -258.963776
6.945786 -52.258453 -259.275787
27.033627 -52.372768 -257.853546
28.948017 -50.048634 -260.296143
-10.992061 -52.415775 -260.649506
6.358107 -51.809769 -261.127899
9.682296 -51.897812 -261.430237
16.414940 -52.010250 -259.254333
14.670124 -52.600777 -259.967529
1.214889 -50.622787 -261.300171
13.289144 -50.867496 -262.661469
28.401789 -51.711906 -260.444000
-12.385794 -50.518909 -260.643951
-7.189160 -53.583988 -260.586609
-5.387096 -50.899307 -261.484131
7.459219 -51.084610 -260.594666
-9.540766 -52.599018 -261.177948
11.243931 -50.896931 -261.371613
14.952498 -51.944233 -261.103455
16.780817 -50.945728 -261.469879
-12.250565 -52.649837 -263.323151
7.733740 -50.418251 -261.975494
24.736443 -50.772057 -259.833191
9.991457 -49.587170 -261.937988
17.318388 -51.442074 -262.856079
26.559168 -52.249813 -263.046600
29.813486 -50.721657 -261.226471
-11.688844 -53.080345 -262.698090
-3.793745 -52.192104 -264.022064
4.700077 -49.535728 -263.471497
16.351044 -51.547668 -262.996521
5.632465 -52.235245 -262.734192
-5.470848 -51.681541 -263.290710
-2.515324 -50.157955 -262.982056
2.455832 -51.553879 -263.893280
11.831093 -50.962555 -262.961212
12.320271 -52.309185 -262.272675
25.148907 -52.589958 -261.544495
-9.295815 -51.853977 -263.949127
-0.394562 -51.758717 -263.466187
4.860917 -51.418823 -264.813538
15.660797 -50.404831 -265.854156
16.787151 -50.601627 -263.258209
29.954878 -51.145695 -264.612640
-9.909071 -51.429314 -263.360443
0.223779 -51.473640 -263.462036
26.211098 -52.677227 -265.405945
27.230350 -49.917652 -264.726135
-11.055629 -53.014904 -264.541809
-6.034147 -51.682182 -264.316406
-0.959772 -50.016647 -263.595032
5.067574 -50.548656 -264.057892
10.365604 -51.271442 -264.429688
11.742209 -51.141171 -262.701843
26.460756 -52.153786 -264.415955
-5.531209 -52.067169 -265.742157
1.166178 -51.278847 -264.234924
8.693735 -52.270164 -265.172363
-8.751822 -51.568733 -265.834778
28.400074 -51.365589 -264.143188
-0.145477 -50.273537 -265.593201
6.544398 -49.545914 -267.042175
11.397180 -49.539223 -264.992615
-2.464678 -50.939053 -265.449432
7.167126 -51.174366 -266.095886
-2.008240 -50.826828 -266.842804
7.487978 -50.433304 -269.022736
2.390958 -52.936050 -268.346130
2.159742 -50.957863 -266.892212
25.170111 -53.325462 -266.205994
27.581045 -50.717220 -265.694275
-8.819161 -51.670883 -266.238495
7.094302 -51.099171 -267.138336
27.632114 -51.856266 -266.538422
13.649028 -50.920238 -267.512268
16.765463 -51.702946 -264.045441
17.514814 -52.549271 -268.922058
-2.798475 -51.740067 -270.893555
16.898319 -51.607811 -268.963379
29.268835 -52.368542 -267.057800
-5.133987 -52.494686 -268.580414
15.957127 -51.557587 -269.299896
29.722261 -52.977615 -267.872894
1.852725 -52.450989 -266.302704
3.402313 -48.915707 -267.023468
7.806056 -49.709034 -268.434967
-9.436212 -52.441624 -269.301971
0.775649 -51.247585 -270.515656
5.769643 -51.371830 -270.418579
26.841934 -51.290943 -268.899231
28.986753 -52.828587 -269.415131
11.523849 -52.288433 -267.679718
-7.914783 -50.291374 -269.885468
-3.691765 -52.971283 -270.704712
-1.483786 -51.209354 -269.822540
7.510766 -52.464527 -269.152985
10.045692 -51.787834 -270.754150
15.562684 -52.462746 -271.385773
-2.761095 -51.436527 -272.007599
-2.400878 -51.291985 -271.430267
25.326447 -52.464016 -269.942535
2.864922 -50.987541 -270.994385
7.094570 -50.457371 -271.731659
14.567964 -51.845375 -271.116241
27.354740 -52.445549 -271.918274
27.940975 -51.155209 -270.477051
-8.957909 -51.434845 -271.250702
-7.787806 -50.893192 -271.622040
-0.557667 -52.243519 -272.669281
4.057438 -50.320992 -272.160187
7.957972 -51.692142 -272.824341
16.762838 -53.452240 -270.931732
27.711506 -51.483131 -269.570313
-0.434648 -52.292816 -271.842834
10.948473 -51.620262 -272.240906
15.627922 -51.333534 -271.653656
1.699665 -52.056225 -271.771698
9.081409 -51.039997 -273.038788
27.184807 -52.974800 -272.451782
0.785684 -51.081078 -272.560486
7.967516 -51.260967 -273.754456
26.202633 -52.023670 -272.973236
-0.956961 -53.438286 -275.792816
-1.370429 -51.479465 -273.055054
9.031890 -52.434734 -272.488068
12.720321 -51.719147 -273.296295
26.950495 -50.756718 -272.646088
3.010095 -51.888073 -274.242767
23.730938 -53.240303 -274.170807
26.619196 -51.435638 -274.722778
0.748131 -51.328159 -275.112946
6.916830 -51.055229 -272.894958
15.900857 -50.708229 -273.530975
22.591686 -51.906837 -273.123352
26.782198 -51.103222 -274.273315
28.415550 -51.032516 -274.100983
24.845615 -51.480694 -274.921570
10.138265 -50.220005 -275.183838
20.730949 -49.754730 -273.571411
23.793062 -52.155296 -273.292725
27.294882 -52.193314 -275.412231
-5.951222 -51.779236 -274.902008
15.867987 -51.278416 -274.333466
19.283508 -50.868484 -275.781555
1.352031 -52.293358 -276.208588
25.983244 -51.634060 -276.351349
5.417939 -50.603935 -273.691528
9.578650 -51.490967 -275.545013
18.611900 -52.233566 -277.912384
15.155437 -50.635563 -277.299622
13.626907 -51.857887 -278.091003
12.961708 -52.361668 -278.071472
16.073738 -51.389397 -276.484436
18.734365 -51.275642 -276.333069
23.544239 -53.087826 -274.694763
7.159032 -53.385159 -276.404907
27.034300 -52.498775 -278.143005
27.194721 -49.941555 -277.722137
-4.000272 -51.055599 -276.494537
3.261244 -53.212543 -276.356781
13.465869 -51.403664 -277.347626
-3.241656 -51.265938 -274.377960
6.726122 -49.956432 -277.466888
15.798008 -52.096729 -276.121979
17.264463 -51.662346 -278.871124
25.905830 -51.270523 -276.313141
23.325424 -49.702366 -278.823639
-0.984914 -51.146290 -281.163086
10.794014 -52.550251 -278.770508
11.301903 -51.677795 -278.958435
14.915796 -52.812424 -278.643341
7.280376 -51.173332 -278.915527
12.090276 -52.632915 -280.485382
16.042404 -51.399799 -279.891052
19.366066 -52.177662 -280.340759
-4.054775 -51.359486 -276.985046
8.317361 -52.231850 -280.066711
23.528351 -51.021599 -280.759369
25.510353 -50.955029 -279.606628
7.064746 -52.039295 -279.189423
13.946380 -52.289272 -280.421936
14.681952 -50.585999 -281.328033
22.295376 -52.413113 -280.393860
-3.132782 -52.429790 -282.868011
21.698900 -53.029636 -281.618469
25.883974 -53.472000 -279.652435
10.880190 -52.462242 -280.316284
16.740522 -51.881393 -281.128326
19.007927 -50.530716 -281.295380
26.025566 -52.317398 -282.332611
10.961727 -51.445061 -280.233490
10.348178 -53.966461 -282.567535
12.580873 -53.132305 -281.710907
15.629591 -51.328026 -282.484222
-2.299011 -51.367168 -282.093597
-1.242815 -51.136311 -281.950043
3.126406 -51.128525 -281.173096
19.093678 -51.003750 -283.033020
24.647295 -51.699863 -284.725922
0.379440 -51.501022 -282.944855
20.558493 -53.602833 -283.878845
22.188137 -51.753391 -285.006805
17.926157 -52.417660 -284.686218
-1.071848 -51.700695 -284.295807
0.499017 -51.159145 -284.002472
22.912157 -52.706490 -284.029205
2.547385 -51.037571 -282.282104
5.358321 -50.901840 -286.523010
23.274893 -51.145947 -283.945679
-2.102082 -50.397041 -286.109192
4.684779 -50.049450 -286.086243
16.635370 -52.542927 -287.278931
19.059750 -51.426334 -288.313354
2.974527 -52.142921 -286.414795
6.125549 -51.183521 -287.146576
12.714451 -51.225681 -286.997620
15.647240 -49.631077 -287.132751
21.583580 -50.579311 -286.299133
15.853456 -52.714622 -287.864075
20.367424 -51.705265 -286.699829
0.545015 -51.193871 -288.917419
4.519707 -50.751740 -288.269501
10.949691 -51.707645 -287.321655
13.245378 -50.110374 -288.443146
2.008698 -51.275726 -288.932617
8.871981 -51.709763 -288.870117
15.131968 -50.704754 -287.400024
19.743422 -51.637630 -288.211639
18.416620 -51.232445 -288.455109
11.927058 -51.282104 -292.349823
12.468077 -52.647549 -289.469849
18.585775 -50.887383 -289.639191
2.009736 -52.608231 -289.130859
12.975142 -52.946419 -289.116302
3.802534 -52.098019 -289.882233
16.458595 -52.552490 -290.153503
6.945564 -51.119457 -290.951965
12.068504 -54.663166 -292.942047
6.767720 -52.089451 -291.768097
7.647928 -51.425137 -292.085663
17.767185 -50.877239 -289.569427
15.055134 -52.123409 -292.130127
13.666138 -52.482010 -292.256683
9.160346 -52.763580 -295.226532
3.165633 -51.116467 -294.130768
4.564763 -51.648071 -293.076996
7.170845 -52.477345 -294.669647
11.128817 -52.145779 -293.741119
2.190454 -51.776241 -295.597687
5.244398 -52.223209 -295.661743
12.075054 -49.125565 -294.704956
3.085988 -49.993759 -295.775513
4.810853 -52.020866 -296.411621
8.013805 -51.623535 -295.169891
35.042408 -50.116070 -12.163363
35.494740 -49.759514 -12.628638
33.248047 -51.750500 -13.392053
34.681873 -49.023090 -12.613372
35.974907 -50.122978 -13.485790
39.143063 -51.505402 -13.772064
30.895853 -49.616432 -14.063844
32.591911 -49.509659 -13.804030
35.393124 -50.395451 -13.689403
41.433746 -50.368999 -12.839629
41.764042 -51.194759 -15.385654
36.047829 -50.542404 -15.680357
37.569016 -50.242981 -15.013417
44.518955 -49.938580 -15.100762
25.345041 -52.329231 -14.029505
29.269821 -49.717617 -13.389683
41.464893 -48.829746 -14.768209
26.711979 -50.550598 -15.849010
31.270123 -51.593018 -16.128782
33.911118 -51.174698 -16.472153
34.306221 -50.170372 -16.783312
36.638912 -49.866299 -15.218510
44.478058 -51.348900 -15.631912
29.292339 -50.764107 -14.897213
42.972237 -50.392258 -15.301867
42.845772 -50.741661 -14.894267
28.902653 -50.494930 -17.329374
31.923880 -51.681046 -16.766171
38.034531 -52.794781 -18.122726
37.927876 -50.173519 -16.048351
43.664585 -51.189327 -16.331280
28.565893 -52.102615 -17.715611
32.166298 -51.219250 -16.306824
38.951057 -52.010643 -18.136475
43.167992 -52.224953 -18.754040
46.833492 -49.869125 -17.415493
23.813599 -51.117043 -17.061462
28.451160 -50.085423 -18.905581
27.581480 -51.133133 -17.711473
40.517460 -50.149509 -18.213396
41.081894 -51.354404 -17.749134
45.153946 -52.346222 -18.414869
46.168095 -50.711678 -18.302233
40.268532 -51.834961 -18.684050
41.817303 -49.868401 -17.728153
44.534496 -48.586544 -19.397337
45.701370 -49.152042 -18.634163
27.366726 -50.566868 -18.555317
43.074253 -50.188721 -20.155746
46.982994 -49.858131 -19.167488
42.887840 -50.485851 -18.521387
24.817430 -51.250484 -19.619114
47.925259 -51.477890 -20.920095
41.970352 -51.039581 -21.907112
43.751144 -50.539188 -20.502794
44.689739 -50.848480 -21.210102
24.887653 -50.731960 -22.160534
44.458000 -50.638088 -21.864862
49.005932 -50.927795 -21.319836
46.415974 -50.486618 -21.652603
24.990896 -51.601280 -23.540955
50.521816 -49.867672 -23.023537
47.144791 -49.885563 -22.677416
45.489063 -50.286900 -24.348021
47.514812 -50.287609 -22.723583
49.825317 -49.614628 -24.933023
43.333263 -51.163727 -24.432259
43.836182 -51.498257 -26.951689
47.896637 -48.932991 -25.782110
49.751286 -51.128811 -28.683514
47.270809 -50.505962 -25.113804
45.931149 -49.646782 -26.640017
49.553543 -50.386181 -25.787699
44.280445 -51.518620 -28.422491
44.994446 -50.742214 -30.166361
48.623581 -50.513203 -30.715317
48.787598 -50.162930 -29.677523
43.841248 -52.782761 -30.494179
49.079514 -52.033401 -30.221920
43.598717 -51.730721 -33.215458
44.829987 -51.684357 -32.291744
47.796375 -50.406212 -31.172163
45.064526 -48.574356 -32.411739
46.277828 -49.733864 -31.975992
47.254787 -51.326508 -33.903320
42.726921 -50.542362 -33.853546
46.445667 -50.146851 -35.602264
48.672745 -52.739552 -33.895802
47.528847 -49.945507 -33.922699
43.080086 -51.850941 -35.274017
25.920511 -52.219513 -34.695965
40.919926 -51.883549 -34.054714
44.668034 -49.685951 -37.577000
39.010735 -50.258217 -35.977043
40.746178 -50.104141 -36.880936
29.177750 -49.701611 -35.021931
38.471516 -49.672340 -37.217491
47.590046 -52.262726 -34.551926
24.305946 -51.265141 -37.572647
28.513081 -50.911156 -38.586102
30.100697 -51.315075 -36.715733
35.980373 -51.643314 -37.184753
43.170151 -49.406437 -36.581219
46.176384 -48.910328 -37.861397
37.771816 -50.848759 -38.658520
43.631573 -49.195621 -35.682877
26.978991 -51.229824 -37.993191
29.948683 -52.881145 -38.217194
31.754204 -51.121635 -37.470085
45.070316 -52.295162 -38.439072
29.503267 -50.686302 -38.377449
31.461912 -51.025055 -40.156666
36.208324 -51.765785 -39.450855
41.394279 -49.716389 -37.846138
39.412235 -51.437737 -39.915230
28.472546 -52.049217 -39.922615
30.798471 -52.329136 -39.921764
32.269928 -50.105213 -38.489956
42.742409 -50.540348 -41.115677
31.039087 -52.663612 -40.343941
36.368431 -49.301849 -39.215561
40.449612 -49.222092 -37.561195
35.146721 -52.183937 -39.785866
36.581009 -50.705029 -40.652912
35.657711 -50.832951 -40.363609
-66.718079 -51.610054 -43.115269
-62.684116 -52.205441 -44.302517
-79.586815 -51.881306 -43.861053
-57.286835 -49.558144 -44.971268
-48.844868 -51.630253 -47.629776
-86.600739 -50.438858 -48.007038
-89.779625 -51.578960 -48.410160
-90.697540 -52.440502 -49.721973
-39.421463 -49.117672 -49.640839
-36.531021 -52.585804 -49.186749
-34.670033 -52.339680 -49.756943
-20.892349 -52.771004 -50.144520
-14.342771 -51.243088 -52.787788
-93.281448 -51.642719 -53.591797
-11.078620 -49.851204 -54.225372
-7.950679 -53.984398 -53.454689
-94.894867 -50.560246 -53.765156
-61.969288 -49.799629 -55.549202
-63.726109 -51.174992 -56.770939
-8.429929 -51.373600 -54.989346
-95.595062 -50.629761 -55.111279
-63.662121 -52.001148 -56.522751
-58.953922 -50.902103 -55.084606
-8.819263 -52.291553 -56.651947
-95.206032 -52.258232 -56.858456
-8.801271 -51.412460 -58.112099
-63.823467 -51.486290 -57.734718
-58.402996 -51.274452 -58.206871
76.206009 -49.566902 -57.032780
88.992462 -50.943272 -57.754265
90.780106 -51.909653 -57.813095
74.025223 -51.086708 -58.795845
90.404739 -52.224415 -58.549355
-14.743631 -53.669952 -60.263302
-9.728749 -52.051163 -59.389984
86.087334 -51.463387 -58.689358
-63.634300 -51.754436 -59.683544
-17.082100 -48.869457 -59.593964
-61.133553 -51.407993 -58.512230
93.468849 -54.279987 -60.661884
-23.250639 -51.444576 -61.167919
-96.904823 -50.763817 -58.374428
67.380379 -52.573414 -58.891537
96.262733 -50.203716 -62.396343
-64.127998 -51.148060 -60.555969
-30.202127 -52.759197 -63.514816
98.584381 -51.575924 -62.672413
-60.291550 -48.904278 -61.119736
69.395050 -52.140846 -62.037796
-60.239498 -51.435104 -62.852016
65.929008 -51.363426 -62.570942
98.175468 -53.209068 -63.139164
66.686089 -50.098354 -63.962048
99.008286 -50.477489 -63.905388
-34.282417 -50.366806 -66.518524
66.521225 -48.302380 -65.493912
-64.247063 -51.504673 -66.637718
66.274353 -50.362732 -64.414917
70.058075 -50.609409 -65.539452
-100.361885 -50.989052 -68.692093
66.160988 -50.088791 -68.546501
65.621880 -50.853512 -68.085457
66.804420 -50.838020 -66.633614
100.381508 -50.201286 -68.062759
69.562508 -50.366093 -70.740639
79.153313 -49.774982 -68.037254
102.117920 -51.344547 -70.216003
-37.983093 -52.163624 -68.619423
66.735291 -50.268085 -70.531853
67.316475 -49.741421 -69.037460
72.598335 -50.068787 -68.633713
78.157547 -50.766079 -69.714447
81.511093 -51.170166 -68.960976
75.404716 -50.246979 -68.690445
84.458763 -49.818974 -69.396126
68.340546 -51.551731 -70.004944
72.975891 -51.370117 -69.767494
79.911194 -51.555195 -70.127525
62.818668 -49.665089 -71.180138
80.404594 -50.986732 -70.838242
103.495186 -51.998486 -69.298973
66.554108 -51.522255 -68.754715
81.979057 -49.884758 -70.619598
86.318054 -50.369728 -71.806396
82.733849 -51.118687 -71.464653
86.479790 -49.398842 -70.195305
86.807861 -50.613220 -71.485329
90.073112 -51.851677 -74.932854
61.631176 -49.425552 -74.206123
64.211899 -51.243050 -72.838226
65.074287 -51.193798 -70.723015
102.933563 -51.954517 -72.925194
91.692741 -50.467754 -72.881294
102.889763 -50.227528 -75.653168
64.433983 -50.956352 -73.440544
98.983047 -50.193619 -73.687683
-101.000710 -52.433693 -74.874481
94.033257 -50.199558 -74.864067
101.251289 -50.986481 -77.670921
93.678329 -50.604073 -74.803993
99.579834 -50.580879 -74.666649
-38.636642 -51.249859 -75.031906
64.718513 -50.948578 -74.984772
102.487595 -50.132458 -76.900436
-37.535538 -54.918095 -76.700188
99.110535 -51.242573 -76.798218
-39.680851 -51.759033 -77.497322
62.133018 -52.364906 -80.088081
102.769073 -51.969707 -78.197464
62.782333 -52.026356 -75.730896
64.186508 -52.265549 -77.064651
100.299751 -50.195896 -77.117249
-41.231133 -51.756702 -79.556396
-100.559883 -50.024628 -80.508026
64.537796 -50.875843 -78.211189
61.676971 -50.321011 -83.542419
-53.370987 -51.694996 -83.541214
-56.107533 -49.775673 -85.273735
64.234444 -50.865391 -82.586311
102.593689 -51.293503 -84.273582
61.301334 -50.671341 -83.713364
100.652870 -51.117188 -87.193962
-57.337002 -50.512100 -86.365349
101.072670 -50.742355 -89.325546
103.742630 -50.616909 -84.688225
101.051552 -49.864372 -87.936249
101.071449 -49.643894 -89.085312
-101.096397 -52.181370 -89.371216
101.266113 -50.216698 -88.716576
101.349594 -51.796959 -89.660767
97.811157 -52.210857 -88.525230
102.592606 -49.362564 -91.006111
-65.566772 -53.060608 -90.446671
-63.224388 -49.859119 -90.237762
63.085060 -50.698193 -89.010544
101.027908 -50.478600 -90.148376
63.309532 -51.572315 -90.938217
100.085007 -50.956783 -93.915337
104.644478 -52.049164 -91.839539
100.759857 -51.331875 -92.848785
63.294880 -51.032097 -90.947433
-68.346802 -54.262638 -93.338654
-66.782700 -50.783356 -94.028404
62.757957 -51.138062 -97.237732
64.539978 -51.255569 -94.044411
-100.087578 -50.493011 -95.413689
-69.848946 -53.540504 -98.113358
67.584862 -51.837257 -96.516670
-70.311134 -53.409824 -99.476295
-71.034065 -56.709660 -98.547897
64.116371 -52.157394 -98.205116
64.125000 -50.233871 -98.602692
62.299492 -52.196262 -100.522324
66.588760 -52.459785 -100.971855
66.306442 -51.563263 -100.537178
66.981224 -52.123245 -103.677185
68.440475 -49.603008 -103.796715
-98.354195 -52.159916 -104.378586
69.378662 -51.400501 -104.348969
67.403137 -51.713829 -104.148209
67.832405 -50.835205 -104.910416
-98.671410 -51.642406 -105.668777
-77.609192 -51.427189 -106.837265
67.240639 -49.773113 -104.715965
67.091942 -51.820141 -105.178978
70.287819 -51.125538 -107.850578
67.352150 -51.029186 -106.566521
69.989853 -52.980152 -106.116035
-99.144440 -52.705482 -106.348335
-75.292343 -51.878120 -107.295937
73.025024 -50.393162 -106.220749
-64.916626 -50.718395 -107.043320
67.626144 -49.951088 -106.984917
70.093544 -51.656441 -106.109886
-65.682785 -51.605980 -107.737091
70.266502 -49.344456 -106.833618
73.480400 -49.685551 -107.187859
74.209290 -52.182545 -108.601814
74.994606 -49.353825 -107.491280
-99.376488 -49.625366 -107.436417
-78.734230 -52.249222 -108.187958
-66.198303 -48.340500 -109.464676
70.532333 -49.689438 -110.221909
-77.321777 -49.869133 -109.026176
-70.250748 -50.919540 -111.134399
-67.181969 -50.748867 -111.477303
-80.685532 -54.088066 -112.543114
-84.409363 -50.043022 -115.800842
-95.351906 -50.797138 -116.507416
-83.513641 -51.414284 -115.070137
-84.798279 -51.977356 -118.435074
-95.975449 -52.611465 -118.592880
-87.454010 -50.924923 -118.820671
-95.531250 -50.482365 -119.973961
-88.762474 -51.605652 -119.277939
-91.449463 -52.690605 -118.203041
8.889503 -51.005474 -236.084030
7.346011 -51.234760 -235.823807
2.449090 -50.576229 -234.994476
6.440499 -50.558739 -236.015533
10.683086 -50.928699 -236.508789
13.702575 -50.588631 -236.409027
5.834747 -50.950150 -236.438370
6.807835 -49.700508 -235.522736
9.721738 -51.578156 -237.065140
1.378209 -50.964954 -238.090134
8.881328 -51.058510 -238.346680
13.422216 -49.846542 -237.102615
16.848387 -51.453266 -237.398926
3.813484 -49.585434 -238.222412
8.086782 -50.280487 -238.106674
6.192475 -48.941689 -238.797287
7.074683 -49.912891 -237.101944
21.642061 -49.652634 -238.134552
15.156453 -49.809982 -237.743301
19.321507 -51.826523 -240.279129
22.699408 -50.045063 -239.392105
14.911365 -51.112534 -240.289230
11.742800 -52.503353 -242.426102
13.746129 -51.808067 -239.875763
-2.293951 -51.431541 -241.256439
-2.710257 -50.334259 -241.929596
14.156538 -50.744007 -241.447495
15.606141 -48.430523 -241.085022
15.438199 -51.517685 -239.599396
22.334682 -49.485424 -242.611252
-8.254543 -52.174114 -242.383743
-6.419991 -50.096199 -242.031616
2.963523 -48.984470 -241.015900
9.604309 -50.333614 -241.378632
12.033656 -50.843941 -241.738815
17.652882 -49.320160 -240.646484
24.823923 -49.633968 -241.882568
-11.781460 -51.766804 -241.659042
-2.229667 -52.303490 -240.775543
-0.062846 -49.384933 -241.836319
13.077561 -49.001942 -242.260941
16.045012 -52.471695 -241.871857
17.607063 -49.979656 -242.709930
17.023151 -50.024994 -244.060898
-11.380830 -50.020691 -241.626617
-5.703063 -50.193878 -243.018311
-2.474173 -49.832657 -242.383621
5.863034 -52.501171 -242.451569
12.073470 -50.373665 -242.796829
13.674119 -50.416599 -241.344055
-7.129414 -51.541073 -241.306610
-5.296015 -51.047405 -244.498642
16.426752 -51.243149 -242.855530
15.818622 -50.361210 -244.067535
17.102104 -49.228882 -241.867447
19.993496 -49.856590 -243.348236
-9.767797 -51.992012 -244.468826
1.569720 -52.790951 -242.634247
4.973593 -50.167233 -244.060898
9.192641 -52.713306 -242.162979
15.644133 -51.111553 -243.472656
17.354439 -50.386036 -241.453796
-12.940427 -50.285728 -243.162476
-5.950636 -50.090549 -242.722916
-0.410776 -50.262814 -241.994446
3.681982 -50.537308 -242.949127
6.858536 -52.809807 -244.512497
12.100681 -49.924381 -242.390854
15.098065 -50.384602 -244.256516
21.067194 -51.004505 -242.913300
22.884388 -49.985626 -241.346115
4.713542 -52.669716 -244.288254
4.893021 -50.801670 -242.727142
17.617153 -50.706020 -244.972855
15.700330 -51.032890 -244.300537
15.939313 -50.096939 -243.625977
17.788404 -49.984558 -243.287552
-9.641230 -51.369595 -244.519653
10.141663 -52.224693 -242.222443
13.379804 -50.079590 -246.957367
15.319650 -51.127411 -243.332184
18.500696 -50.796143 -245.518463
14.906996 -51.354679 -245.582718
19.401545 -50.903141 -244.810410
22.886150 -49.742218 -242.999710
24.620920 -50.127949 -243.144073
-10.099707 -49.935581 -244.157349
6.030183 -50.163715 -243.996689
8.616958 -50.012615 -242.741180
20.658806 -50.176929 -245.648193
26.265371 -51.920139 -244.744797
-12.873603 -51.158691 -244.441223
-11.330932 -48.137543 -244.881622
4.546544 -49.225174 -246.451599
16.613918 -50.427929 -244.298050
-12.746367 -50.550915 -247.144699
-0.870149 -50.363266 -247.203140
9.101287 -51.023911 -247.127197
23.846369 -50.750500 -246.409622
26.241228 -50.157211 -245.148666
27.473583 -52.025333 -244.970428
4.591047 -52.005104 -245.085175
11.214838 -49.773872 -246.888565
19.050631 -50.762524 -246.641663
28.338537 -51.231701 -247.150253
-11.221898 -51.071823 -246.762451
-10.854191 -51.109669 -246.450760
13.919501 -51.881973 -245.093903
24.402193 -51.065128 -246.072174
26.907028 -50.204082 -246.779221
-11.195603 -52.932125 -245.940323
-12.949822 -50.106449 -245.716263
0.906997 -49.383537 -246.829254
7.346244 -49.744686 -245.468781
12.862476 -50.626175 -247.031235
14.875647 -51.525009 -248.792740
13.037190 -49.658318 -246.301147
-9.529444 -49.986599 -247.781296
-6.129091 -49.685097 -248.057999
10.881781 -50.905361 -248.005600
14.543863 -51.399860 -247.957214
21.807686 -51.251511 -246.469604
29.413568 -50.273746 -245.698486
-0.540779 -49.078827 -248.711853
12.484519 -50.548691 -250.033188
21.326530 -49.912457 -247.504410
21.181349 -51.683590 -251.213150
28.780649 -51.513115 -247.753677
29.799805 -51.099644 -248.445450
-13.097345 -49.816341 -248.650848
-9.979241 -50.946331 -248.387146
8.703607 -50.179672 -248.731369
27.209129 -51.812195 -247.107193
22.255390 -51.393295 -248.548813
29.815063 -51.652298 -248.301346
-12.604424 -49.033257 -248.386414
-10.340981 -50.281326 -248.473953
-3.232962 -50.349804 -247.842422
4.674284 -49.092552 -247.105576
6.903432 -50.268162 -249.207977
29.582817 -51.642509 -248.430206
-9.774917 -50.812450 -248.773102
-11.768024 -49.911030 -249.526566
-10.182513 -52.003208 -249.651947
-2.489136 -50.740120 -251.433487
9.048565 -50.905811 -249.857483
30.362181 -52.132778 -249.072952
-11.089694 -51.236832 -249.133133
-12.934146 -49.847523 -250.228195
-10.854307 -51.319176 -250.654129
-6.063821 -51.225876 -249.655334
-0.150195 -50.696827 -248.375443
3.983626 -51.573799 -250.758316
10.576441 -50.826645 -250.480103
21.448812 -51.087349 -249.008041
-13.371454 -49.954426 -249.598953
8.404023 -50.563019 -250.500168
13.541629 -50.265457 -250.190491
14.550467 -50.108650 -249.096115
31.078934 -50.894535 -249.987656
1.415645 -50.668137 -248.997803
5.786416 -52.778515 -251.851913
12.005189 -49.989719 -249.934586
-6.003051 -51.986324 -250.424789
-11.975583 -52.003925 -251.656998
-8.985810 -51.133396 -251.295929
-1.270816 -50.989285 -250.460541
4.094526 -50.606949 -252.564209
9.050251 -50.623852 -250.956467
10.003123 -51.600872 -251.625717
10.086265 -51.632458 -252.023987
14.994462 -50.806408 -250.163284
14.803077 -50.120960 -251.992722
23.375540 -49.557705 -250.266144
29.176468 -51.079807 -249.111664
-12.074114 -49.206528 -250.170303
-10.038443 -50.614773 -251.156204
2.561975 -50.857792 -252.323593
13.597075 -52.321247 -252.129257
27.188908 -51.470985 -251.492691
31.606140 -51.739922 -249.969055
-9.107195 -49.785511 -253.052521
-7.948749 -51.196777 -250.793701
-4.890618 -51.259510 -252.068787
32.443829 -51.447437 -252.580765
-14.187253 -52.460003 -253.373535
-4.921317 -50.590916 -252.625183
-0.572528 -51.012955 -253.476105
7.415773 -52.176369 -252.923080
14.927618 -51.589497 -253.045868
16.227177 -50.737144 -251.560028
25.246168 -51.061222 -253.109009
28.877235 -52.060009 -254.091766
-13.190766 -49.813080 -251.983673
-11.082378 -50.503181 -254.137543
4.012655 -51.971767 -252.875061
16.844189 -50.125031 -251.752457
-4.495572 -51.340446 -251.888870
4.453914 -51.323757 -254.478607
16.864985 -51.806686 -254.964081
-7.777173 -50.766331 -252.299149
-5.304512 -50.040920 -255.953064
30.702162 -51.140793 -253.596664
-1.137232 -50.962563 -253.402710
1.988401 -51.685581 -255.549362
5.362568 -51.484554 -255.667603
29.066422 -50.210835 -255.653107
2.648132 -50.283779 -255.043961
26.177187 -52.194633 -253.672852
25.807840 -51.542217 -254.678085
30.367346 -50.932087 -254.671066
-9.747121 -50.494591 -254.701004
-8.098642 -51.441628 -254.552917
4.219832 -50.250225 -256.895081
2.245693 -48.617622 -256.963715
-6.047647 -50.459148 -256.993347
-2.869692 -48.232491 -255.835892
7.986490 -50.479599 -256.980347
30.972017 -49.876839 -257.892365
29.618942 -51.926216 -256.028870
-3.061301 -52.415852 -258.229675
23.223480 -50.020599 -256.214874
29.989706 -49.464413 -258.977448
-13.038010 -51.516323 -256.889740
-1.555977 -50.204926 -257.176361
1.092800 -49.913841 -260.361298
5.409967 -51.974636 -258.109253
25.993927 -50.651558 -257.881897
27.862200 -50.983452 -256.663605
29.266920 -51.799118 -259.349976
-7.240010 -52.687019 -260.451630
24.347660 -50.793163 -257.800140
-10.159526 -50.735020 -259.031403
-4.685694 -51.333729 -258.238464
5.832494 -51.072319 -259.360962
-7.812266 -50.391266 -259.123413
-3.549475 -50.558346 -260.156616
-2.848880 -51.746277 -258.780426
-0.478024 -49.082363 -258.680145
4.756699 -51.613705 -259.167145
21.710958 -49.589325 -258.436035
1.634931 -49.816616 -260.827606
2.482743 -52.374249 -260.863190
26.268856 -51.113491 -262.313629
-9.329600 -51.020187 -259.864532
-7.339753 -50.178619 -262.038940
-2.985995 -51.404644 -262.126190
29.711563 -50.181557 -262.139404
2.374723 -47.745884 -260.107239
28.466272 -51.037537 -261.986359
-0.098811 -50.236969 -262.078827
23.825033 -49.550549 -263.623688
28.256332 -51.762737 -262.646729
-9.687343 -51.597656 -262.104767
-2.371550 -51.568272 -260.869446
3.017751 -50.670563 -262.468475
25.154974 -50.988747 -262.262848
0.991650 -49.100422 -262.354095
4.290075 -49.213604 -261.989655
-7.065073 -51.081642 -264.225189
23.024782 -49.801971 -262.670776
25.231554 -52.287186 -265.102417
28.236870 -51.629337 -264.360565
-9.197307 -51.340607 -263.695221
28.844322 -51.222076 -264.452332
-6.774696 -51.626469 -265.256165
24.556900 -52.226372 -264.915283
28.498383 -51.304630 -264.044464
-4.319763 -50.734638 -267.050568
24.601078 -49.961300 -266.875244
22.794682 -49.989635 -268.017181
20.984322 -50.519241 -267.976624
-6.734305 -52.215828 -268.127563
17.351353 -50.369541 -268.715515
-2.851331 -49.270336 -268.199219
20.798506 -49.177639 -268.232819
24.432999 -51.470535 -269.843048
-1.776498 -51.180290 -270.330170
-4.164054 -49.942436 -270.336273
17.031338 -51.538635 -270.893402
22.399874 -50.793137 -270.768738
-5.753392 -51.439632 -271.609833
20.658997 -49.792641 -270.234406
-2.231813 -51.309753 -272.393982
1.960446 -51.378326 -272.020630
-6.588555 -50.635509 -271.990662
-0.344976 -51.177525 -272.238647
17.087250 -49.253212 -273.553741
18.612955 -51.496609 -271.336487
23.316168 -49.713333 -270.765198
2.671120 -51.146645 -272.951111
-3.435812 -50.293293 -271.351990
0.612289 -49.987690 -273.250580
10.542515 -51.304287 -272.418793
14.062766 -49.350964 -273.090546
-4.189517 -50.446632 -272.613251
1.704841 -50.244255 -273.981537
5.919569 -48.945957 -271.885162
7.030919 -50.256344 -274.000854
12.545883 -50.843147 -273.470764
22.341053 -49.710049 -272.549805
9.559463 -48.885616 -274.209442
13.950566 -51.434147 -273.258392
18.545216 -50.813751 -274.484680
-0.511361 -50.536198 -273.677551
0.423472 -50.948757 -275.406006
7.102855 -48.836384 -273.759155
12.411698 -50.174202 -275.694824
14.488429 -50.434414 -274.104187
17.976826 -48.811073 -273.170563
9.851626 -49.473713 -275.262787
17.147196 -50.334545 -273.846497
21.501535 -50.751591 -275.996094
3.490981 -49.585224 -275.992218
18.199356 -50.054264 -277.359161
1.710677 -49.830883 -277.217926
5.781744 -50.619839 -275.938416
7.987373 -49.521996 -277.411743
14.956207 -51.050598 -276.114502
25.895475 -51.321991 -276.938568
-0.438650 -51.355335 -276.856049
11.450466 -50.444168 -276.734161
25.720013 -50.263474 -276.798798
-1.119333 -51.341232 -278.930237
4.493057 -50.500927 -276.379822
12.118057 -51.654045 -278.006348
17.423500 -49.717136 -276.633331
2.223868 -49.430691 -278.534973
8.029282 -50.082802 -277.774200
18.151022 -52.066772 -278.061035
21.475483 -51.503075 -278.612671
26.527235 -51.628136 -280.367340
2.158373 -49.409115 -278.313721
11.746903 -50.492588 -280.132080
20.860477 -50.219696 -280.274048
23.814594 -49.907032 -281.257721
11.504888 -50.742710 -279.865662
19.588299 -49.399864 -278.722137
6.966273 -51.026150 -279.615448
11.108301 -49.990196 -280.873871
2.786165 -50.288193 -279.570618
12.226531 -50.173424 -281.538727
15.794168 -50.484398 -281.258881
25.092777 -52.196281 -281.009613
3.264908 -50.893227 -281.417206
23.541494 -50.966122 -282.057251
25.036184 -50.157558 -281.353851
3.822700 -49.755623 -283.056396
12.985385 -51.071918 -281.121338
12.376428 -49.441380 -283.053284
15.827018 -50.443417 -282.520172
24.709913 -51.041626 -282.914551
18.735270 -51.208813 -281.005707
6.014566 -51.064224 -283.204010
6.200849 -49.997593 -280.725342
6.036693 -49.523762 -284.453857
12.088557 -49.385948 -285.482727
22.734118 -53.018669 -283.436493
16.808043 -50.413017 -282.066895
22.528467 -48.818962 -282.284576
7.934508 -50.195969 -284.515564
5.125991 -50.441078 -285.261108
10.707407 -52.806641 -284.484955
19.246494 -51.104458 -283.880402
25.147202 -51.288681 -284.362915
22.687517 -50.845188 -282.588257
6.435771 -51.352856 -283.778351
11.423774 -50.034538 -286.240021
15.374750 -52.220982 -285.477997
6.612296 -50.651150 -285.935699
22.319199 -50.359222 -286.182983
24.880112 -50.977715 -285.210144
22.422287 -51.321743 -286.148132
12.332505 -51.869587 -285.258667
10.200976 -49.898087 -285.695679
13.441113 -52.086224 -286.317749
22.251446 -50.292194 -288.133881
6.503848 -50.571499 -287.308136
17.970102 -49.896248 -287.329193
21.661766 -50.610481 -286.235626
20.908449 -51.378456 -289.116364
20.204403 -50.209095 -288.883881
22.473051 -51.332073 -287.985168
20.602964 -50.859409 -289.439636
17.810774 -49.699249 -289.977234
15.441236 -49.042492 -290.938110
18.105555 -51.966515 -290.484283
15.477253 -51.160061 -290.962219
17.452353 -51.417213 -291.107086
18.069620 -51.665783 -290.070770
18.621763 -51.026619 -292.436707
18.506836 -50.861877 -291.308441
15.693163 -48.555180 -292.167908
13.702526 -50.551468 -292.624939
13.704232 -50.013123 -291.909393
15.636138 -50.197708 -292.250610
15.155245 -50.828896 -292.125214
12.302067 -48.924175 -293.820282
13.319416 -49.680695 -295.116699
12.111048 -50.388699 -294.434174
14.500684 -51.225140 -294.646088
8.907558 -50.519791 -295.499664
10.907865 -51.550026 -294.806885
5.156395 -51.364769 -295.081512
11.646366 -50.257969 -294.658447
12.056710 -49.606503 -294.632935
6.464213 -50.953156 -294.939240
9.900025 -50.704994 -297.158386
8.825314 -51.175659 -294.716431
-67.609131 -52.612194 -42.797134
-72.148911 -48.582630 -44.775963
-61.164692 -52.566200 -42.481682
-78.210289 -50.064201 -43.263939
-59.653931 -49.828075 -45.348007
-56.822979 -52.111813 -46.595997
-82.776825 -53.505707 -45.440315
-54.895290 -49.658878 -45.241405
-52.891762 -51.068783 -46.052830
-51.826912 -49.107067 -47.270950
-83.661049 -52.326000 -46.357559
-50.111515 -48.671211 -48.246391
-48.963642 -51.028858 -46.524929
-45.632439 -50.195900 -47.805664
-89.058395 -50.725353 -50.131950
-90.121765 -50.181442 -50.957664
-89.508743 -49.087509 -50.430950
-35.087582 -49.839302 -51.541363
-33.408325 -52.393063 -52.376923
-30.704756 -51.927094 -51.133617
-92.080551 -51.455162 -52.052242
-28.347610 -50.757843 -53.068024
-22.642672 -50.414276 -52.304958
-20.181513 -49.853462 -52.325043
-16.372183 -51.892349 -51.815880
-9.030862 -51.791615 -53.551483
-61.274723 -49.432503 -55.073261
-63.448296 -51.486130 -55.365059
-62.103714 -49.905945 -55.530495
-8.742204 -48.344662 -57.233719
-59.285244 -51.691811 -56.565090
75.752319 -49.834251 -56.550892
78.274239 -51.324581 -57.612671
78.736465 -51.370464 -57.685387
91.199173 -51.285320 -58.242447
-98.187576 -51.291401 -57.680374
-58.723732 -47.666782 -58.084667
-9.140468 -49.928120 -59.157520
-8.004201 -48.918655 -57.264008
79.276443 -51.310593 -58.466206
72.697449 -49.443459 -58.227806
86.067352 -50.408047 -59.184483
82.493134 -51.535820 -59.282364
-14.400671 -51.873264 -61.346977
-13.493061 -50.414066 -60.393459
70.370918 -51.108635 -59.068085
82.591599 -48.126183 -58.501133
-96.695808 -51.140423 -60.176510
85.204491 -48.845894 -60.432526
-65.297043 -48.673973 -60.464989
-20.016211 -50.601486 -59.774536
83.839722 -49.152542 -60.553501
-61.138618 -50.406689 -59.352650
68.216797 -48.919582 -60.557404
-61.231987 -49.239876 -59.456818
-24.465672 -51.678162 -62.233776
68.286407 -50.586033 -62.726719
-26.391268 -51.312477 -60.766567
-98.020363 -49.284027 -62.038815
-62.164337 -49.565399 -61.269306
-31.685295 -49.694740 -64.389717
-64.602394 -51.739967 -61.297905
-63.799877 -48.965698 -65.499619
-61.809292 -50.558762 -63.328045
-62.480896 -50.757080 -64.899361
-99.456940 -51.094864 -63.100761
66.853264 -48.628178 -62.813732
98.930626 -51.597736 -67.498001
69.562721 -49.614716 -67.643837
-35.541309 -50.537376 -67.072617
70.688011 -49.266304 -66.634590
72.769676 -50.005245 -67.705437
74.259659 -49.556820 -65.280556
65.403831 -50.280136 -66.996201
73.205299 -48.485859 -68.278275
82.013771 -48.898689 -67.489105
101.755272 -52.106094 -67.875801
76.415260 -49.848103 -68.063705
-36.318638 -49.745304 -67.485725
76.332581 -51.451981 -67.403595
80.589607 -48.996410 -69.500557
-38.475098 -49.738503 -67.849442
83.881676 -50.339291 -68.720848
100.606445 -48.386372 -67.889130
-100.502396 -51.504494 -69.925545
-38.557327 -49.412628 -68.896767
63.405708 -50.449940 -70.388168
66.327980 -49.647160 -69.148849
87.120163 -49.703285 -69.597115
91.643105 -48.271523 -69.252029
87.403076 -49.694965 -70.985146
88.068985 -50.549702 -71.776535
91.343292 -48.800346 -70.426949
-38.392567 -48.886845 -70.368019
-38.481789 -51.366486 -71.816208
66.315605 -50.987816 -70.055351
89.327324 -50.325371 -72.892258
90.704292 -49.597561 -70.827850
88.917503 -50.547180 -71.272659
65.394447 -51.551086 -73.728691
89.710800 -51.242935 -72.096169
103.879349 -50.736694 -70.840591
103.373062 -51.396130 -71.558617
-39.256283 -50.337151 -72.757767
93.579399 -48.512932 -71.952232
102.029259 -48.184547 -72.973785
64.993645 -49.874405 -73.189240
102.425865 -49.277164 -73.094810
94.758347 -48.184753 -73.531151
102.534584 -50.957268 -74.642471
61.789841 -49.783733 -74.686478
97.972916 -49.561604 -75.378204
100.180832 -50.283890 -75.825851
-38.879723 -53.001549 -75.616386
66.411514 -49.099361 -74.738014
-99.153450 -50.536297 -77.979416
61.869114 -51.030598 -77.255951
63.333138 -50.464539 -78.715881
-40.594212 -49.518661 -78.337311
-40.772457 -49.627876 -79.401741
-43.397533 -50.117058 -80.302574
-101.196884 -49.987427 -78.779442
-99.508690 -53.925224 -79.333366
62.187271 -50.113232 -81.421402
-46.767590 -50.862617 -79.752045
-47.253353 -50.196877 -81.843376
64.631386 -51.129879 -80.650833
-47.643990 -47.630398 -81.861496
61.008305 -50.839180 -79.852318
64.157661 -50.840443 -86.087097
-52.426701 -49.859264 -84.374504
61.354015 -49.476067 -83.538216
-54.447746 -49.823883 -83.796211
62.190586 -49.279675 -82.998001
-100.456421 -51.158684 -84.735100
65.243546 -49.247047 -85.384323
-59.561146 -50.221294 -86.397728
63.800438 -49.699673 -86.054268
65.082634 -50.498322 -88.641991
-102.199341 -51.383362 -87.705429
60.864632 -49.728493 -88.814667
-62.239502 -50.361889 -90.209419
66.063660 -49.240498 -88.937599
-98.941673 -49.635654 -90.981201
-63.003529 -50.851719 -91.954544
60.700653 -47.690323 -91.811020
63.007069 -48.795525 -89.240654
-63.264965 -50.230740 -89.884666
-65.035027 -51.377510 -91.385132
-66.567017 -53.202702 -93.648926
63.590530 -50.253403 -90.741966
-65.854942 -52.428474 -91.723846
62.647625 -49.180813 -92.871124
64.954803 -50.146553 -94.274406
61.175304 -49.943821 -93.256172
-100.521362 -48.421722 -95.513420
66.324341 -49.813332 -94.948929
61.128365 -47.567699 -97.598915
65.023132 -51.674065 -97.718086
-100.743645 -50.831448 -98.320625
63.863979 -49.509193 -95.435226
66.779510 -49.569347 -98.237610
61.034092 -50.407280 -97.131706
64.433372 -48.304932 -97.688019
65.137115 -49.643707 -97.961288
68.021515 -50.585598 -98.966492
63.192020 -51.034054 -100.463715
63.760044 -49.487709 -99.996994
-100.405815 -52.046017 -100.084862
-73.360100 -50.861103 -101.097305
66.899139 -49.204517 -100.481461
63.984829 -50.764091 -100.075127
65.248749 -48.628643 -100.312691
-72.257706 -52.300125 -101.935982
-74.514465 -52.303719 -102.943443
65.702698 -49.419865 -102.260956
64.779388 -50.694611 -103.450867
67.881950 -50.388920 -101.666527
-99.836830 -48.928562 -101.756615
68.827087 -49.503792 -104.354858
-99.562912 -49.409504 -104.411964
69.307182 -50.147652 -106.761040
-97.915512 -50.953686 -107.565659
68.109612 -49.995998 -107.822990
74.958199 -51.454044 -108.258781
-96.933311 -49.788647 -107.962051
70.079025 -48.660099 -107.078293
76.591316 -49.582409 -108.695938
81.548241 -49.562553 -108.647919
70.450195 -50.517288 -108.326225
77.094391 -50.655560 -107.569374
82.570351 -49.586933 -108.642464
86.819603 -49.135506 -110.582199
80.118301 -49.264698 -110.292534
72.534439 -51.145477 -108.719002
74.721657 -49.892174 -110.438416
78.576263 -48.975861 -109.600723
81.777664 -50.818371 -110.683777
-99.811104 -49.083244 -110.908691
76.207611 -48.632332 -110.486702
75.484665 -49.809845 -111.664742
-97.212410 -50.842384 -112.934975
-96.256294 -49.751385 -111.581970
-81.812202 -51.724846 -114.228859
-84.739166 -50.311630 -115.439705
-94.644783 -50.431286 -118.022346
-90.712242 -50.365940 -117.265221
-87.592262 -48.344517 -118.014610
-94.270813 -50.647224 -118.495964
-89.911964 -50.423878 -120.787285
11.396216 -50.072964 -236.157455
13.569983 -50.810017 -237.642944
12.527064 -49.315880 -237.169678
13.886979 -48.138729 -235.611786
15.826497 -49.873806 -236.089050
16.884666 -49.033924 -238.578842
17.575315 -49.727402 -238.937714
14.929911 -48.705269 -235.886475
17.548851 -50.028214 -238.643677
15.914433 -49.564682 -237.532120
18.825012 -49.956615 -238.941193
17.920485 -49.681900 -239.548187
20.026983 -49.867702 -237.284836
20.179312 -50.226913 -238.720490
17.759438 -51.365875 -238.330872
19.039518 -49.398201 -239.288467
20.943483 -48.534943 -239.659988
19.761580 -50.746143 -238.565140
22.135603 -50.800846 -240.067276
22.539875 -50.103909 -241.938309
-0.025586 -50.584198 -242.276993
-2.168850 -49.171841 -240.412018
9.583665 -49.990993 -241.046204
11.815589 -50.096745 -241.946640
21.606842 -49.243370 -241.039154
22.141684 -50.242046 -239.907059
22.383816 -49.730877 -241.152359
-7.070101 -51.151680 -241.103088
-0.990135 -49.843388 -242.546219
9.229003 -49.498596 -240.216782
13.567563 -50.510540 -240.749268
15.319366 -50.745430 -241.790894
-9.526488 -50.216846 -241.236984
-7.461340 -48.340298 -243.060165
7.857932 -50.573757 -243.723221
24.187317 -48.800880 -243.716354
