# This PCD file was generated using the MATLAB® pcwrite function
# from Computer Vision Toolbox®.
# .PCD v.7 - Point Cloud Data file format
VERSION .7
FIELDS x y z
SIZE 4 4 4
TYPE F F F
COUNT 1 1 1
WIDTH 1407
HEIGHT 1
VIEWPOINT 0 0 0 1 0 0 0
POINTS 1407
DATA ascii
-94.127686 -64.752747 -155.035690
-95.466476 -64.893372 -156.784286
-101.829071 -64.924782 -157.429077
-95.296707 -63.795410 -157.249954
-103.255356 -64.778526 -159.320267
-97.996368 -64.441742 -160.828476
-98.020020 -64.021858 -161.836487
-103.636993 -64.576958 -162.255783
-98.649071 -64.521606 -163.903976
-104.912422 -64.388519 -163.886124
-104.946609 -64.129929 -166.032242
-99.542397 -64.692261 -165.726425
-100.733856 -62.481937 -165.581329
-100.708305 -64.185890 -166.078690
-106.714996 -65.204468 -168.405106
-101.753960 -64.629196 -168.844543
-100.886032 -64.142776 -167.766602
-107.841942 -64.149857 -170.828613
-103.297218 -64.071236 -171.204376
-104.334038 -63.968464 -172.793091
-107.708771 -63.192200 -174.357574
-109.473938 -63.709404 -174.789490
-103.346611 -64.662346 -174.306931
-104.139999 -64.441452 -175.416962
-149.958405 -66.142387 -175.375870
-105.863335 -63.349270 -175.208984
-146.772049 -63.949646 -175.897263
-144.865829 -64.637810 -176.260269
-151.645294 -66.502922 -176.038620
-108.583870 -64.093323 -175.486435
-106.098022 -63.850445 -177.522018
-151.805359 -63.837215 -178.422516
-105.010780 -64.588814 -176.477417
-109.021217 -64.074966 -176.935837
-104.867210 -64.530746 -178.915054
-110.764458 -63.940300 -179.559204
-151.845184 -62.995464 -178.799072
-110.234566 -63.873821 -180.292908
-106.432991 -65.437721 -180.316833
-143.137360 -63.210079 -179.300415
-152.504181 -65.717484 -181.545868
-143.667679 -63.144592 -180.964142
-105.602058 -64.745834 -181.500580
-110.981506 -64.810852 -180.834717
-109.648178 -63.536339 -181.400269
-106.730247 -64.158409 -181.642853
-151.382431 -64.563614 -183.103790
-143.168945 -64.050285 -182.104050
-110.486336 -63.947609 -181.725388
-109.097572 -62.809021 -181.937790
-107.138908 -64.320930 -182.138016
-107.439705 -63.286686 -181.416580
-142.649628 -63.395443 -183.451996
-108.410965 -64.019524 -181.716370
-151.861725 -63.273346 -183.479202
-109.252716 -63.571812 -184.953934
-108.205940 -63.988552 -184.920898
-151.085266 -64.416649 -183.563385
-110.791359 -63.038200 -184.958725
-110.807869 -63.809063 -186.114288
-109.444092 -63.975616 -186.046951
-107.657143 -64.049240 -185.868347
-151.620804 -63.833996 -185.033371
-150.420593 -63.053661 -186.119720
-151.763733 -64.249123 -186.382980
-142.352005 -64.641159 -187.823746
-149.925278 -62.713860 -187.185211
-152.392151 -64.506424 -186.723495
-142.854828 -64.535065 -188.047806
-109.872482 -63.538879 -187.589081
-109.631683 -62.986408 -187.494995
-149.837738 -64.735985 -189.240738
-110.913567 -63.423294 -188.161102
-147.623947 -63.239960 -190.561691
-147.374496 -64.369583 -189.722351
-111.630592 -64.293037 -189.615173
-110.157013 -63.517494 -189.682495
-110.636665 -63.455242 -190.962830
-145.623871 -64.315262 -190.093277
-111.109222 -63.708817 -193.431274
-148.252365 -64.093033 -192.727753
-111.187653 -64.995804 -191.382507
-110.711563 -64.086838 -193.242966
-151.401611 -65.527519 -194.590576
-144.442657 -64.191376 -193.698868
-110.880898 -63.829967 -194.439362
-109.504501 -63.681969 -195.817291
-111.225006 -64.836006 -195.132614
-152.601089 -65.338287 -195.283676
-152.609314 -65.089043 -194.687119
-124.751945 -64.214096 -195.651474
-110.897385 -64.590111 -196.048141
-123.186661 -65.102669 -196.368958
-142.430313 -65.373497 -195.389374
-128.888199 -63.947483 -196.524994
-125.450989 -63.268818 -196.339905
-153.588974 -65.467407 -196.479858
-132.470383 -63.873619 -196.173721
-128.059204 -63.135262 -197.602524
-131.703308 -63.926746 -197.215164
-123.801048 -63.435936 -196.211075
-112.559242 -63.950367 -197.006866
-141.389267 -64.700630 -197.032120
-133.260712 -65.026360 -197.013153
-110.018890 -64.529305 -198.292908
-122.921631 -64.785423 -196.976669
-111.029694 -63.941368 -197.970764
-137.650543 -64.393768 -198.175461
-111.526276 -64.440819 -198.062103
-146.349152 -63.399601 -198.662994
-122.406235 -64.758408 -198.034088
-139.953232 -64.300896 -199.865753
-114.784889 -64.744301 -199.269348
-112.552299 -64.688553 -198.202606
-110.967110 -64.861862 -197.880051
-111.173965 -63.668480 -199.393311
-134.928360 -63.922352 -198.917374
-122.879372 -64.214874 -200.129730
-117.622177 -64.218384 -198.417572
-114.009186 -63.604141 -198.958694
-111.948273 -64.219795 -198.177307
-110.383591 -65.130386 -199.484848
-139.358658 -63.759289 -200.058121
-121.742950 -64.612221 -200.209091
-117.647850 -63.926575 -200.051331
-117.244987 -63.646107 -200.061279
-112.818535 -64.129639 -200.042160
-112.123863 -64.124199 -199.656433
-139.150024 -63.747128 -200.508865
-137.261948 -64.531860 -200.125443
-135.076157 -64.044456 -199.555038
-122.286720 -63.505306 -200.548401
-121.786980 -64.331093 -200.480911
-115.714302 -63.360352 -201.271942
-133.533798 -64.142105 -199.943756
-113.561043 -64.335648 -200.501007
-134.454880 -63.772251 -200.708389
-121.997055 -63.298706 -201.263626
-116.182564 -64.000114 -200.948441
-114.216537 -63.851162 -201.359161
-112.806534 -64.303963 -201.308136
-114.530632 -64.190201 -202.630249
-133.157089 -64.201660 -201.418625
-128.452560 -62.703770 -202.674118
-122.846642 -64.992470 -202.042114
-122.699677 -63.919765 -204.206848
-131.584503 -63.858841 -203.201492
-132.001862 -65.291939 -204.323425
-128.892227 -62.745197 -203.298798
-129.414017 -63.808182 -203.162704
-127.749344 -64.347664 -204.134338
-123.984474 -63.001968 -202.934982
-123.572731 -63.084938 -203.315979
-116.419235 -63.203030 -203.471298
-129.337585 -64.951607 -204.502365
-124.822235 -63.702789 -204.116135
-123.018593 -64.659889 -203.728149
-119.551369 -63.880333 -204.114609
-115.517822 -64.517128 -203.849777
-116.498665 -64.459435 -204.850418
-151.958618 -62.432476 -204.562469
-145.380920 -65.386780 -208.910278
-145.071732 -64.659180 -209.462372
-146.129974 -65.429779 -210.369034
-145.933304 -64.687767 -210.358582
-150.731766 -65.967834 -211.617615
-146.063187 -64.868843 -217.130417
-146.113907 -65.387299 -220.376358
-146.652481 -62.742126 -220.610107
-151.520447 -66.223495 -223.341782
-151.591324 -65.350845 -224.280029
-152.335724 -62.688488 -223.703888
-153.865906 -63.784180 -225.630066
-127.016357 -64.891350 -225.579514
-128.646011 -64.165024 -226.241058
-130.308411 -65.087746 -227.275131
-128.550400 -62.916550 -227.721756
-125.490921 -63.560516 -225.892319
-140.868439 -65.099831 -226.415604
-132.808334 -63.959564 -226.574875
-148.273819 -64.784752 -226.406982
-126.192169 -63.142899 -227.002197
-125.366531 -64.365425 -227.270050
-154.976166 -64.455643 -228.103195
-148.754272 -65.616562 -228.297256
-141.959610 -64.842865 -229.076065
-132.837494 -63.214218 -228.706802
-133.742874 -63.926464 -228.735092
-128.977066 -62.630913 -229.260269
-124.612869 -63.319843 -228.530777
-146.131775 -65.595123 -228.925018
-134.276520 -64.883171 -228.872696
-131.013626 -63.404396 -228.739761
-124.769112 -63.544849 -230.620193
-149.414352 -65.511040 -230.293900
-147.493835 -65.726036 -229.658524
-133.678436 -65.328323 -230.592392
-134.313507 -63.621094 -229.775909
-131.813797 -63.807095 -230.764435
-154.336380 -65.195755 -229.980057
-147.703171 -64.745132 -231.123535
-129.271179 -63.427681 -231.234039
-133.766449 -64.328323 -232.099365
-131.747314 -63.705093 -231.266998
-130.606537 -63.776531 -231.932358
-124.253532 -63.973354 -230.184769
-128.666626 -64.600716 -232.206879
-125.478493 -63.658928 -231.894775
-126.158981 -64.711441 -232.592896
-154.074860 -63.059479 -233.902527
-144.047440 -64.059975 -234.507263
-151.656616 -63.425735 -234.692184
-150.815506 -63.295574 -234.929108
-145.692398 -63.232323 -236.219315
-146.241486 -63.754566 -236.198212
-5.801716 -65.458061 -237.654449
-4.032013 -65.465981 -236.861969
-7.265272 -64.235321 -238.770111
5.979778 -63.990227 -237.914108
0.413299 -65.216225 -238.948456
1.428807 -63.288193 -238.234848
2.726279 -65.094864 -239.232178
5.408794 -64.691154 -238.143875
-146.818634 -64.397499 -238.048447
7.513475 -64.348755 -238.662872
5.434399 -63.571499 -238.236786
-8.156182 -64.651733 -239.760056
15.830841 -63.441875 -240.684708
-8.000641 -64.487770 -240.757156
17.308943 -63.968231 -241.174957
-146.177795 -64.692383 -242.625336
13.304558 -63.628368 -241.006256
-5.128036 -64.668488 -242.602417
17.739796 -64.212044 -241.684372
-3.324190 -65.067322 -242.399490
10.841604 -65.528336 -243.116257
-150.537048 -63.443737 -243.218185
10.985644 -63.190281 -244.028015
7.841331 -62.319839 -245.273834
9.969728 -64.263954 -244.036194
-150.806335 -63.029202 -245.665482
21.424875 -65.046265 -244.610840
-3.821264 -64.978752 -245.237289
-7.618721 -64.072021 -245.300613
20.581396 -64.218369 -246.254166
-9.643500 -64.507538 -247.288132
-7.209257 -63.701832 -247.130493
-146.900360 -64.780609 -247.507080
-9.402563 -64.144783 -247.154892
-151.548050 -63.635582 -246.565872
-150.478455 -63.531540 -249.917633
19.819086 -63.219913 -248.713654
-151.775269 -63.608021 -250.147049
20.958986 -65.322258 -250.952896
-150.552414 -63.511879 -249.976776
-147.017639 -64.195915 -249.928345
-6.181351 -64.306885 -249.215225
47.713715 -63.622837 -250.228317
-4.172454 -63.775158 -250.110413
45.065838 -64.029480 -250.817642
22.469410 -63.720543 -251.503387
43.712532 -63.961029 -251.852783
44.870026 -64.113220 -251.711136
-4.930745 -64.562057 -250.899292
22.846504 -65.403320 -251.181183
43.125549 -63.687729 -250.547546
43.606007 -63.045822 -253.063049
-146.767685 -64.515633 -252.401627
40.510193 -63.809139 -252.512283
-152.596313 -64.234756 -252.841919
-146.844391 -64.392181 -253.143341
44.136105 -64.520576 -252.622299
38.447243 -63.389137 -253.705948
43.433517 -63.927170 -253.901291
-152.585159 -65.436501 -254.087524
-144.983154 -64.113197 -253.183426
34.873451 -63.358028 -255.214050
38.890118 -63.872139 -253.640518
40.619682 -63.813671 -254.361908
-144.488663 -65.774895 -255.025650
-149.224960 -63.413052 -255.646301
-143.185425 -64.449097 -254.878632
24.713373 -62.280880 -255.903336
33.038651 -63.355732 -255.504990
-2.972662 -64.722336 -253.341843
40.994457 -63.799561 -255.279205
-154.966339 -65.010246 -256.008148
-2.930583 -64.353447 -254.657837
40.786377 -64.342308 -256.728577
38.339470 -63.805557 -255.945755
-155.061905 -64.553917 -256.284210
24.201353 -65.314438 -256.800323
28.751451 -63.273762 -258.012024
30.883204 -64.472031 -257.044037
39.896080 -64.187523 -256.910645
36.836330 -63.666882 -257.883209
-156.026031 -64.060699 -257.921661
-142.208755 -63.645981 -257.644684
25.134695 -63.933975 -257.513641
30.387875 -63.462364 -257.650848
38.234539 -64.630035 -258.020691
0.395273 -64.305084 -257.647644
-151.091461 -64.258080 -258.095337
38.152256 -64.824928 -258.473907
-142.146332 -64.174171 -259.996033
-156.177734 -64.289177 -258.458466
-0.436068 -63.513470 -259.249908
37.050552 -65.265068 -259.565613
35.967941 -64.863281 -259.066925
-150.390991 -64.503197 -259.526794
-147.209656 -64.600044 -260.755188
34.997849 -65.427101 -259.556854
-156.520645 -63.674133 -260.384308
-155.207916 -63.665966 -260.147614
-151.423599 -64.693321 -260.643250
-148.764130 -64.188873 -261.268555
34.176407 -64.166588 -259.623657
-149.553787 -64.738342 -261.451752
-141.653229 -64.263435 -261.543945
-155.176575 -65.536430 -261.079529
-143.636658 -64.021652 -262.227234
31.351122 -63.394630 -261.305908
-152.143768 -63.026966 -262.530792
1.249980 -64.586380 -262.403137
30.416086 -64.406403 -262.495514
-154.970917 -64.714699 -262.982483
3.237540 -62.316269 -262.495697
-143.911819 -65.019722 -263.182220
2.446977 -63.785065 -264.393799
26.779219 -64.395218 -263.688324
28.184969 -63.050507 -263.976135
-152.660233 -64.306496 -265.132050
-151.331360 -63.920162 -263.088623
-145.116470 -64.086136 -265.170715
-145.964386 -64.981766 -265.139923
1.777653 -63.485016 -265.245758
-151.142624 -63.642738 -265.933929
-147.681793 -65.290489 -265.104675
-150.778107 -64.166267 -266.017334
-147.029327 -63.818363 -269.369263
24.299225 -65.752586 -269.723999
2.266432 -64.475243 -270.888947
3.188781 -63.945202 -267.553406
-151.057037 -64.062531 -270.787476
24.066639 -65.280434 -272.370483
-147.754425 -63.736362 -271.914154
1.127152 -64.204582 -271.624146
2.509103 -63.501694 -272.601898
1.369472 -65.083893 -273.662872
-147.479050 -64.193520 -274.851349
22.696419 -63.878204 -275.717377
-148.550446 -63.727833 -277.587433
-151.273361 -64.904190 -277.965851
0.740613 -63.838787 -277.890045
20.232578 -65.435829 -280.531830
0.987869 -64.277328 -280.441010
-147.651840 -64.449661 -279.507050
0.916806 -64.015053 -280.309998
-151.618423 -64.477501 -283.479218
-148.455673 -63.989777 -282.412903
18.717579 -65.896149 -283.435974
-147.706894 -63.986694 -282.962128
-152.795898 -64.391632 -283.367523
-146.243195 -63.976032 -283.358612
-0.332920 -64.267822 -281.466156
-149.756653 -62.727123 -283.870667
-144.994965 -63.938034 -284.163269
-153.966904 -63.411804 -284.305725
-151.533096 -63.700447 -284.358459
-150.352921 -64.545410 -285.182404
17.663948 -64.385292 -284.731628
-154.279739 -65.345161 -284.080719
-153.138519 -63.991669 -285.203125
-146.620560 -62.908875 -284.882568
-145.048050 -63.416649 -285.314697
-149.867065 -64.505043 -285.089020
-146.964081 -65.449669 -285.878143
-145.186234 -63.265141 -284.828979
-0.040920 -64.015671 -283.582001
17.279161 -65.525002 -285.333618
-153.847870 -63.500484 -285.879272
-149.109940 -63.991119 -284.912109
-144.804184 -63.377708 -284.793732
17.340143 -65.434464 -286.218811
-155.781555 -63.853802 -286.444977
-153.202087 -64.862602 -286.209290
-154.459213 -63.564293 -286.487091
-153.156403 -63.706352 -285.975067
-153.350922 -63.791149 -286.661774
-149.804764 -63.858925 -286.462463
-145.354553 -64.369850 -286.916809
-144.239639 -63.979443 -286.399841
-0.074216 -63.576614 -287.017609
-154.558960 -64.086525 -287.218811
-151.623917 -63.424603 -287.526031
-143.554382 -64.386589 -287.258545
-156.249893 -64.119781 -288.177490
-152.944016 -64.606888 -287.316101
-147.296005 -63.697662 -286.700134
-145.321014 -64.600876 -286.800293
14.926702 -64.383987 -287.578827
-155.386169 -64.257729 -287.036713
-152.347977 -63.238914 -287.331543
-152.019928 -63.773987 -287.294647
-147.120209 -64.153152 -287.478180
-144.200211 -63.284252 -289.198212
-144.055664 -63.675663 -286.720520
-155.552979 -64.535942 -288.645203
-146.815399 -64.532913 -288.265808
-152.949020 -64.043480 -287.971527
-2.030118 -64.228752 -288.519592
-151.927063 -63.928211 -287.498932
-147.523392 -64.260735 -289.076447
-146.437561 -64.105621 -287.178436
-146.052582 -63.257145 -289.910095
-143.381058 -63.580700 -289.747803
-156.411835 -64.850616 -289.290741
-155.457916 -63.048485 -287.917358
-144.758041 -63.677746 -288.196808
12.647708 -62.977539 -289.774689
-153.379425 -64.324516 -289.698456
-2.220455 -63.783890 -289.191162
-152.360794 -62.582676 -290.024750
-143.965424 -62.530014 -289.637451
-155.906555 -62.859962 -289.729218
-154.581528 -65.081230 -289.731018
-146.333939 -64.231155 -291.003662
-2.441447 -65.194786 -291.065338
-156.113754 -63.934181 -290.052643
-156.343933 -63.375862 -290.715851
-153.631638 -63.799576 -290.777985
-151.687836 -64.160713 -290.633118
-147.091293 -62.972233 -289.953857
-0.711827 -64.184067 -291.253021
-154.299271 -65.155304 -291.748322
-153.231201 -64.599083 -290.870483
-151.029816 -64.366013 -291.192291
-147.558609 -64.448967 -291.470734
-148.492630 -63.747143 -291.635010
-144.737411 -63.590778 -291.100555
-144.001053 -63.982086 -291.196899
-155.687790 -64.510445 -292.137665
-153.452545 -64.637398 -291.071747
-151.208038 -63.372974 -291.397888
-145.572372 -64.409340 -290.992737
-143.939819 -64.136551 -291.763580
10.601050 -63.668724 -291.504242
-154.308884 -63.952160 -293.315430
-149.184326 -64.258408 -292.033051
-152.888824 -65.179550 -292.542938
-151.811401 -64.063095 -293.257446
-150.651566 -63.678360 -292.075012
-148.068939 -63.655254 -291.452423
-146.462448 -64.348953 -292.378296
-145.729996 -63.857147 -292.184967
-144.904129 -63.577038 -291.521179
1.865764 -63.689346 -292.466583
2.348479 -63.715004 -293.162720
8.424638 -63.267113 -292.239532
-144.982147 -64.159630 -292.828979
-153.197479 -63.252758 -294.244171
-147.871078 -63.933674 -292.814209
-145.725311 -63.869991 -292.958588
-154.539566 -65.090317 -293.417511
-150.064957 -64.761162 -293.685883
-148.421387 -63.456516 -293.748993
-148.962326 -63.696331 -294.465637
-145.652710 -64.010551 -294.065002
-153.006882 -64.871758 -293.919067
-151.276871 -63.796375 -294.576447
-146.225616 -62.922157 -293.962891
-150.499313 -63.147633 -294.017609
-147.148743 -64.584373 -294.869629
-147.722137 -63.175861 -293.945953
-146.007431 -64.217705 -293.971405
-148.430710 -63.735939 -295.736694
-150.289154 -63.861996 -295.824768
35.938004 -61.626400 -11.964197
43.830059 -60.977627 -14.983027
44.989025 -65.903244 -15.718126
38.258766 -63.057220 -18.021799
46.560524 -62.936104 -18.150072
39.969845 -61.755562 -18.601938
47.719410 -63.841099 -19.009176
40.500179 -63.980721 -18.596273
28.813251 -64.043610 -19.855124
22.266855 -66.837181 -19.779346
42.424709 -62.471992 -20.497465
42.001381 -65.952682 -20.408308
42.413662 -64.361893 -21.491795
49.239952 -63.619560 -20.969639
49.054173 -62.752579 -21.870701
26.458458 -66.159805 -22.904915
42.951176 -63.101032 -23.235048
44.068153 -64.641075 -23.555124
27.166401 -64.061562 -24.549877
49.029469 -63.247204 -24.212437
43.952271 -62.172634 -24.692047
44.904064 -63.351772 -26.816811
50.661480 -64.676857 -29.755590
26.311047 -63.986317 -30.174042
43.005459 -64.358322 -29.556826
19.969971 -62.342319 -29.972553
21.116793 -65.455711 -32.624691
41.090515 -62.179241 -33.291607
28.854956 -63.546570 -33.969986
48.554836 -64.806824 -32.803867
29.025791 -63.507008 -35.005032
22.009640 -62.963127 -34.987698
38.497772 -63.625793 -35.680943
37.061836 -64.515770 -36.673008
24.254051 -65.910866 -36.654819
46.999027 -64.663063 -37.159267
33.547176 -65.240654 -36.878250
24.700657 -61.006611 -37.721279
34.569931 -59.719517 -38.565281
42.090824 -65.156326 -40.743530
38.218216 -63.828854 -41.186916
-57.310093 -63.605423 -44.126976
-52.933651 -62.552895 -42.685547
-71.538101 -62.954941 -43.911678
-67.953819 -62.928291 -44.429024
-47.774441 -64.421822 -43.701660
-74.029572 -64.231857 -45.722885
-76.375130 -63.466331 -45.998817
-43.240398 -64.983215 -46.536945
-39.579853 -63.875282 -46.756939
-35.782310 -63.791519 -47.070442
-32.551041 -64.153389 -48.194168
-29.391983 -63.228107 -48.146736
-82.647896 -61.807491 -48.262459
-87.849739 -62.551167 -52.106377
-16.132370 -64.302536 -54.569107
-14.942229 -63.899128 -55.018288
-12.845187 -63.986549 -55.320621
-11.286057 -62.575191 -56.433224
-11.746018 -63.212936 -56.872768
-93.949570 -62.210670 -59.284016
76.984787 -64.967461 -61.290035
-9.698606 -63.051807 -60.568317
81.042534 -63.740288 -60.531769
82.909988 -64.186218 -61.110573
75.178452 -62.432117 -60.398102
86.941406 -63.744167 -61.288914
90.638130 -64.526756 -62.330692
84.514542 -63.028202 -61.963669
91.766380 -63.684467 -61.840981
74.510925 -63.641804 -62.645176
94.294540 -63.224529 -62.929485
72.319534 -63.190556 -63.474556
-10.684299 -63.058750 -63.154861
-94.585281 -62.593037 -61.879314
72.333099 -63.391495 -64.544281
-94.970154 -65.133102 -64.639114
-11.369491 -62.660004 -63.879250
95.884377 -62.945408 -62.833500
69.084610 -62.158512 -64.919022
96.523338 -63.978447 -66.278770
-95.705612 -62.892437 -63.966942
70.187447 -64.215698 -66.041115
69.048309 -62.731861 -64.909584
-13.777224 -62.303852 -66.253426
-21.519735 -62.629322 -66.540550
-17.757000 -63.238949 -66.218407
99.795082 -63.613369 -66.628227
-22.925043 -62.902481 -66.811562
-96.795654 -61.890869 -66.097504
-22.399071 -63.792641 -67.296082
100.209785 -61.167252 -67.822113
66.904274 -63.809685 -68.917336
100.664200 -63.739483 -69.071899
-96.705269 -62.616955 -68.021622
67.167961 -63.391968 -70.734100
-28.970856 -61.696163 -70.818199
101.527222 -62.464462 -70.701469
-97.370285 -63.455448 -70.150940
-30.004257 -63.917175 -71.376205
65.682808 -63.406071 -72.630409
65.518867 -64.400826 -73.146400
-98.351463 -63.282612 -72.871559
-98.066986 -62.865482 -75.230873
-33.584316 -61.093731 -74.078773
-32.177280 -63.626282 -75.640030
104.205887 -64.189880 -73.848381
64.133804 -63.320793 -76.797508
-98.362892 -63.927128 -79.155045
64.348763 -64.473953 -77.396698
103.863113 -64.825539 -79.216301
-33.598591 -64.567184 -77.175797
-39.822437 -63.617008 -78.587944
-36.783928 -62.331009 -78.865288
-98.296478 -64.459801 -79.227386
-42.849201 -63.966805 -79.311241
-41.492382 -64.474510 -78.623947
104.971802 -64.695847 -80.662186
-44.608765 -62.218567 -80.423309
-52.587337 -63.499058 -80.311775
64.763359 -65.123688 -81.434029
-54.014679 -62.836277 -81.130997
-45.937611 -64.981804 -81.380661
-58.381180 -62.104053 -81.717308
-54.371838 -62.205177 -81.419235
-51.800301 -63.301403 -81.239265
59.736042 -62.394733 -82.241844
59.509560 -62.876614 -82.713501
-57.322044 -62.597424 -83.332802
62.425392 -63.832157 -83.010391
-54.488564 -63.581505 -82.754341
105.006523 -63.641777 -82.294548
-55.882080 -63.634930 -83.655090
62.154575 -62.493912 -83.330978
-57.790001 -64.048782 -83.632233
104.320786 -64.422485 -84.444687
-58.617592 -63.657173 -84.845978
60.991062 -63.565620 -84.270912
65.672409 -63.130085 -85.537216
-98.966660 -63.211102 -85.951408
59.701061 -62.624653 -85.416588
63.767712 -63.738701 -85.937096
-60.709805 -63.571098 -86.010643
55.525784 -62.274929 -85.908852
58.049294 -64.427414 -85.335907
104.183266 -64.582481 -84.981514
56.982880 -63.608513 -86.882889
64.846550 -62.660027 -86.731560
65.310577 -64.256783 -86.636078
-61.863583 -64.570419 -87.795929
-63.092476 -61.533936 -87.612427
52.999344 -64.170288 -87.289627
-98.959595 -63.284958 -88.124985
-63.595104 -63.199024 -89.119019
52.823517 -63.732433 -89.532127
-63.383343 -62.724659 -89.501595
52.525894 -63.314892 -89.374672
55.178673 -63.720371 -90.489464
-64.274078 -63.218929 -90.538025
51.838985 -63.377960 -92.194427
64.340065 -63.739452 -92.910332
66.367088 -62.904446 -93.286041
60.036526 -63.893784 -93.087593
62.122662 -62.758595 -92.702278
-64.758423 -63.664902 -91.915573
57.462795 -63.647724 -93.414467
-66.872093 -63.187065 -92.792473
50.403000 -63.994598 -92.849274
55.199997 -63.713543 -94.530075
56.753735 -63.407398 -93.992493
-65.638161 -62.701431 -92.780472
65.730782 -64.806740 -94.833336
-65.720345 -64.122139 -93.621994
50.536850 -62.618622 -94.855766
104.095894 -63.388203 -94.036606
-65.567101 -63.667236 -95.569336
60.279381 -64.547745 -96.180786
58.936035 -62.824718 -95.327446
54.779842 -61.834995 -95.149353
53.107948 -62.544209 -96.450874
-98.299896 -63.501904 -97.085655
55.091007 -63.066898 -97.054070
65.817635 -63.662224 -98.074417
-66.258690 -63.180813 -99.256691
50.696823 -63.446518 -98.218353
51.312454 -62.852962 -97.238510
54.705891 -64.024979 -98.329712
103.686996 -63.308678 -97.659142
52.798256 -63.802437 -97.715584
67.616936 -65.096039 -99.258125
67.254051 -64.293266 -98.066833
102.639420 -63.839085 -98.522743
67.633202 -62.611107 -99.626198
-67.649925 -63.643280 -100.445511
101.137802 -63.494781 -101.261040
68.403793 -64.395340 -101.321976
-68.393761 -64.146957 -102.295845
69.723999 -62.471233 -102.776932
100.819839 -62.590805 -102.799126
-99.845757 -62.882107 -103.022232
-97.919098 -62.473438 -104.321518
-69.371796 -64.418671 -103.110085
70.365326 -64.343895 -103.760155
-78.684570 -63.864208 -104.313736
-78.303116 -63.476299 -105.114120
-75.970627 -62.965347 -103.535255
-69.680489 -64.034149 -104.861633
72.000244 -63.930012 -105.127090
99.812729 -62.816360 -104.726662
-79.504456 -63.254944 -105.011627
-82.196457 -63.346909 -106.696404
-74.678818 -62.983944 -104.980415
97.863983 -64.162590 -105.189522
-75.652687 -63.350155 -104.902901
-71.465912 -63.079655 -105.469467
-79.267815 -62.480083 -106.887360
83.875046 -64.767151 -105.411339
-77.940094 -63.095200 -107.124298
74.855377 -63.367950 -107.034668
83.140717 -63.502373 -106.797226
83.764206 -62.698631 -107.629189
95.602287 -64.097908 -106.511055
-82.430107 -62.672684 -107.661751
-75.160263 -63.372131 -106.921509
-72.564835 -64.207359 -108.774284
81.819656 -63.989388 -107.456970
94.135010 -64.240547 -107.753784
96.385910 -63.035976 -107.348846
-73.060310 -62.951962 -107.490555
-76.583847 -62.338181 -106.948860
73.974770 -63.651882 -108.446487
93.404922 -64.199417 -108.434410
-84.949280 -64.597855 -109.764252
-74.302391 -62.039997 -108.329651
76.378998 -63.763412 -107.989723
78.053932 -63.856304 -108.480713
80.641876 -63.238655 -109.380875
90.502861 -62.348278 -108.664024
90.648422 -63.743008 -108.115723
-76.241234 -62.089386 -109.136482
-75.892731 -63.835335 -109.033432
-76.713486 -63.342213 -108.455605
-81.744812 -64.247528 -111.689453
-66.190605 -63.770802 -111.340340
-97.505745 -62.984001 -112.345604
-79.709579 -63.283661 -111.873436
-86.558357 -63.192142 -112.131607
-84.353195 -62.284630 -111.668358
-64.187920 -62.736794 -111.727226
-78.951195 -63.557594 -112.419624
-83.409523 -63.047653 -112.296852
-64.440399 -62.887333 -113.450851
-61.761421 -63.162075 -114.062347
-65.997528 -63.966347 -113.933975
-78.375008 -63.363113 -113.264679
-61.991169 -64.501160 -113.961121
-81.409241 -63.612682 -114.964928
-68.043640 -62.633781 -113.576355
-84.084427 -63.036613 -114.482498
-66.969727 -62.865215 -116.192627
-84.629517 -63.678299 -115.928841
-77.313637 -62.426361 -115.650574
-89.211121 -65.532516 -114.756348
-66.864792 -63.856232 -116.121223
-59.968388 -64.047981 -115.480125
-81.764236 -63.995392 -116.899849
-76.553612 -63.941750 -116.271271
-57.925682 -63.442932 -116.548828
-88.678459 -63.473179 -116.851082
-61.633106 -63.445518 -116.867981
-62.552704 -63.066837 -118.145805
-96.267517 -64.419029 -117.006348
-89.654106 -65.668945 -116.421326
-57.527447 -63.658321 -117.281883
-79.655609 -63.525028 -118.100075
-62.403580 -63.285004 -117.865318
-59.969463 -63.337864 -117.872559
-58.551582 -63.774521 -119.180008
-62.996994 -63.794613 -119.521637
-60.139320 -63.228561 -120.046593
-89.806099 -63.461956 -118.322746
-81.128960 -63.863285 -119.098038
-56.085510 -61.925732 -119.576256
-90.270576 -64.395355 -119.196434
-67.189781 -63.659302 -117.920090
-80.964584 -62.523716 -119.313362
-75.724426 -64.035461 -119.702423
-63.573986 -63.518463 -120.378967
-58.690643 -63.017361 -120.260986
-96.850502 -63.545128 -119.484657
-66.269875 -64.205795 -121.370514
-57.714748 -62.861176 -119.777618
-80.959831 -63.082657 -120.056046
-79.154953 -63.150646 -120.718872
-76.037880 -64.718285 -120.421669
-64.062798 -63.321457 -121.915741
-91.670403 -64.303841 -120.588074
-79.891029 -63.307251 -120.678734
-78.286293 -63.360180 -120.627640
-58.860825 -62.893040 -121.016930
-57.095764 -62.849426 -122.367348
-55.341946 -63.800804 -122.094025
-90.778000 -63.215450 -122.649879
-66.428619 -63.111279 -123.207481
-75.696404 -64.214500 -123.508972
-63.591228 -62.961124 -124.754234
-53.774616 -64.390335 -124.318092
-65.421593 -64.202339 -124.951385
-76.415291 -62.854820 -125.463631
-74.797707 -63.488441 -126.597839
-56.239834 -64.340263 -125.660164
-62.922283 -64.333664 -126.528191
-64.947830 -63.717159 -127.570526
-75.187958 -63.518379 -127.668915
-54.250401 -63.138870 -128.344376
-79.923744 -63.735046 -128.870239
-76.910606 -62.150013 -128.648590
32.916233 -63.044601 -129.505676
-80.429146 -62.838196 -129.174896
-52.726513 -62.794224 -129.013092
29.705982 -62.928257 -130.113220
-64.284348 -63.368980 -128.484650
30.664558 -63.707600 -129.970032
-63.905888 -64.075943 -130.723511
33.406349 -62.775787 -129.531845
-77.234634 -62.612103 -130.044647
-76.607094 -63.038296 -130.449768
-78.030235 -63.036369 -130.279892
-51.659496 -63.107044 -131.206360
29.023386 -63.205246 -131.326691
33.224201 -63.342167 -131.179398
30.012880 -62.862423 -131.095581
-59.929279 -61.954372 -133.103912
-50.493900 -64.021507 -132.369049
30.613600 -63.542736 -132.280945
32.497589 -63.283531 -133.149109
-59.822678 -62.688354 -133.174866
-54.761482 -63.534172 -133.706482
-59.272003 -62.765125 -134.336151
-58.354931 -63.249043 -136.095856
-57.043686 -62.985264 -134.699295
25.514299 -64.467125 -134.581070
-51.077320 -63.399155 -135.694214
-51.324078 -64.363396 -137.679764
22.064772 -63.421089 -137.460938
29.909544 -63.069508 -136.661469
-91.369362 -62.807373 -137.201843
-89.130867 -64.321625 -137.670532
-60.251919 -63.035492 -137.607834
-52.726421 -63.419067 -136.530045
-90.492180 -63.262909 -136.726318
-59.283192 -64.269272 -137.781693
-53.343693 -62.150723 -138.020309
-52.701099 -63.916267 -137.637192
-55.748241 -62.625240 -138.648575
-90.276344 -63.428669 -138.984940
-56.819920 -63.706596 -139.607117
30.030405 -63.253506 -138.032455
-92.905876 -63.333500 -138.786942
-91.432159 -62.837704 -138.659729
21.349598 -64.151489 -138.356888
19.754656 -63.597916 -140.608353
-91.574402 -62.688183 -141.455994
-93.256523 -63.107174 -141.441452
19.032764 -63.128155 -141.278870
28.652334 -62.579159 -140.086823
-90.890564 -63.038734 -140.373367
-94.125458 -63.200603 -141.631729
-92.535934 -61.852890 -141.197495
18.183613 -62.724972 -142.282791
24.879942 -63.611073 -143.556931
-93.083221 -62.988762 -142.763504
-94.645096 -63.750378 -142.325821
-91.496262 -62.513828 -144.093063
-95.508064 -62.805710 -146.654694
-92.839867 -62.767311 -144.547668
18.410465 -62.879601 -144.586792
-95.490601 -64.159348 -144.285751
-92.005280 -62.949093 -145.642776
-94.638351 -61.603348 -146.053375
-94.195549 -62.578442 -144.455460
-95.664291 -63.056484 -146.816437
20.322096 -61.878906 -145.400513
22.429121 -63.506805 -146.135406
16.724657 -63.002934 -145.653671
20.423742 -63.430428 -146.962738
20.481802 -62.467125 -146.372208
18.815199 -63.386612 -146.894562
19.255386 -63.228645 -146.733551
-97.492249 -63.593689 -148.362198
-92.823555 -62.573883 -147.316788
-96.094238 -62.629978 -148.710526
-91.867744 -63.593723 -147.105637
-92.978020 -63.412987 -149.940628
-95.446754 -63.154163 -148.727264
-94.409058 -63.089504 -148.734787
-96.453033 -63.338440 -149.391098
-93.809288 -63.176460 -149.616150
-97.035904 -62.475975 -152.033768
-98.503082 -63.406982 -149.539200
20.579742 -63.395325 -151.450104
-98.490746 -62.499866 -150.985748
17.967457 -63.277065 -151.206390
-96.291702 -62.292191 -150.852097
-94.150024 -63.412746 -150.889160
-95.048210 -62.165539 -150.424469
19.159092 -63.490490 -150.881546
20.097071 -63.562695 -152.698502
19.132174 -64.048340 -152.863953
-99.209862 -63.099998 -153.156326
-97.972595 -62.793850 -152.136566
-94.853302 -63.378933 -153.348251
-96.729012 -62.476692 -152.911423
-96.963463 -62.372433 -154.767914
-100.112404 -62.564640 -155.149658
-97.209099 -62.259819 -156.243515
-95.687798 -64.322342 -154.845779
-99.349274 -61.822437 -154.189117
-99.972076 -62.508938 -156.356583
-96.796143 -63.978241 -155.551468
-101.124153 -63.547726 -155.765396
-98.132484 -62.480602 -157.462280
-101.119110 -61.665524 -159.219681
-99.018280 -62.494747 -156.097549
-97.362915 -62.710369 -157.506363
-101.176163 -62.846313 -159.122879
-99.825623 -63.050922 -157.677689
-98.433487 -62.991982 -159.181915
-101.878685 -62.991959 -158.702942
-97.188782 -63.697102 -159.147293
-101.358223 -61.947178 -161.201141
-99.639999 -62.865646 -159.333923
-102.359703 -63.085541 -161.799057
-99.187660 -63.862160 -161.438019
-103.244759 -63.404984 -161.218796
-99.999397 -62.988350 -163.264923
-102.722755 -63.279984 -162.591568
-99.625092 -62.795280 -163.642365
-100.501457 -63.103001 -162.552399
-104.109383 -62.822906 -163.045364
-100.148064 -63.113121 -164.422577
-100.218239 -63.984715 -164.780624
-105.133568 -63.915329 -166.244202
-102.845970 -62.213722 -163.774063
-103.902809 -62.769650 -165.234802
-103.323853 -63.018780 -166.791550
-101.830215 -62.223946 -164.906952
-103.948685 -62.423313 -167.164017
-101.845497 -62.494205 -167.616226
-106.345886 -63.996677 -166.997726
-104.979996 -62.849895 -167.024857
-102.916573 -62.771339 -168.928101
-105.762390 -63.732517 -168.147614
-107.386749 -64.138107 -169.159836
-104.525398 -62.581898 -168.852966
-106.016548 -62.637379 -170.036392
-103.307854 -63.168274 -169.042084
-103.258400 -63.168705 -168.746292
-107.877335 -63.063602 -172.116257
-104.509056 -62.677982 -170.514603
-104.093979 -63.487717 -171.555222
-107.252754 -63.769093 -171.753876
-105.856834 -62.839378 -173.396500
-105.270851 -62.692184 -172.014786
-105.085617 -63.063995 -173.638519
-106.416275 -63.686058 -172.811279
-106.283737 -63.273384 -174.476440
-106.506508 -61.946945 -177.745590
-150.372208 -63.148743 -175.987808
-152.115829 -64.331413 -176.432007
-107.967216 -63.250023 -174.925949
-145.133530 -62.413040 -176.594376
-143.021210 -63.235569 -176.761200
-105.897720 -63.626625 -176.622620
-143.019348 -64.215309 -177.664261
-107.942429 -63.066727 -179.006317
-107.334137 -63.126034 -178.021500
-151.451920 -63.279247 -178.300888
-152.684570 -63.736061 -180.485199
-107.816170 -63.135582 -180.184601
-151.722748 -63.357430 -180.924927
-144.213318 -62.131332 -180.021225
-107.918541 -62.876301 -182.084503
-142.621170 -63.227753 -182.407837
-150.513596 -63.316509 -182.426254
-143.937668 -62.442806 -182.112915
-150.360519 -63.239742 -183.755951
-149.344467 -62.635548 -184.586029
-143.590210 -63.188427 -183.799561
-142.571106 -64.511536 -185.772995
-143.896759 -62.789288 -186.825226
-149.099884 -62.952805 -187.577881
-148.716843 -63.746674 -189.135071
-146.489014 -63.432468 -187.968689
-145.970642 -64.439217 -187.857834
-145.683914 -62.207233 -187.806488
-147.908173 -63.440502 -193.204544
-149.086746 -64.436440 -193.343704
-151.444366 -65.065552 -194.530380
-153.404022 -62.576130 -196.079483
-124.093376 -63.597099 -196.953979
-128.157349 -62.757446 -196.831665
-147.909317 -65.051292 -197.145233
-127.663475 -62.452282 -196.552963
-132.647446 -63.619289 -196.787231
-131.269989 -63.109928 -196.724976
-124.873230 -63.715694 -197.271118
-122.850044 -63.290333 -196.683701
-146.389343 -63.965302 -197.596725
-131.549042 -62.826126 -198.436737
-125.056442 -62.400951 -198.459702
-132.708344 -63.105297 -198.704102
-122.743401 -64.550209 -197.605804
-146.107498 -64.454536 -199.942978
-129.454666 -62.219425 -198.831909
-123.354820 -63.380234 -198.940430
-133.593445 -63.968472 -197.997192
-140.734100 -63.387867 -199.448944
-146.526917 -64.085152 -201.577072
-134.068024 -62.509697 -201.402939
-131.630219 -62.569035 -199.904602
-123.383667 -62.948677 -199.949661
-140.773743 -63.973999 -201.307297
-129.120911 -62.917076 -202.538895
-124.977699 -62.629555 -201.490677
-123.043419 -62.960621 -202.069595
-153.450104 -63.307262 -200.969681
-131.703949 -63.047279 -202.765579
-132.353882 -63.596352 -201.448654
-140.675568 -64.928749 -202.575272
-127.806343 -62.872871 -202.984756
-141.102707 -65.231895 -203.372650
-130.806702 -63.514317 -202.951096
-124.454460 -63.682758 -203.396210
-124.820480 -62.771786 -202.886169
-142.379440 -61.965073 -203.723221
-150.173477 -65.186005 -205.252548
-145.114563 -65.909149 -205.720840
-145.520569 -63.063900 -205.870285
-149.371628 -61.939957 -207.944870
-144.898499 -64.757950 -206.742279
-145.438385 -63.925442 -207.845215
-149.420898 -62.285919 -212.417892
-150.287079 -65.981918 -214.658493
-146.136719 -62.132828 -216.386215
-150.413986 -63.391323 -220.202515
-149.939911 -62.517208 -222.218781
-145.978333 -64.005363 -223.452820
-153.066544 -63.929287 -225.061249
-144.108566 -62.386742 -224.957916
-153.619125 -64.254997 -225.773483
-141.762848 -63.322338 -225.814667
-154.215698 -63.816433 -226.695755
-154.092117 -63.628422 -226.290894
-141.409897 -63.053257 -226.685120
-147.800888 -61.786842 -227.384109
-142.098557 -63.577278 -226.951859
-149.912857 -63.276432 -228.563004
-127.198723 -63.296597 -229.584564
-128.585648 -64.323845 -229.404419
-126.548714 -63.307556 -230.072601
-155.692169 -63.003059 -229.952377
-149.540649 -62.522957 -229.240891
-140.569550 -66.194199 -230.814697
-146.702698 -61.943439 -230.751877
-125.757904 -63.762123 -230.900253
-126.429008 -63.170677 -230.347168
-149.736877 -63.927647 -230.563263
-155.595520 -64.016777 -231.650482
-149.166229 -62.554111 -230.801651
-142.147797 -63.010433 -231.564392
-142.275162 -63.700962 -233.217987
-154.228821 -64.152023 -233.244217
-153.792282 -64.143440 -233.641190
-150.275635 -63.194199 -232.739334
-143.361420 -62.663559 -233.913742
-145.699997 -63.955158 -235.077637
-145.508408 -64.248718 -234.576599
-150.664444 -63.918900 -236.616760
-0.841514 -62.516060 -238.003708
-2.543596 -65.327454 -237.269287
-0.191022 -64.272461 -238.373932
-146.189713 -63.884190 -237.327774
3.576328 -64.060638 -239.283798
4.113694 -62.928276 -239.427475
-151.327621 -63.277706 -239.001785
-6.296469 -63.094234 -239.723679
-146.130722 -64.668739 -240.640045
-146.698608 -63.510170 -240.578506
-6.296813 -63.424736 -240.359848
6.630769 -63.375099 -240.300674
8.688065 -63.867756 -240.633896
13.241325 -63.015167 -240.463608
17.089874 -63.386696 -240.674973
14.167949 -63.941246 -242.069778
-6.420322 -64.252846 -240.561417
19.219639 -63.096695 -241.809418
-2.902175 -63.099716 -242.316559
11.697077 -63.410255 -244.032303
-146.586273 -63.244045 -243.895660
8.733912 -63.392513 -243.704712
-2.667754 -64.374825 -243.976913
20.873663 -63.362167 -243.223648
9.944117 -63.497963 -245.283508
-6.010851 -62.658375 -245.365860
-146.623032 -63.539345 -247.176788
-150.440018 -63.705235 -246.523315
-6.811219 -64.227318 -246.280045
20.887735 -64.102501 -247.433228
-6.887153 -63.355766 -249.060135
19.685137 -63.417339 -248.476151
-4.551568 -62.365002 -249.125488
-3.375506 -62.033043 -251.104019
-146.399612 -64.091927 -249.072662
-5.297425 -63.654831 -249.956726
-150.728058 -64.438545 -251.533401
-3.859213 -63.396309 -252.211060
-150.578552 -63.792999 -253.197952
-3.456632 -63.627197 -252.990387
-146.856628 -62.685078 -252.184586
-0.367523 -62.432117 -253.122314
23.851030 -64.078285 -253.004959
-150.958054 -63.170483 -254.119171
-145.693665 -63.238514 -253.367798
23.796793 -63.971588 -254.471069
-153.701233 -63.301208 -254.674942
-1.411904 -63.745636 -253.829208
-152.771927 -62.832367 -254.741135
-150.503693 -63.372074 -255.200058
-147.613449 -62.918091 -253.227539
-147.872452 -63.115612 -254.761902
-144.850616 -62.916000 -255.276474
0.458867 -62.145386 -255.250809
-153.860016 -63.576710 -255.079605
-152.931885 -62.310932 -255.559692
-146.359543 -62.630737 -256.103729
-143.504791 -63.652836 -255.365219
-151.624527 -63.411404 -255.000595
-152.187790 -62.791603 -255.958191
-144.212814 -63.008514 -256.366241
0.474060 -63.645393 -256.066681
34.155121 -63.630234 -256.369568
-154.478409 -62.222660 -255.694305
-154.063446 -63.185078 -256.738739
-154.230225 -62.270535 -256.351593
-152.902191 -62.463135 -257.192444
-151.453049 -62.681858 -256.070343
-148.194489 -62.552807 -256.000458
-145.042862 -62.610023 -256.677490
-142.306946 -62.931793 -256.294922
34.074932 -63.587860 -257.420837
-150.024094 -62.018288 -256.995117
-148.410431 -62.067993 -256.781952
31.571165 -64.494087 -256.961151
-151.713165 -62.089066 -256.637634
-150.209396 -63.376583 -257.587891
31.779062 -63.050762 -257.395538
37.049244 -63.361271 -255.338211
-155.367188 -62.431721 -257.670624
-153.974701 -63.111485 -256.526764
-153.334732 -63.424355 -256.543640
-147.220123 -63.267288 -258.141846
-144.779755 -62.880325 -257.297943
34.384514 -62.805573 -257.644592
35.305672 -63.375580 -258.059418
-154.674530 -62.803082 -258.686646
-153.339493 -63.067192 -257.848602
-152.123734 -62.986149 -257.848663
1.735333 -64.105286 -257.558777
-152.774048 -63.182495 -258.517944
-142.564468 -62.626423 -258.075928
32.670692 -62.263641 -258.811523
-155.495773 -63.223869 -259.762695
-152.308182 -62.705647 -257.952850
26.075640 -63.820179 -258.057343
28.017277 -62.205215 -258.461792
33.744457 -63.171448 -258.810608
-154.412125 -63.252090 -258.159790
-152.229202 -63.017498 -260.259644
26.597660 -63.209484 -259.195831
29.940819 -62.572655 -259.711761
-146.711594 -63.401054 -258.683624
-145.354263 -63.399597 -258.259491
-144.943314 -62.549862 -259.245575
-153.628189 -63.254520 -260.375916
-150.759933 -62.896049 -259.519775
-144.605530 -63.275143 -260.450684
-143.539154 -62.611317 -261.783569
2.891571 -63.030449 -260.016968
30.823662 -63.338066 -259.905914
-154.955933 -62.741615 -260.739349
-152.184982 -62.193741 -261.103851
-148.089264 -63.125896 -259.694061
-146.939514 -62.728271 -260.716705
-142.260986 -62.984783 -260.536499
29.123405 -62.481976 -260.900116
-152.436295 -62.921017 -261.165863
-150.259521 -63.353836 -262.034485
-147.483887 -62.298840 -260.838776
-145.857788 -61.980934 -260.964386
28.501205 -62.866932 -262.148834
-154.590698 -63.657269 -261.716431
-152.248444 -63.149395 -261.779510
-152.075714 -62.437027 -261.733002
-149.428864 -62.173313 -261.398590
-144.997849 -62.590881 -261.482025
-153.277573 -62.718086 -262.660919
-150.471024 -62.307415 -262.616638
-147.116302 -63.417576 -261.500031
-145.643173 -63.378479 -262.292603
29.052010 -62.587315 -261.542847
-153.945313 -63.314960 -262.431732
-149.276947 -62.693459 -262.450134
-147.353439 -63.470325 -263.681610
-144.058624 -62.070034 -262.891602
3.007897 -62.829853 -261.477997
26.764780 -64.139481 -262.103851
26.219696 -62.427948 -262.051300
27.363007 -63.762878 -262.700745
-147.174622 -63.284107 -263.491791
-148.067047 -62.595825 -263.198547
-145.818024 -63.415184 -264.116699
-152.831650 -62.741169 -262.943848
-151.692612 -62.419739 -263.696259
-144.638397 -63.257576 -263.964569
-145.065231 -62.191059 -262.289246
3.142705 -62.779907 -263.856384
26.225735 -64.686729 -263.918243
-153.790817 -63.299557 -263.700623
-149.248505 -63.170212 -263.577118
-143.667114 -62.170383 -264.153229
-153.991791 -62.258114 -263.407013
-150.419357 -62.180870 -264.176849
-148.845535 -63.730412 -264.194672
-146.027008 -62.863197 -264.084442
-145.948395 -62.762142 -263.338654
5.055120 -62.250557 -263.170563
-151.839920 -62.710041 -264.116150
-147.952606 -62.883759 -265.413055
-146.572327 -62.240555 -264.057770
-145.439255 -63.225368 -264.709045
26.867563 -64.973465 -264.925842
-146.871216 -63.518497 -263.921295
-152.266449 -63.265656 -265.111755
-150.834457 -63.006882 -265.900726
-148.307693 -62.577644 -264.705872
26.344814 -65.104057 -265.420685
-150.674881 -63.647560 -267.436829
-148.203262 -63.608353 -266.457367
4.358531 -63.799240 -266.437531
26.975161 -63.335743 -267.427246
-147.566803 -63.356911 -269.677551
-148.597931 -63.112209 -269.913818
4.818370 -62.226986 -268.679840
-149.896652 -63.060841 -270.750183
3.521551 -63.298653 -270.606873
-150.905228 -63.290611 -269.484406
3.688811 -63.672031 -271.872986
5.673650 -62.940689 -270.518127
-146.798996 -63.184834 -272.344513
-152.135681 -63.135593 -272.393463
-150.219986 -62.051132 -273.762543
-150.452744 -63.243732 -274.310669
-148.852982 -63.028278 -271.874969
3.234165 -63.647949 -273.262299
23.049166 -64.211655 -274.737793
22.817051 -62.939312 -276.818176
3.936913 -62.850975 -273.896088
-149.245499 -63.216789 -276.533875
-148.339798 -62.857803 -275.945313
-150.779388 -63.425884 -275.588043
-150.486176 -61.472244 -278.598633
23.148098 -64.078651 -277.322601
-149.166077 -62.920452 -276.719727
2.675700 -63.375336 -276.553619
22.009281 -65.150169 -277.435486
-151.514175 -63.862259 -277.806366
-149.985260 -63.849453 -280.030151
20.228951 -63.021095 -280.935150
-150.453720 -63.091862 -282.626892
2.989005 -63.992912 -279.936188
-149.260666 -62.961254 -281.861725
-149.666626 -63.777691 -283.200623
-148.572784 -63.409958 -282.950989
1.863661 -62.926105 -281.695374
-151.052902 -64.156509 -283.391479
18.564199 -64.495361 -282.558411
-151.096558 -63.255207 -283.584290
-148.581909 -63.093124 -283.027649
-152.387527 -62.984058 -284.031006
-149.490051 -63.690800 -284.473755
-148.796265 -62.977570 -285.109406
-145.478745 -63.457275 -283.883881
2.076142 -62.337460 -283.723267
-151.019409 -63.643723 -286.692596
0.515869 -63.694180 -284.164246
16.152040 -64.382408 -286.717529
-147.389542 -63.488964 -286.238708
-145.039764 -63.392872 -286.297180
1.418961 -62.356529 -287.056030
-145.076965 -63.021099 -286.969513
-0.213651 -64.142395 -286.354218
14.636567 -61.088081 -286.329620
14.181234 -64.204018 -289.051178
12.586856 -62.842964 -289.022888
0.430044 -62.589500 -288.860596
-0.972985 -62.864552 -290.004211
-0.214871 -62.807102 -290.290375
1.587456 -62.557468 -291.076935
5.091142 -62.741669 -292.863586
8.018265 -63.147964 -293.827820
-152.101105 -62.634232 -294.545776
-149.450531 -63.228397 -295.154114
-152.105545 -63.966232 -294.904053
27.594833 -62.218445 -14.270570
27.167984 -63.752586 -14.454544
26.138901 -62.461075 -16.075464
25.654356 -62.661140 -16.043886
25.644186 -62.547359 -16.580107
34.157066 -63.081879 -17.173409
35.402420 -63.069115 -17.215143
47.918091 -64.020523 -19.439438
22.562817 -63.620724 -18.896324
39.819939 -62.076027 -18.936825
40.414543 -60.151550 -19.786484
28.594183 -59.595093 -19.831779
21.619259 -66.105751 -19.557856
48.094131 -64.463928 -20.014772
26.698486 -64.615807 -21.785746
42.744194 -61.837826 -22.136736
43.226387 -61.842522 -23.260302
49.908459 -61.814957 -26.678772
49.595375 -64.200020 -28.988880
43.734455 -59.393715 -28.729156
42.723747 -62.679291 -30.853626
21.151802 -62.328869 -31.994116
48.748028 -66.969635 -32.464222
42.818512 -61.067856 -32.247860
21.334324 -65.478149 -33.299683
48.096619 -65.364029 -34.317600
40.205345 -60.006042 -35.151634
22.773932 -61.488373 -34.950630
46.409042 -63.208088 -36.174343
32.703773 -62.252438 -35.595924
35.968098 -60.984097 -36.511829
25.004980 -64.189079 -37.964607
44.054710 -62.541145 -38.230087
28.379133 -62.371662 -40.061966
33.783394 -61.956520 -39.860939
-65.927742 -61.752758 -43.907963
-64.084503 -62.618389 -43.549507
-60.329861 -61.852051 -42.673523
-49.173939 -61.758011 -44.185143
-47.428436 -60.665604 -44.523773
-77.376083 -61.568958 -46.146088
-46.803425 -64.018990 -45.051952
-78.156097 -62.488766 -46.724064
-44.015923 -63.898441 -45.720398
-42.004845 -63.218037 -46.141113
-39.730568 -62.687798 -46.423622
-79.954781 -62.709679 -47.017624
-36.475025 -62.165638 -46.729782
-33.451405 -62.032204 -47.634441
-80.949776 -63.655338 -47.757797
-83.191063 -63.606216 -49.264774
-23.545084 -63.172539 -49.806011
-87.284393 -63.733688 -53.087662
-17.839857 -63.676613 -52.648830
-89.057381 -63.360287 -52.862942
-88.763435 -63.103565 -53.459034
-89.652809 -62.507557 -54.166851
-90.654015 -62.702175 -55.528873
-91.993927 -63.705410 -56.788265
-92.759552 -63.016151 -58.630119
-9.393955 -62.462345 -59.367008
78.537933 -62.471745 -59.030453
75.822388 -62.151985 -59.221817
82.785744 -62.890480 -59.290657
90.498863 -62.244644 -60.861729
91.548851 -61.202579 -61.131821
73.834923 -62.024464 -61.930885
-9.550940 -63.556656 -61.682781
72.018776 -62.724007 -62.407314
94.060959 -62.532040 -62.620777
69.904640 -63.380089 -64.222557
-95.719208 -62.736057 -64.396950
96.524391 -62.471523 -64.264984
-12.349039 -63.503040 -65.774811
-16.989363 -61.872196 -65.917984
-19.364893 -62.250153 -66.536026
-24.345194 -62.913162 -67.102554
-97.826248 -62.451157 -66.784164
66.771935 -63.429646 -68.365906
-25.957014 -63.851719 -69.127930
-28.208494 -61.616364 -70.043045
-29.321260 -61.867512 -70.003441
66.251183 -61.801025 -69.317337
65.646011 -63.071655 -70.988159
102.708748 -61.879700 -71.903191
65.171799 -62.511696 -71.650558
-98.014244 -61.839474 -72.297073
-31.859980 -62.416759 -73.346977
-30.449411 -64.272110 -73.666527
65.283012 -63.684715 -74.753471
64.625603 -63.191898 -75.715462
104.244659 -63.156197 -75.920647
103.470154 -62.557285 -77.191505
-34.693729 -64.475822 -78.637230
-54.181740 -60.588329 -77.313454
-37.373890 -61.530045 -79.440155
-53.144623 -62.607212 -78.847717
-51.566353 -61.524269 -80.179504
-55.154999 -62.752430 -79.421158
-51.479919 -62.643406 -79.741302
-56.486721 -63.196171 -80.289429
64.985916 -63.157326 -80.297157
-58.411549 -62.450512 -81.489586
-51.340576 -62.607418 -80.594109
-51.655197 -62.375019 -82.478447
-45.360256 -62.903332 -81.407753
-49.478867 -61.661633 -81.407822
-49.128483 -63.902676 -84.160339
-48.558464 -62.486565 -82.588120
105.430359 -62.701912 -81.159515
63.278137 -63.420837 -82.114243
65.727097 -62.912304 -82.400734
-59.184681 -62.896843 -81.031265
65.454224 -63.908817 -84.328354
-59.891575 -63.133942 -84.274139
57.068954 -62.462921 -84.872780
