# This PCD file was generated using the MATLAB® pcwrite function
# from Computer Vision Toolbox®.
# .PCD v.7 - Point Cloud Data file format
VERSION .7
FIELDS x y z
SIZE 4 4 4
TYPE F F F
COUNT 1 1 1
WIDTH 1416
HEIGHT 1
VIEWPOINT 0 0 0 1 0 0 0
POINTS 1416
DATA ascii
6.448418 -80.358047 -276.566193
1.235658 -81.027222 -278.585846
10.964207 -80.238930 -278.340942
5.642801 -80.757187 -279.491974
5.136295 -81.596977 -276.834259
-145.207047 -82.839813 -281.976166
-153.602280 -79.774620 -285.058075
-154.792755 -81.797829 -287.060425
-143.614609 -83.443642 -286.670258
-156.006973 -81.745361 -286.673370
-149.255051 -81.165604 -287.109253
-136.824753 -83.438210 -287.365967
-154.617691 -82.739517 -287.891602
-147.018829 -80.023476 -287.021576
-150.171310 -81.937286 -288.143738
-151.268234 -81.352455 -290.191772
-150.498627 -81.035179 -290.865204
-154.042572 -81.380402 -290.702087
-144.117203 -82.782379 -288.747070
-155.545395 -82.692200 -291.038940
-152.718307 -81.097122 -294.640594
-150.843384 -81.852074 -295.653076
-151.989594 -80.803566 -298.641602
-148.923737 -80.677162 -300.514343
-148.719528 -81.082237 -302.493805
-57.040611 -80.392509 -67.211952
-63.666584 -78.809509 -65.334579
-59.134056 -80.311790 -66.815002
-50.153633 -81.235344 -65.183289
-62.798199 -78.976959 -67.571922
-56.540894 -79.970955 -65.393631
-54.677914 -79.328979 -67.186859
-49.149258 -81.212036 -67.361588
-43.827244 -80.580971 -68.883469
-65.569534 -79.521500 -68.065483
-56.468639 -79.530083 -67.896614
-51.493633 -79.991379 -68.242157
-67.742470 -80.943840 -65.363365
-62.810555 -79.988640 -68.034683
-58.006168 -79.373230 -67.399704
-51.334526 -79.620857 -68.546150
-46.872257 -80.496262 -69.091362
-42.181667 -79.130638 -68.566803
-54.200645 -81.636116 -69.298668
-72.495964 -80.149445 -67.601524
-69.046059 -81.683243 -68.730751
-46.708443 -79.953491 -68.534912
-38.958450 -80.600845 -69.350708
-67.097130 -80.682144 -69.059448
-46.748947 -80.245598 -69.251038
-43.418766 -81.379189 -68.523666
-68.129234 -78.309914 -71.147186
-74.544189 -79.850716 -69.230896
-72.162170 -78.377266 -69.130081
-39.700474 -82.052368 -70.219048
-40.286991 -80.825371 -71.708107
-36.396786 -79.133026 -70.469673
-73.021187 -79.241928 -70.109589
-74.293831 -79.248466 -72.092018
-75.985161 -79.283485 -72.588699
-35.422199 -80.448280 -72.309738
-38.256325 -79.463608 -71.052460
-75.934776 -80.832359 -72.440071
-74.362991 -80.608147 -71.713654
-33.521591 -80.187271 -72.365952
-78.214691 -77.644783 -74.146111
-73.674072 -81.233261 -73.020210
-28.866045 -78.538895 -73.333046
-75.903557 -80.904297 -74.391335
-78.726440 -79.271835 -74.434807
-78.011169 -79.877510 -77.624428
-31.127539 -79.831703 -76.401855
-31.541830 -80.768852 -78.205399
-81.610054 -79.745728 -78.325142
-33.644501 -82.831673 -77.262352
-33.995598 -80.508858 -80.355812
-83.020782 -80.391998 -80.054558
-33.325989 -81.971848 -79.599342
-84.007408 -79.228539 -80.817459
-82.836624 -78.710831 -81.501793
-82.737892 -80.989029 -81.354988
-79.476761 -79.586052 -82.280533
-35.133450 -80.405045 -82.713394
-83.152718 -81.075783 -83.427063
-36.398754 -80.357445 -81.904671
-44.915928 -81.166794 -85.272133
-44.507679 -80.267868 -85.018471
-39.463497 -80.437523 -84.217743
-44.671734 -79.853867 -86.265839
-83.313248 -81.981140 -83.967346
-86.287163 -80.437485 -86.057228
-88.104546 -78.407372 -88.623138
-84.719254 -80.275375 -88.764046
-50.980545 -79.315178 -88.734810
-52.000874 -81.333992 -91.231789
-52.950459 -81.380630 -92.166534
-57.093975 -80.917198 -95.370735
-55.256939 -79.114517 -93.525642
-57.740223 -82.200050 -93.176537
-59.511219 -82.677498 -94.175537
-62.728298 -82.025444 -95.385696
-65.644051 -80.228989 -99.820419
-75.748070 -80.205406 -101.811249
-73.677933 -80.225578 -100.910446
-74.403465 -80.894165 -101.911064
-76.020248 -81.250046 -104.180374
-76.598846 -81.812775 -103.051628
-90.909683 -78.632927 -101.880684
-79.389969 -78.258240 -103.997093
-87.396072 -81.199615 -104.527267
-77.823837 -80.554390 -105.451912
-81.205696 -79.092194 -105.418144
-86.516899 -81.388214 -105.123932
-82.859505 -80.173447 -106.138885
-90.073151 -79.169121 -107.770683
-86.483116 -81.452072 -106.887794
-83.365898 -80.659348 -106.898399
45.847458 -77.494171 -109.349648
-86.656853 -79.491333 -110.695412
-87.488518 -81.931473 -108.217003
-85.215904 -79.278564 -107.523857
-85.784348 -79.989555 -111.460075
-82.547302 -79.628319 -110.576828
43.664963 -80.297409 -110.741875
42.620209 -80.440628 -111.585548
42.424202 -79.166763 -113.523636
40.353436 -79.799759 -114.572533
41.452579 -80.581017 -113.108696
44.396950 -80.320160 -113.203430
39.294621 -81.928238 -115.609650
39.693882 -78.959831 -117.431999
43.804802 -80.085922 -114.851112
39.177170 -80.016930 -119.217125
36.865131 -80.710075 -118.528473
41.924385 -80.508492 -120.076843
42.096603 -79.836861 -116.959427
43.698711 -78.462540 -119.973885
37.457047 -79.612785 -122.067230
39.500126 -80.986404 -119.933327
35.524765 -79.149628 -122.985107
34.824192 -81.485657 -126.652695
34.967422 -82.325951 -125.965836
39.463272 -79.461067 -126.147560
31.418690 -80.169701 -129.149338
41.145771 -79.635872 -126.829826
37.776836 -80.717445 -129.332748
34.228497 -80.640556 -129.127502
34.602974 -80.384705 -130.593964
39.933464 -81.386261 -130.359467
34.324551 -80.077576 -129.295578
33.369751 -81.321922 -132.478729
30.852634 -80.325111 -133.369049
30.967688 -81.613823 -133.980316
36.192104 -79.283020 -133.149063
28.256685 -81.237442 -134.765732
35.962528 -80.723877 -138.300613
28.518698 -77.827812 -135.994431
29.919142 -80.393150 -138.880981
29.259676 -81.074463 -139.007675
31.579990 -81.555893 -138.075623
33.911480 -80.016953 -140.927505
27.613075 -80.825111 -138.960831
32.851147 -79.594048 -141.925262
31.068203 -79.815422 -139.839722
26.809229 -78.548775 -142.393372
34.051201 -81.651901 -146.517776
27.893835 -82.447670 -145.269897
28.928963 -80.955009 -147.486755
26.895306 -79.519348 -150.847382
28.479235 -79.777512 -149.575119
31.210390 -80.386757 -147.689514
28.174679 -81.622932 -148.303741
33.480911 -80.770187 -147.632690
-45.537334 -79.453568 -151.319229
27.969814 -80.908226 -152.964691
31.277781 -79.685493 -150.962173
-45.553913 -80.029549 -152.372986
27.946814 -81.577042 -152.868591
-42.991333 -79.538567 -153.124527
27.088625 -80.284264 -154.007278
29.401970 -79.044090 -153.873840
-43.180317 -80.531952 -155.501801
-39.555561 -80.025505 -156.278702
-43.598492 -81.101318 -155.797104
25.993402 -79.393379 -158.743637
27.714935 -81.110336 -157.132690
-39.071518 -78.456039 -158.258224
-43.048668 -81.158745 -157.216843
-41.124805 -81.142273 -158.089661
29.282310 -79.281830 -156.576950
-44.955669 -79.584160 -159.341187
25.542097 -80.215012 -161.847473
-40.676434 -79.326752 -159.104492
-39.968616 -79.453003 -159.405563
-42.910755 -79.377060 -163.364899
-40.876278 -79.490509 -160.920013
26.266121 -80.202789 -163.062836
-40.913437 -81.510803 -165.382416
-38.570240 -81.501404 -161.274338
-37.684181 -80.472450 -165.131195
-34.926811 -79.089523 -161.602295
26.420006 -79.811920 -163.586548
-38.106190 -79.218704 -166.220169
-40.096603 -79.600952 -165.897202
-35.571011 -79.039513 -164.009415
-33.228313 -80.693634 -166.596344
25.058630 -79.155670 -163.816055
24.457382 -79.791840 -167.572937
-38.824322 -82.143349 -166.887741
-33.639904 -78.938110 -166.916122
-4.406739 -78.489250 -166.572830
-63.339230 -79.951134 -168.111771
-58.987694 -80.039818 -168.554886
-36.695358 -80.033333 -169.136154
27.461460 -80.911407 -166.801987
-35.924854 -78.586189 -167.701340
-6.351653 -81.192764 -166.917282
-4.223173 -80.363556 -169.215378
-39.338379 -78.526176 -169.130432
-33.199539 -80.792290 -167.911102
-32.854378 -81.315193 -169.724640
-6.256342 -80.350952 -168.954208
24.687414 -79.597763 -170.273239
-60.648544 -77.854965 -170.243988
-32.253597 -79.731758 -171.724625
-61.056961 -79.967186 -170.560120
-4.580559 -79.232056 -168.944138
-58.994572 -81.514038 -170.778793
-9.329071 -81.166969 -170.922897
23.204966 -79.405746 -169.648087
-61.262665 -80.587341 -170.609634
-35.412880 -80.640411 -170.408859
-29.531055 -79.989197 -172.674438
-33.131386 -80.285950 -171.214951
-12.271460 -81.524666 -173.067551
-58.748516 -80.194893 -171.816772
-58.107506 -79.266098 -172.602554
-34.985249 -80.207542 -172.107483
-6.332190 -80.465271 -172.429291
-56.810452 -81.019890 -171.930466
-35.010906 -79.684174 -172.193893
-33.281731 -79.300865 -173.167007
-12.151670 -80.238586 -172.519745
-60.239128 -80.002052 -173.573746
-60.609097 -79.581291 -173.502213
-58.405380 -81.120033 -174.248764
-14.974113 -81.939987 -173.130615
-7.544719 -80.812294 -173.714691
-57.964371 -78.291588 -175.512726
-57.039410 -80.927917 -174.030304
-56.144833 -80.814201 -173.756851
-28.841511 -79.196480 -175.937973
-15.502793 -80.389122 -174.716034
-8.429417 -80.403351 -173.402786
-29.213331 -79.823608 -174.748993
-34.631371 -78.148560 -176.512680
-18.360132 -80.344254 -176.666595
-56.927048 -79.965401 -176.012299
-54.096897 -79.294220 -177.428818
-32.719368 -79.635597 -175.754669
-52.731461 -80.292122 -179.570984
-30.196838 -80.377914 -176.992706
-11.570222 -80.193008 -175.032639
-30.373026 -80.420715 -178.731110
-27.774271 -79.449135 -177.535599
-21.456331 -81.512527 -178.167145
-59.069984 -80.389862 -178.373077
-13.014550 -80.985069 -181.969284
-56.886967 -79.549126 -179.350967
-53.277351 -80.142502 -179.699356
-29.638561 -77.886070 -179.493561
-30.247042 -79.863983 -178.965942
-24.757904 -81.170860 -180.942581
-26.453072 -78.386406 -181.074417
-26.675528 -80.034744 -180.647202
-57.028282 -79.055420 -182.934769
-25.280010 -81.026314 -182.742340
-29.255484 -80.531258 -181.789642
-30.581324 -81.478943 -182.395294
-30.463839 -79.764885 -181.574295
-27.438894 -82.295967 -183.169342
-17.347296 -82.584717 -182.361343
-53.629948 -79.148293 -182.244431
-56.620064 -78.182335 -184.613541
-29.708220 -80.770180 -183.988052
-52.716770 -81.847061 -185.005203
-49.821709 -82.579124 -181.959122
-28.838476 -81.144936 -184.228256
-20.134399 -81.141548 -184.334000
-21.431049 -79.643425 -186.613052
-30.369600 -79.452148 -187.446121
-46.375416 -80.604691 -184.921005
-148.893295 -82.070892 -187.559113
-144.942856 -80.566643 -185.927017
-54.073269 -78.231873 -186.847000
-31.122793 -79.036247 -187.418762
-148.589264 -80.639450 -188.101089
-51.462151 -80.266335 -187.545898
-31.821810 -79.898239 -187.688797
-144.939514 -79.722870 -185.280807
-31.363161 -81.207031 -188.800049
-47.068081 -81.532562 -187.479401
-44.962719 -81.222206 -188.059372
-34.198009 -81.248589 -187.438034
-25.045460 -80.644501 -187.628860
-23.610971 -81.684799 -185.997589
-34.186024 -79.212219 -188.789444
-44.332905 -79.258926 -188.637329
-26.627487 -80.306702 -188.231064
-33.831676 -79.153610 -188.834229
-33.400154 -80.142029 -188.653671
-27.370838 -80.647087 -187.837280
-34.307198 -79.081741 -190.504166
-21.981287 -80.618080 -191.083206
-26.637148 -80.247162 -188.432480
-27.653860 -80.660187 -190.666092
-26.300283 -80.341080 -190.187851
-26.552137 -79.150848 -189.579239
-35.312000 -79.644775 -189.318649
-32.908161 -80.345093 -189.962112
-31.154362 -79.625114 -189.361450
-44.699783 -79.970177 -191.926605
-36.431591 -80.211311 -190.200058
-36.986191 -80.448997 -191.759766
-29.850479 -80.559784 -190.115875
-29.740616 -80.725838 -191.207626
-149.067032 -80.448654 -191.571533
-49.994102 -80.235489 -190.166885
-43.296143 -80.917686 -191.881134
-38.623482 -79.214363 -190.409302
-32.447697 -79.126259 -191.590927
-39.581894 -80.126503 -190.265640
-20.704979 -81.411827 -190.215393
-35.172955 -81.553093 -191.246033
-23.648361 -80.464203 -191.607407
-148.542999 -81.753601 -192.818451
-48.878990 -82.364555 -193.607437
-39.087437 -80.977440 -191.552826
-38.516983 -79.835602 -192.697815
-37.202229 -80.518654 -194.387344
-149.470993 -80.021126 -193.923126
-43.068371 -80.449966 -193.482880
-42.430603 -80.841110 -192.639404
-145.546997 -79.149940 -192.903641
-37.342495 -79.663040 -193.330765
-20.362509 -78.981750 -196.059250
-38.951550 -78.883186 -193.340347
-38.617748 -79.076561 -193.486618
-22.161848 -80.234688 -192.593643
-145.430466 -80.808075 -194.230286
-20.935987 -79.674240 -193.634964
-46.653072 -81.883240 -194.658524
-37.587856 -79.760719 -194.785797
-39.101223 -80.346382 -194.244888
-143.380478 -82.161575 -198.324387
-46.763233 -82.938309 -196.528336
-23.998190 -79.839180 -193.959366
-151.847015 -82.117561 -197.323517
-141.514648 -82.743210 -196.202454
-19.230946 -77.888138 -195.023178
-146.440277 -79.899353 -198.991714
-140.799927 -80.885139 -195.416565
-136.016846 -80.401184 -197.455032
-38.799797 -79.700317 -195.653915
-23.082100 -79.509430 -196.220917
-39.333298 -79.833664 -196.474518
-48.653343 -78.434402 -199.817795
-37.936230 -82.869957 -198.182251
-21.237286 -80.614799 -199.505203
-48.961529 -79.821457 -199.747620
-153.351624 -80.143448 -198.983215
-45.327034 -80.224609 -199.044708
-18.844007 -79.286453 -197.247238
-50.846451 -80.280197 -198.386169
-45.936527 -77.572052 -200.798660
-146.013443 -81.151390 -197.997925
-36.112999 -81.999413 -201.470169
-49.913395 -80.223961 -198.367477
-45.074207 -80.472107 -198.631332
-18.835575 -80.131439 -200.668900
-146.021957 -80.451118 -200.263092
-51.551971 -81.339638 -199.360565
-47.691135 -79.407631 -199.217102
-146.935074 -81.099297 -199.603607
-135.901825 -80.888084 -202.556671
-136.742645 -78.510887 -201.527313
-47.054428 -79.931557 -199.070084
-56.276199 -79.832817 -201.848709
-44.777779 -82.244041 -200.347260
-47.178936 -79.257927 -199.650360
-36.068569 -79.460457 -201.967697
-55.803558 -81.050285 -202.533890
-53.825565 -78.495033 -200.691620
-49.369038 -80.227974 -202.563141
-46.915962 -81.933311 -202.369568
-141.540100 -82.255699 -203.963562
-54.722641 -80.263954 -200.458038
-143.936218 -79.034485 -203.455826
-50.540867 -80.279228 -202.636566
-35.524277 -81.641670 -204.156860
-151.771378 -81.001480 -204.482819
-58.992905 -79.006729 -202.937393
-51.810127 -78.230171 -204.635132
-48.514679 -82.191444 -203.540085
14.549107 -78.348854 -205.183578
-61.943863 -81.130791 -203.500519
-14.640772 -78.769295 -203.212341
-62.226391 -80.417770 -204.857468
-142.856918 -82.535263 -202.782043
-55.980259 -79.983475 -205.657516
-52.330860 -79.618942 -203.324844
-35.943436 -80.988968 -205.524307
-64.226677 -81.894958 -205.187622
-53.175911 -80.975960 -206.986084
-14.018164 -80.628395 -204.303772
-65.094482 -81.102539 -204.699371
-33.180645 -79.899162 -204.705627
-145.235962 -79.563469 -205.985214
-39.615803 -79.188362 -206.050339
-69.838219 -81.948395 -207.261627
-57.860916 -78.823814 -207.693115
-13.170346 -80.293480 -206.336182
-29.346619 -80.275002 -207.814957
-35.636993 -80.522972 -206.463074
-71.556061 -81.490715 -207.323685
-37.529793 -79.441505 -209.102768
-32.460293 -79.829063 -209.473373
11.687070 -79.561707 -206.671402
-60.984745 -78.666626 -208.502045
-144.705887 -83.184441 -209.032333
-59.887844 -79.860970 -209.694305
-33.601963 -78.893806 -209.872375
-31.959543 -80.766602 -209.301666
-13.031018 -81.602142 -209.449921
-75.908043 -80.655830 -210.371887
-61.510654 -81.367538 -209.027130
-13.567092 -80.407646 -209.661453
-145.045761 -81.539925 -210.631012
-32.639881 -80.506851 -209.914841
11.790493 -80.357185 -210.853867
-64.161850 -81.364059 -211.790543
-148.396851 -81.102341 -210.806458
-76.344070 -82.607666 -211.149719
14.444197 -79.009415 -208.313995
-145.011673 -80.872643 -210.126083
-65.090057 -81.637917 -210.653336
-30.022377 -79.990021 -209.936493
-11.624512 -78.352798 -210.328491
-147.284912 -81.884209 -212.124847
-78.838409 -80.431496 -212.806168
-65.904915 -82.984070 -211.936630
-12.536875 -81.529411 -212.751114
-79.009224 -80.768478 -212.331940
-68.597366 -80.716202 -213.314316
-32.461159 -80.886421 -211.397141
-27.439249 -80.705765 -213.162155
-8.467565 -78.537346 -214.158112
-79.131660 -79.630005 -211.320541
-79.010658 -81.922897 -214.342529
13.287037 -80.689590 -210.346878
-80.995071 -78.851379 -213.468246
-78.354271 -80.957367 -213.933243
-81.353653 -79.289719 -213.117538
-73.606277 -81.319244 -212.907700
-30.699696 -79.852074 -214.637131
-27.428974 -80.046021 -213.675949
13.519100 -80.270027 -212.181519
-80.672821 -79.327873 -214.161911
-77.584579 -80.697418 -214.187592
12.066632 -81.664169 -215.825623
-78.583687 -79.512154 -214.435623
-28.147707 -80.294785 -216.322205
-12.071615 -80.525146 -212.476395
15.423195 -79.803810 -213.279327
-26.748890 -80.451637 -215.759933
-11.520188 -77.979248 -213.041077
9.467702 -80.062653 -214.586044
-148.371674 -82.149384 -215.912582
-5.134663 -80.394035 -214.441818
-147.960892 -82.401527 -217.326233
-11.316074 -78.809982 -216.321548
-146.502640 -82.704468 -215.566757
-10.693306 -80.375534 -214.751709
12.674614 -79.658569 -217.207916
-149.451019 -82.085678 -217.547363
-9.268466 -79.333046 -216.926010
-8.073591 -78.709267 -220.485306
-5.972933 -80.447266 -218.116165
-7.637218 -79.250877 -218.241302
15.199974 -80.851624 -216.515823
-151.197403 -80.819878 -219.441238
6.012402 -78.951248 -218.466202
-7.149731 -79.762955 -221.098419
-4.039561 -79.438049 -221.393402
9.760547 -81.602921 -223.093109
-150.644547 -81.220520 -220.518158
-8.116269 -81.063438 -220.196472
-2.852731 -80.072662 -221.731506
13.628185 -80.088097 -220.141846
-143.303024 -81.446274 -222.522110
-2.390835 -80.338600 -224.038528
8.125811 -80.652649 -221.860809
-4.930122 -80.170052 -222.329163
-1.435946 -80.147720 -225.893372
-144.820160 -81.357185 -224.128311
-151.871002 -80.748840 -225.036560
-141.864182 -80.191879 -226.166092
13.878569 -78.880165 -227.493866
-151.786514 -79.756119 -226.355240
-3.993573 -80.962097 -223.475449
14.480124 -82.969383 -228.170441
-149.001282 -82.475204 -228.015213
-137.274796 -79.092934 -226.746567
9.463341 -81.395752 -225.428925
17.421448 -79.024246 -225.734467
-154.132507 -81.615868 -227.835312
-148.555939 -80.994911 -225.758209
-145.441757 -81.898262 -226.735260
-2.128431 -82.687950 -227.629837
-150.200668 -83.399124 -228.522034
-2.156832 -78.230347 -229.695267
-0.634802 -79.671478 -227.397293
-152.877029 -80.969055 -228.160172
-134.287918 -81.849571 -230.641800
9.102307 -80.151459 -228.259583
17.677893 -79.681213 -230.761963
-147.623077 -81.607307 -230.406067
12.912059 -78.642746 -230.698227
-153.896851 -79.895470 -230.451172
-139.369583 -81.196327 -228.329041
9.319420 -80.819443 -233.028564
17.045004 -81.652412 -232.171158
-142.990219 -79.970711 -232.868805
-150.905441 -80.098480 -232.338684
10.311511 -81.245461 -234.187454
14.404605 -80.438133 -232.751114
-144.328415 -82.030151 -234.049988
15.227364 -79.599709 -233.412720
-150.815750 -81.409714 -234.480820
-143.670471 -81.002098 -237.152618
12.952435 -80.015442 -235.472977
18.441786 -79.774506 -235.472321
9.245995 -79.117401 -237.466339
14.379333 -80.093452 -236.406036
12.593797 -80.816521 -237.655945
8.948617 -78.457245 -236.712494
11.470821 -81.143074 -239.358826
-149.940079 -83.022354 -236.600891
16.762560 -79.194618 -238.399979
18.198101 -82.034737 -238.340988
-144.260864 -83.648140 -240.200912
-144.877777 -82.796585 -241.753021
-29.265530 -78.909454 -240.343613
-34.798775 -82.504463 -239.572220
-32.496902 -80.255890 -241.766617
-29.444817 -80.413223 -241.743988
-27.153706 -79.174141 -241.444321
8.623417 -80.959625 -240.362717
-144.396606 -81.916290 -242.324066
-29.847519 -79.743172 -240.940109
-28.760653 -79.252052 -239.640701
16.821133 -80.429008 -242.459793
-146.424011 -80.340973 -242.961807
-41.775551 -79.082031 -241.243591
-39.088486 -78.748787 -243.827728
-35.559795 -80.383759 -240.817200
15.564301 -81.384666 -241.966721
18.826553 -79.806831 -241.448135
-34.262100 -80.992867 -243.936279
-28.944386 -80.272766 -243.055801
-42.434498 -79.970009 -242.259079
-41.353634 -79.802711 -241.934662
-35.511955 -80.342094 -243.103546
-46.183594 -79.646065 -242.617523
-44.223965 -80.570831 -244.320145
-43.832722 -79.730293 -242.202652
-37.340607 -79.836296 -242.558807
8.447784 -81.667740 -243.393723
-41.553841 -79.753448 -242.313385
-39.147434 -81.391975 -241.625931
11.792106 -79.661903 -245.104507
17.199219 -80.721451 -241.199356
-48.791615 -79.281662 -245.416199
-45.208904 -80.081642 -244.188782
-43.892929 -79.837036 -243.981018
18.401295 -80.669182 -244.880768
-40.871899 -80.311478 -245.643188
20.025677 -81.008621 -246.204239
-147.681015 -82.151306 -245.811951
10.318233 -80.461433 -245.184830
10.419724 -81.456795 -244.699097
-146.066101 -83.631752 -246.441422
12.516078 -80.559753 -246.358429
-151.035980 -78.924255 -246.641022
22.065208 -82.624878 -246.138565
-144.862473 -81.646027 -248.271561
19.304630 -82.236382 -247.741379
5.080123 -81.514420 -247.944977
21.198357 -81.654259 -248.333466
6.532550 -79.922554 -249.899033
10.290348 -79.597305 -246.935562
-147.081970 -82.006851 -248.408813
0.714617 -81.280151 -248.267822
9.706791 -79.856384 -247.313416
12.132984 -79.725052 -250.066910
-3.320169 -80.677414 -249.943283
-152.419708 -82.141174 -252.278290
-2.807024 -80.007011 -251.772232
14.193318 -79.549278 -251.240601
-145.497147 -80.399956 -251.787277
-4.351921 -80.740997 -252.201080
14.807429 -82.152817 -250.169815
15.840791 -79.375702 -252.104294
-145.088303 -80.470436 -250.326202
-6.755507 -79.442635 -251.742752
-8.087455 -80.472366 -253.658524
-150.849503 -80.904541 -254.197952
15.545640 -78.573822 -253.370819
-142.748413 -81.978073 -254.904404
-152.519623 -81.876366 -256.015991
16.947598 -80.636833 -255.503342
-154.216446 -81.509377 -258.220520
-142.801559 -81.859436 -256.533234
-9.187325 -80.287994 -257.239929
-154.407913 -80.341003 -256.986877
-135.083191 -80.116135 -256.498260
-134.308975 -82.441353 -258.229401
-8.301499 -81.778900 -257.446472
-154.050064 -81.643745 -258.375061
-9.146945 -81.142715 -258.745819
18.312012 -79.444305 -258.108582
-134.170074 -79.812408 -258.372650
-146.737396 -79.614952 -260.162537
-153.770721 -80.815315 -259.589264
-135.110016 -82.515770 -259.517944
18.001825 -79.816177 -261.040680
-152.942337 -80.483643 -263.252899
-141.851166 -80.419334 -260.728882
-144.089798 -79.637955 -262.254730
-150.789368 -81.448059 -264.314728
-9.610742 -79.300964 -264.664917
18.771378 -78.134109 -263.610413
-145.625381 -81.918266 -263.980377
-146.045746 -80.120789 -265.207764
-150.865448 -80.030281 -265.602875
-151.403015 -83.280525 -267.221802
-146.429337 -83.392975 -268.822144
-9.287650 -80.358536 -265.295563
16.116892 -80.441505 -268.619720
19.441828 -79.544960 -270.626251
-7.194036 -80.644691 -269.800049
15.017934 -80.330574 -268.968567
-146.014206 -81.020569 -270.864807
-151.107224 -80.458214 -271.447449
15.091039 -80.991783 -271.195435
-148.166977 -79.821762 -272.503510
-5.079322 -81.224045 -270.976440
-4.781402 -79.724976 -273.442566
12.944433 -81.612762 -272.890900
-5.743263 -79.662224 -276.078125
-150.035797 -79.679756 -273.439026
-2.102439 -80.020477 -274.280548
-3.635931 -79.739838 -276.111206
14.038833 -81.011337 -273.781738
-3.372161 -80.711067 -275.395447
11.218406 -79.372711 -275.804077
-152.440628 -77.773598 -276.886261
11.744652 -78.192802 -278.415710
0.163917 -79.454689 -279.306183
10.576268 -81.482605 -277.779358
10.136123 -77.447922 -279.508820
6.006028 -78.979492 -280.552887
3.047002 -79.607292 -278.125641
-150.412689 -81.005363 -280.008118
-144.783127 -81.616104 -281.396545
3.598560 -81.095184 -280.303802
7.029315 -81.089661 -279.210571
4.791481 -78.860535 -279.928528
-146.342453 -79.591148 -279.689758
3.803229 -80.186409 -281.811951
-149.359131 -80.569313 -281.079254
5.734099 -78.845169 -282.917145
-146.142731 -80.761932 -282.371155
-154.971909 -82.686623 -283.318237
-142.955399 -79.742859 -285.179199
-155.507660 -81.089905 -283.487518
-156.100800 -80.579109 -286.676483
-140.214355 -80.824593 -285.228088
-137.887115 -79.262215 -284.384125
-150.563843 -80.170128 -287.746002
-135.263107 -79.862816 -288.469025
-135.832916 -80.700310 -289.715973
-149.889511 -79.707581 -290.208160
-136.708954 -79.245911 -291.033813
-136.933121 -76.503761 -291.050354
-141.203720 -81.718979 -292.727112
-137.504669 -80.776146 -291.891083
-143.489273 -81.067169 -291.612762
-154.260086 -80.063545 -291.378571
-155.678818 -79.997688 -294.174927
-144.050491 -80.386497 -292.336823
-147.816101 -80.911530 -293.406647
-152.668991 -81.180298 -293.813354
-146.526627 -82.336182 -293.970703
-150.893326 -82.667221 -296.206818
-152.724167 -80.421173 -295.306885
-148.222183 -80.392960 -298.408630
-151.767395 -80.090034 -299.933685
-146.475540 -79.730812 -298.072266
-151.137634 -81.954140 -301.626434
-153.236710 -80.363983 -301.704926
-149.613113 -81.057816 -299.927032
-57.915997 -79.194489 -64.349785
-54.766487 -78.819550 -61.973396
-64.918938 -80.252937 -63.181934
-60.969124 -78.753563 -63.435116
-49.601574 -77.119186 -62.749836
-71.698502 -78.443748 -65.129021
-55.810265 -78.852119 -64.532387
-49.563560 -78.937790 -64.368584
-47.135078 -81.360428 -64.997559
-57.020199 -78.348320 -66.004135
-69.150215 -78.785812 -63.755077
-52.565742 -78.833733 -63.477924
-67.106804 -77.424774 -64.390358
-60.712818 -78.404251 -64.507805
-46.038784 -79.189903 -63.901031
-42.841549 -77.851768 -65.172340
-66.887032 -78.228363 -66.839539
-48.163914 -78.253899 -65.060753
-41.213001 -78.391754 -64.008774
-69.209610 -78.317268 -65.898697
-51.699574 -79.434578 -65.953438
-44.193565 -81.426552 -67.925072
-39.506420 -79.162941 -66.958145
-74.991219 -79.169342 -65.453293
-71.216003 -79.572189 -65.604904
-68.364326 -79.760239 -68.009506
-48.949360 -79.475975 -66.333031
-46.514309 -79.149895 -68.516273
-36.591507 -77.938347 -67.244362
-74.699127 -81.112236 -67.711693
-71.232986 -80.629517 -66.006920
-69.529221 -78.581940 -65.832748
-41.301056 -77.830063 -68.157440
-39.858120 -81.143860 -69.107269
-36.240578 -78.853424 -66.848404
-73.196030 -79.087448 -69.659103
-38.767879 -78.861870 -68.977592
-34.717625 -78.129486 -69.295464
-76.400772 -79.907555 -69.760002
-76.369919 -79.333611 -69.563911
-35.710743 -78.252655 -69.464951
-32.740944 -79.082146 -71.164932
-77.616096 -79.357399 -70.344841
-76.816589 -79.203026 -71.813820
-33.989368 -80.836235 -70.984123
-33.513557 -79.797905 -73.822418
-32.149067 -79.156723 -69.835098
-80.217651 -77.189651 -71.935257
-78.808960 -79.006805 -71.404877
-77.156532 -80.257004 -71.684380
-30.182425 -79.116776 -72.456757
-80.745781 -78.008972 -72.083763
-80.167427 -79.421822 -75.797852
-31.775532 -80.915123 -74.568985
-80.690422 -79.856522 -73.058205
-25.598387 -79.013748 -74.972191
-80.794586 -77.104836 -76.996147
-30.385262 -78.668076 -75.292320
-28.067236 -78.573830 -75.637482
-82.186775 -78.235680 -75.911812
-30.407602 -78.633720 -78.249405
-84.277916 -78.761589 -80.077972
-31.260178 -79.898888 -78.705612
-81.261948 -80.108025 -77.866081
-31.428640 -79.258263 -78.482979
-85.363045 -79.884094 -81.696533
-34.228222 -79.099640 -79.363441
-36.478561 -79.914986 -83.409897
-36.458927 -79.249130 -82.554176
-39.578434 -80.207718 -83.414124
-84.440605 -79.951874 -85.016365
-84.076622 -78.481216 -85.661438
-40.085346 -79.030884 -85.115448
-42.889683 -79.929230 -85.471466
-46.932133 -78.520752 -86.769760
-86.821213 -76.785355 -84.493286
-49.979561 -80.335732 -87.845604
-50.654510 -78.733284 -86.824142
-87.319389 -80.558830 -89.160561
-49.898228 -80.461205 -90.432274
-89.290962 -77.638100 -93.000336
-86.909958 -79.615433 -93.435493
-57.735222 -79.805511 -93.795197
-87.300003 -79.399254 -95.184509
-63.503082 -79.852097 -96.931770
-65.312759 -79.206345 -99.529907
-88.050102 -81.987282 -100.413338
-89.341385 -79.957947 -100.243591
-91.140709 -76.005592 -102.080132
-76.231903 -79.490593 -100.887375
-87.633904 -82.703377 -104.190292
-77.005127 -77.883881 -102.879333
43.852867 -80.029953 -105.417725
-90.502136 -77.998520 -105.118401
-80.859581 -80.483818 -104.923065
-90.723106 -79.076584 -106.478516
48.306267 -79.193550 -103.975365
45.206924 -79.746872 -104.833595
44.535618 -80.152710 -108.889732
42.671425 -79.794937 -109.754326
-89.789879 -80.269051 -108.970131
-82.101669 -81.039253 -106.771111
47.237736 -79.838165 -106.987312
-85.327400 -79.179115 -110.706757
41.993343 -79.411499 -109.659790
-85.484467 -80.545723 -110.973312
-88.673096 -77.501656 -111.400223
-86.495361 -79.375740 -111.054443
-85.737663 -80.137802 -111.325768
46.903904 -79.239189 -109.034515
45.505856 -78.943581 -113.364738
37.562714 -79.518814 -111.675766
41.604485 -79.933380 -110.735519
44.351620 -81.052231 -111.617859
38.329300 -78.875671 -113.879974
44.595356 -80.292755 -114.555267
37.421818 -78.213173 -112.355270
38.674110 -80.206810 -115.670792
45.627258 -78.302414 -116.588593
41.836975 -80.064926 -117.438522
41.434418 -79.215836 -116.208427
44.427692 -80.748077 -117.903221
36.314552 -78.153458 -118.813309
36.029911 -79.242767 -116.990410
36.116566 -80.147011 -117.847679
40.638378 -78.475128 -121.107208
36.565250 -79.484680 -120.629700
34.472977 -80.384560 -120.753792
44.207211 -79.364105 -121.464066
31.956785 -79.700577 -121.092293
33.767269 -80.513710 -123.977615
37.810631 -79.010735 -123.188057
32.690525 -79.742821 -123.727905
41.779079 -80.286652 -122.241112
35.226868 -79.429321 -127.699371
37.197399 -80.489601 -124.927650
42.102631 -78.627892 -124.142204
33.864677 -80.237373 -126.634964
38.445976 -78.953148 -126.989075
33.357651 -80.319191 -126.096474
41.930756 -77.878922 -127.547020
30.878309 -80.344971 -130.512299
33.885056 -79.403694 -129.562744
38.981621 -80.524055 -127.336304
36.742435 -80.320770 -128.895187
33.933739 -81.172958 -132.695526
31.050436 -79.970589 -133.075607
32.002094 -79.294441 -133.421234
35.396801 -79.115501 -131.724197
38.155975 -78.897911 -132.115112
36.873707 -82.197166 -133.402008
32.909969 -80.032967 -133.833252
34.071480 -79.697014 -136.797409
33.121235 -78.154427 -140.684540
35.550976 -79.791664 -136.492584
27.563700 -78.250916 -139.574295
31.632614 -78.973045 -137.501694
32.697624 -78.079430 -141.278427
28.301104 -79.483116 -144.121384
24.793257 -79.811493 -144.925659
34.268753 -79.714569 -143.631042
27.515465 -79.814270 -145.905853
33.933502 -78.181488 -148.955307
-47.128716 -78.465851 -145.701492
33.652073 -79.771675 -147.218979
24.936136 -77.389915 -148.471939
-50.707260 -79.076744 -150.678741
-45.492496 -80.299110 -151.131409
32.212055 -78.145851 -150.290161
-43.627117 -79.395676 -149.875397
27.838850 -79.926445 -149.040009
-45.674946 -80.478088 -152.900818
25.464348 -80.276749 -152.362000
-42.506325 -78.990631 -151.697021
32.012295 -77.772659 -152.073181
-41.348564 -79.523308 -151.802368
-41.080605 -77.879410 -154.068802
30.772860 -79.461563 -156.280762
26.795856 -79.948227 -154.488754
-46.848900 -81.429634 -153.064758
-42.835495 -80.280434 -153.627319
-40.358570 -78.397316 -156.095230
29.003809 -81.210518 -154.921448
-36.822277 -78.115471 -159.949509
-44.603165 -78.334557 -159.365143
24.285231 -80.654434 -159.857498
23.261473 -79.712624 -159.722672
28.307274 -80.123489 -159.331741
-35.294804 -81.356499 -161.080246
-45.774277 -79.071228 -162.236679
26.177740 -79.577255 -162.831711
29.655947 -77.390923 -162.910477
23.049541 -81.251625 -164.344269
-35.816475 -80.062889 -163.182770
-64.196480 -77.592667 -162.882843
-64.708763 -79.638687 -160.605301
-62.290527 -80.587830 -164.735855
-61.405418 -80.108292 -162.998978
-0.707065 -78.079437 -165.160950
-61.949284 -79.103912 -165.304733
-2.744458 -78.739891 -166.105560
23.835461 -80.112274 -163.426071
28.044376 -80.130310 -161.148621
-65.767822 -79.580421 -165.033905
-2.115410 -78.670273 -167.158844
-61.666546 -81.214424 -166.949341
-38.265118 -79.440842 -166.852020
-4.850195 -79.109085 -167.101486
-60.345791 -79.780022 -166.879059
-4.157125 -79.970139 -166.898590
27.565355 -81.355537 -166.450226
-64.439804 -80.054581 -169.133850
-6.407133 -79.904205 -168.021179
-63.674816 -79.618843 -168.865829
-59.841076 -78.159729 -168.781876
-57.670723 -79.629051 -167.391449
-32.681904 -78.369186 -169.462418
24.742666 -79.370209 -166.747620
28.501846 -78.294884 -167.010056
-38.908646 -79.285858 -167.409576
-2.182497 -78.516220 -169.429276
19.907045 -79.264656 -169.530807
-28.711138 -77.961342 -169.021057
-8.599086 -79.127510 -170.296341
-62.820709 -79.650009 -169.433289
-58.362617 -80.469917 -169.765976
-38.561241 -80.888557 -170.665756
-1.286649 -78.982323 -169.265869
-13.016345 -79.143227 -171.391541
-4.318350 -79.663734 -171.203644
27.756145 -80.175797 -168.768463
-4.778380 -78.807129 -170.953979
-60.552708 -79.371155 -172.234238
25.036476 -78.559563 -172.832718
-55.206303 -80.375793 -172.446747
-30.051563 -77.873375 -170.941910
-63.167831 -78.230774 -173.904526
-37.664165 -79.263397 -170.226486
25.125771 -81.357994 -171.188385
-28.432058 -79.830643 -171.709427
-14.562994 -82.119194 -173.615356
22.040798 -80.162590 -171.893463
-7.569163 -79.589302 -173.200760
-53.409988 -80.371544 -175.571259
-13.886559 -79.486038 -173.508911
20.980074 -77.954247 -171.931091
23.795872 -78.739304 -173.351547
-5.323365 -80.662056 -174.226746
-58.352165 -79.307533 -173.080475
-19.124369 -78.995125 -176.168884
-8.808072 -79.067688 -174.895447
23.089375 -78.506317 -175.231506
20.793589 -79.110420 -176.611969
25.554790 -77.827454 -174.461670
-53.002995 -79.902573 -174.882309
-28.137203 -78.369759 -176.407745
-26.650084 -78.635994 -174.934784
-9.898448 -79.573219 -177.157745
-59.282753 -79.977837 -176.486069
-36.254707 -79.531357 -176.437408
-25.867863 -80.148491 -176.721161
-25.417107 -77.857155 -176.444229
-16.726946 -79.280396 -175.004578
-51.140862 -80.079163 -177.838760
-34.545933 -80.779404 -176.949463
22.127726 -78.535500 -177.339828
24.837118 -78.360115 -176.320679
-57.675537 -80.253822 -176.201416
-11.901483 -79.699318 -179.037674
22.362993 -80.070152 -176.676437
-19.178730 -80.467995 -179.864777
-35.116730 -78.237183 -178.396973
-21.236504 -80.173340 -178.496078
-26.199663 -80.528976 -179.262222
-12.926809 -79.315041 -181.160141
25.853222 -80.002281 -176.591965
-32.272598 -81.454659 -179.112976
-23.853912 -79.813469 -180.467422
20.770956 -79.949615 -178.826111
-52.267399 -79.457436 -180.579605
-12.552739 -78.408768 -180.504608
23.503195 -78.003624 -180.250061
-24.195286 -79.225861 -181.983063
-29.776321 -78.407860 -181.531189
-14.945064 -78.090889 -182.034714
21.460352 -80.790413 -180.225250
-50.313164 -81.211319 -180.756409
-50.049187 -79.649422 -183.773895
-15.858573 -79.223785 -182.405823
-55.957527 -81.161346 -183.742767
-20.068512 -80.055359 -184.547852
23.250111 -80.019142 -182.322571
-50.664421 -79.222733 -183.833069
-29.954084 -79.364746 -183.746033
-54.090141 -81.364761 -185.261703
-30.713953 -79.562935 -184.784714
20.713739 -78.956673 -183.474060
-47.345833 -79.137550 -183.518829
-21.142275 -78.991196 -185.056641
21.466513 -79.060959 -183.942413
-146.160400 -80.201248 -185.701553
-50.635147 -80.534721 -184.297516
-46.432968 -80.284119 -186.164200
-21.339369 -79.946335 -186.279694
17.517118 -78.597084 -187.923676
21.303755 -79.238068 -187.592926
-30.243164 -78.716042 -185.542694
-21.971632 -78.981651 -188.930939
-21.104076 -76.724770 -188.583755
-150.881989 -78.718307 -187.460342
-52.176186 -79.057495 -188.049515
-45.241856 -78.909279 -190.145981
-31.864670 -81.348061 -187.338257
19.376101 -79.732498 -189.409393
-150.724335 -80.235893 -189.982971
-50.892292 -78.673477 -187.968323
-29.882589 -76.542519 -188.224915
-29.354847 -79.941086 -190.103531
-53.143417 -81.523689 -189.231659
-43.400497 -82.078224 -190.487152
-32.539108 -80.244759 -187.214706
-30.602196 -78.914658 -188.810669
-28.624296 -79.207588 -188.217392
-27.497034 -80.249840 -189.041153
-48.015301 -79.662331 -189.918808
-42.605877 -79.450027 -188.503098
-22.580612 -80.453217 -189.796555
18.701004 -79.965202 -187.160995
-53.344311 -79.557091 -188.663834
-44.809132 -77.953690 -190.806076
-45.246284 -79.852890 -191.071701
19.053207 -79.115364 -190.341080
-19.864628 -79.830589 -191.916382
-45.959309 -77.738052 -191.061829
-49.614517 -78.134247 -192.160767
-44.662167 -78.958092 -190.506439
17.350380 -79.157867 -190.430481
-51.289921 -81.129204 -192.904541
-26.052872 -79.424866 -191.755585
-50.097916 -78.298141 -192.683990
-43.751827 -81.041809 -193.096008
-39.995800 -79.158424 -193.488388
-25.846891 -80.069656 -191.928787
-150.659927 -78.593796 -191.655136
-49.401134 -81.253487 -193.301758
17.075193 -79.775246 -192.914291
17.427641 -78.446312 -192.742264
-43.408642 -80.623436 -194.052383
-38.971756 -79.473419 -193.918121
-149.757248 -78.812607 -192.241821
-144.671448 -79.256355 -194.725739
-47.442059 -79.283768 -194.957443
-38.849594 -79.377808 -195.181885
17.238125 -77.777000 -192.329315
-143.710022 -79.651794 -196.499191
-43.508427 -79.063293 -195.445923
-20.182449 -79.072243 -194.185394
-18.710943 -80.324760 -195.961578
-150.061890 -78.636688 -194.999451
-142.374832 -79.649506 -194.307846
-140.649399 -79.233978 -195.833908
-47.426559 -79.691849 -196.339951
14.904676 -79.364441 -196.721909
17.561766 -79.153694 -196.718185
-42.093288 -79.487221 -196.975555
-39.498890 -77.836555 -196.426544
-139.084198 -81.037880 -195.325394
-45.835503 -80.933739 -197.178192
-17.734945 -79.139648 -196.918777
-151.947418 -81.152626 -195.620590
-153.261627 -77.239914 -196.278488
-146.700912 -80.158691 -197.704483
-134.474319 -79.784889 -197.074509
-42.830032 -77.332779 -197.221252
-38.120071 -80.381187 -197.657761
-16.119247 -79.295181 -198.671555
-41.564449 -79.756111 -195.911118
-17.093300 -80.243896 -197.474426
13.220783 -78.997391 -197.341232
-148.663177 -77.978836 -198.882202
-42.014153 -78.048569 -198.293091
-148.388046 -80.133614 -200.544388
-133.967209 -80.953407 -198.898163
-36.564022 -78.656998 -199.928482
17.663853 -79.312225 -198.550705
13.925343 -77.793587 -198.887451
-39.944118 -79.498299 -199.317307
-19.742126 -79.976273 -198.558746
-13.965309 -79.178482 -200.844467
12.613259 -77.875908 -199.803848
-43.370476 -80.899223 -198.815430
-16.563635 -80.995422 -199.774338
16.421543 -79.427452 -200.536362
-141.018143 -81.020988 -202.619415
-136.596603 -79.312805 -201.684525
-135.273193 -80.732948 -200.859406
-35.761345 -80.032890 -200.053558
-15.040520 -80.007904 -200.743729
-141.273132 -80.267189 -201.210800
-138.891556 -77.276321 -201.972107
-135.387512 -77.524971 -201.735153
-50.965004 -79.249039 -200.711121
-39.266209 -78.799423 -199.145844
-33.853947 -79.337807 -201.586792
-16.468639 -80.510666 -202.216965
-41.754177 -80.880524 -199.405869
12.453959 -80.220085 -202.071533
-41.783581 -81.683479 -203.099792
-35.125343 -81.742104 -202.154114
-21.364002 -79.665291 -200.316879
12.943149 -80.070320 -202.287064
-52.039982 -80.327538 -199.965729
-33.897617 -78.989182 -201.962357
17.048918 -79.173920 -202.342590
-54.080692 -78.701996 -202.155334
-18.169495 -78.407539 -202.899384
14.205075 -81.465126 -203.423035
-55.858574 -79.623589 -203.328354
-54.399090 -78.818848 -203.618423
-40.966656 -81.785271 -203.078598
-149.787354 -79.483528 -203.288422
-60.749809 -78.438988 -202.961624
-56.571259 -79.696594 -201.633926
-55.163910 -79.559036 -203.832062
-53.248035 -79.238831 -204.099594
-35.889206 -80.238327 -204.652405
-21.043480 -78.303284 -202.731903
-17.136572 -79.209991 -205.318207
11.676721 -80.073990 -203.431564
-61.753265 -80.052048 -202.588104
-31.530039 -76.810158 -203.512161
-13.432250 -79.882225 -205.563477
-63.768322 -78.616943 -204.407257
-53.958389 -78.867142 -204.593842
-41.208042 -79.586914 -205.576797
-17.843599 -78.069313 -206.806519
13.061544 -80.256264 -204.003708
-61.535614 -79.168510 -203.558319
-60.267067 -79.001839 -203.378159
-149.656662 -78.712952 -209.422607
-68.431389 -78.374184 -207.636261
-55.021576 -80.791191 -206.166183
-31.938911 -79.384109 -204.062073
9.404798 -79.337585 -205.761917
11.246916 -80.281960 -206.789612
-57.156570 -78.590889 -205.315765
-60.740410 -79.184372 -205.341324
-36.994186 -80.115227 -206.647079
-32.223110 -77.227692 -205.433716
-15.488629 -79.946190 -205.690369
-149.583939 -80.009575 -206.319077
-56.669937 -78.918488 -206.217041
15.513925 -79.477982 -206.201477
-70.434967 -78.883133 -208.123657
-56.467434 -82.015549 -206.926346
-31.621758 -81.178429 -206.729538
-11.273264 -78.151306 -208.043243
13.313519 -81.389435 -208.204407
-72.781487 -80.900589 -208.435013
-58.657600 -80.474213 -208.368927
-59.065083 -78.115135 -207.453262
-11.221656 -80.702164 -209.353653
-17.677139 -79.606476 -207.567215
16.740446 -78.775932 -205.223709
-78.243423 -80.430710 -210.550674
-60.645645 -77.456200 -207.739716
10.611038 -79.271240 -208.972198
-61.784527 -80.384682 -210.524139
-37.131935 -79.850815 -209.162643
-29.814005 -81.444260 -210.898575
15.066278 -78.425629 -212.107483
-77.692131 -79.295174 -209.810730
-64.728661 -79.224701 -210.469833
-8.775444 -78.463844 -210.777267
-149.243988 -79.024406 -212.116577
-34.436436 -80.011093 -212.563812
-14.488748 -78.346779 -210.225113
-9.808290 -80.901939 -212.092392
-149.861893 -79.951614 -209.397278
-146.637039 -78.945930 -211.555038
-79.145432 -77.531624 -211.061768
-28.832005 -79.562645 -211.458023
-8.246462 -79.409592 -211.920151
8.743289 -80.359116 -211.837860
-81.217361 -80.093315 -214.197113
-67.364136 -78.073898 -211.791260
15.006328 -80.668579 -210.618805
-82.648666 -79.621002 -211.276337
-82.800728 -78.304192 -213.543213
-69.705894 -79.467804 -213.823853
8.859029 -80.490471 -213.015549
-71.019569 -81.177071 -212.638779
-73.727386 -79.412498 -215.434326
-24.885481 -79.155205 -213.490479
-82.891098 -80.297340 -215.135681
-76.877373 -79.890396 -213.685501
-25.429798 -79.236908 -214.813538
-8.066125 -79.694069 -212.246552
-84.269989 -77.933510 -213.413284
-30.167591 -79.248863 -215.522659
-30.892155 -80.100174 -212.762466
-9.202159 -79.955719 -214.405380
-79.057373 -78.565903 -214.690292
-76.788712 -79.862022 -214.619705
17.209864 -79.834007 -216.487625
-83.372459 -81.073181 -215.261917
-148.890411 -78.416252 -215.402756
-5.581028 -80.397644 -216.135941
-150.316620 -82.367508 -215.787369
-24.113338 -78.225586 -217.284485
-27.974705 -78.193008 -217.388382
-26.678488 -78.938576 -218.440475
14.594083 -79.427010 -220.789963
-26.834187 -79.282059 -219.400192
-19.823807 -79.196114 -218.943665
-4.470700 -77.074493 -219.227951
-146.074066 -82.238846 -217.741699
13.420722 -77.152367 -217.659531
-145.819000 -79.473816 -217.562698
8.684174 -78.660950 -216.216827
-4.660176 -81.017609 -221.558868
-9.805743 -78.960777 -218.787933
-21.335815 -78.656876 -219.424301
-9.239471 -79.440147 -219.021423
11.337573 -78.723656 -220.259964
-8.859953 -80.521805 -220.731216
-4.942071 -81.051003 -219.185272
16.493023 -78.601974 -223.582352
-144.413025 -77.564697 -221.691498
7.589046 -78.858345 -218.468323
-6.893372 -79.351402 -222.612488
-150.163177 -81.060402 -222.824753
-2.329895 -79.651825 -223.296860
12.210228 -79.183792 -224.457016
-144.410599 -81.107063 -222.929901
-5.650581 -79.615173 -224.826447
-150.783371 -81.364288 -223.713562
0.285820 -79.112160 -223.804565
15.030016 -79.214424 -222.554703
-8.792526 -80.186668 -223.367905
-141.653076 -78.687485 -225.251526
7.462277 -79.032639 -224.007401
8.692575 -78.296356 -225.696579
14.696063 -79.646202 -225.417191
-155.511063 -80.606430 -227.412094
-142.805008 -77.754250 -225.252808
10.234058 -79.585617 -228.803284
13.745450 -80.078079 -227.846466
-147.698227 -81.797989 -225.413177
0.058097 -81.247108 -226.179657
13.494449 -80.143036 -226.168274
-147.727310 -77.025879 -227.567764
-2.620127 -77.755356 -229.343704
-150.074905 -79.041672 -228.193771
-133.010941 -77.773003 -229.275085
11.964374 -79.706284 -229.252350
16.973701 -80.714172 -227.513336
-154.782730 -79.737137 -226.800293
-133.366364 -82.084030 -229.423630
-0.208247 -78.873245 -229.647079
2.770544 -79.472923 -227.069397
13.528991 -78.729088 -230.035583
-154.574860 -79.075150 -230.233719
15.757696 -78.769394 -231.206375
-133.956436 -81.441986 -229.949249
-147.839157 -82.339249 -231.805359
-3.338928 -79.132156 -230.432510
9.423489 -79.835327 -230.081406
-143.402618 -80.187462 -232.279266
16.665945 -80.354927 -231.263138
-141.706390 -79.818550 -231.475555
17.613909 -78.893433 -234.152832
-141.740494 -76.943207 -233.757629
8.213095 -78.884636 -227.711334
9.930725 -79.998657 -231.999512
-153.290573 -80.980751 -232.039368
0.657180 -79.739395 -230.322174
0.955477 -79.827934 -231.450943
-153.484451 -78.882645 -233.491104
14.785128 -79.862419 -230.512451
11.828475 -79.712212 -233.163879
16.071421 -79.436806 -233.822922
-150.314499 -81.518898 -233.958344
-143.868378 -79.537224 -235.353775
1.434247 -78.443237 -233.522079
-1.061219 -79.450386 -232.821869
-145.419724 -80.831612 -235.136337
-150.632111 -77.065697 -234.118622
1.078599 -80.504425 -234.063507
8.315645 -79.856651 -233.254059
19.183458 -79.545769 -235.504181
12.094723 -79.634529 -237.073364
-1.751415 -79.919075 -234.211670
-147.349243 -77.776321 -237.153961
7.881873 -79.831894 -236.788300
-145.340088 -78.354866 -238.127701
16.147278 -80.364265 -235.114059
20.179152 -78.060143 -236.424866
-29.074337 -79.738411 -238.128189
16.290108 -80.930206 -237.778381
-30.739441 -78.313255 -238.804932
-28.695656 -79.328087 -238.267502
-26.319815 -79.285118 -240.339508
9.234616 -78.902359 -236.781677
-32.023479 -79.398674 -240.279388
11.024086 -79.990921 -241.560898
-144.909286 -78.318977 -238.524673
-38.602192 -80.620865 -241.320618
-27.775661 -78.989296 -238.548203
-23.546051 -78.840660 -242.147049
-23.998625 -79.646317 -238.457321
-145.078995 -80.297615 -239.919449
-41.880825 -77.483070 -239.712585
18.089279 -80.114464 -240.845734
-43.407093 -78.714462 -241.249405
-28.360586 -79.533691 -244.597626
-26.669834 -78.024437 -242.787430
18.915504 -80.416275 -243.292191
21.710871 -78.574432 -243.178314
-47.782360 -79.790543 -241.680893
-32.443047 -78.675270 -244.310669
-49.043701 -80.978531 -241.067703
-46.382816 -80.371277 -244.505005
-27.776814 -79.582901 -242.581131
-50.029285 -80.168655 -242.232880
-34.151798 -81.271011 -244.915756
11.627882 -80.000687 -242.084381
-51.262344 -79.680748 -242.493927
-33.094864 -80.163681 -245.661987
-37.198811 -79.275314 -243.071381
-38.073051 -77.265152 -243.722885
8.367870 -80.987625 -243.866852
22.820065 -78.884079 -245.628647
-54.022282 -80.116508 -243.919342
-48.370975 -78.960617 -245.654663
-47.097931 -79.880104 -246.283829
-42.655113 -78.982079 -245.696518
8.016715 -80.196564 -245.249741
-47.753075 -79.959679 -243.500824
-44.761116 -79.229385 -246.331360
13.035783 -78.306679 -244.484528
19.480015 -79.476265 -245.883301
-54.376640 -79.696381 -246.419968
-44.130203 -80.041237 -246.558228
-146.200668 -79.342712 -244.315063
-51.689377 -80.528183 -246.134995
-46.748360 -79.998276 -244.918228
7.250183 -79.268013 -245.352737
11.520015 -79.580475 -246.789398
9.742684 -78.895622 -247.140671
18.231108 -79.940384 -247.054169
-150.293259 -80.530899 -246.821289
-52.737061 -78.599380 -247.668915
3.687704 -78.880585 -245.962280
21.348820 -78.775826 -245.907990
2.432914 -79.213905 -246.466339
4.710528 -78.735588 -246.907059
8.437406 -78.585251 -246.894562
-146.387497 -80.092079 -246.736679
3.016858 -79.797218 -247.197647
5.311828 -80.157814 -245.036942
20.651674 -79.387817 -247.052338
0.594325 -80.661819 -247.393250
20.791140 -78.309074 -247.356537
-151.500366 -81.738968 -250.699661
-0.235800 -79.747002 -248.947571
10.897605 -80.392677 -249.447784
12.074597 -80.166489 -249.546448
-6.062595 -78.697540 -248.923096
-145.583282 -79.233406 -249.321609
-151.141052 -80.190796 -249.084488
-150.430984 -81.188583 -252.276428
-152.002777 -80.265488 -253.332962
-153.408615 -79.137077 -254.440491
-8.831460 -80.587730 -252.213226
-139.712112 -80.082954 -254.833939
-9.284083 -78.903755 -256.907562
-136.311096 -79.329224 -255.552246
-145.740280 -79.868286 -257.803192
16.666029 -79.396370 -257.437714
17.120153 -79.406807 -258.953735
-154.037872 -79.433311 -258.248199
-134.851791 -78.769958 -259.510712
-135.880539 -80.559799 -259.891602
-146.076797 -82.215767 -257.468719
-135.750626 -79.400040 -261.557159
-11.190676 -80.122208 -257.707947
-10.317822 -80.005341 -259.198578
-148.751251 -81.016815 -259.910431
-137.567917 -79.609459 -260.243958
-148.888504 -81.705315 -259.058716
19.080957 -81.272614 -258.986755
-139.630188 -79.442451 -261.026642
-139.656418 -79.861649 -261.624084
-142.131195 -78.574821 -261.878204
-9.797177 -81.136894 -264.226776
-154.378860 -79.451332 -262.241577
-143.708145 -80.237251 -263.406189
-153.078735 -80.555786 -266.436401
-142.617249 -79.346535 -264.257935
-144.913452 -80.294899 -265.218506
18.054718 -81.290184 -265.034821
17.604685 -79.425186 -266.716217
-146.169647 -78.571564 -263.810577
