# This PCD file was generated using the MATLAB® pcwrite function
# from Computer Vision Toolbox®.
# .PCD v.7 - Point Cloud Data file format
VERSION .7
FIELDS x y z
SIZE 4 4 4
TYPE F F F
COUNT 1 1 1
WIDTH 1413
HEIGHT 1
VIEWPOINT 0 0 0 1 0 0 0
POINTS 1413
DATA ascii
20.721836 -79.024452 -173.321869
24.299583 -79.740417 -174.290619
-6.476521 -79.888145 -174.383835
-60.113876 -80.293358 -174.734207
-16.375322 -79.327812 -176.676071
-8.226151 -80.197388 -174.728958
23.244699 -79.433609 -176.136124
20.115267 -78.961899 -176.525772
24.992798 -79.074203 -175.176270
-53.993504 -80.020927 -174.921448
-28.253197 -80.092728 -175.869064
-26.873798 -79.968498 -175.974014
-9.527767 -79.612289 -175.930542
-60.444260 -78.863861 -174.768982
-34.727573 -79.208817 -175.661682
-27.272757 -80.316444 -176.985931
-25.723467 -78.101540 -176.699921
-18.384327 -79.225143 -175.965256
-52.443859 -80.690132 -178.258987
-33.268688 -79.644463 -176.137817
21.569624 -79.263962 -175.827591
24.377575 -79.829033 -175.345795
-59.404068 -80.855286 -177.038406
-11.898914 -79.228546 -178.573334
21.576448 -79.910454 -177.654434
-20.048180 -79.603783 -178.651718
-34.578503 -79.000099 -177.688583
-21.339844 -80.208633 -178.102859
-26.358742 -79.886101 -179.270569
-12.941684 -79.754303 -179.501221
23.928196 -78.993660 -178.463379
-32.444931 -79.658493 -179.149170
-23.264172 -79.508667 -180.731171
19.743690 -78.974197 -178.595642
-53.863708 -78.922554 -180.870514
-14.049407 -80.609154 -180.621338
22.321066 -79.792496 -178.781464
-24.169064 -79.368080 -181.287369
-31.572226 -80.054756 -180.485001
-16.280115 -79.264679 -181.653381
20.478632 -78.900482 -179.938614
-50.335453 -79.706665 -181.743134
-51.178352 -79.515991 -183.276642
-18.055513 -79.466309 -182.160965
-55.577816 -80.157295 -181.823624
-19.739979 -79.899673 -183.382477
21.970978 -78.581535 -181.233353
-50.607327 -78.305481 -183.222061
-32.232399 -79.049599 -184.246475
-55.227283 -79.294930 -184.675385
-29.134495 -79.916039 -185.224548
20.226332 -78.800713 -183.320847
-47.895618 -80.014771 -183.678207
-21.062134 -79.814720 -185.217606
21.564001 -78.606247 -185.881149
-147.319885 -80.993759 -186.126175
-50.527237 -79.309471 -185.654327
-46.118778 -79.893913 -185.513916
-22.363831 -79.367805 -185.677246
18.514589 -78.474297 -187.436722
20.048120 -79.222908 -186.494415
-29.238913 -79.418205 -186.862076
-22.291182 -80.737503 -186.998657
-21.134073 -79.075417 -187.690704
-148.820236 -81.194962 -187.309082
-52.799316 -79.916908 -187.656693
-44.297302 -79.298775 -187.366440
-30.633465 -80.006096 -187.827576
20.290518 -78.622665 -189.284637
-149.279144 -80.476013 -189.231537
-49.132759 -79.161575 -187.027908
-31.613874 -79.242805 -188.578979
-29.539047 -80.340088 -188.749527
-52.043732 -79.148132 -188.258530
-44.106682 -80.165886 -189.852234
-31.865389 -79.778038 -188.815781
-30.445484 -79.054474 -189.237198
-28.289337 -78.813721 -190.124603
-27.199558 -79.883186 -189.481918
-47.826580 -78.716171 -189.996002
-43.452232 -79.373222 -189.920517
-21.844532 -80.001259 -188.914139
17.951502 -78.974297 -187.667618
-51.598873 -79.171730 -189.833542
-46.391624 -78.349052 -190.701065
-42.624905 -79.790756 -191.364456
18.658506 -77.887177 -188.651215
-20.975330 -79.095718 -190.315323
-45.832447 -79.391281 -190.716873
-51.590958 -79.164818 -190.483582
-46.143089 -79.418770 -192.689346
17.467714 -78.515335 -189.315796
-50.563454 -79.719200 -192.139481
-25.337652 -79.592354 -191.153900
-50.871731 -77.897369 -193.186172
-44.073887 -79.607277 -192.468414
-41.407940 -79.845535 -193.755600
-24.783127 -79.295090 -192.879639
-149.927673 -77.624207 -193.355499
-49.370277 -79.297134 -192.735336
16.197603 -78.987198 -192.781418
16.759480 -79.083023 -192.587708
-43.019295 -78.194916 -194.871719
-40.272724 -79.928215 -193.885895
-149.365555 -78.453728 -194.017639
-142.996475 -78.809685 -194.717453
-47.579098 -80.006065 -193.733231
-39.295631 -80.205475 -194.666977
17.350449 -79.295670 -191.737564
-143.040680 -80.144585 -195.170334
-43.749962 -79.341606 -195.178864
-19.350948 -78.878677 -194.194458
-16.709618 -79.624908 -195.166840
-151.663681 -79.854279 -194.746643
-141.997559 -79.481293 -195.976151
-141.993622 -78.305496 -196.065598
-47.524876 -78.928322 -195.244324
13.445925 -78.824577 -197.116333
16.708191 -79.347672 -196.501663
-42.836746 -79.202484 -196.846039
-39.024384 -80.049599 -196.252121
-139.078812 -80.090347 -197.603500
-45.494518 -79.683014 -197.429581
-18.034954 -80.089218 -196.972580
-152.264038 -80.472305 -196.893173
-152.141449 -78.429100 -196.857056
-145.844498 -80.921066 -197.533905
-134.317780 -80.318085 -197.607117
-42.827557 -79.028908 -196.531921
-38.058609 -79.198051 -196.625702
-15.181787 -79.657204 -198.390625
-41.716808 -78.889114 -197.917068
-17.041943 -79.719170 -199.449799
14.555935 -79.264557 -197.490723
-148.283722 -80.334381 -199.171829
-41.990681 -78.930504 -198.413452
-148.604446 -79.832008 -199.456833
-133.780045 -80.454414 -198.936020
-36.240902 -78.710007 -198.965347
17.797523 -78.306503 -199.223740
14.926023 -80.049408 -198.161530
-40.120567 -78.523575 -199.523682
-19.697136 -80.006470 -199.537079
-14.379663 -78.764618 -200.116714
12.864871 -78.593842 -199.871750
-44.527058 -79.737289 -199.661026
-16.796499 -80.895248 -200.528366
15.065318 -78.993675 -200.459320
-141.392532 -81.180176 -201.852966
-135.599518 -80.389122 -201.162048
-134.923798 -80.647636 -199.943802
-35.416950 -79.123856 -200.227478
-14.187844 -79.017586 -201.554291
-141.385803 -80.205399 -201.701462
-139.925049 -79.016815 -200.915802
-138.108566 -77.847649 -201.040955
-51.036770 -79.590034 -200.541290
-39.257271 -78.251396 -201.241333
-34.155842 -80.506538 -200.917862
-17.172882 -79.913193 -202.783615
-43.571022 -80.138847 -201.328430
13.679423 -79.049309 -200.240448
-42.318409 -79.766357 -202.007202
-33.944611 -79.729477 -201.955536
-20.555595 -79.024506 -201.388123
14.012695 -79.625198 -201.808868
-52.442524 -79.279167 -201.603882
-33.115360 -78.828423 -202.554596
17.077187 -79.095360 -202.100983
-56.322628 -78.918854 -203.243240
-20.096308 -79.542015 -203.262665
15.022521 -79.215660 -203.137268
-54.766171 -79.647736 -202.002060
-53.990067 -78.921074 -202.275070
-40.838223 -79.693108 -203.330093
-149.810104 -79.904778 -203.984116
-59.277386 -79.456070 -204.534424
-57.308384 -78.422966 -203.436829
-55.829575 -79.043297 -204.665176
-52.697083 -80.289299 -203.470383
-33.899864 -80.471611 -203.883072
-19.873341 -78.670967 -203.181549
-17.569622 -79.317665 -204.382568
11.775343 -78.441360 -204.297699
-61.014702 -78.946068 -204.719467
-31.877531 -78.337425 -205.159805
-12.518803 -79.493896 -205.173447
-62.968510 -79.856827 -204.700867
-56.555630 -79.440620 -205.381516
-41.581120 -79.730621 -203.844116
-18.580425 -78.520714 -205.711548
13.722435 -79.737442 -204.221527
-61.489239 -78.519661 -205.921997
-59.441856 -78.507072 -205.714310
-149.071014 -80.423767 -207.205521
-67.894653 -79.235909 -206.295044
-56.179050 -80.329712 -206.882126
-32.181416 -78.946304 -204.559402
10.457294 -78.644806 -205.001068
12.057541 -79.720665 -205.526840
-58.253357 -78.284271 -205.745407
-58.917702 -78.140450 -206.296448
-37.217007 -80.845718 -207.465240
-30.221418 -80.373047 -205.789352
-14.683209 -78.527481 -205.526611
-149.162048 -79.067665 -205.824005
-57.833286 -79.044922 -206.099243
16.016827 -79.406502 -207.798660
-70.636475 -78.699120 -207.877487
-58.100948 -79.031097 -207.611160
-30.849302 -80.156807 -205.794281
-11.104596 -78.671677 -207.102203
12.310526 -80.141762 -207.508942
-72.156715 -79.793587 -208.110504
-57.845673 -80.657951 -208.024261
-60.015812 -79.019028 -206.383987
-11.732980 -79.790977 -209.294769
-17.259747 -78.440750 -208.245285
15.896613 -79.408417 -206.491577
-76.422058 -77.944267 -208.261551
-62.585907 -78.782677 -208.538620
11.420246 -78.948959 -208.445755
-61.642956 -79.609123 -209.408981
-35.858246 -79.925636 -209.118744
-29.995588 -80.955223 -210.234451
16.057611 -79.207863 -211.190475
-78.234222 -80.977272 -210.524094
-63.577076 -79.585136 -210.274017
-8.210285 -79.556427 -210.129364
-149.285843 -78.693260 -210.939087
-33.858139 -80.303612 -210.575409
-15.981122 -78.377182 -210.258209
-10.474241 -79.433846 -212.374435
-147.984344 -79.292305 -211.319580
-145.366882 -80.367760 -212.149338
-80.418304 -78.350151 -210.322708
-28.159443 -79.470360 -212.735626
-8.411505 -79.074150 -211.651733
9.635488 -79.874023 -211.814835
-80.872963 -79.585640 -211.211761
-67.517372 -79.631966 -211.750549
15.006164 -78.837006 -210.311676
-81.902946 -78.965439 -212.233261
-82.385666 -79.819115 -213.436829
-70.109253 -80.241455 -213.625839
11.008978 -80.120522 -213.340973
-71.521622 -80.192032 -213.639099
-74.509079 -79.331947 -214.278580
-27.245375 -80.306374 -212.533676
-81.950668 -79.078407 -214.022751
-74.896507 -80.478691 -214.409363
-24.750996 -79.727524 -216.120438
-7.101845 -78.695412 -212.442215
-84.198692 -79.111717 -214.581787
-30.483849 -78.968719 -214.702347
-29.444000 -79.926735 -214.136871
-10.063733 -80.346725 -213.403091
-79.498634 -79.112465 -215.460663
-77.763672 -79.548309 -214.432175
17.113184 -79.378860 -216.247452
-84.041733 -78.696030 -214.876785
-149.256104 -78.232864 -216.331451
-6.750257 -80.252266 -216.349182
-149.938889 -81.866196 -216.875427
-23.617756 -79.107330 -216.317368
-29.594406 -79.562218 -216.546768
-25.544268 -79.312950 -217.775513
15.951590 -79.839279 -218.808990
-24.925827 -79.179344 -217.752823
-22.223837 -77.845665 -218.781433
-4.160975 -78.761482 -217.526703
-144.465378 -81.725220 -219.341324
13.349854 -78.693588 -219.020691
-144.858810 -78.333374 -219.381989
8.895337 -78.940773 -215.642166
-4.416460 -79.250275 -218.741180
-11.563779 -78.995522 -218.192932
-22.300243 -79.321724 -220.365555
-8.253421 -80.032021 -220.599060
13.027375 -78.488739 -221.819550
-10.592222 -78.638062 -220.610550
-3.958573 -80.445801 -219.623108
16.346926 -80.223007 -222.907822
-145.522354 -79.112885 -220.605026
9.315044 -79.400688 -219.727692
-6.500472 -80.022903 -222.749115
-150.193695 -81.824600 -223.264908
-1.246494 -79.257515 -223.078186
11.657760 -79.755463 -225.566635
-144.476913 -78.731194 -223.898239
-5.411048 -80.471260 -225.454071
-150.321304 -80.988510 -224.903625
-0.435279 -79.449554 -224.031326
14.130866 -78.907158 -222.563095
-7.599026 -77.909279 -223.562576
-142.171402 -79.433716 -226.048981
8.099692 -79.945717 -224.343063
9.890439 -78.762894 -225.552826
13.672050 -78.520515 -224.983551
-152.564240 -79.642555 -227.230499
-142.203873 -78.620636 -225.547165
8.721928 -80.558784 -228.132782
12.084311 -79.369469 -227.181076
-147.202652 -81.236229 -226.982498
-0.942197 -80.210564 -225.695648
14.967279 -79.226692 -226.541245
-149.046143 -78.967651 -226.646469
-3.810539 -80.460709 -228.531738
-149.228027 -79.404800 -227.987335
-134.862579 -77.031639 -229.407532
11.780152 -79.290237 -229.116592
17.406456 -79.644272 -228.741302
-154.271912 -78.488037 -227.892197
-133.964767 -81.621201 -228.823776
0.566875 -78.966896 -229.589539
2.515692 -79.479477 -228.137497
13.966857 -80.344872 -229.497528
-154.948013 -79.226784 -230.188202
15.479032 -79.404503 -230.253189
-134.747467 -80.834045 -230.761063
-147.903488 -81.134575 -230.318771
-2.650003 -79.691406 -232.063980
9.350660 -78.789085 -230.460281
-141.777390 -79.373634 -230.587158
17.420992 -79.650116 -230.240067
-142.836578 -80.664078 -230.541962
17.501158 -80.172394 -232.250168
-141.865417 -78.958229 -231.963776
6.979476 -79.146202 -229.303482
11.265580 -79.829803 -233.323456
-151.794174 -80.279709 -231.874329
-0.797037 -79.088669 -230.932388
-0.147985 -79.527046 -230.700333
-152.247375 -78.555206 -233.131622
14.360458 -78.958763 -231.240356
10.342794 -80.129372 -233.111496
15.214254 -80.541138 -233.378601
-150.783127 -81.369003 -233.533417
-144.099762 -80.893059 -233.808426
2.222427 -78.676598 -231.739517
-0.183391 -78.860489 -233.979996
-145.500259 -80.480927 -234.325699
-149.787582 -78.743767 -234.992645
0.175221 -79.851021 -233.806549
7.710686 -80.242653 -233.006332
18.021961 -79.107147 -234.475708
10.903691 -79.950790 -235.537018
-0.852183 -79.013275 -235.235962
-145.836899 -78.136093 -236.550812
8.266496 -80.065331 -237.383072
-145.388824 -79.331673 -239.356934
15.929851 -79.707932 -236.610275
19.516895 -79.599510 -236.855331
-28.048050 -79.200874 -239.030258
17.076363 -78.856331 -237.746262
-33.239353 -78.606003 -238.703842
-29.188185 -79.688980 -238.477783
-25.454582 -79.458733 -239.672272
7.739305 -79.403122 -239.909760
-33.380646 -79.620850 -240.052612
11.530865 -79.410812 -240.878860
-144.431808 -79.342606 -239.453094
-37.413185 -79.627457 -240.011841
-26.624264 -80.041130 -239.588837
-24.094603 -78.534760 -240.521805
-24.494450 -79.425491 -240.499588
-145.470993 -79.464050 -240.985107
-42.602016 -77.710045 -241.313309
17.734531 -78.127632 -240.742081
-44.081970 -79.240868 -241.580902
-28.348476 -78.851593 -242.212524
-25.260935 -78.828224 -242.057831
18.312012 -80.358757 -242.293900
20.476542 -79.848373 -242.582306
-47.752014 -78.723778 -242.468597
-31.591057 -79.681160 -243.144394
-48.319088 -79.609512 -242.392670
-45.565937 -79.567406 -242.668854
-27.682089 -78.865211 -242.105179
-49.756741 -80.009071 -242.881317
-33.252483 -80.377785 -242.889404
11.747664 -79.850067 -242.175568
-50.185398 -78.741737 -244.121887
-32.642303 -78.821342 -244.491562
-37.524323 -80.427055 -243.617676
-38.978294 -80.067825 -244.204315
9.114369 -80.154091 -243.525146
22.152260 -79.469452 -245.572571
-53.306782 -79.501495 -244.638321
-51.333183 -79.588676 -245.108475
-47.149986 -79.085625 -246.133362
-41.907455 -78.617416 -245.316940
8.547632 -79.238190 -246.234436
-45.007645 -79.719299 -245.641403
-42.444675 -78.947075 -244.572815
11.519303 -78.704445 -244.979034
19.364191 -79.565750 -244.162872
-54.504658 -79.147057 -245.674545
-44.680874 -79.235168 -246.422577
-146.232941 -78.189400 -246.440216
-53.252819 -80.105370 -245.580582
-46.240578 -79.451225 -246.027023
6.958558 -78.963135 -245.729919
10.812914 -80.328911 -245.679611
11.058396 -78.609390 -246.881760
19.465115 -80.242615 -246.511795
-150.452896 -80.224449 -246.213669
-53.691593 -78.178619 -246.874710
5.366610 -78.259590 -246.763657
21.776964 -79.527222 -246.802124
2.359169 -79.645317 -246.467453
5.227599 -79.321671 -247.411789
8.022040 -78.839661 -246.627487
-145.934647 -79.748978 -248.300522
2.204454 -79.245132 -247.069489
6.679243 -80.095940 -247.392136
19.798168 -80.042343 -247.933807
0.745262 -79.867821 -248.118500
21.069960 -79.219482 -247.776031
-150.987320 -78.646240 -249.335022
-2.067919 -79.343399 -249.522903
11.191854 -79.267441 -248.918625
12.331886 -80.325302 -249.595245
-4.351670 -78.966652 -249.604660
-146.277451 -80.364731 -250.435318
-150.743607 -79.510292 -248.867340
-150.523849 -80.709503 -252.087509
-152.066986 -78.291458 -253.203293
-153.549774 -79.804184 -254.992889
-9.286525 -79.363327 -253.035477
-140.765900 -79.263519 -255.946320
-8.896694 -79.316261 -257.163361
-136.372604 -79.457794 -257.052612
-146.912506 -81.376343 -258.432343
17.059528 -80.177109 -256.436737
17.811241 -80.879250 -257.344940
-155.689911 -80.031990 -257.989594
-135.289597 -79.667503 -258.406738
-134.551544 -79.779900 -259.371460
-147.125717 -82.136833 -258.998474
-135.434647 -79.943512 -258.428650
-9.650887 -79.671410 -258.167938
-9.855105 -79.378517 -259.853699
-147.492615 -80.092331 -260.591003
-135.841003 -78.637794 -260.965912
-149.446106 -80.162392 -261.415497
18.283216 -80.046768 -259.704315
-141.297028 -80.433670 -261.014191
-136.991211 -79.512016 -260.805328
-142.333252 -80.015297 -261.713074
-10.590703 -79.458344 -263.844360
-153.890717 -80.031258 -262.604309
-143.346848 -80.319389 -262.376221
-153.221146 -81.074890 -264.454742
-143.777695 -79.200241 -263.668945
-145.986115 -79.652733 -264.407410
18.184511 -80.754105 -263.991089
18.013565 -79.736954 -267.291565
-145.519241 -80.023216 -265.241943
20.326223 -77.994347 -265.667633
-9.797462 -79.132889 -266.199127
-144.895462 -79.908539 -266.753143
-10.554159 -78.586945 -267.240509
-150.954849 -79.785637 -267.616760
-151.959503 -80.212868 -268.893738
-8.862249 -79.808228 -269.071533
-152.276825 -79.404785 -271.240448
-150.324280 -80.533051 -271.705353
-147.897705 -77.838051 -271.502014
-147.917511 -80.942131 -270.957642
-7.391230 -80.063751 -271.364838
17.205273 -78.303581 -273.289063
-6.805458 -80.058769 -271.729767
-8.065868 -79.517815 -272.525146
16.333130 -79.620880 -272.795349
-5.760776 -80.978943 -273.586823
15.279908 -79.623169 -273.747314
-149.865082 -79.837631 -275.251190
-148.114380 -78.927086 -275.539520
-147.351486 -80.568115 -276.262024
13.239117 -80.246063 -276.440491
-149.524780 -79.944008 -277.223083
-4.779805 -79.703644 -277.279877
-2.770644 -79.384239 -276.200012
-146.116531 -79.930389 -276.870392
12.260847 -78.612541 -277.742798
-151.440628 -78.218788 -278.117065
-145.863174 -79.461914 -278.671356
-3.412661 -79.659866 -278.145752
-0.149844 -79.642754 -278.423218
10.375872 -79.908302 -279.014587
-146.858994 -78.512428 -279.798065
7.729043 -79.747704 -280.806122
-151.096588 -79.693069 -279.107208
0.179544 -79.625671 -280.671326
3.564390 -79.796715 -280.150360
-0.820029 -78.539734 -280.427063
-146.680450 -79.580376 -280.882843
2.447660 -78.478889 -281.844696
-151.412598 -79.661766 -282.740692
-145.532547 -80.674141 -283.114410
-147.027008 -78.608284 -281.956757
-151.433685 -78.852562 -283.437531
5.892079 -79.131691 -282.803558
-145.228149 -79.218506 -283.463135
-154.974426 -76.971519 -284.932861
-155.004669 -80.050934 -285.916626
-143.549606 -81.093811 -284.774109
-143.050262 -80.239822 -286.396027
-142.014481 -79.834679 -286.301666
-149.327606 -79.236412 -286.883820
-142.342911 -78.040764 -286.958221
-139.592209 -78.844978 -286.598511
-137.990158 -79.752678 -286.749359
-148.633270 -78.993446 -287.070221
-136.472977 -80.226196 -287.550537
-137.324265 -78.734398 -287.798706
-135.695694 -80.466370 -287.153351
-155.543793 -81.014122 -288.229309
-150.570755 -79.182709 -288.461517
-136.074249 -79.362915 -288.984924
-155.497787 -80.272530 -289.267029
-150.710220 -80.224953 -288.691620
-147.684555 -81.020187 -290.156860
-136.469116 -79.284477 -290.361694
-155.182938 -78.984848 -290.420959
-142.041809 -79.364021 -291.416107
-138.045166 -79.023308 -291.410126
-138.792938 -79.436256 -291.352173
-142.705887 -80.102768 -292.115692
-147.346756 -79.622604 -294.829254
-147.294647 -81.072884 -296.080383
-151.455933 -80.159912 -295.368073
-148.839432 -78.253525 -295.405273
-151.339279 -79.972755 -295.716492
-148.201431 -79.591530 -296.012177
-150.994110 -80.071945 -296.923004
-150.778351 -78.885330 -297.731903
-147.659592 -79.515091 -298.801636
-149.802200 -79.034042 -298.468475
-151.994888 -80.127899 -298.317413
-152.187454 -80.270241 -299.009674
-148.946213 -78.627174 -298.831879
-147.725082 -79.630692 -298.748566
-148.783356 -79.792732 -299.717926
-150.571640 -78.975853 -299.291840
-150.369156 -79.560356 -300.619293
-148.258362 -79.450920 -300.494354
-149.592560 -78.433739 -300.400513
-148.872406 -80.725113 -300.903320
-148.690628 -77.343033 -308.614288
-148.876816 -78.894920 -309.043396
-58.700638 -77.927231 -60.125782
-52.683483 -78.059174 -59.757458
-58.698956 -78.009575 -60.267265
-66.283585 -77.324608 -59.741028
-64.682899 -79.342880 -61.175220
-52.374401 -78.375343 -60.790264
-49.026852 -77.511848 -59.673733
-47.678749 -76.575142 -60.906757
-60.709541 -79.359718 -60.515144
-65.023888 -77.894951 -61.525307
-56.282875 -77.941536 -61.445324
-50.280636 -78.032982 -60.718636
-45.203873 -77.989571 -60.979515
-61.952351 -78.902458 -61.849850
-58.437065 -77.982613 -61.564209
-43.474113 -77.432358 -62.025154
-51.352818 -77.773521 -61.063110
-48.702572 -78.170364 -62.665527
-70.792465 -77.739990 -61.904579
-66.702522 -78.145729 -62.087242
-64.025818 -79.145752 -62.839542
-46.569397 -78.047005 -61.767910
-42.191231 -77.853806 -62.165443
-70.562164 -78.922455 -63.834377
-68.066124 -78.296494 -63.326031
-52.744850 -78.641289 -62.507385
-43.179291 -78.248260 -64.362770
-72.797806 -78.448273 -63.850258
-74.332809 -78.824722 -64.775604
-38.734707 -78.099442 -64.054497
-36.425938 -78.072037 -64.663536
-35.136539 -78.834831 -66.037682
-77.350746 -77.874847 -67.322136
-37.651119 -78.535469 -66.114899
-34.123611 -77.906143 -66.477859
-31.348089 -78.821938 -68.592583
-36.293861 -78.192421 -67.573906
-79.043762 -78.362755 -67.491920
-33.960281 -78.718697 -69.498360
-79.864777 -78.322311 -68.808846
-76.631645 -78.634705 -69.110443
-33.014965 -78.795792 -69.476486
-29.818548 -78.089882 -69.461891
-28.734177 -78.084633 -68.801445
-31.521866 -78.619217 -70.099625
-28.993551 -77.366127 -70.142464
-79.124382 -78.336563 -70.477699
-27.049324 -77.562187 -71.068138
-28.897545 -78.760391 -71.191551
-82.306503 -78.860039 -71.846924
-81.431892 -78.338066 -73.635101
-27.439161 -78.637825 -73.817894
-82.716423 -78.213989 -74.044952
-26.650877 -78.947403 -75.050629
-25.579128 -78.092262 -74.103455
-82.839195 -77.201286 -74.637764
-83.064980 -78.460571 -76.467278
-29.203928 -77.943771 -78.718010
-85.103706 -79.442581 -80.203583
-31.632423 -77.918266 -79.935753
-85.018028 -79.896919 -82.682541
-86.151535 -78.398170 -82.243088
-34.346809 -78.501175 -80.795601
-85.717606 -78.718086 -83.738235
-38.257824 -77.497604 -82.475800
-46.684868 -79.634628 -84.538208
81.455528 -76.647972 -85.278923
-48.066544 -79.717575 -87.502083
-48.828197 -78.464386 -89.002007
-50.751308 -79.812935 -89.799477
-89.583961 -78.144974 -88.511665
-52.370453 -78.581604 -91.121918
-53.470974 -78.522423 -91.310791
-54.242565 -78.390404 -92.328575
-56.243500 -78.001999 -92.818649
-89.091965 -79.629944 -92.967751
-63.610088 -78.847862 -94.584084
-62.312202 -79.255005 -94.833862
-60.162693 -78.770119 -93.531303
-90.665466 -77.058189 -95.289703
-88.432693 -80.630257 -95.862953
-63.510441 -78.885757 -94.823021
-63.515881 -79.249336 -96.902222
-88.587563 -79.954391 -97.115479
-64.055260 -78.334686 -96.672012
-90.560608 -78.069031 -96.897285
-63.973549 -79.491707 -98.649902
-91.224136 -78.929176 -99.453476
-65.497887 -80.663460 -99.591965
-69.327202 -79.083641 -100.287819
-74.206215 -80.225082 -101.725723
-72.224998 -79.566742 -100.868874
50.093983 -77.653336 -101.556358
-72.999344 -78.491707 -102.340515
46.477711 -77.990776 -102.582901
47.463898 -77.368271 -100.902374
45.725803 -77.866394 -104.376320
48.404156 -79.021523 -103.535851
49.810699 -78.631851 -102.138535
51.179287 -77.699829 -103.380913
-80.377579 -77.498741 -103.991486
43.990845 -78.874428 -105.708702
48.487019 -78.251396 -103.592865
50.489079 -77.569557 -104.756546
-80.767525 -78.497078 -106.609680
42.771206 -77.561920 -105.179398
-79.723885 -79.514313 -106.619423
44.125603 -79.592682 -105.599762
44.145031 -78.953461 -106.653557
-91.689217 -77.312378 -107.850006
-82.135284 -78.403656 -108.479340
49.167271 -78.618965 -107.235435
-90.691071 -78.399361 -108.560570
46.973637 -79.787415 -110.251801
39.215996 -79.508606 -109.184921
-90.100227 -78.936844 -112.968300
-85.408417 -78.586723 -110.875328
44.728306 -78.035553 -110.230438
49.134075 -79.031227 -109.852623
-88.361389 -79.168320 -112.867058
39.193607 -78.829277 -110.887253
-87.882996 -78.078056 -111.284431
44.838753 -78.813919 -113.077896
-87.366074 -78.564339 -111.757622
38.243462 -77.981361 -111.612762
43.099281 -78.758499 -111.437553
42.065304 -77.495651 -110.797050
43.894169 -78.132317 -113.720467
41.551144 -77.686775 -112.815598
42.986809 -78.604958 -114.735588
44.571819 -77.820084 -114.799294
36.651669 -78.287476 -116.791496
38.750374 -77.281151 -114.756973
46.677280 -78.316536 -113.954742
39.467655 -78.966423 -119.647484
39.629356 -78.665306 -117.623398
45.068024 -78.910744 -117.629944
40.989964 -78.911095 -117.860794
34.024700 -79.008202 -119.218552
45.332550 -78.811325 -119.509644
37.567158 -78.605392 -120.027168
44.129257 -78.865936 -121.041069
37.373280 -78.797134 -122.542198
41.264378 -77.816231 -119.867714
42.674667 -78.387482 -123.343933
36.940071 -78.695015 -122.869240
38.780712 -78.258003 -125.601646
41.893147 -78.051437 -126.430969
37.739872 -78.376289 -127.276886
34.095387 -78.322014 -127.060791
36.584206 -78.408043 -129.250275
40.768131 -78.874084 -129.039459
33.482220 -79.261131 -129.820404
40.517548 -78.695572 -130.981308
36.788563 -78.758614 -132.084564
29.427198 -79.107086 -132.241257
32.992359 -78.754959 -132.698166
27.825010 -78.670181 -133.657471
26.784401 -78.844177 -136.104401
38.576050 -77.811234 -135.413940
35.580265 -78.833458 -134.712631
37.260033 -78.604370 -136.321075
31.324863 -78.392303 -135.913818
29.858833 -78.713356 -138.501999
35.914516 -79.712349 -136.786636
33.998096 -79.495529 -137.103149
36.008644 -78.471169 -139.031738
33.250477 -78.123077 -140.852844
35.148266 -78.942474 -140.274994
32.014580 -78.643753 -142.251541
25.528708 -78.243835 -141.131439
26.132917 -79.158119 -140.845993
31.572742 -78.415817 -142.869019
35.451321 -77.714806 -142.964981
-46.976292 -77.725929 -143.100555
29.804127 -78.814629 -142.557220
29.997868 -78.839745 -144.632309
-49.888393 -78.364548 -143.193298
-46.594955 -76.870140 -144.199020
30.669798 -79.608734 -144.649368
29.596369 -78.752533 -144.722794
-47.461601 -77.462074 -146.401321
29.665138 -77.976685 -147.041107
29.693985 -78.658264 -145.909225
34.495968 -78.756714 -145.115509
28.412718 -77.748985 -148.534485
-49.345814 -78.190765 -146.569763
-44.540455 -78.338440 -147.534592
-45.028061 -78.688805 -147.310715
-46.285133 -78.565979 -147.458008
-43.329845 -79.517860 -149.586746
-50.923687 -77.914001 -147.520264
25.846338 -79.516457 -150.166183
31.638876 -78.336594 -147.935760
-50.445778 -77.371620 -150.886032
-48.845219 -78.301552 -148.781586
29.414072 -78.446716 -149.852112
32.411343 -79.550575 -151.909012
24.485800 -77.700943 -151.410355
31.095839 -77.194756 -151.616837
-46.372253 -77.634193 -150.617966
-44.477016 -78.553276 -150.765015
-47.525967 -78.909744 -151.788086
25.900703 -80.008217 -153.689285
26.914024 -79.187599 -152.082321
28.798275 -78.637711 -150.215469
-48.419106 -78.396385 -154.477676
26.574018 -77.510490 -153.287888
-40.322052 -79.189034 -153.934006
22.940554 -78.612671 -154.468750
-45.504227 -78.621048 -154.248260
27.080503 -78.373993 -153.829941
-44.600822 -77.817734 -154.492859
-41.801212 -78.583267 -154.455215
31.780581 -78.079262 -154.257690
23.660633 -79.171585 -155.468018
29.162956 -78.649475 -153.566422
-48.125355 -78.431831 -155.219864
-44.092339 -78.427597 -155.571030
-42.814560 -78.676781 -156.169891
29.504135 -77.880356 -153.183105
26.413593 -77.912376 -155.132034
-42.796844 -78.365410 -158.232178
-40.705444 -78.858322 -157.872589
-38.363243 -79.704170 -157.098907
-66.328903 -79.036156 -156.635010
-65.983330 -78.561157 -157.053299
-37.812103 -78.990150 -158.038727
22.668303 -77.620789 -156.948074
-39.248756 -77.670189 -158.045334
31.027235 -77.968071 -156.234848
-46.809917 -78.216469 -156.468124
23.234961 -79.285667 -160.795959
28.731340 -78.193687 -157.376999
-67.709785 -78.283661 -158.460266
-64.433548 -78.861893 -158.591248
-36.926804 -78.735931 -159.202408
-40.077496 -77.494347 -158.383957
28.425402 -77.527954 -159.183899
-41.716705 -78.050591 -159.294373
-35.609161 -78.018509 -159.531601
-66.246727 -78.764809 -160.091766
-64.071945 -78.084267 -160.670502
-63.203518 -79.127945 -161.807358
-64.046906 -78.900154 -161.393463
-43.580994 -78.020378 -159.741714
-38.827175 -79.031075 -161.780029
27.273315 -77.148247 -158.761841
-36.242840 -79.551598 -161.529480
-40.997112 -78.730164 -162.345123
25.347244 -77.526871 -159.902481
27.972475 -78.170929 -159.688492
30.301685 -78.375504 -160.349030
21.393091 -77.839073 -161.748169
-33.394444 -78.867584 -161.760727
29.677282 -77.301254 -162.994049
-64.503525 -78.500099 -162.197495
0.070370 -78.280273 -164.272919
-66.710693 -77.513435 -163.554871
2.506807 -78.690636 -162.781403
26.931011 -78.328995 -162.626511
-1.967119 -78.655365 -163.858231
0.941184 -78.586571 -163.862305
-60.317638 -78.451385 -163.470123
-43.819702 -79.009125 -163.602875
-39.461197 -78.533546 -164.123367
-33.282360 -79.686134 -163.187897
1.374247 -78.642944 -164.525208
-65.988960 -77.266029 -164.566071
-2.178461 -79.659241 -164.968262
-59.655502 -78.786446 -165.235336
-42.248013 -79.473526 -165.455429
-38.262535 -78.185753 -162.731628
-36.787899 -78.400681 -165.575272
-0.036172 -78.950676 -165.713928
21.147316 -79.562820 -163.969009
29.030142 -78.801903 -164.488632
-65.958847 -78.054657 -166.220963
22.238670 -79.022232 -166.669647
-31.644550 -78.735039 -165.867661
-4.918447 -78.794319 -166.868896
28.874912 -78.841705 -166.746368
-59.206573 -79.219101 -166.336731
-37.718765 -78.127274 -167.090408
-35.853622 -77.949928 -167.402878
25.132170 -77.439171 -165.651352
-33.270092 -77.855911 -167.263840
1.055955 -78.531593 -166.149277
1.167724 -78.036392 -168.010651
-38.483517 -78.304581 -167.191040
-31.396564 -79.378052 -166.922714
-7.537027 -78.890564 -167.764145
24.379955 -78.246742 -168.725418
25.376568 -77.252121 -164.277649
-31.284101 -79.729263 -168.243195
-63.834347 -79.605072 -168.099091
-32.415035 -78.629959 -168.323502
-56.491852 -77.849449 -169.891937
-36.466351 -78.737846 -169.474640
-34.682140 -78.426056 -168.796478
-1.352565 -78.839432 -170.081573
-40.325356 -78.473618 -170.268158
-29.845808 -78.830490 -170.694214
-8.963786 -78.835266 -169.109100
20.602797 -79.131775 -171.189835
-35.469505 -78.149483 -171.671600
-33.673531 -78.368340 -170.103821
-2.703618 -78.317528 -171.686386
23.699039 -78.577446 -170.235077
-56.571735 -78.429413 -170.685730
-36.677189 -77.700569 -170.800690
-12.375296 -78.129570 -171.175354
-39.480209 -77.241455 -171.468155
26.970497 -78.786865 -170.087769
-58.972839 -78.539932 -171.619644
-37.651157 -79.042725 -171.853790
-32.384037 -78.987625 -172.783524
-3.934568 -79.259071 -171.621201
-54.706730 -78.029831 -172.531342
-13.674819 -78.835083 -172.708313
26.214779 -79.001343 -172.384247
-61.744495 -78.717712 -172.842575
-54.893665 -78.757339 -174.040237
-6.536773 -78.144104 -174.332657
-58.048069 -78.858147 -174.295319
-30.051060 -77.911407 -175.190598
-27.760826 -79.314217 -175.099518
-15.986164 -77.881966 -174.506836
-61.090034 -78.393433 -175.158630
-36.148327 -78.361763 -173.272400
-33.281834 -78.188553 -174.306641
-31.483479 -78.157394 -174.755890
-7.399953 -77.981880 -174.219284
-56.671776 -77.809319 -175.351624
-37.583073 -79.443375 -173.455704
-53.281063 -78.292694 -174.825424
-29.322392 -78.737602 -175.835541
-14.538107 -77.213081 -175.246124
-52.677830 -78.564163 -176.331909
-31.082169 -78.031960 -176.411575
-8.628437 -78.188095 -176.059570
-33.088039 -78.633301 -176.739563
-9.942976 -78.519753 -177.506973
-10.273726 -77.798721 -177.299362
-61.500221 -79.276039 -177.065414
-56.516823 -77.514122 -176.841385
-55.259968 -78.548088 -178.231094
-29.684330 -78.752869 -177.180115
-28.428072 -77.886124 -178.311218
-18.721079 -78.105263 -177.853851
-11.102760 -78.842178 -177.740814
-59.966393 -78.364845 -178.378632
-54.081238 -78.228554 -180.375061
-35.162289 -79.608467 -178.831161
-24.538397 -78.721214 -179.719543
-19.549210 -77.674744 -179.155457
24.359987 -78.328644 -178.552887
-58.781185 -79.796463 -179.317688
-50.375172 -80.019859 -179.653290
-32.367325 -78.736313 -177.704102
18.677271 -78.874069 -181.126740
-54.664036 -78.566940 -180.350830
-59.549427 -78.941093 -178.748657
-21.756191 -79.133049 -178.804672
-33.682568 -79.534615 -180.151245
-20.262554 -77.516594 -180.181442
-17.839872 -77.505066 -180.056412
-16.655247 -78.056679 -180.920029
-52.211521 -77.669785 -181.220444
-30.838352 -78.656998 -179.498306
-29.381132 -77.727592 -180.185944
-26.637711 -78.116180 -181.863007
-23.693527 -77.872940 -180.865097
-22.421289 -77.777229 -180.296234
-22.804398 -79.072029 -181.289200
19.457277 -79.209839 -180.777298
-56.994381 -78.198853 -180.316254
-20.862135 -77.465584 -181.353088
-53.536327 -79.129372 -182.055725
-19.834671 -77.773903 -182.022568
-17.871984 -78.083763 -180.201660
-49.674965 -79.340591 -180.693054
-29.328733 -78.369652 -182.213440
-18.407988 -78.272446 -181.214661
17.639328 -77.788948 -182.395233
23.957884 -79.540764 -181.097504
-57.249176 -78.732964 -182.545135
-49.444233 -79.333519 -182.651230
-27.718866 -78.465027 -182.557312
-24.190844 -78.101379 -184.179565
-21.151724 -78.249657 -182.400818
-54.409157 -78.116768 -182.565445
-52.010452 -79.209122 -183.117203
-32.955242 -78.910713 -182.569946
-56.449268 -78.731178 -182.970734
-28.597530 -78.415825 -183.775742
-25.397642 -77.586922 -183.745453
-21.409735 -79.407951 -183.242538
-26.933426 -78.310066 -183.846817
18.896353 -79.011887 -183.384674
-52.168396 -78.371155 -184.545090
22.651720 -78.746605 -184.397003
-56.111217 -78.725723 -184.960815
-46.181435 -77.264862 -183.727615
-21.607946 -78.738106 -184.691345
16.912144 -78.814972 -184.179398
-28.440474 -77.190842 -185.608124
19.569166 -79.304626 -185.119247
-147.023468 -80.996284 -185.999969
-49.580433 -78.839188 -185.192261
-46.720036 -78.914970 -185.764526
-26.372396 -77.520737 -184.674820
-23.180227 -77.765961 -187.463348
17.626982 -78.228737 -186.534637
-26.122084 -78.137291 -186.620285
-21.991930 -78.343117 -185.681473
22.401020 -78.359993 -186.883102
-28.268595 -77.826096 -186.629044
-148.517563 -77.925644 -186.799866
-144.827026 -78.705055 -186.565353
-54.543667 -78.307686 -186.937485
-48.526814 -78.454628 -187.044388
-45.880524 -78.465111 -187.276993
-26.150604 -78.580147 -187.796432
-24.522467 -78.227829 -187.631805
-50.852009 -78.545410 -185.869141
-24.022966 -78.230400 -187.803543
21.710516 -78.778183 -186.764313
-46.388870 -79.010788 -188.178833
-29.635958 -78.223320 -187.312851
-50.622551 -78.659065 -188.214340
-19.798601 -78.030128 -187.944580
-53.729446 -78.394508 -187.880463
-29.852468 -78.904327 -188.978287
-144.737045 -80.349884 -188.691742
-24.427711 -78.601227 -188.864151
-21.998728 -78.335571 -189.118973
-48.844509 -79.062210 -189.632248
-46.437660 -79.392960 -189.210312
-26.272631 -78.954887 -189.098526
-22.824883 -79.391693 -190.046570
-21.561682 -77.286446 -191.663513
-19.138050 -78.968636 -190.802704
20.812458 -78.195717 -192.067459
-143.860565 -80.345444 -192.578064
-50.793324 -78.666489 -191.810242
-47.993465 -77.911781 -189.569107
-24.451529 -78.253204 -191.897186
-23.597923 -78.604607 -190.174179
-44.941444 -78.011429 -192.000031
-42.282227 -79.774910 -191.806747
-28.173649 -78.483765 -190.868774
14.471948 -78.474937 -190.349457
-22.412436 -78.111504 -192.331711
-43.541008 -79.792198 -193.461243
-27.183813 -78.342857 -193.060349
-20.276583 -77.983040 -192.807770
-17.855579 -79.960129 -193.055222
20.113157 -78.284241 -195.304550
-24.172880 -78.771873 -192.841431
-48.366905 -78.192795 -194.743317
-45.881981 -79.161575 -193.412491
-16.240807 -76.798431 -193.986221
19.191877 -79.518616 -192.165466
16.503880 -78.762787 -194.392685
19.546206 -77.890099 -197.135315
-142.420105 -78.399338 -194.953339
-21.080076 -78.524658 -195.675400
-152.115814 -79.753105 -195.977356
-47.309582 -78.957474 -195.886032
-39.211445 -78.363045 -195.212234
-24.406158 -78.625626 -195.002182
-20.339569 -78.360283 -194.762939
-44.948410 -78.717751 -195.056702
-141.290268 -78.940475 -197.016403
-22.155546 -78.361183 -195.352234
-135.196335 -80.274330 -197.823151
-42.035461 -79.206619 -196.375153
-16.015686 -78.465286 -196.814804
-24.629650 -78.236946 -196.667603
-146.405701 -77.452209 -197.452194
-20.573351 -77.779449 -197.471069
-152.774445 -79.904518 -198.001556
-134.482529 -80.650642 -197.130554
17.938442 -79.166977 -196.922684
-132.758728 -76.991234 -199.543869
-40.103107 -78.962006 -198.703293
-18.972189 -78.280716 -197.021835
19.876432 -77.517570 -198.446884
-42.706432 -78.071220 -198.897385
-35.958050 -77.199730 -199.229492
-22.153591 -79.029640 -200.192459
-19.951973 -77.200623 -199.347260
-45.513866 -78.537209 -198.663879
-18.019567 -77.162659 -200.453125
-133.296555 -80.235710 -199.370850
-39.949646 -78.172417 -199.275452
-147.946945 -80.307213 -201.142227
-41.615063 -78.456291 -199.244156
-37.712677 -78.528030 -201.767212
-21.503384 -78.108620 -201.008377
-151.436508 -79.658363 -201.199219
-43.941624 -79.592964 -199.680695
-39.389114 -78.106178 -201.379410
-147.626648 -78.386314 -201.503815
-35.097813 -78.651054 -200.997971
18.205969 -79.097992 -200.725174
-141.548737 -78.227669 -201.665298
13.012074 -79.642723 -203.195343
-152.277298 -80.353477 -202.396957
-43.694187 -78.600670 -201.866760
-16.658398 -77.701996 -201.367584
-142.355652 -79.458168 -201.746017
-37.685440 -78.259796 -203.931671
-36.829884 -78.102829 -202.244095
12.676510 -78.939804 -200.415802
-143.179153 -79.661789 -202.343567
-12.647433 -78.485794 -202.132919
-150.599808 -79.429893 -202.802429
-42.020580 -77.997162 -202.948593
-12.926384 -78.732933 -203.800934
-35.780499 -77.951752 -203.732101
-16.641518 -76.917931 -202.674973
-33.413155 -78.480141 -204.050903
18.238224 -78.841423 -202.376541
-144.691223 -79.411865 -204.719391
-149.839447 -79.030418 -205.136490
-41.655140 -78.804337 -204.744492
-37.652275 -79.539764 -204.136154
-34.696728 -79.163422 -204.695801
-19.526562 -77.725372 -205.190140
-39.641285 -78.275360 -206.540512
-62.282368 -78.876953 -205.504456
-11.270999 -77.922050 -206.019287
-65.494484 -78.412392 -205.275864
-63.127712 -77.988686 -205.582825
-59.694939 -79.302208 -205.849457
-32.978424 -77.099892 -206.736603
-143.659988 -77.921532 -206.110275
-61.908504 -77.814072 -206.430954
-34.999443 -78.240463 -204.765381
-30.266413 -78.904686 -205.426025
-17.381550 -79.883911 -206.161346
-15.750471 -78.494774 -204.262314
-66.042610 -77.780411 -206.497818
-34.190105 -78.424988 -205.414902
-13.623666 -78.407364 -207.070419
9.747362 -78.959579 -207.999390
-67.307549 -78.279999 -205.948898
-38.980572 -77.974442 -206.548004
-29.765051 -78.759804 -207.351425
-15.005877 -79.288414 -206.621201
18.594315 -79.379288 -206.570511
-70.531120 -78.403191 -207.805710
-71.819214 -77.739418 -207.740555
-69.348969 -78.408226 -208.224701
-67.030258 -77.192497 -208.357620
-63.798668 -78.164200 -208.026825
-61.844048 -77.665169 -207.887085
-33.840279 -77.879982 -208.415268
-32.340054 -78.283112 -207.746658
-74.599632 -78.957756 -207.779724
-28.860722 -78.458435 -208.243759
12.255097 -78.758812 -209.453094
-62.719051 -79.231468 -208.462433
-65.015892 -77.586563 -209.182327
-64.247833 -78.232147 -209.066910
-37.454155 -79.225822 -207.685837
9.301509 -78.789436 -208.927322
-63.202122 -78.462677 -210.031921
-35.949341 -78.519463 -209.881622
-31.132105 -78.058701 -208.101685
-27.608072 -78.605927 -208.870834
-9.069983 -79.019989 -208.431534
-75.803223 -78.576485 -209.644531
-29.411724 -78.434280 -210.021698
-27.473461 -78.522278 -210.767532
-65.060822 -78.824669 -209.179306
-11.660505 -78.683342 -208.252472
-79.654022 -78.905792 -210.144455
-66.757172 -77.803505 -210.590790
-31.248671 -77.784370 -211.141571
-64.121101 -79.637871 -211.213821
-11.661232 -76.863480 -210.015762
13.973641 -77.339027 -208.298798
16.309696 -78.689301 -207.455109
-83.090424 -77.838043 -211.631668
-67.031471 -79.148827 -211.050049
8.173313 -78.380867 -210.611389
11.179031 -78.371811 -213.751038
-82.133423 -79.860184 -210.961334
-34.689541 -78.955269 -210.786682
-29.289190 -77.680138 -212.829651
-25.759315 -78.843193 -211.461914
16.222723 -77.951469 -212.065887
-33.179859 -78.847939 -212.499741
-11.826995 -77.605133 -211.613647
14.705116 -78.355598 -214.476700
-70.168022 -78.909515 -212.750656
-83.865715 -78.847710 -213.618927
-25.214979 -78.781891 -212.468094
-73.377960 -78.380234 -213.957428
-14.830594 -78.956352 -211.859451
13.410038 -78.140259 -209.448654
-84.706444 -78.738998 -214.557144
-32.443623 -78.544846 -213.554825
-24.398634 -79.424622 -213.397720
-13.377098 -79.163582 -213.965256
-11.148025 -78.941658 -214.130142
-5.700041 -79.732948 -214.650635
9.996363 -78.559593 -215.397751
-87.067001 -78.058868 -215.262589
-77.065376 -77.829491 -214.689285
-75.452774 -78.265938 -213.428360
-24.285458 -79.301765 -214.487122
13.297121 -78.782906 -215.484955
-80.914215 -79.110893 -215.299561
-147.141205 -78.639931 -215.900864
-86.249352 -77.685051 -216.082336
-83.511620 -79.578896 -215.899017
-81.817924 -79.193726 -215.592163
-13.363008 -79.149559 -215.258591
11.657533 -78.798950 -217.029373
-146.563889 -79.522659 -216.335190
-86.664833 -78.148125 -216.394379
-82.912903 -77.958954 -216.095047
-9.498247 -78.434669 -215.502762
13.551608 -79.572647 -215.129303
-144.735214 -80.203056 -217.555206
-10.075653 -77.935730 -217.077682
-7.148895 -78.274452 -215.929642
-4.433407 -78.870911 -216.021820
-22.143970 -78.294510 -217.864212
-12.041929 -78.653664 -217.312836
-7.651846 -77.394226 -218.478622
-7.275738 -77.940186 -219.018799
-150.130966 -78.372032 -218.036118
-21.050911 -77.758232 -219.581787
-2.497370 -78.279068 -220.260620
10.444050 -79.669975 -219.290543
-23.022436 -77.848358 -220.645737
7.634724 -78.588623 -219.889984
17.547859 -78.460823 -219.312683
-21.327532 -78.372971 -220.764908
-7.314846 -77.895576 -219.605515
-5.469246 -78.449181 -221.107315
7.653129 -78.608093 -221.206894
11.130093 -78.531654 -220.970001
14.566615 -78.439842 -220.454773
-18.680758 -78.944664 -220.390350
-6.868990 -78.277870 -222.350113
-6.805407 -78.291740 -222.461197
17.344440 -79.301971 -222.474045
-150.638062 -78.395851 -221.250519
-19.510475 -78.623299 -223.354050
-3.296395 -77.862732 -222.307343
-18.500216 -77.676048 -223.964920
-3.973691 -78.441460 -223.563309
10.240402 -78.836060 -223.500580
-152.371841 -79.478699 -224.339325
-3.011535 -78.412643 -225.526978
-143.742340 -78.901566 -224.745026
-7.017890 -78.802017 -226.023804
0.746089 -79.020599 -225.849487
6.549630 -76.029495 -224.008972
14.363373 -78.328438 -225.976685
-141.229599 -78.775604 -226.888229
-139.181534 -81.948540 -226.229248
-155.025650 -78.508507 -225.288193
-147.128601 -78.599564 -227.351563
-135.164398 -79.477875 -226.894714
-3.517847 -78.167122 -226.368027
1.330341 -79.671104 -226.729492
-135.360123 -78.278435 -227.924515
18.213625 -79.445015 -226.730453
17.679396 -77.901291 -228.090424
-4.234819 -78.777977 -228.698074
9.365990 -78.348793 -228.188553
-144.456421 -78.158195 -229.348328
-147.213898 -78.658348 -230.634857
-134.120285 -78.801903 -229.542725
1.391660 -79.109940 -230.564850
6.893628 -77.926628 -228.387482
-148.386536 -79.002083 -230.368271
-134.489288 -79.867996 -230.800766
16.469530 -76.909744 -228.693359
-147.974945 -79.777534 -231.150528
-139.555496 -79.118515 -230.987244
-137.328186 -78.884979 -231.221359
-3.546787 -79.746292 -230.453705
-153.985596 -77.812668 -231.187241
-140.960846 -79.207008 -230.879135
17.993721 -79.554451 -230.998260
-141.182327 -78.472267 -231.336899
15.507289 -77.926521 -233.265823
6.422759 -77.990974 -231.228592
6.736337 -79.764175 -233.806747
9.772666 -79.568268 -231.227356
18.518858 -78.169823 -233.878448
-151.854919 -79.033249 -234.118896
8.977610 -77.443245 -233.756531
-149.796173 -78.950638 -234.950607
19.658167 -77.694336 -233.837296
3.301187 -78.546181 -235.749161
-2.274512 -78.455780 -234.044327
16.864445 -78.166130 -235.917953
20.606634 -78.430046 -235.656403
1.832049 -78.564903 -235.544586
10.890128 -78.950241 -237.511444
-0.513079 -78.158089 -237.264130
5.050432 -78.234871 -238.858475
3.827807 -78.137337 -238.885330
20.201481 -77.587067 -238.646240
-31.054417 -78.816322 -239.690735
-151.698959 -78.742508 -236.808182
-33.124451 -78.431892 -239.059937
-26.468630 -77.956985 -238.829636
-24.003193 -78.277046 -239.141983
-35.886784 -80.042358 -239.881744
-22.499176 -77.630875 -238.524658
10.421052 -78.723053 -237.962646
-37.895077 -79.228325 -240.710709
-22.557161 -78.641960 -240.884384
-19.250919 -77.921417 -240.117294
8.048158 -78.354446 -239.723083
-40.290382 -78.350151 -241.445602
-150.453644 -78.446632 -239.977768
-146.481583 -77.560112 -241.376358
-44.409210 -79.200127 -241.981400
-150.129639 -78.349335 -241.205475
-146.762207 -79.314529 -242.067429
19.680281 -79.307800 -239.897476
-148.669617 -79.513840 -241.948349
-45.664261 -79.000008 -241.810410
-22.189793 -78.707321 -241.266861
-21.804348 -78.528313 -241.377136
10.508954 -78.725525 -241.519257
-23.906382 -78.381523 -242.436478
-24.172865 -78.507126 -241.597229
9.738108 -76.901382 -243.862518
-50.925606 -78.778160 -241.766754
-31.178110 -79.870438 -243.003510
-53.174080 -77.968384 -244.303543
18.948154 -79.075325 -241.680222
21.000376 -77.763901 -241.751907
-54.942841 -78.590500 -244.600540
-34.651226 -79.951599 -244.085358
-55.476753 -78.758598 -245.836960
-37.441799 -80.098892 -245.157272
-39.364342 -79.102585 -245.647858
-148.005356 -80.466217 -246.026627
-59.187603 -77.335869 -245.167419
-43.985809 -77.933693 -245.703186
8.976517 -78.323380 -246.891602
-149.925766 -78.706200 -246.058884
-56.504166 -78.469025 -245.127747
8.948326 -78.743172 -245.652756
20.282858 -79.342194 -245.858963
21.371679 -78.998169 -246.624954
-50.346558 -77.938927 -246.499756
-47.677055 -78.927536 -246.739090
-46.860043 -77.911957 -246.734375
-145.827667 -79.228882 -247.448334
-63.403229 -77.414322 -247.091904
-58.526890 -78.565872 -247.079376
-55.055374 -78.544395 -246.941422
-52.543224 -79.299324 -246.672012
-50.103672 -79.145340 -246.196503
-60.605049 -78.156593 -246.148941
-52.434021 -77.619026 -246.830185
-0.491871 -78.237503 -247.795761
20.221519 -78.838234 -247.302628
-151.725464 -78.439110 -247.193863
-62.552338 -78.519035 -247.604218
-56.433422 -77.872025 -247.485397
-55.438629 -77.348686 -248.365356
-1.297015 -79.147026 -248.512360
12.196896 -78.884308 -247.955093
21.277494 -79.384819 -247.436813
-145.492493 -77.574356 -248.111725
-59.894958 -77.877495 -247.922501
-3.540669 -78.408859 -247.612534
-146.167801 -79.262611 -249.043243
12.751600 -79.378334 -249.492783
15.099918 -78.800034 -249.982285
-146.214981 -78.404884 -248.972626
-6.616645 -78.597832 -249.592651
-144.819260 -79.404884 -251.189331
14.766289 -77.211044 -250.187622
-151.383713 -78.893158 -248.996780
-151.395081 -78.743988 -252.354065
-152.012787 -78.311211 -253.465088
-145.301376 -79.425743 -253.393265
17.714579 -78.958397 -252.398788
-153.281082 -79.532433 -254.553375
-9.901793 -79.481674 -254.208481
-143.715912 -78.913887 -254.927689
16.613876 -79.461235 -254.710739
-10.690536 -79.012039 -255.600830
-141.660660 -79.859756 -255.748001
-142.556549 -79.089493 -256.214447
-138.374039 -79.515945 -256.910217
-12.511189 -78.583618 -256.358063
-137.102371 -79.090851 -256.177185
18.693268 -78.449226 -255.614304
-148.431427 -79.562973 -256.022278
-138.109940 -78.538948 -256.672638
-136.578506 -77.656433 -256.344086
19.610954 -77.212708 -255.589142
-155.259109 -79.482460 -256.474854
-135.731613 -77.893265 -258.268707
18.618458 -78.837082 -258.145874
21.490656 -77.821815 -256.788879
-11.025772 -78.606888 -257.220276
20.468048 -78.426567 -257.947540
-146.869049 -78.312195 -258.806091
-135.498169 -78.623428 -258.384277
-155.120331 -79.946373 -259.882568
-149.870636 -81.089607 -259.014862
19.210602 -79.380508 -259.942352
-136.403763 -78.056892 -261.250824
20.968321 -76.975792 -260.052094
-141.374771 -78.811615 -261.470947
-138.607162 -77.841789 -260.398163
-138.231018 -77.702507 -260.959534
20.368847 -79.929054 -261.548126
-11.728987 -78.009743 -261.486877
-151.216721 -78.549339 -264.677795
-12.133751 -78.469704 -262.587402
19.817680 -78.071617 -264.577911
-150.900543 -78.333694 -265.341156
-11.744625 -77.630013 -266.255554
-151.438980 -78.266975 -267.277344
-145.246674 -79.068047 -265.499481
-146.034378 -79.872818 -268.969513
-10.598513 -77.970955 -267.955902
18.407461 -78.223343 -269.795685
-147.719955 -78.108246 -269.635986
-146.511063 -79.885513 -270.768158
-148.963669 -78.081833 -271.355103
-9.885426 -78.777794 -270.864410
-148.720612 -79.144005 -272.330444
17.573244 -79.555267 -270.961884
-150.257080 -78.554390 -271.353241
-148.930115 -79.063240 -273.824585
-7.375564 -79.114670 -273.046448
16.798492 -77.524811 -274.035339
-6.769088 -78.211578 -274.341858
-150.272171 -78.419823 -275.277252
15.661258 -78.701622 -274.522797
-147.166458 -78.360298 -276.317352
-149.954437 -78.390327 -275.132477
-147.524231 -79.368828 -276.932953
-5.329562 -79.371323 -276.579590
14.291101 -78.074806 -277.746643
15.370135 -78.198441 -275.972687
-150.558578 -78.364815 -276.661926
-150.374924 -77.885506 -278.556366
-4.184589 -78.581169 -278.740784
14.167091 -78.822357 -279.425323
12.002863 -79.236641 -279.139954
