# This PCD file was generated using the MATLAB® pcwrite function
# from Computer Vision Toolbox®.
# .PCD v.7 - Point Cloud Data file format
VERSION .7
FIELDS x y z
SIZE 4 4 4
TYPE F F F
COUNT 1 1 1
WIDTH 1420
HEIGHT 1
VIEWPOINT 0 0 0 1 0 0 0
POINTS 1420
DATA ascii
21.754879 -70.955460 -199.880539
-154.199753 -70.320450 -198.443298
-135.650894 -72.484604 -199.177841
-12.377001 -71.196907 -200.856277
106.367447 -70.537079 -199.710068
-155.027344 -73.977707 -200.821075
-125.761261 -70.224701 -199.517914
20.689320 -72.763580 -198.694977
-147.973114 -72.699951 -200.326385
-139.211731 -72.456520 -200.657578
93.163445 -73.899467 -199.671555
98.300072 -73.142487 -201.169022
-144.613052 -71.245667 -199.896912
-139.753128 -71.969788 -200.353790
-142.091202 -74.168701 -203.146957
-134.968948 -74.753098 -199.408981
-132.576538 -74.320389 -200.611481
95.961197 -73.110886 -200.040710
97.839798 -73.333595 -200.736389
19.602493 -71.479492 -201.920425
97.723679 -73.920387 -200.522614
105.398705 -73.548218 -204.207275
-134.731339 -73.468269 -202.164932
-122.036652 -72.323853 -199.070602
6.715371 -73.647873 -200.569946
18.940948 -73.446815 -200.702148
-153.458710 -73.224449 -203.301361
-140.403183 -73.772324 -201.282654
-131.233444 -73.716316 -204.871201
-12.564772 -72.761826 -203.027573
91.516830 -74.562050 -204.705139
-129.963837 -73.180031 -200.931534
-9.018083 -71.388664 -202.606064
8.992073 -70.325485 -199.963608
96.878647 -72.545189 -201.768433
-131.200699 -72.999496 -200.857239
-20.048372 -72.252548 -202.029037
-14.308675 -73.392700 -206.447159
-140.262039 -75.566284 -201.230057
-128.421539 -72.349892 -204.031448
-125.051384 -75.067757 -202.549316
-123.661552 -73.307411 -201.743835
-20.589775 -77.113068 -201.145386
-12.325393 -71.824554 -205.254929
95.697693 -72.956955 -203.435013
102.689339 -73.382454 -202.435654
101.454285 -70.649124 -206.844101
-124.306633 -71.852158 -205.916428
17.489647 -74.033836 -203.407516
20.187107 -70.258575 -203.579071
92.962967 -73.533501 -201.910492
-150.463364 -73.429298 -201.436356
-144.780716 -73.913170 -205.170349
-19.455229 -73.009117 -203.170746
9.831087 -73.175690 -205.640060
96.332504 -74.259102 -205.654617
98.910988 -73.455963 -203.272964
-163.274109 -69.624733 -206.809143
-10.401405 -75.125854 -204.347122
90.806129 -73.457977 -201.086807
95.757851 -70.385338 -204.780716
-151.682755 -74.250000 -207.000763
8.652143 -70.451256 -202.417755
-24.050545 -72.217529 -204.567322
-7.021207 -71.885056 -205.273880
100.126740 -72.404800 -204.763977
99.686348 -74.621056 -205.462265
-24.482830 -73.998734 -205.567474
-9.900936 -74.531128 -204.375671
8.734369 -71.696495 -206.055450
-10.220795 -74.003067 -205.050018
92.041489 -72.706741 -205.624756
96.195099 -73.562317 -202.082718
99.211731 -71.905785 -206.089294
100.492928 -72.452309 -205.606079
-153.124710 -73.578369 -204.616013
-143.498520 -72.339119 -206.770126
89.971550 -74.860268 -206.252945
-17.792883 -73.293152 -204.330002
7.982644 -75.516304 -204.729004
18.618093 -75.676697 -206.713806
-10.545247 -73.067223 -207.082260
11.317801 -73.105095 -206.585617
93.777473 -72.623528 -206.245697
89.963089 -73.398132 -207.320465
94.410362 -73.550629 -205.268982
97.823204 -75.286728 -207.695969
-19.405174 -75.534203 -207.230331
-8.917722 -74.520264 -209.215591
6.553821 -71.035217 -207.658661
17.068979 -72.410385 -207.391922
95.247169 -72.250381 -206.269058
98.812401 -73.215492 -208.617477
-161.281342 -71.920914 -210.123978
-161.996735 -70.429993 -207.112671
-145.671417 -72.742889 -209.486679
-20.592804 -72.956062 -208.892899
-18.172392 -73.536263 -207.793472
-10.641328 -74.442238 -210.210739
7.227432 -69.231476 -210.669205
96.069016 -73.115311 -210.004166
-146.960922 -72.906281 -207.870178
-80.082550 -73.878288 -209.904205
-80.531967 -72.180885 -208.933151
-20.024179 -73.179268 -209.089844
88.784500 -71.658745 -210.109268
93.959946 -74.658417 -207.143219
-163.278320 -72.305138 -214.101379
-160.082047 -72.026505 -209.169052
-144.453140 -72.252632 -208.319382
90.986244 -74.618057 -212.016418
-78.840904 -71.151070 -210.270569
-75.631401 -74.771263 -210.376740
-18.944046 -72.836899 -211.638336
92.784195 -73.881874 -210.769287
-162.458023 -74.516556 -212.857849
-4.797076 -73.260811 -211.051910
92.088181 -73.454750 -212.633163
-147.554123 -71.535149 -212.076569
-143.812546 -73.725807 -210.790344
-77.242157 -73.221016 -210.076019
-76.610123 -74.016243 -212.120682
-15.491899 -71.083939 -212.165604
90.599197 -73.300446 -214.078659
94.894569 -73.302452 -208.222107
94.174667 -73.042168 -211.355453
-160.540344 -70.606552 -211.248459
-78.303146 -74.111877 -211.031311
-78.531265 -72.896408 -209.787750
11.430236 -71.493866 -210.362152
90.706192 -74.755440 -213.010956
-161.851288 -72.554291 -208.206009
-81.340919 -74.320198 -211.503738
-79.368919 -73.008644 -213.461563
-28.901644 -71.020882 -210.909836
-20.150053 -73.621063 -211.183731
-5.199274 -74.149796 -211.574432
6.029838 -72.270088 -211.385788
87.999786 -76.268150 -211.353134
-160.998352 -75.273315 -213.547119
-157.304504 -71.367500 -211.988632
-16.681162 -70.897850 -212.388489
-15.919013 -73.822380 -212.668976
96.302757 -73.532814 -212.899689
-28.630655 -73.992737 -214.528046
-5.153614 -74.458542 -215.331024
8.087378 -73.881981 -213.234238
15.790241 -70.987831 -212.120651
20.663855 -72.226517 -215.292694
-165.827026 -72.569374 -212.972946
-161.410370 -72.408859 -212.538849
-152.610947 -70.540726 -211.701248
-82.850105 -73.940247 -213.338989
-31.708170 -74.216591 -215.322159
91.144249 -73.378311 -213.806915
91.051003 -71.371056 -212.991943
-160.328888 -73.437515 -214.908051
-154.789658 -72.798317 -214.930069
-85.393852 -70.032234 -211.840424
-82.609344 -73.605774 -212.334747
-27.796062 -71.585381 -214.610245
88.215797 -73.854950 -213.469467
90.368523 -73.633682 -210.205185
-91.910004 -71.737801 -215.668777
-91.076584 -68.811462 -212.966843
-83.318176 -73.388237 -215.677277
15.353976 -72.546135 -216.150818
83.471916 -74.707512 -213.803284
-154.271683 -72.070152 -215.327744
-145.904175 -75.557373 -212.678131
-30.390909 -75.729111 -214.257401
-26.299658 -72.909706 -212.115799
-26.704464 -73.865814 -215.640350
87.278488 -73.282822 -214.869080
93.077377 -72.646645 -215.254257
-163.151459 -71.627541 -216.491379
-153.815506 -72.391579 -212.758682
-4.610571 -72.236443 -214.766891
-164.640839 -72.823685 -214.133591
-161.007278 -74.438553 -213.314453
-161.559906 -73.129692 -213.278000
-82.865822 -71.763657 -213.555695
-25.635073 -72.278862 -215.569672
-158.806244 -70.060226 -215.008286
-152.698715 -71.453087 -217.358215
-94.324577 -74.337486 -215.110367
-86.998375 -70.931412 -216.042984
-29.532196 -72.271530 -213.431381
-0.450467 -72.629448 -215.698975
82.022942 -74.630638 -215.541626
92.400032 -71.957375 -214.777603
95.571938 -72.990028 -215.643875
-163.621155 -69.799675 -214.503769
-159.777344 -72.295647 -214.574509
-155.559692 -72.916862 -215.195465
85.962021 -73.727173 -214.439194
86.996361 -72.121269 -216.610306
86.996063 -75.056984 -214.297653
88.449326 -72.262611 -218.488953
91.707077 -72.603271 -214.482788
-154.806015 -71.164406 -214.571609
-153.011185 -72.732803 -215.303162
-147.310455 -72.578011 -214.291290
-85.399422 -71.344574 -217.124664
-26.614052 -70.954758 -213.788223
-3.872200 -74.452660 -217.999969
-158.544250 -72.118164 -217.472351
-97.556274 -72.701965 -217.733948
-89.971901 -71.113220 -215.966690
-24.962402 -71.309250 -216.679855
-11.995344 -71.577675 -216.317078
87.889168 -73.399544 -216.151123
-155.320786 -72.857056 -218.024857
-153.893875 -74.660194 -216.658981
-26.903126 -73.536110 -217.943268
9.602431 -76.451805 -214.072861
16.670782 -75.735588 -217.282394
84.709076 -71.121094 -216.401932
-157.903793 -71.533989 -214.862137
-150.887268 -71.211746 -219.216003
-97.924316 -74.382904 -217.212830
-87.444984 -71.220375 -216.091614
-25.295874 -72.000046 -217.733185
-22.611349 -71.929100 -218.113770
-17.492132 -73.569382 -218.845505
-12.677352 -74.318108 -218.341064
-3.238847 -72.367203 -219.105011
2.050261 -73.014267 -214.612839
82.115501 -75.454178 -219.039246
85.828026 -72.419891 -218.889709
87.122375 -71.710022 -219.368164
-165.670807 -71.033813 -219.513092
-156.546524 -68.834953 -214.958954
-152.580032 -70.478676 -220.020386
-12.023851 -74.637428 -217.418839
87.996750 -73.878326 -220.185135
89.230759 -73.562820 -224.519196
92.130684 -76.352280 -218.833160
-147.855042 -72.318672 -216.207794
-88.321327 -72.465981 -217.520630
-26.281897 -71.310173 -220.495392
6.944527 -71.404472 -220.945740
-155.542709 -71.455437 -221.176544
-152.529114 -71.048065 -220.134537
-89.821663 -72.135155 -221.612869
18.114916 -74.887993 -216.838623
91.319588 -70.927116 -218.130676
-164.925980 -73.406464 -220.209045
-162.745270 -76.215950 -215.323914
-154.280365 -70.285492 -220.191467
-149.435043 -72.825752 -219.757401
-11.583707 -72.392853 -221.164215
-14.526618 -73.957977 -218.848892
-2.638725 -75.636574 -219.588959
13.794238 -71.205879 -220.085281
82.885559 -74.258423 -222.507462
86.127777 -69.978615 -220.809433
90.002869 -73.656113 -218.407074
-94.002106 -71.978683 -219.561462
-10.682567 -71.804306 -219.707275
0.894192 -72.749298 -219.896362
-161.515976 -71.832886 -219.677277
-99.912552 -72.871582 -223.176773
-2.085014 -72.024422 -218.085114
-163.257843 -73.882904 -220.621353
-158.623856 -71.174576 -218.871323
-95.977959 -72.064392 -223.888214
-18.922207 -74.460007 -220.760498
-9.155318 -73.937691 -222.448944
17.272594 -73.870155 -223.157272
-153.947037 -71.805481 -223.937729
-96.436752 -74.197212 -218.675354
-23.340300 -74.102600 -222.835419
-15.779159 -74.324280 -221.696869
5.263414 -72.882286 -217.354889
12.826682 -71.245789 -221.647537
77.986832 -73.226280 -222.590363
85.589417 -73.459511 -221.310272
86.652527 -72.931763 -220.665756
-156.940643 -73.151131 -221.100021
-155.623337 -72.166100 -221.292374
-150.189423 -71.764755 -224.091599
-152.979477 -71.880013 -217.055725
-102.274086 -74.884781 -221.668365
-11.199428 -73.803627 -220.549210
10.720915 -72.428116 -219.846008
-150.770615 -75.121941 -223.668335
-144.445694 -71.908813 -222.001404
82.699905 -72.060692 -222.295486
-150.276901 -71.949097 -223.428268
81.898270 -74.328629 -222.666779
-160.747574 -71.246094 -224.152435
-158.380219 -72.024841 -224.236099
-106.265961 -73.458954 -224.123047
-99.316734 -74.481285 -223.395889
-97.390419 -71.993629 -224.303085
-24.644749 -70.714920 -221.902588
-12.626554 -71.704361 -223.149780
11.461461 -73.734352 -221.198578
15.542796 -73.433220 -223.554214
86.659393 -72.357574 -221.826752
-167.291153 -70.127846 -221.908020
-164.096771 -71.609283 -222.737442
-157.299911 -73.318481 -223.565369
-155.182983 -73.755219 -222.115311
-105.221237 -70.784782 -220.313309
-104.187973 -72.702362 -223.935455
-23.117474 -71.847725 -222.403946
-10.828853 -73.869080 -224.901321
88.915550 -73.859779 -222.692596
-152.751175 -71.043831 -223.736755
-154.544907 -72.912239 -224.811920
-104.412811 -72.402199 -222.538712
-19.686533 -75.436401 -222.069565
-18.843925 -72.966270 -223.979355
0.771976 -71.892067 -224.480133
16.630156 -74.167114 -222.630188
78.273285 -73.034607 -223.244690
-161.850174 -75.555832 -221.863174
-142.788040 -76.634445 -226.269852
-108.515327 -72.419106 -224.184570
-103.127342 -72.551628 -222.448975
-22.087328 -74.668190 -226.045715
-12.336790 -74.286690 -221.668777
87.161469 -74.031631 -223.804382
-161.380936 -71.897858 -225.618042
-160.434769 -75.371368 -223.830902
-155.261978 -70.875023 -224.934845
-154.911560 -73.819633 -226.086990
-109.010529 -73.599350 -223.253448
-11.471917 -74.074493 -226.552979
-6.838720 -73.949593 -224.279419
8.450898 -72.290375 -223.766403
18.396767 -70.818619 -224.127716
85.510139 -72.439445 -222.475174
-162.737289 -71.666595 -224.519745
-165.009186 -73.509430 -224.824280
-154.313416 -69.244232 -224.766586
-131.634109 -74.756157 -225.870117
-103.069344 -75.584427 -225.141586
-103.532822 -72.108963 -226.823151
-15.452748 -71.176956 -225.401794
-9.883540 -71.640808 -223.819290
73.270210 -70.851898 -223.638962
-157.214844 -70.929993 -223.806885
-142.366287 -77.104012 -224.820496
-126.778275 -72.398163 -225.439163
-126.522003 -72.072914 -225.371704
-125.921059 -72.180275 -226.835236
-106.703285 -76.523811 -224.131607
-20.902437 -71.484413 -224.924667
-16.558531 -75.935509 -223.986816
-8.034180 -71.585709 -227.236649
1.293736 -74.882492 -223.335236
5.510769 -74.345459 -224.214447
79.030411 -70.995071 -224.392670
85.785759 -73.052742 -224.634125
-107.717773 -70.733177 -224.253815
-7.856487 -71.636169 -225.800156
1.306326 -73.722580 -226.181808
17.724442 -73.048111 -227.837448
83.039581 -74.118385 -224.310471
-154.406738 -71.635307 -226.702896
-142.123611 -71.129852 -225.673126
-125.034912 -74.034752 -225.344986
-109.376099 -73.221016 -224.452652
-103.692192 -70.789017 -227.022400
-106.283684 -68.833534 -229.996002
-18.519880 -72.614708 -225.601578
-15.383495 -71.728760 -225.854523
-12.730939 -72.344803 -223.037506
-155.854599 -70.464355 -224.572296
-135.401871 -73.243416 -226.335892
-124.162743 -73.497025 -227.851044
-122.459480 -71.851509 -227.473831
-109.406281 -73.362839 -226.103714
-108.517418 -70.807182 -225.120041
-159.940582 -73.477272 -228.567505
-142.329468 -72.764252 -227.771851
-133.145233 -72.136574 -226.180664
-122.005798 -70.728149 -227.486786
-158.928955 -71.700218 -226.158112
-159.743195 -73.048004 -227.258041
-124.007462 -72.982750 -227.025452
-109.083351 -73.474197 -228.280350
-102.561592 -73.101807 -225.711777
-15.450945 -74.011940 -228.787262
-12.496311 -72.042465 -226.294434
-8.455825 -74.175896 -226.958969
-156.295822 -73.696663 -227.346466
-148.959656 -74.033363 -225.970337
-148.611862 -71.521423 -228.587204
-149.215561 -69.874039 -227.836334
-124.747581 -73.813538 -229.539581
-13.023119 -72.829193 -226.547638
5.477859 -74.067970 -228.126205
6.232218 -75.813545 -226.497757
77.221451 -72.508087 -226.542801
-166.999176 -73.978836 -224.892883
-156.759720 -72.825226 -227.078506
-157.407776 -71.473724 -226.918198
-153.857529 -74.455971 -225.606079
-147.699661 -72.071243 -229.632843
-123.447273 -73.783119 -229.810913
-125.080536 -70.299072 -228.377945
-121.609962 -71.070534 -227.568710
-108.651817 -70.640640 -227.655334
-14.493091 -71.092575 -227.598495
-6.626095 -70.770477 -227.133804
-118.244278 -74.864204 -225.316681
-18.109510 -70.327446 -228.855530
-14.002267 -72.532234 -229.178589
16.406582 -70.914101 -229.129349
18.121815 -71.651367 -228.727097
-165.573776 -72.480629 -230.900345
-149.957016 -72.517822 -228.800629
-125.290047 -72.899620 -226.501541
3.496449 -71.404465 -227.968201
76.790604 -73.804298 -229.074356
79.386536 -72.970848 -227.853516
83.042831 -74.154900 -228.803116
-157.388702 -72.747147 -227.287537
-118.941132 -72.656067 -230.648529
-115.964958 -71.717552 -229.295013
-113.166489 -72.509682 -226.958725
6.698008 -71.779686 -229.031723
76.688141 -71.373932 -230.242981
-150.968582 -74.665558 -228.844238
-149.094284 -76.059502 -227.975189
-125.953323 -70.513901 -228.792618
-12.192418 -72.969604 -229.917175
10.146420 -73.011696 -227.915665
-154.084534 -76.151398 -232.708176
-146.378342 -71.367523 -233.411530
-120.983833 -72.498634 -231.873825
-114.003586 -71.002617 -227.800797
-10.578118 -74.649208 -232.195282
2.888483 -68.202484 -229.690414
71.509575 -74.372231 -230.395691
75.917900 -71.957176 -229.638641
-162.856506 -70.133934 -232.136856
-162.630203 -71.216774 -232.806870
-153.890961 -73.124992 -230.672607
-150.137405 -72.135933 -231.439285
-146.869339 -72.859955 -228.192383
-120.364738 -71.812500 -229.718719
-118.123848 -70.252426 -233.120392
-17.333069 -72.364487 -230.836365
8.173362 -74.308090 -230.578064
16.250818 -72.066887 -230.048874
-162.984238 -72.920784 -230.620148
-122.540497 -71.594643 -231.005585
-119.677864 -73.374115 -232.604874
-114.402725 -73.495750 -230.496841
-8.878493 -72.335808 -229.306061
3.377282 -75.801628 -230.781250
19.162275 -71.144188 -229.560623
74.530327 -74.470657 -229.427216
-155.364655 -72.700172 -232.231232
-139.745163 -72.634804 -230.301086
-134.728729 -73.529335 -232.641266
-123.078339 -73.330872 -228.593018
-16.146984 -74.138344 -230.242493
-10.835916 -71.120834 -231.027420
-8.056479 -73.435852 -231.715454
18.108036 -71.596344 -232.544312
-163.434265 -72.699387 -230.732468
-132.058975 -75.308975 -232.205917
-11.873023 -73.802246 -231.191895
-8.371180 -72.572380 -230.948837
11.394897 -72.328621 -232.518372
81.678307 -71.812904 -228.800842
-159.941711 -73.988426 -231.630905
-154.083115 -72.122017 -229.623108
-142.179169 -73.778381 -230.674194
-136.633087 -72.276260 -232.184296
-133.097427 -71.708847 -232.394363
13.455329 -73.455521 -232.120590
73.904755 -70.772964 -229.618698
-124.746063 -73.921211 -234.058517
-6.917619 -72.363976 -230.390366
-0.625393 -75.814499 -234.218964
4.112089 -75.406898 -232.777802
-157.301300 -71.687172 -231.580124
-0.070155 -73.594933 -232.587662
-167.361938 -73.700432 -234.781784
-132.114349 -72.966232 -233.711060
-126.930672 -74.187286 -232.561996
-123.804756 -69.966492 -232.368164
68.085709 -73.491524 -230.575668
76.725220 -73.707062 -232.892822
-162.068771 -76.240883 -235.424194
-158.331406 -71.679382 -237.310211
-151.449326 -73.579361 -234.334946
6.940790 -72.472015 -235.013687
17.038963 -73.897430 -236.471161
19.524775 -73.648544 -234.224121
72.910255 -74.260956 -235.140640
-159.394806 -71.139397 -234.072174
-155.097992 -74.489204 -232.832138
-145.144958 -71.704704 -234.379364
-128.568863 -70.062988 -234.751495
73.743195 -73.120399 -233.142624
78.064812 -73.646645 -232.476913
-155.816986 -70.418724 -234.841705
-152.246140 -75.141747 -233.066101
-11.838078 -74.144211 -232.209793
12.168056 -74.825844 -233.053650
73.184998 -72.253784 -231.949005
-144.405594 -75.468773 -234.045959
67.530716 -72.068535 -233.639877
68.800896 -71.772583 -233.593735
75.749084 -72.281143 -235.353256
-158.738113 -74.656273 -234.513443
-155.991211 -72.460091 -235.684433
-153.707535 -70.592308 -233.958984
-151.353241 -73.983322 -236.270203
-146.724564 -74.511833 -235.848053
15.377945 -72.646851 -231.431427
68.199989 -70.957825 -234.286331
10.108047 -73.594650 -235.229523
15.330905 -73.671486 -233.879303
18.020100 -75.112282 -235.675842
69.490891 -74.363205 -235.722168
-153.140350 -72.156319 -237.291443
12.728552 -72.519119 -233.941238
-155.686432 -74.481071 -234.265472
-150.255600 -73.948387 -237.294266
-15.299558 -75.218216 -235.063477
-7.837022 -72.789650 -234.419556
12.301790 -71.833908 -237.197250
18.368443 -72.565018 -235.625183
69.352745 -72.144897 -237.504303
-154.695465 -68.521538 -236.227829
-146.100906 -73.117500 -237.185165
6.732394 -73.333015 -237.539413
63.198189 -72.789566 -234.714600
74.144493 -74.956680 -237.696167
-11.712401 -73.193405 -240.953918
-167.069687 -72.875435 -234.971115
-153.303909 -73.771317 -241.712067
-21.988474 -72.693466 -237.741730
9.007318 -74.067024 -238.266220
14.567814 -72.841408 -237.089233
-20.854149 -72.766594 -240.160645
9.093967 -75.295090 -237.193237
13.532215 -74.333221 -241.443390
64.666702 -71.919571 -241.921341
71.172012 -72.632324 -240.923645
70.237411 -72.745163 -240.531891
-22.711727 -72.921631 -236.427750
-11.240173 -70.759193 -237.488525
15.666368 -72.895790 -235.601822
60.557087 -73.050507 -239.280624
-24.244673 -73.754181 -239.017929
70.135399 -71.127434 -241.204712
-146.161423 -72.665146 -238.418655
-8.266645 -70.303833 -240.150970
0.532830 -72.886040 -239.077026
14.022454 -74.683838 -240.637405
-19.551704 -72.735001 -240.600876
-5.505300 -73.036385 -238.483185
-1.794029 -72.710052 -239.993988
-25.198578 -70.253212 -241.387161
-9.057432 -70.859772 -238.354095
62.228489 -70.557068 -240.154404
-10.786046 -72.837730 -241.246704
-2.793882 -71.715752 -242.008591
8.672390 -73.456139 -244.855240
68.043488 -72.483955 -239.239960
-22.440840 -71.865929 -241.142487
-6.074146 -73.152321 -239.795486
59.099682 -72.176575 -242.792053
-167.650635 -72.314690 -240.805740
-19.206669 -69.060234 -240.502060
1.374016 -72.673164 -241.526031
-1.849686 -71.655899 -240.264740
67.537323 -75.498154 -241.996887
-22.260828 -73.444878 -244.350510
-20.890467 -75.117065 -241.708755
-20.170771 -72.415771 -242.786072
-14.966727 -74.401695 -244.353958
15.794891 -72.245499 -240.184235
-6.371740 -70.727386 -243.126205
-1.894379 -74.303841 -242.271317
0.564681 -73.761627 -243.061096
4.398469 -75.128723 -240.674011
58.850224 -73.296333 -242.662552
-165.965897 -70.956490 -244.064362
1.573856 -73.792946 -242.829437
-0.446048 -72.340256 -243.664658
18.695736 -74.042625 -244.397797
56.498760 -72.737305 -243.960571
-8.299453 -72.508095 -244.198013
10.281933 -73.736214 -243.131149
10.719211 -74.235924 -242.733521
56.701355 -72.688965 -239.877167
-165.600082 -71.599411 -243.323578
-167.082687 -73.554222 -248.540009
8.660214 -72.793144 -243.262741
-146.531357 -73.582512 -244.144333
-5.420129 -74.430305 -243.567230
56.872658 -74.252480 -244.068130
59.807949 -72.055771 -246.112610
-4.446090 -73.313522 -246.566254
17.484171 -72.380074 -244.949570
-59.942062 -70.811150 -245.769287
-55.969303 -72.120987 -245.845306
-12.630571 -72.506012 -246.519211
-7.473572 -72.921196 -245.302399
-3.796333 -72.567108 -246.150635
59.738316 -73.101166 -246.148071
-59.379528 -70.456787 -245.020981
16.678080 -70.976875 -247.089218
19.196659 -71.742210 -246.355698
53.600857 -73.195572 -245.343369
55.071255 -70.436409 -247.361404
60.240765 -69.299683 -248.807877
-66.933502 -72.662621 -244.299728
-63.244968 -70.734200 -245.461624
-63.149460 -73.012939 -248.599014
-60.527439 -72.420502 -245.959076
-70.918976 -73.749657 -246.196747
-66.003220 -70.736862 -246.120590
-57.073280 -72.067604 -248.599304
-9.821347 -71.644127 -246.759277
-9.427894 -73.470062 -245.933441
16.598984 -73.168289 -244.715454
18.378298 -71.592865 -248.145264
19.141247 -70.979942 -248.188446
50.784832 -71.153137 -244.492676
51.403133 -72.956116 -246.088303
55.798191 -72.983276 -247.124023
-76.773872 -72.785049 -247.924118
51.724064 -72.911011 -244.765152
-54.506405 -71.930550 -249.189896
-57.684254 -71.717468 -247.468582
51.206638 -72.439735 -247.173050
51.491280 -73.721382 -245.025146
-166.116226 -72.578735 -247.113602
-59.434906 -71.379593 -248.045532
54.815609 -73.628433 -246.812592
-76.187187 -72.243828 -248.313675
-61.617004 -70.000870 -246.388901
-13.176739 -71.886078 -246.698853
-9.821451 -72.261734 -247.707947
18.404989 -74.302292 -247.685394
-79.235558 -70.883003 -248.296021
-8.413568 -72.094391 -249.811798
-60.942226 -73.206993 -247.271530
-61.078548 -74.696144 -248.143829
45.010048 -72.415466 -249.370117
50.638393 -69.411148 -248.478851
-80.869324 -75.913086 -248.915833
-166.371643 -70.573914 -246.408569
-146.915131 -74.483345 -248.302979
-88.298759 -71.416893 -252.550629
-63.536682 -71.089272 -249.003830
-12.511716 -72.556831 -248.486206
19.319529 -73.699036 -250.685181
48.435444 -74.251892 -250.050095
-64.111938 -73.053848 -247.307877
-12.136788 -71.214195 -249.208755
-10.656273 -72.557976 -250.761810
-68.792236 -72.026360 -250.021210
-63.915066 -72.226021 -252.741455
-10.621854 -71.459145 -251.403854
-88.787422 -74.905121 -249.496964
-82.422836 -70.532227 -249.793716
-64.509521 -73.422997 -252.048050
-7.844037 -74.057472 -252.734131
-68.977470 -72.087250 -251.684860
-7.840779 -72.411629 -250.195831
20.821972 -74.837074 -251.606583
-164.738358 -74.030899 -250.615265
-145.994263 -72.170784 -253.184250
-88.971474 -74.415253 -248.908356
-74.498901 -72.930817 -252.233521
-12.893459 -70.642456 -250.975754
-11.137668 -72.992104 -250.579620
-75.037354 -71.629120 -256.146973
-167.241486 -71.515266 -249.652985
-145.786362 -73.590683 -252.204681
-144.149658 -73.433769 -255.090408
-142.898788 -70.073769 -252.759827
-93.750534 -70.837532 -252.713104
-96.289734 -71.912369 -253.695160
-78.765442 -72.469917 -255.123016
-11.253423 -73.528343 -251.431107
-11.320640 -71.862106 -254.844711
-127.292831 -73.448662 -253.202652
-78.788368 -72.174355 -253.854797
-123.937431 -75.442657 -254.129745
-98.790390 -73.708824 -252.363434
-81.119301 -69.685478 -255.602585
-141.048416 -73.317719 -252.801315
-118.757256 -74.908661 -258.173401
-119.397629 -72.134377 -256.424225
-101.955971 -74.757271 -256.046539
-81.385529 -71.984451 -253.140762
-14.217549 -72.836975 -254.418549
-141.087479 -72.685234 -257.226593
-140.105408 -75.268112 -256.118073
-139.292007 -76.488029 -255.836899
-102.598923 -72.612358 -257.892822
-102.435509 -73.563721 -259.024017
-90.615395 -71.670547 -256.075714
23.149683 -73.300728 -255.981049
-116.635818 -73.413765 -255.416931
-105.180862 -73.997894 -257.472473
-119.054039 -76.870041 -255.759598
-99.517761 -74.887611 -255.302841
-90.305237 -74.014000 -259.401123
-17.522688 -68.994453 -259.579224
-107.381973 -71.702888 -257.455536
-107.674416 -72.606400 -258.147034
-95.548340 -72.814957 -257.176422
-169.066971 -74.242256 -257.192413
-112.327133 -71.081009 -258.274628
-106.028687 -72.553833 -259.465576
-97.720215 -73.565262 -260.520264
-97.359634 -71.615829 -258.360382
-107.090546 -72.482925 -258.601013
-101.104111 -73.031258 -259.035950
-101.548592 -72.636406 -258.794586
-102.858490 -73.855202 -259.361389
-109.447144 -74.010017 -261.120667
-109.825340 -72.612122 -258.935883
-108.753975 -70.584946 -259.732666
-103.405365 -72.156082 -258.385071
-103.596161 -73.641838 -260.048187
-167.299774 -74.270531 -260.586334
-112.265106 -72.663589 -258.955566
-114.834930 -75.026741 -260.548859
-110.241615 -72.519432 -261.838898
23.334019 -73.431038 -259.266418
-118.211349 -72.489014 -261.237305
-111.417923 -72.464211 -258.471436
-115.312553 -73.025597 -262.175171
-123.690933 -73.710480 -261.610229
-123.968086 -71.169342 -262.991241
-142.738235 -72.477776 -260.461090
-118.221596 -73.275612 -263.480072
-118.968994 -73.327576 -264.076324
-116.053474 -71.515083 -263.193604
-124.791931 -74.668617 -260.929108
-13.606548 -73.574821 -263.715912
-141.829895 -73.923759 -264.648132
-133.162125 -73.083183 -263.143982
-124.511772 -73.633972 -264.013123
22.887917 -74.379135 -263.748535
-142.785797 -73.271469 -262.332489
-130.822906 -73.742813 -266.016693
-125.102615 -73.037842 -262.009735
-167.448959 -74.239876 -262.112823
-143.093445 -72.326935 -265.724976
-129.035324 -71.494240 -263.146454
-126.227852 -71.785080 -266.070801
-165.659927 -73.113274 -265.403137
-145.458145 -71.609734 -264.364868
-15.995084 -72.233749 -266.486237
22.407209 -72.515930 -269.675781
20.651747 -72.989815 -272.208466
-15.011412 -71.973785 -272.629578
-145.453751 -72.964966 -272.949097
-164.504349 -75.526672 -272.042816
-164.761414 -72.422966 -275.236176
-167.503265 -71.544968 -274.422272
-13.986501 -72.903992 -273.031769
-145.444244 -71.895241 -276.016449
-11.175754 -75.035454 -275.342651
-168.362030 -73.682602 -276.141357
18.892115 -72.692749 -277.604919
-169.786118 -70.397858 -280.114471
-167.490829 -74.456482 -279.723145
-146.081924 -72.607986 -280.954468
-11.668664 -73.616043 -279.504639
-145.864792 -72.944130 -279.980133
15.040102 -72.560287 -283.590851
-7.511609 -73.648315 -281.164215
-143.064163 -73.387375 -282.450775
-7.414907 -73.768150 -282.929474
-167.640091 -71.392876 -282.373535
-143.071640 -74.121170 -284.919556
-133.880035 -72.479309 -282.972046
-126.750946 -72.805275 -284.149200
-125.877930 -70.470100 -281.532349
13.235035 -73.688950 -286.042633
-126.379333 -73.088676 -283.940735
-144.270981 -74.127594 -282.759918
14.709564 -71.797607 -284.974304
-141.978378 -73.461128 -286.574707
-137.421814 -71.256851 -283.519470
-124.187286 -74.936554 -285.653809
-6.497880 -75.645630 -284.217834
-166.651917 -72.149323 -283.319977
-123.918343 -73.090263 -285.142944
-62.711525 -73.024673 -286.121613
-52.950130 -73.781029 -286.937622
-47.879456 -74.384361 -286.860870
13.597295 -71.177940 -284.936554
-78.071823 -74.656868 -287.210358
-69.420334 -74.497620 -283.208435
-56.469585 -71.295227 -281.821442
-53.335518 -72.837158 -285.869598
-43.625202 -73.560242 -286.159485
-116.865204 -73.736565 -283.792328
-99.261063 -75.269722 -282.796173
-92.066505 -72.663666 -286.065552
-83.670021 -72.824341 -287.798401
-43.605038 -71.455788 -284.790985
-44.882095 -71.804886 -287.816650
-38.685085 -73.782639 -284.536743
-31.726948 -73.189629 -288.013428
-113.899490 -73.067970 -286.828339
-111.311226 -72.085793 -286.013214
-109.158615 -72.310883 -288.403961
-102.264328 -72.117966 -288.922607
-43.114895 -73.526894 -288.462158
-39.842121 -70.735901 -287.349976
-34.192326 -75.070114 -286.213135
-24.677774 -73.870041 -286.041595
9.158057 -69.946587 -285.304962
-40.316933 -72.050781 -287.635681
-36.487976 -76.148338 -286.528442
-30.332975 -70.915062 -286.303772
-26.488396 -71.582550 -285.482483
-22.487928 -71.507393 -287.587402
-12.079443 -75.267189 -286.856720
-9.604147 -72.624115 -289.668182
-7.118331 -72.185127 -288.067169
-5.708952 -72.917870 -289.793243
-167.743423 -72.204895 -286.719543
-29.051693 -73.068344 -284.577850
-16.273314 -72.413597 -283.769745
-14.014402 -74.349319 -289.194153
8.420246 -75.714394 -287.670441
-37.423214 -71.844658 -288.112335
-31.246153 -74.431000 -289.551544
-20.671438 -73.155495 -286.022766
11.374027 -73.788536 -288.667389
9.878235 -71.547577 -289.756592
-167.456406 -75.046051 -287.355408
-30.640314 -71.421783 -287.300537
-20.599312 -70.044754 -290.750244
8.298779 -75.296394 -290.293579
13.780645 -72.875854 -290.805420
-164.214798 -72.212570 -290.996613
-58.822094 -72.436310 -288.635406
-55.306377 -74.145065 -290.454773
-47.879055 -73.173920 -292.129822
-49.485245 -70.868683 -291.633087
-43.894493 -72.612442 -290.753784
-40.350674 -72.606087 -292.690552
-37.211899 -72.517998 -290.601288
-29.482800 -71.053741 -290.970184
-23.599382 -73.224327 -288.737610
-18.044401 -74.387924 -290.298950
15.343399 -70.913864 -291.595367
-76.188499 -71.957977 -288.648529
-68.722885 -71.503838 -288.985870
-65.529518 -72.531624 -291.648407
-36.205204 -72.661888 -289.886383
-32.517605 -73.836815 -290.242493
-29.981831 -73.873116 -291.233490
-29.935537 -70.644623 -290.142914
-22.777584 -74.160744 -289.203400
-8.572884 -71.418648 -292.627747
-4.476957 -74.158524 -292.295715
-85.334274 -72.221214 -290.180389
-19.463642 -75.608055 -293.660553
-10.480448 -72.973091 -290.340485
-9.053213 -73.641617 -290.379150
-5.516436 -74.396667 -291.033813
13.715501 -71.511353 -291.618713
-164.169769 -70.590126 -292.351501
-110.691536 -73.037323 -291.040253
-98.140656 -73.901268 -292.185059
-94.758842 -72.672852 -292.836639
-6.182728 -73.370834 -292.269379
-3.413151 -72.266945 -292.383911
-2.429988 -70.802101 -292.003448
-0.107616 -70.888405 -292.462799
8.284905 -72.798347 -292.184204
12.042823 -72.700340 -293.148529
17.235201 -72.884514 -290.994019
-120.358177 -72.711685 -291.760895
-112.966156 -72.491982 -291.960449
-2.100033 -72.444321 -293.063416
1.344843 -74.130959 -292.338867
4.626784 -74.882767 -292.958405
4.511177 -74.877304 -290.173370
14.814580 -71.609764 -292.290955
-160.850388 -71.934380 -294.042755
-141.879364 -72.141800 -293.360809
-141.944794 -71.793304 -290.810547
-138.097427 -71.859192 -294.492615
12.019280 -72.255852 -291.837646
-142.031540 -73.930122 -292.097992
-134.523758 -73.784134 -294.782440
8.069306 -73.234581 -292.089691
13.102588 -74.417946 -295.875549
13.158551 -73.810188 -291.733795
-159.876129 -72.512695 -295.847809
-143.936966 -72.548714 -293.292450
-132.883499 -71.799202 -292.176605
-132.001633 -72.905663 -292.929474
-125.951080 -71.586868 -293.294556
-156.014145 -73.018837 -294.508942
-147.280396 -72.958344 -297.905243
-154.991150 -71.994942 -297.311096
-145.172562 -73.472679 -297.344727
-146.040436 -72.929756 -299.792877
-151.641495 -73.480240 -298.695465
-144.157166 -73.060570 -304.080383
-156.874985 -72.351021 -301.900574
-142.980896 -69.975624 -304.806305
-156.210114 -72.294624 -307.148438
-159.459091 -70.917580 -309.541901
-150.642029 -73.270676 -312.020691
-154.784988 -73.522133 -310.849487
-151.527679 -72.540527 -310.430389
-149.120728 -72.186218 -313.335022
-144.876907 -74.137283 -310.794189
34.843056 -71.091507 -11.713934
31.506056 -72.773392 -10.556066
29.626944 -71.732338 -13.805394
34.542233 -73.157974 -12.465606
38.489025 -72.988045 -10.554802
28.629791 -69.514053 -13.635254
31.317129 -73.875816 -14.594777
38.617783 -74.129471 -14.112227
42.043354 -74.093781 -15.365175
34.944317 -72.675346 -12.707994
33.771652 -71.871902 -17.194025
37.307102 -72.621735 -15.061276
28.625299 -71.273087 -14.486465
35.127636 -72.375862 -14.237160
43.665848 -71.559425 -18.436531
33.270405 -71.891823 -15.034892
27.397820 -72.281967 -14.261354
26.520535 -71.795441 -14.700160
32.087498 -73.462204 -16.218084
24.407883 -72.895256 -16.571688
30.430738 -71.138519 -18.754715
32.579460 -74.260773 -18.400768
37.094036 -69.561981 -15.725157
41.947212 -72.100441 -14.074164
45.381264 -70.738724 -18.043026
29.789192 -73.671890 -16.034180
37.861378 -72.437744 -18.610262
41.743271 -71.226868 -16.444595
38.535732 -73.505348 -18.143312
42.463039 -72.675240 -15.285021
30.678932 -73.690125 -16.932728
46.317429 -73.942383 -17.261337
39.998150 -73.681473 -19.160555
42.137108 -71.258705 -15.681798
46.679272 -71.837921 -18.912218
28.181684 -72.412033 -17.760517
22.879915 -72.389809 -17.785748
41.209476 -73.021950 -19.547079
43.998859 -71.399261 -19.497597
47.012878 -74.346642 -17.139763
26.819826 -72.218903 -18.966547
42.028133 -70.638893 -19.824102
21.401037 -70.575218 -19.151785
46.372250 -73.587494 -21.470325
50.629463 -71.395424 -18.327457
42.960621 -71.751060 -21.353043
27.225517 -74.584511 -23.146538
46.617790 -72.058952 -23.656687
48.926468 -73.921005 -24.227156
23.007513 -70.782158 -21.598703
47.801533 -71.386322 -24.270340
26.140680 -71.891998 -23.102476
48.867954 -71.179558 -24.595947
21.336357 -71.429558 -24.488026
50.602379 -72.638161 -27.802691
45.546436 -72.132614 -26.821211
45.683384 -71.320145 -28.797348
43.532139 -71.304848 -30.835852
20.194534 -71.109604 -29.875072
24.337757 -69.302322 -27.168427
26.530037 -71.028000 -31.749334
50.309837 -73.863342 -28.568792
20.899759 -70.014061 -28.737209
43.422962 -73.034447 -28.338966
44.292892 -70.761177 -34.176193
49.485645 -73.170532 -29.623383
45.616924 -72.982018 -29.862621
46.455067 -72.093468 -29.585352
20.132847 -70.604927 -33.213650
46.299770 -72.787895 -29.358477
21.565948 -72.326691 -33.182060
47.031265 -71.556519 -32.220184
26.013744 -73.112160 -34.412277
42.681297 -72.756203 -33.212875
47.535397 -70.810318 -32.504761
28.826046 -72.334236 -33.799183
42.902184 -73.637054 -34.419113
21.631090 -73.020302 -33.606308
48.604160 -74.116531 -36.181736
44.912556 -70.803810 -35.459171
21.604321 -73.279404 -33.949303
27.951948 -72.921745 -38.299961
40.057259 -72.955421 -37.348270
42.066685 -71.179749 -34.371117
40.616131 -72.306381 -36.630863
41.556782 -73.292053 -34.546551
44.893810 -73.431656 -35.285736
31.992765 -71.362259 -36.602932
35.419724 -74.624367 -36.378040
39.648346 -73.500351 -37.320896
36.523148 -69.784241 -36.844528
27.307093 -71.485558 -36.041401
26.591339 -68.696846 -36.905853
41.902107 -72.688995 -36.199116
47.028057 -72.082283 -36.312325
33.119717 -69.818443 -39.854053
42.053349 -70.589470 -37.674362
36.360863 -72.087379 -36.604523
30.702448 -71.374023 -39.828243
35.538868 -72.312622 -38.349602
38.616730 -73.779099 -38.757587
26.129526 -70.925957 -38.313633
41.792534 -73.755409 -39.152771
39.259331 -71.371552 -42.169765
40.227615 -69.873947 -40.510582
40.193214 -71.599403 -40.010811
32.593132 -71.281807 -40.872395
36.778393 -73.690300 -39.717403
-55.533810 -71.505981 -49.984394
-62.576233 -71.908333 -50.419579
-54.834347 -72.167542 -49.366508
-49.466778 -71.420761 -50.733459
-43.978016 -70.886780 -49.100544
-67.779129 -70.903694 -48.880589
-62.039970 -71.220619 -48.567787
-67.025703 -71.655426 -46.810925
-47.694050 -71.121025 -51.788086
-69.643219 -72.090034 -48.057251
-67.744827 -73.055504 -49.705353
-49.915535 -72.411736 -50.443481
-73.200012 -72.735382 -49.931274
-45.923676 -70.458229 -50.522408
-40.099739 -69.511436 -51.288490
-44.578697 -73.660515 -50.572037
-35.030144 -68.801247 -52.006973
-75.480316 -71.941856 -51.936695
-34.966587 -72.919655 -53.763027
-77.179245 -71.440750 -54.186996
-29.924147 -72.896492 -52.853836
-81.434677 -69.749054 -54.792770
-34.369461 -70.984093 -52.257214
-30.352314 -71.097954 -56.415485
-28.803253 -74.674126 -56.649090
-27.004614 -70.228203 -57.110497
-82.663658 -71.048294 -57.901066
-28.682610 -72.470650 -58.796734
-80.826920 -71.674110 -58.976074
-21.813486 -71.642029 -58.718948
-82.379379 -72.596649 -56.053608
-23.549316 -70.548965 -59.294582
-19.694565 -70.759857 -60.502079
-86.916267 -71.792168 -61.484566
-85.312897 -69.227806 -61.404091
-21.986717 -70.317619 -58.660278
-84.968430 -72.969475 -57.746696
-86.200935 -72.399879 -61.326775
-20.153770 -73.549088 -57.124893
-83.509354 -72.618744 -64.180847
-17.045755 -72.865112 -64.458778
-14.966358 -71.968681 -65.486610
-89.067017 -72.706696 -62.559162
81.505234 -70.358276 -68.684021
77.484489 -69.483551 -71.868767
77.771469 -70.301918 -67.129112
83.129494 -71.858978 -69.159348
85.352226 -72.028084 -66.979408
83.602058 -72.634735 -67.634689
87.437393 -72.868759 -69.575432
90.088531 -71.093361 -70.250549
-18.715359 -71.148193 -66.578041
74.108582 -73.075813 -69.196854
93.669647 -72.340981 -68.421677
-88.817642 -69.497093 -71.289757
74.804298 -69.043671 -72.576851
92.920624 -71.425194 -71.180679
-91.485603 -70.965698 -70.006798
-17.763071 -73.092102 -68.998451
-90.648849 -72.446625 -68.838890
-94.400696 -69.604034 -73.337967
93.615456 -74.327751 -72.966278
-93.054161 -73.199753 -72.272362
-23.930923 -72.315796 -75.377594
-19.277645 -71.242538 -73.683578
74.040741 -73.787018 -73.480423
-19.465071 -73.839706 -76.403603
98.706566 -72.453926 -70.216087
-22.207525 -70.825432 -75.696198
-92.377640 -73.463852 -76.263588
-35.987228 -74.767113 -77.166733
-25.138819 -72.394264 -76.135849
-24.891535 -71.999702 -77.262619
-31.287825 -73.290077 -75.698853
-28.972662 -74.476974 -78.217247
71.526161 -74.884125 -78.570526
69.169861 -72.526871 -77.572968
-93.672523 -72.851295 -81.951157
69.555206 -72.632721 -78.726555
-43.775345 -72.284187 -81.757156
-43.580418 -70.828178 -84.654892
70.927330 -71.507317 -83.210449
98.870384 -72.609825 -79.775314
99.372345 -71.611603 -82.363968
71.243614 -69.805931 -83.796722
-48.381832 -73.800003 -85.025063
-51.617413 -72.314949 -86.351044
98.634682 -72.192345 -85.669937
-95.382065 -71.767273 -87.262131
69.567604 -70.980850 -86.123131
98.588135 -72.287918 -87.106232
58.680592 -72.052040 -86.031273
58.181011 -71.489174 -86.431908
54.633942 -74.244003 -87.134209
61.405807 -72.630219 -86.627434
69.436409 -70.932137 -87.393501
50.452572 -70.296303 -90.000732
55.828316 -70.382401 -88.502762
62.078045 -71.953041 -90.116173
57.016586 -69.938698 -88.764160
-55.321175 -74.346680 -90.560875
49.625130 -70.310196 -90.583672
52.721085 -69.169624 -91.178604
98.112892 -71.947708 -92.386749
49.000248 -70.975998 -91.183411
56.545231 -70.411484 -90.585060
57.509865 -70.309334 -91.283859
57.140144 -69.829987 -91.732513
-93.429802 -72.938431 -87.471703
-62.602940 -70.654518 -92.270203
55.515976 -72.489380 -89.812584
70.681801 -74.211716 -90.337914
52.501469 -72.911667 -92.679726
98.364319 -70.057068 -92.247925
-63.434925 -69.743301 -92.450996
-66.904541 -68.496552 -89.893982
54.267200 -72.406662 -89.398735
60.180546 -73.358849 -92.233955
47.467327 -69.888924 -94.179581
58.567047 -72.506706 -91.891350
-66.641457 -70.722763 -93.349556
62.800228 -71.381493 -94.547218
99.308128 -73.907326 -92.946754
-65.641167 -70.709824 -93.514694
47.766510 -73.735168 -93.525620
69.999680 -71.874603 -92.123833
97.352173 -71.595558 -90.702576
52.540840 -72.351212 -94.867340
-66.104210 -75.602119 -94.769989
46.570599 -70.462898 -95.649002
-94.041092 -69.287346 -93.388908
71.991913 -74.112526 -95.240623
97.611000 -74.226173 -94.937607
47.246201 -69.711624 -95.723305
56.418278 -72.038567 -96.058830
60.264622 -73.400902 -95.302071
99.464516 -71.501350 -99.465012
105.481773 -72.492607 -95.565376
59.659618 -71.087685 -99.197601
103.056717 -71.998779 -95.564758
106.064514 -73.391487 -96.064362
-93.855667 -70.926506 -95.504997
70.534645 -72.234581 -95.060532
-65.329552 -71.351837 -97.979355
47.274296 -71.408707 -98.562988
100.834808 -73.895660 -100.787384
74.286942 -71.450386 -99.916580
93.578712 -72.023216 -97.790131
-70.500206 -68.680939 -99.615204
42.830341 -73.289505 -100.453102
52.713406 -70.869888 -99.863861
56.665169 -72.488632 -98.988144
106.516479 -70.217232 -100.481094
94.850517 -71.653351 -100.099678
-76.660660 -72.269241 -102.359444
-74.008957 -74.625221 -100.137535
48.517792 -70.875237 -100.458061
55.460384 -73.608711 -101.596977
95.870697 -71.260155 -104.234177
102.345863 -71.892464 -100.255493
-73.317848 -69.745491 -98.315895
44.844189 -73.655769 -102.717369
78.108719 -70.344841 -98.091446
82.277504 -71.522842 -102.342751
102.417038 -71.040718 -102.088959
107.961990 -71.383606 -102.607262
-94.192459 -72.600761 -101.553291
78.136833 -72.248451 -101.089203
82.045174 -72.565277 -101.643494
77.304710 -71.434151 -103.539948
81.344734 -73.645821 -104.997757
80.590866 -70.746475 -103.665108
87.464661 -75.307915 -105.126823
95.222847 -70.707092 -103.865120
41.924332 -71.729233 -103.567001
44.420689 -73.537750 -102.702316
55.389587 -71.999939 -103.070641
42.597420 -71.657127 -103.423447
90.037766 -73.904388 -103.273598
89.417336 -71.505058 -102.875519
103.091415 -74.339539 -103.078995
106.466209 -72.176071 -102.862968
-96.200333 -71.234024 -103.583359
43.714497 -70.537361 -103.174187
88.158401 -69.583801 -102.744247
109.351639 -71.306839 -103.473923
50.414814 -70.807068 -103.182266
39.920650 -72.973679 -104.923439
104.090683 -68.675934 -106.509972
107.314529 -69.487556 -101.843056
105.425224 -73.208763 -106.914124
-85.089363 -71.193581 -104.549911
103.519737 -72.563637 -103.344109
110.720642 -71.075378 -105.536263
-83.689499 -70.418205 -105.821648
43.254414 -72.486885 -108.425041
109.700958 -72.291000 -106.017639
-95.460724 -70.182610 -104.197624
104.445267 -70.755707 -105.755684
105.328987 -72.493561 -106.300316
-84.217041 -74.600060 -107.735641
43.957050 -71.921669 -104.859314
103.177177 -71.996803 -104.350380
106.532257 -72.101677 -108.727356
-94.423500 -72.920433 -108.648270
-84.201973 -71.443863 -106.663521
37.304054 -71.196907 -108.988342
52.314125 -72.435043 -107.172798
106.500229 -72.178154 -108.375824
110.800552 -73.930664 -107.629707
53.268181 -70.143127 -108.921135
50.950722 -72.106972 -108.663033
38.386803 -73.630302 -107.782806
-85.083649 -71.773445 -112.091606
44.685356 -72.227226 -108.196838
52.095993 -73.723404 -110.684212
38.087662 -72.198738 -109.399345
51.938061 -69.672783 -111.859138
51.649326 -72.502472 -107.918640
109.240471 -70.915100 -108.454247
47.254063 -71.372818 -110.956818
36.254219 -71.919762 -114.130707
103.754883 -71.777153 -109.785477
-84.898087 -73.950325 -110.993980
47.994617 -70.128296 -109.220619
46.823185 -71.413399 -110.790581
105.789925 -70.900368 -111.980042
105.981094 -71.620094 -113.431374
38.167381 -71.516243 -108.928169
45.799698 -73.820717 -113.747078
105.614723 -71.575493 -112.734764
110.644859 -74.246803 -112.037079
-94.854095 -72.475685 -111.101219
39.071941 -72.233177 -113.811768
48.760536 -73.252655 -112.485580
108.381760 -74.649452 -111.587784
-95.291969 -67.988342 -111.182899
35.115078 -71.436333 -112.752289
-88.078880 -73.823364 -114.499802
107.123093 -73.159279 -113.066505
105.631439 -71.454948 -111.238251
-92.944908 -69.839653 -114.703888
37.565639 -72.114922 -115.101723
44.181774 -71.262794 -114.676109
47.977982 -72.799316 -114.475861
48.381977 -71.257324 -115.926285
32.594563 -71.276100 -115.392426
111.222214 -73.280159 -110.908318
106.866203 -73.850487 -115.473671
109.522339 -71.844482 -115.774529
44.825611 -71.991531 -114.554764
104.562988 -75.612831 -116.689537
37.548550 -71.284454 -117.205986
108.033722 -73.106956 -116.852814
-94.130966 -70.337593 -119.494148
-86.772881 -70.934212 -115.788567
33.713127 -71.178635 -117.169029
48.401043 -71.276222 -118.673012
32.264896 -74.031090 -117.067322
44.452198 -73.208214 -117.918777
113.657097 -72.015434 -117.827774
-94.763695 -69.617050 -120.703262
-92.062248 -71.861160 -120.017334
34.276360 -73.885666 -117.489067
110.911377 -71.323784 -118.497276
109.317200 -71.417099 -118.720352
111.403976 -70.604340 -119.838394
32.986526 -72.326294 -119.665756
36.648109 -70.034592 -116.778458
46.456505 -74.360977 -117.731522
109.458321 -72.135948 -117.099144
30.901009 -73.291885 -120.128990
43.515415 -71.622337 -119.030075
43.527607 -70.486221 -120.834404
36.984432 -71.366714 -120.907417
40.677723 -74.085548 -120.676514
41.472801 -70.938950 -119.714973
108.046333 -73.084503 -120.966843
32.471851 -72.507027 -118.811806
44.298817 -71.334213 -120.059311
110.136688 -71.418900 -119.536972
114.189949 -70.852272 -120.696754
41.944542 -70.898918 -124.225258
109.299660 -72.896904 -123.242088
30.935114 -72.326004 -122.698891
35.312813 -69.712257 -123.219757
44.097073 -74.478500 -123.242584
36.003067 -71.224396 -124.645172
112.444824 -72.102119 -124.145264
38.729923 -71.558952 -124.107780
44.214428 -71.609512 -123.153519
113.666183 -72.574051 -121.481216
29.661503 -74.561760 -125.266502
34.774303 -73.862541 -124.726158
115.606621 -70.513832 -126.589485
30.582842 -73.694244 -125.783424
36.535793 -70.679855 -125.792786
40.473770 -71.773788 -128.819092
110.504608 -71.709297 -122.997360
115.037605 -74.026131 -126.678009
113.683899 -69.179054 -125.916367
43.360950 -74.803993 -125.402435
111.427879 -72.424965 -127.336830
117.073593 -71.787529 -127.462532
34.258118 -71.142143 -129.947021
114.580208 -73.246490 -129.429077
115.786133 -73.060104 -128.826477
-57.149448 -70.700462 -128.056870
-57.349445 -72.296051 -128.756958
110.303551 -73.192619 -127.761963
-56.725483 -70.015114 -128.686127
111.213409 -71.047424 -129.620361
-56.032883 -73.951324 -130.579422
111.455032 -73.811646 -134.572205
28.134598 -76.077484 -128.985657
36.782715 -70.928314 -129.030746
-53.344093 -73.866478 -131.851486
112.237053 -70.677849 -128.475006
-76.130562 -72.164207 -130.626053
-52.657082 -72.738068 -129.910187
105.835747 -72.074387 -129.778381
-57.092014 -75.910828 -131.662888
32.281792 -72.226341 -132.854767
-75.132774 -72.612282 -130.056503
-75.370941 -70.468002 -132.575928
-75.578331 -70.639870 -131.982590
28.486855 -69.673447 -133.743393
-77.507706 -71.030518 -130.252609
-77.203217 -71.584328 -131.994690
36.116364 -71.941544 -133.183670
113.298798 -72.305832 -131.118530
-53.702450 -70.846100 -131.429977
-73.830421 -70.196442 -133.805038
27.856396 -72.191338 -133.778656
113.297577 -70.111855 -134.386703
111.249474 -71.948982 -131.211700
118.294029 -71.988068 -132.978424
-53.928852 -73.841881 -129.934296
115.111397 -70.341103 -133.022324
-55.818592 -71.552109 -134.578568
35.097404 -69.428589 -134.722336
-76.351044 -70.805336 -133.599213
-55.685955 -71.448189 -133.858749
-51.508476 -70.541382 -133.280136
-49.167305 -72.600090 -138.185455
24.539270 -71.902580 -134.910248
41.827576 -73.296951 -133.317474
109.151070 -72.845230 -134.091064
-56.670483 -74.533592 -135.507355
-50.646542 -69.937775 -137.880997
37.770027 -71.361099 -133.773132
108.474350 -73.192352 -135.005386
35.047028 -71.948685 -135.614227
39.618134 -72.923958 -136.889801
-75.475426 -71.847092 -133.899734
-75.251915 -73.744225 -136.214203
-50.750278 -72.301994 -135.634872
-47.599972 -73.265244 -137.532913
32.818214 -71.316513 -135.308151
-59.866909 -71.702995 -134.530121
-54.712112 -74.198570 -136.159546
-47.530430 -70.627541 -134.709061
-50.515884 -71.834229 -137.763519
-45.615585 -72.693024 -136.904999
-73.046555 -73.444633 -135.070862
-56.781410 -71.048828 -139.448212
25.395786 -72.099144 -139.319458
30.245733 -70.815292 -136.038101
-78.251007 -72.808296 -138.538330
116.487091 -73.229324 -138.538498
-58.887573 -70.970085 -134.865921
-46.321701 -71.016724 -139.904510
112.133339 -75.044884 -134.299057
-70.457764 -72.948654 -137.859070
35.944702 -72.980690 -138.937180
110.724976 -73.269661 -137.205551
28.928816 -71.617264 -139.899185
34.521553 -69.551384 -135.714630
112.819481 -73.634140 -140.367691
-76.549812 -70.488075 -139.884277
-70.989563 -71.724594 -139.203903
-56.458157 -69.989944 -141.062241
36.016907 -72.672318 -142.009064
-74.871033 -74.012375 -141.442444
-70.335556 -70.408043 -142.238510
27.994745 -71.577927 -139.499298
33.564926 -72.048790 -140.821960
106.960701 -71.462151 -140.787521
