# This PCD file was generated using the MATLAB® pcwrite function
# from Computer Vision Toolbox®.
# .PCD v.7 - Point Cloud Data file format
VERSION .7
FIELDS x y z
SIZE 4 4 4
TYPE F F F
COUNT 1 1 1
WIDTH 1410
HEIGHT 1
VIEWPOINT 0 0 0 1 0 0 0
POINTS 1410
DATA ascii
-6.5522016	235.823237	-64.6577616
-10.0680823	237.404219	-64.6964042
-5.07475793	234.863386	-63.4325649
-8.53035843	235.565046	-64.4836971
-2.851	234.847084	-63.2261794
-11.8940128	227.859137	-63.1611444
-3.30677841	231.780578	-63.0671625
-5.72731862	231.27564	-62.4170348
-4.95196662	237.179292	-62.7115318
-3.29805568	242.167425	-70.9140164
-6.4483631	239.788271	-68.7893955
-2.69281893	245.374325	-68.1545446
-4.37575889	239.756393	-67.4053953
-7.43143357	243.882544	-67.2755709
-11.6616097	240.716611	-66.6166382
-8.45966554	240.073844	-66.6101128
-6.26316882	243.371898	-65.895896
-11.8325412	243.85841	-66.2077165
-7.54216235	247.703865	-64.9427243
-11.1625302	240.939835	-65.5844118
-6.60679584	243.915685	-64.2258485
-5.74116552	245.630379	-65.0098061
-7.15021613	238.68108	-64.6748103
-8.22704152	241.072002	-63.4397783
-9.07663178	246.836243	-64.527082
-6.59929065	245.928975	-62.0187148
-2.63021719	244.767965	-62.0833785
-12.2981041	247.452901	-64.0500819
-6.98063453	247.198808	-62.0773366
-2.89260642	247.424133	-60.8606524
-3.88077256	247.646361	-63.7800336
-2.57651057	245.448051	-63.4996773
-19.4041546	249.021986	-71.7663097
-18.3373185	249.543477	-71.2078546
-19.0558705	251.128513	-70.0292736
-14.2495716	248.01884	-68.6295761
-15.7635064	252.244131	-67.2687275
-19.3253712	252.137901	-67.0118642
-17.8684717	249.435341	-66.1235382
-16.2949156	251.354119	-65.5158691
-13.3945112	256.703446	-64.2028411
-13.1648441	265.208029	-68.303563
-13.2392164	261.259996	-66.6261192
-14.6153878	260.980382	-64.3898376
-14.04478	264.450685	-64.5255368
-13.5153831	259.734309	-62.9035617
-4.24642232	257.026254	-70.7464336
-12.4478159	250.472307	-67.7142438
-4.13483057	254.982715	-68.1501931
-8.31762897	256.996188	-67.8064215
-5.42488259	248.519949	-58.3184705
-5.20186999	251.654716	-67.1218811
-4.28799465	249.243144	-66.0806707
-8.88797756	251.974024	-65.1941919
-9.7358759	255.388688	-66.4592487
-5.83713395	249.202428	-65.0575876
-9.55035324	252.015224	-62.1109246
-8.5118104	253.286231	-65.9948009
-11.0739552	253.571943	-65.2405293
-11.6652744	249.201457	-62.8145765
-3.76771299	254.196243	-58.2302912
-9.12713481	253.973636	-59.9635222
-9.86121858	257.406483	-59.7440341
-4.11382558	252.582884	-58.9669407
-9.9243986	250.911667	-61.5340285
-5.94158389	256.363453	-57.6517067
-8.37557103	263.119992	-73.1919594
-11.6406792	266.950792	-71.674173
-4.39447996	259.045119	-72.9377122
-6.91507397	261.035241	-72.9742335
-10.4047451	261.409641	-69.8755118
-12.2825974	261.732444	-67.4416035
-12.4172605	263.486147	-62.3715088
-11.9218596	258.025554	-65.8255564
-6.59863428	261.995251	-59.2005165
-5.30654154	258.216917	-57.3527272
-2.84332131	251.307945	-55.6941466
-4.86387865	249.421393	-57.1957235
-78.4905711	298.236331	-69.2991104
-75.1027482	297.491228	-64.4328666
-75.7686531	297.285468	-65.8993973
-77.6896479	298.630009	-70.3282571
-78.3724553	298.794024	-70.1108366
-81.5357822	299.785916	-63.8278223
-64.8369304	298.214234	-69.5431623
-71.4106017	296.744712	-68.7220984
-64.7770864	297.214333	-66.7394805
-67.3934831	301.049505	-68.6777523
-68.9624316	300.132596	-67.4157305
-69.0715582	300.128337	-66.1810158
-69.0885927	299.601467	-65.1434653
-72.9455089	298.36096	-63.741696
-68.5166366	298.410094	-64.5899935
-53.406297	297.095303	-70.9127285
-57.2296076	297.184424	-68.935236
-54.0977976	297.063194	-67.7199213
-56.6020553	298.163456	-71.2922119
-56.5699771	297.697797	-65.6778066
-62.4868137	297.517454	-64.6447852
-57.9478156	298.119248	-64.8375224
-60.1753781	299.188311	-70.7828509
-61.9758936	299.570244	-70.7327028
-59.6394965	299.507333	-70.1501309
-56.1830531	299.575123	-67.2376089
-53.744587	299.890482	-66.0300382
-53.141729	299.894305	-65.7387958
-46.4460975	296.810708	-70.7094658
-47.3189915	300.126342	-69.9938422
-43.66964	300.761287	-70.1747035
-47.859592	300.913947	-69.2490215
-38.3800908	297.375582	-70.2542231
-32.8395594	297.386591	-69.0417381
-41.4487051	296.685929	-68.1825913
-42.6824629	296.292095	-66.7919129
-38.5573121	298.943624	-71.9483608
-35.3424753	299.415192	-71.5370998
-36.2240397	299.730719	-66.8212965
-37.4626229	299.082472	-65.7803741
-33.8760152	299.404701	-66.1901641
-31.5475535	297.565131	-71.3694194
-25.4938875	296.430335	-68.6996106
-29.04551	295.54706	-69.3657
-28.6625213	297.781421	-67.4719423
-32.4004075	298.286412	-72.05429
-31.9656952	298.559936	-72.1801321
-26.0144649	301.719848	-69.0953032
-31.8081515	300.260509	-67.6453752
-29.5395833	300.694176	-66.8687043
-12.914597	275.350144	-69.8503329
-13.9223655	271.81254	-68.5717868
-14.5774198	272.066867	-65.6267438
-13.9560819	271.654867	-64.3482593
-13.1623752	281.702354	-66.2558448
-12.8437479	280.488048	-64.4002598
-10.0897195	268.060996	-73.6351884
-7.54846518	270.810838	-76.1136857
-8.89510907	276.850689	-74.345452
-11.18701	273.216725	-72.7311991
-11.864057	277.894991	-70.8345188
-10.7688146	270.579484	-62.7566772
-8.30060377	277.083135	-62.3112294
-6.4115132	269.139724	-60.9386757
-5.24033087	274.919966	-61.1133748
-4.86719723	279.319165	-76.2276532
-2.81047507	282.757926	-76.120378
-4.8162909	285.10042	-74.0050282
-9.47897598	279.668531	-72.9322422
-6.67443359	283.318345	-73.6149818
-10.455143	286.274506	-67.3423679
-11.9739155	284.744086	-64.8372108
-10.1952632	284.365151	-63.2475952
-5.2739881	280.904081	-61.2108255
-2.91442303	281.104363	-60.3512174
-19.3015425	299.146842	-72.3241334
-17.536982	298.799001	-72.0153352
-16.5182055	300.525261	-68.1087463
-14.1768025	298.662551	-66.3106319
-16.9419508	300.383218	-66.3190682
-13.8024058	298.832499	-65.7471615
-18.1359388	299.895577	-65.9356494
-15.4021476	300.151987	-65.7491448
-13.4140578	300.152384	-66.6355655
-3.49243248	294.536884	-70.0539116
-3.49294514	289.530848	-72.2393268
-12.0389802	297.897857	-70.0632289
-3.7176213	297.620952	-70.0806131
-6.53177968	288.97884	-70.4288834
-7.13973188	292.60931	-67.9889295
-4.326157	297.073045	-68.3659866
-10.736569	297.034516	-67.9954186
-7.94162728	295.014184	-64.1395284
-5.39688733	298.052216	-65.6604851
-9.05390888	291.248566	-65.2503421
-9.34779939	290.119502	-63.5728819
-6.44244671	296.221514	-62.5070231
-7.85682619	291.687111	-61.4479355
-5.38850141	295.448656	-60.2286722
-9.51831662	298.427443	-70.9529568
-9.74416996	299.603739	-71.9183744
-10.6090497	299.755335	-71.233735
-3.21709225	300.927718	-69.9005097
-10.1946823	300.409591	-67.4209825
-3.36978482	299.966006	-65.5217617
-3.46715962	299.73604	-61.5551274
-2.95576057	298.47015	-59.1556445
27.4089054	23.9807778	-64.4215718
31.7895079	22.2609079	-64.9509387
36.5129527	22.057614	-63.9989708
30.5838403	23.5914525	-59.1819872
33.2193293	22.8561262	-58.5698017
37.5646403	22.4391711	-56.9745161
41.395592	23.0117067	-65.1873076
39.0236323	26.0394871	-65.1104153
44.7766676	25.0772786	-64.5026617
41.4129136	24.2508334	-57.899909
44.9383611	25.5421438	-55.0875055
25.5552191	26.5712792	-65.4945476
22.331401	32.5226879	-65.9183637
21.6373069	29.8727826	-65.448527
25.4359656	32.3309855	-65.7349826
20.3191934	33.3679636	-65.8113592
24.0382699	26.625709	-64.9110918
25.7128785	35.8377714	-58.5291328
27.1092776	32.1044558	-65.2016489
23.8312383	27.8893891	-59.0198551
25.0912827	39.0205006	-65.6611485
23.1444615	44.2034667	-65.4655728
20.1305437	36.9710723	-65.6082256
27.1689174	41.8248115	-65.4233417
21.5315997	43.2646666	-65.1118421
20.3241074	39.8586412	-65.2737022
25.9225279	37.578326	-65.3204889
23.1159421	45.7500634	-65.0717859
20.8797657	41.0962147	-65.2110227
30.4205284	26.6561451	-65.3249914
31.3243756	27.070144	-64.1725108
29.2780845	29.1174759	-65.0164483
35.353942	26.6683571	-64.913159
27.8414105	44.533323	-65.6961591
29.778025	44.6327416	-65.3702014
21.0559617	31.0979535	-54.354438
26.6252625	32.7612817	-55.0917528
20.0400969	37.7268267	-54.7240848
25.7106395	38.8100707	-55.0053287
22.4909703	44.3061764	-56.2603085
28.9807201	30.027641	-54.7014236
31.6582707	28.1017903	-55.4496397
34.9971684	26.9031876	-56.9650872
29.9685818	45.2833441	-54.9528585
24.6054684	47.3331138	-65.0440672
32.8912738	46.8823435	-59.6365962
28.9311415	49.4503832	-65.7431222
32.3024293	46.9111832	-65.5209737
37.0670321	46.9129439	-65.3123801
32.230744	49.8173233	-65.6491556
36.6289442	51.3393334	-65.5640571
34.0379563	46.9868956	-64.9350772
35.5309514	46.6889694	-64.910866
27.6775651	49.5944678	-65.5316207
33.8537323	50.2313678	-65.4010327
34.9598849	50.6159357	-65.4353698
33.9821241	49.0564674	-65.1470298
35.0569931	46.8841807	-59.7610308
32.0153685	51.0898052	-65.6880798
33.2841173	48.1111034	-54.5741947
27.8271026	49.0808851	-56.2772901
33.4327695	49.1552069	-53.6121797
44.9698023	31.087719	-64.9587248
46.9062738	28.7400634	-64.6816586
47.4017711	27.7948126	-63.7867964
43.7778332	32.4954123	-64.6771936
39.392599	27.6526592	-64.6940724
44.5944793	36.0659099	-64.7835029
41.6260904	29.1463883	-62.5088661
46.7464238	28.6515697	-58.3575418
43.9453388	40.6350652	-65.1382164
42.8201467	44.6104861	-65.1980423
47.5545324	43.7475596	-64.699006
41.429159	43.9067898	-65.0644181
39.497341	45.2562503	-64.9720578
43.9363355	39.0457861	-57.8462779
50.2916088	34.5117885	-63.7641344
48.6732488	30.1225882	-63.8045385
48.8250641	33.9833064	-57.3941001
49.3215818	36.6294059	-64.6464683
50.3305499	39.4994752	-64.220139
48.0273026	44.758662	-64.3489098
49.3697148	42.2790957	-64.2856708
42.985579	32.2083583	-56.7313943
38.836014	27.9752017	-56.4823679
43.6445965	35.091929	-56.340581
43.8616278	41.4695898	-56.9948646
48.0283215	43.7952409	-55.2001376
42.1947947	49.818262	-65.389577
44.1817158	48.5756356	-64.9852115
46.3128035	46.9038126	-64.4668464
38.6792419	51.0109419	-65.55013
54.1442588	103.608266	-68.0260995
55.6733966	96.8711162	-59.4312434
49.8580968	104.370491	-66.617267
53.7214908	101.124413	-66.1741507
54.5130824	101.987443	-66.3651268
56.5349464	97.6094066	-62.3889012
48.8522908	105.606183	-64.6127909
55.1533159	98.1743539	-63.3410377
51.8166411	102.258257	-64.476284
51.1952835	101.510866	-63.1652886
48.8740769	105.870104	-60.7611868
55.5360676	97.9202937	-58.622685
53.003776	100.197063	-58.6006026
52.551795	102.7562	-59.4025858
55.0299017	104.878736	-58.4215407
54.1661643	103.489312	-57.7648389
52.6141817	103.607957	-57.5691259
53.042704	105.407349	-57.6557991
55.3979337	105.051893	-57.4333189
57.3241287	103.517316	-67.1556938
56.8696645	106.787943	-60.0026365
55.2978293	99.2168714	-55.9406604
66.0397128	82.5623981	-58.2960767
65.3120739	85.7093212	-58.6259021
76.971163	76.6818138	-63.8745741
76.5213369	73.5869948	-60.8562774
71.3840486	75.2219425	-59.2231843
76.2988829	70.9244417	-57.986538
75.2477014	84.2299949	-67.5253601
74.3802627	78.6921683	-64.1626027
71.0728	86.111875	-65.9057836
69.8649157	81.2161461	-62.423088
68.745203	84.8857871	-63.2282197
70.4410916	78.4925308	-61.0189019
67.730502	77.5852253	-57.219212
65.5038165	80.3350516	-55.5894153
70.0051459	72.6091995	-55.0630838
57.9770253	96.4183657	-62.6111843
66.493397	95.6589658	-62.8908665
62.3182488	95.09997	-62.54623
66.4017317	93.471623	-62.2937615
65.2025331	96.0446629	-60.789819
66.1316675	88.7380788	-61.0532511
65.5453818	91.4325515	-60.8860445
62.7232425	91.5712111	-57.5213041
61.5069479	93.7193312	-57.9151187
64.8509501	92.7662191	-59.8147873
63.5508658	95.6422011	-57.5011938
58.6927848	98.6569028	-64.8611488
63.1848849	100.387642	-63.4946582
59.8268802	100.417035	-64.5276034
58.0124326	105.188136	-65.541123
63.5635347	101.438184	-62.6533198
58.7500967	98.0303618	-63.6459467
65.5704642	99.6551321	-62.3381016
67.6842943	104.283812	-62.8222792
62.6590587	101.034693	-62.4445097
58.4871915	105.545158	-63.5478837
66.2898469	105.442973	-59.2332397
58.0234718	105.10554	-60.4456267
64.8252463	99.4276559	-59.3821404
63.7413706	102.56275	-59.7428068
65.3642647	101.882787	-59.309107
76.3317817	89.9456618	-69.8590797
76.3797844	92.0300303	-70.3374835
75.8346392	94.2669721	-70.3587567
74.5679294	87.1229226	-68.3833279
71.2117974	91.9245046	-67.447741
72.335352	95.3629453	-68.5859453
68.1148264	93.7540097	-64.6524741
70.8774639	90.2461472	-66.8562555
69.7093978	88.2062473	-65.4160048
76.2505994	97.3446493	-70.5306807
76.2736252	103.370892	-69.5931426
74.2947064	99.6029122	-69.6036845
72.8255107	101.919698	-68.2742756
73.7386193	104.686998	-68.1281968
71.1772846	105.569576	-65.7071146
69.9109095	98.4798475	-66.6360441
58.0613641	95.6829614	-55.3261834
61.0857883	91.6027915	-54.9086422
62.0705925	91.1251294	-55.0257702
63.5370969	87.4703041	-55.4176348
61.0237096	100.939108	-55.9343063
58.8705988	97.9478142	-55.1231207
64.0207718	100.370239	-56.4753019
61.5919971	101.603015	-55.55465
63.6204331	99.7409296	-54.6964891
27.5724407	146.167231	-59.1755118
35.2546602	136.753394	-74.369172
35.6797925	130.721908	-72.6056666
32.6855502	135.906729	-72.8112964
37.0640324	127.598702	-71.2063484
35.245904	132.492944	-71.6212604
34.1527619	131.874512	-69.9081847
33.9387455	130.02726	-70.4150743
31.2219034	135.949584	-70.1258539
34.0578941	132.204927	-67.8378053
33.6344257	130.328162	-68.3642354
34.3045111	133.630597	-66.2751743
36.6789902	132.393452	-65.3145812
32.3790429	134.541415	-66.3664599
28.1268525	145.246084	-70.2895876
28.1505167	144.086443	-68.3567974
35.1126976	146.735459	-72.7678948
31.7396639	145.924756	-72.3131624
34.0603925	146.650764	-72.5269347
31.056893	143.196716	-71.2493058
36.3153584	145.796972	-71.4764949
30.330458	140.378917	-68.6287054
37.612514	144.327316	-71.9655115
36.839115	145.018315	-67.1892787
29.621416	144.07158	-66.308549
33.9053146	138.670542	-65.014481
35.2346938	144.030503	-64.898276
31.8289183	139.303262	-64.1762789
29.5078523	143.09443	-65.0180654
31.0580473	145.86019	-62.6967672
36.8473754	143.318861	-64.9421246
34.5981468	142.647881	-63.4519296
30.6288016	143.155995	-58.0508409
28.7939246	146.537932	-57.8094269
26.5435996	143.384794	-56.6083289
23.5444667	146.08506	-55.9393347
34.3905766	136.160359	-56.4461587
36.1378094	133.488567	-54.965673
37.1004642	134.235533	-55.5431634
29.6825687	141.164038	-57.0401725
31.3714502	143.883809	-55.5374454
29.5702194	138.068271	-54.3781715
31.3738485	146.058166	-54.7372719
6.76863336	165.932919	-63.7046741
15.252354	156.189538	-60.6223913
8.70865132	165.886578	-67.5197731
8.07341407	164.60308	-65.0239835
11.7762152	165.387781	-66.6946092
10.6156299	161.15032	-63.8574274
13.5818251	166.545169	-65.9399168
12.4728284	161.980957	-65.2830382
16.1836539	167.008	-65.8342304
16.1610103	163.07907	-64.3626972
9.33679347	162.38759	-63.330831
13.1284312	165.868967	-63.7367693
9.85213935	164.453825	-62.8903535
16.2614947	161.138768	-60.1568689
16.0643715	157.879008	-59.3266119
12.7296926	167.248202	-64.7733129
3.08523441	173.87401	-71.9265308
0.236955504	173.827017	-72.1814037
-1.13623425	172.684836	-70.4505543
6.80976697	171.910267	-68.6356822
4.48212956	173.749388	-69.1619809
0.532452777	176.775832	-69.0431723
-1.43114727	172.509442	-68.7985854
0.613447038	174.412655	-67.6985765
-0.358484886	172.452847	-67.6177695
2.7726773	171.065401	-65.4427127
5.30788198	171.837894	-66.622451
-1.25057059	178.569138	-70.6591828
9.26681756	169.222833	-68.947804
14.8323017	168.123979	-65.38786
8.57050848	167.808568	-64.1334935
26.3598207	154.646031	-71.9702077
27.2012706	150.107362	-71.9237498
24.5325483	154.917028	-68.351322
27.0026358	154.628656	-71.636598
27.5387364	148.68237	-69.9782896
26.1874653	153.599329	-66.7688188
26.6810365	148.457679	-66.0752429
18.1843593	154.559546	-61.0902916
21.241015	154.924201	-62.0218306
23.2943079	151.012047	-60.8670262
24.3847936	148.040865	-59.3266747
22.8454958	154.892767	-60.9799996
20.7767943	150.715784	-58.2382089
24.5253369	152.813192	-58.6783078
19.1104584	155.187542	-57.5780665
27.1791962	160.204935	-71.8711911
23.9012686	165.753784	-71.952847
22.6056439	164.849192	-70.3835466
24.808477	159.692745	-69.1611101
22.4437547	162.432369	-68.4392105
22.867004	160.343746	-64.8191359
25.426374	160.016074	-64.7866773
20.6322986	166.183999	-66.8294813
25.7134926	157.656907	-62.919743
25.2802625	165.577715	-64.2316497
23.2454074	160.968952	-63.8623073
26.4553361	161.446513	-63.1210735
22.6521233	166.789812	-63.841539
17.8958813	161.822743	-62.1918991
19.8378436	159.143911	-60.0841019
18.4618256	161.587825	-58.8970743
18.5871376	158.365532	-58.6408025
19.1544757	162.12054	-59.0185292
27.5983971	160.446708	-63.2356184
30.0368902	153.882037	-73.5853172
31.6075926	156.459222	-72.8772961
28.0971924	151.786743	-73.0935937
32.5760833	154.896314	-71.9310256
35.5182822	151.455414	-70.6351991
34.2338613	153.544761	-71.771073
34.9349643	151.50648	-68.8701881
34.0370325	151.35737	-66.4670944
29.4790787	149.415804	-65.4514735
31.5404569	149.271631	-64.9310226
33.6921189	153.095662	-65.1811115
30.8407844	155.474939	-63.6882861
28.1477801	165.964469	-72.9645692
29.1057144	159.075604	-72.2394403
29.2994521	165.791972	-71.9988984
32.4396	157.717753	-70.8188119
32.4209326	162.877132	-69.8625398
31.4325073	165.191629	-69.2239815
33.6422368	158.541381	-68.5552417
32.6632658	159.782667	-68.2257046
32.6642732	161.761496	-67.0687371
31.5096193	159.760412	-66.1661388
27.9977964	158.404376	-64.2576903
31.1016039	164.230209	-65.8050216
30.6005888	157.559029	-64.9252862
27.7728213	163.168245	-64.2725318
21.73015	148.699621	-55.3235781
25.0829201	168.24227	-72.6819445
25.5972638	176.38846	-72.5012547
23.3019296	172.53623	-70.6286544
21.2913815	171.155964	-69.6882167
19.855993	172.866281	-67.3752792
21.6934909	172.814893	-69.0693372
22.4550092	167.915668	-66.7036874
21.0198996	175.973319	-67.0414911
20.7738757	176.532786	-65.428946
26.3666351	171.684451	-64.4053601
22.3880403	175.431738	-64.33966
20.2196888	174.078946	-65.3213099
23.2723983	173.052271	-63.1144278
18.5410127	184.65471	-69.7004252
24.0537249	177.43025	-71.5134727
22.3638181	182.873612	-72.4908498
24.9839776	183.761994	-72.1150265
26.8160679	178.157494	-71.0844664
23.4202368	183.957105	-71.8544928
21.1838372	181.435075	-71.7768295
21.0636322	182.52939	-70.9281593
25.6148453	187.314438	-68.3024298
27.3623878	180.938219	-70.6487162
17.5731718	184.507769	-67.3078956
18.2896428	182.102601	-65.5359063
18.3433252	184.82307	-66.8769648
23.8891662	181.501214	-63.341719
25.7222834	180.936017	-64.1427387
26.1023794	183.422433	-64.4691059
21.7884807	182.982974	-63.3391315
25.4066486	178.402045	-63.0114989
23.2503673	178.623055	-62.5906762
20.4268166	178.649222	-63.756096
18.4357947	186.822839	-63.0515691
27.5403033	180.026246	-66.3972861
29.3980694	170.237904	-72.2707339
30.1855901	171.329314	-71.3644293
30.1748075	168.667248	-71.0547185
30.3840424	173.741518	-69.1598902
30.7731932	171.378129	-67.8205337
29.5894414	173.17609	-67.1108564
30.0519579	174.201901	-66.8774363
27.9619131	170.706064	-65.2382739
27.9710894	173.893771	-64.3917946
27.7975194	178.521391	-69.7110707
27.7728873	182.015203	-68.1634653
27.9471179	179.917032	-65.8610346
46.1993384	116.567951	-71.2271139
42.7651248	115.867075	-70.6313876
45.7373014	113.557304	-69.8789867
46.1784796	110.469331	-67.9532801
40.7271733	116.196705	-68.5081509
47.0385054	107.805603	-67.6256894
44.672251	111.667882	-66.0708328
41.3082557	115.094659	-66.1040927
42.2449731	116.493315	-64.7656791
46.8380371	108.724514	-63.378184
44.7692923	111.496259	-62.7205491
46.2263932	107.846531	-64.4790791
45.3799711	109.558438	-63.2765338
43.507602	116.303451	-62.7735149
47.7681158	110.622608	-60.8232216
38.5173265	120.333163	-68.023759
43.3953068	126.704452	-72.6256887
43.4002713	119.170147	-72.4910345
40.2696533	123.364972	-72.6528749
41.5013214	121.803014	-71.8828366
43.0170307	125.736698	-72.1781544
39.9193702	119.164158	-70.4888811
44.7951346	126.844617	-70.4826989
40.1709323	119.297527	-69.8814922
45.6492597	125.815883	-68.770901
38.6830061	122.136784	-67.8881514
47.4747172	122.93023	-70.4060216
38.0686401	124.263253	-64.6177958
38.8366795	122.984819	-65.497451
44.2361506	126.26503	-66.360741
39.7660812	118.666915	-65.518977
39.5447934	124.627137	-64.5750023
43.7965811	122.867703	-64.3629072
44.3494021	117.377325	-63.5336641
46.3651185	122.689775	-64.8561048
42.8819518	121.63653	-63.0824688
44.3173796	122.401057	-63.5136318
47.7534027	117.586892	-64.1263877
50.0297877	106.9303	-68.0999043
48.1135848	115.683062	-71.6728848
50.6400456	114.990266	-70.7076981
53.4167539	107.286822	-69.4593229
54.9596611	108.239962	-68.9423399
49.2156153	115.566223	-70.6118885
48.4853362	109.814262	-69.9632632
51.2170361	115.381065	-69.0331028
53.5385129	108.074285	-68.7979727
53.1794866	113.591773	-68.5620673
47.8568629	115.029724	-61.5519667
54.2446465	111.566639	-66.3243983
54.8513121	111.719808	-64.8757063
47.9914638	110.013617	-61.6782687
51.9673549	113.204907	-62.1498637
53.8156638	110.213917	-62.2727979
50.1520842	110.420793	-60.9701396
52.1946882	110.311706	-60.0523544
57.357476	106.984077	-66.7955346
49.5735056	120.150532	-67.6614599
48.0297611	120.432401	-65.8259916
48.9568204	119.762501	-67.0558121
48.7045936	121.077471	-66.2330548
47.3546169	122.913629	-54.1514681
46.3324643	125.22463	-53.561083
38.0561879	135.630802	-73.8536882
40.185792	127.853187	-73.4490309
39.9273516	135.315404	-73.1053264
38.8606811	128.874639	-72.6916241
38.3462119	135.624086	-72.938779
42.6698782	132.266222	-71.9679417
42.8257781	130.115104	-71.6474272
39.5407214	136.676969	-71.8193686
45.1933277	128.438229	-69.4511114
41.8684267	134.977978	-70.6866167
44.6416882	129.481428	-67.9868324
39.702937	136.285227	-68.0158945
38.8351335	135.320906	-66.5502127
37.8035376	133.392193	-65.4160076
41.3246694	130.310244	-64.8350334
43.60202	130.274774	-66.8070852
38.1486197	131.783118	-62.9380514
38.4043125	128.395584	-63.3746388
38.3700637	144.078595	-70.7565591
39.693159	138.157446	-69.7793947
39.1327009	142.563588	-68.6695979
38.6168611	142.43044	-66.8174975
40.9660388	128.266104	-54.5324374
40.1220411	129.681704	-55.2200194
57.9463358	107.532863	-63.9849243
75.5690213	107.337063	-67.9216347
68.0498209	107.917518	-60.3365478
75.4477373	109.172728	-66.8734139
71.1217045	109.095484	-63.7335276
73.8951126	113.000148	-62.8893169
71.2737064	110.614105	-62.6560187
71.8355964	113.491519	-60.2221419
67.8129692	111.028322	-54.0387664
69.2471434	112.152936	-56.8672291
76.695932	118.475571	-57.2043977
74.3144262	117.668664	-56.7236535
82.4209061	75.9402006	-63.8608019
85.9567393	75.8626086	-63.6094964
84.7733349	73.8743125	-61.7109271
79.4406563	75.4169379	-63.2048676
81.279211	71.8033716	-59.456096
81.8432555	70.372614	-57.3992657
87.6186331	85.141974	-69.1186967
79.1655895	86.2358106	-69.482972
83.1553324	82.4631608	-68.2522774
85.026042	81.7546873	-67.8095111
85.2184441	86.7254213	-69.7223514
80.1495774	80.2208244	-66.8627199
87.0888197	77.8000729	-65.1500237
90.227596	74.6548154	-61.712795
88.8000764	71.9631429	-58.7070663
94.6529476	76.0601298	-60.786148
92.1782884	85.3428796	-68.3918288
89.2130356	81.726707	-67.5081613
91.8308746	83.3126031	-67.6616018
95.2249579	82.8685152	-65.7249647
97.2802693	85.9869834	-65.7273758
93.5636281	79.7774948	-64.686804
96.9275554	80.8646621	-63.0526596
85.3527152	70.0734801	-54.8454814
94.1267402	72.6429943	-56.7373461
97.2389562	72.6128129	-53.6415965
81.7208145	95.4041623	-71.378846
81.967269	88.5288681	-70.4035916
83.7577901	92.1338784	-71.1811199
85.5540157	93.3746632	-71.2357646
85.3047715	100.224254	-71.28017
80.892766	101.822017	-70.949416
83.8605144	104.477844	-70.2353079
79.6195043	102.953746	-70.4963548
87.4680586	100.161729	-71.260108
81.3123464	106.573677	-69.3427487
88.62323	95.009694	-71.0894111
93.0157502	95.7879044	-70.0768435
88.4514972	88.7328901	-70.2150159
92.988774	92.3265817	-69.7581547
88.7667083	90.7057403	-70.568513
97.7358022	89.1041044	-66.5931693
91.784008	101.530557	-70.5700472
92.0927774	104.003527	-69.9360622
96.2909593	99.6424662	-68.5610085
95.2431006	105.091477	-68.4666807
99.9323053	82.3965521	-61.1832083
101.124093	86.2720301	-61.7733761
98.6064422	78.5632652	-59.4869403
102.759589	86.3741124	-59.4609501
101.484382	80.5882028	-57.483572
98.4490987	74.122183	-53.8661647
104.440554	86.6414307	-53.8074889
103.057725	82.6157369	-56.1225418
100.403951	94.0490425	-65.0585335
100.958746	90.4723574	-63.6798238
98.4866546	92.0168977	-66.7022953
104.171904	93.9194941	-58.6148728
103.410348	88.8982603	-59.3376658
100.192909	100.844916	-65.5748651
100.251913	96.8780244	-65.4205489
99.0708438	106.379188	-65.950248
102.439949	100.19729	-62.9376305
104.192379	101.141063	-58.5863965
103.330915	97.0939395	-61.237164
103.723235	105.701596	-59.6256014
104.876681	98.712047	-54.0764253
104.255634	104.27519	-54.4419549
84.9698686	106.95096	-69.3379999
86.9377481	106.995655	-69.480276
82.6623427	109.90239	-67.291881
84.1136037	113.039025	-64.6060703
78.2746361	111.838787	-65.7421851
80.5505428	113.781462	-64.0386917
78.3860755	115.420573	-62.0480093
83.5167008	115.949099	-60.539081
86.5652561	117.451106	-58.8888921
80.9077765	117.594503	-58.4245885
92.5349479	108.097186	-68.1625376
89.2308544	110.674941	-67.4592725
96.2607342	110.654793	-65.0884597
88.1697654	114.09846	-64.3573699
93.199542	113.021985	-64.849046
93.1304382	115.397789	-62.1906366
97.4290241	113.817063	-60.5576169
90.9039155	117.826629	-58.8174062
92.8785778	117.205224	-58.9908869
80.720232	118.66539	-55.6231653
84.1056625	118.660571	-54.4400133
94.6607373	118.577334	-54.0063076
88.2072699	118.838331	-56.0407697
104.146075	109.240345	-67.4832928
105.549245	107.714316	-65.6197417
106.334625	107.701762	-63.9098475
102.498967	107.258167	-62.4621487
104.439373	107.331504	-61.811892
102.515636	107.789149	-67.1258071
101.30811	107.368631	-65.6670883
107.276561	116.810766	-65.868869
102.819103	107.59537	-64.5050887
106.945812	113.060543	-65.2084978
104.665378	108.280519	-64.7383062
105.603304	114.985581	-64.3349391
106.897834	113.612247	-64.2853628
100.484773	108.314813	-63.8707808
106.048173	115.596706	-63.880791
103.587003	116.237717	-63.3922621
103.710451	107.875805	-62.6724711
105.141127	108.181827	-60.8205915
101.539818	108.988217	-61.6034293
103.389418	113.190226	-61.3263777
103.759442	108.086556	-59.9945417
100.394291	111.232174	-60.2592368
107.859897	113.232241	-65.7364292
108.046605	111.89636	-63.7442991
107.778743	119.979782	-67.8013324
104.736408	117.258336	-64.8236039
107.583103	126.073817	-65.8343358
106.901572	124.195728	-64.5113818
105.287916	119.465528	-62.1846623
107.006597	118.078739	-62.1843816
108.304863	114.445634	-67.4099536
109.608276	116.323694	-64.2632234
108.820728	115.760372	-63.0061307
108.320448	119.76953	-68.7025791
108.868296	120.699699	-67.9956493
108.428983	123.819982	-64.9194898
108.599983	125.057868	-61.5695533
108.935337	124.378054	-66.2186681
109.803053	125.028302	-66.561123
108.985968	121.362221	-64.9277014
108.95149	123.824847	-64.3846903
110.61349	120.593218	-62.7649025
109.43502	125.382516	-61.7195169
103.390311	107.507602	-55.8261293
101.185542	111.965941	-57.1966487
98.8227594	115.218625	-56.1472583
108.004072	128.058685	-62.7335629
111.257487	128.216542	-68.0759653
111.531956	136.434754	-69.5432429
110.222916	128.671472	-68.3836666
109.698833	132.770021	-67.9768543
114.208178	137.093144	-67.4317481
109.063523	133.339414	-64.1676729
112.21039	128.182108	-66.7482757
110.966262	130.019616	-65.8643562
110.527505	132.015278	-66.9944028
110.315845	132.447626	-66.1301649
111.282983	136.202621	-65.0761013
114.156536	128.704101	-65.9596111
114.460888	133.882628	-64.4262756
109.707688	133.14115	-62.3766248
113.510752	142.019801	-69.2905012
113.851972	139.085396	-69.6313163
114.915407	144.140552	-67.6139573
112.799774	143.92488	-67.2700386
112.948998	138.743635	-67.2664342
111.722746	144.062053	-66.2763771
109.508751	140.748289	-65.4870235
112.732712	140.350638	-66.0906442
116.037369	144.572509	-65.6285237
116.275768	146.324779	-64.4607052
109.029691	141.320325	-64.6675545
113.337401	141.709671	-63.3826956
109.951974	139.003815	-63.7150959
113.060183	152.22031	-70.1571789
113.629574	151.81897	-70.6729058
111.74454	148.485492	-68.7768542
113.25839	150.180471	-68.2098015
115.539354	154.341617	-68.3941269
112.883554	153.762627	-66.8399768
113.98965	153.742411	-67.1473577
112.566793	147.985763	-65.8720172
113.103648	151.690271	-66.0695362
111.276565	153.352645	-66.6819653
111.492129	149.85478	-64.3784631
114.267085	155.9192	-64.002029
112.305277	152.655706	-63.4073927
112.545428	149.127898	-62.6368896
113.977352	156.64746	-64.3262937
112.739542	165.045984	-70.8967633
115.861244	159.085452	-69.0166046
111.696256	167.153551	-69.9438915
113.774972	161.379028	-68.1716823
112.664463	162.334998	-67.810809
116.541006	160.381828	-68.6207205
109.997445	160.197424	-66.4382568
112.714356	166.98005	-67.0436911
112.025629	163.943573	-66.9027954
112.105856	166.442662	-66.6519866
110.221469	161.43131	-64.7854742
116.081794	159.523541	-66.838919
110.853813	164.357319	-63.9958459
107.745086	182.61686	-68.9160589
106.559062	183.849289	-66.8867299
107.654309	183.04304	-64.5524453
108.977879	176.022612	-68.7460354
108.523381	176.196982	-67.9944854
111.438721	172.531569	-69.9956387
112.703025	167.453169	-71.2048827
112.661443	174.350647	-69.5002618
113.634748	168.918293	-69.4421812
112.929529	168.328039	-67.9692084
111.296214	171.820013	-68.6002969
109.713229	170.152376	-67.8952022
114.293667	173.059403	-67.1475547
110.553178	176.447571	-66.9140508
109.741605	168.8676	-65.687295
114.184679	170.818771	-65.377885
110.287254	167.744032	-64.1536885
111.936442	176.395723	-64.1496772
114.071915	171.960522	-64.4932862
112.83629	176.86692	-65.6352268
111.897548	177.44663	-71.1257542
111.48431	184.479749	-70.563323
109.004959	183.225225	-70.0353867
110.233197	182.822284	-69.1982933
109.705975	180.031539	-67.9890646
110.632924	182.121961	-68.3795621
112.616312	183.806479	-70.2321244
113.89949	180.090914	-67.7262824
108.913722	178.299645	-65.9871745
110.848937	179.478701	-67.1954312
110.388353	178.623148	-63.9738032
108.603715	183.064427	-64.1277676
-0.994574556	265.535181	-78.3429885
2.95675551	266.448807	-78.9013918
5.87506393	263.896677	-78.0856731
8.08191116	267.31635	-78.8252494
9.63875271	264.176143	-77.7175077
2.32377941	270.738601	-79.627862
1.02524751	272.647699	-79.5215511
3.12688721	274.874755	-79.5788471
-1.22384191	276.259494	-78.5774132
6.28896692	283.166641	-77.5943281
-0.639492714	280.563157	-77.8100102
7.99446285	273.675457	-79.3390016
8.83707088	277.90263	-78.6827642
10.7909798	276.314188	-78.510988
11.6418484	270.395784	-78.1347309
16.3384023	193.264038	-69.9196395
17.0577994	191.834767	-68.7426557
15.3855409	192.749714	-67.7472688
16.0433872	193.344744	-65.6561661
14.5823592	195.787429	-65.4776233
16.8097721	188.70873	-64.5630078
15.7776869	196.673692	-63.3708066
17.2150033	201.763558	-71.8995446
12.1979467	204.846963	-69.6225805
16.7928752	201.142829	-71.0698106
13.3743782	206.358012	-69.8571877
12.9160818	200.880675	-68.5783972
14.8607077	197.824553	-67.6856722
11.9075927	203.23659	-67.2460975
16.4300633	199.801777	-63.1710213
11.3945203	207.261762	-65.0854152
14.8982384	207.556803	-63.112646
14.8856039	204.748437	-62.2804721
7.32222911	224.405033	-68.9542194
14.1310584	215.085098	-72.5162653
16.8810753	208.280033	-72.0476038
11.9487744	210.68465	-71.1707814
15.4883759	212.474259	-71.4697355
11.3094783	215.390606	-70.8614066
16.5820814	216.277237	-70.8162171
9.16875638	217.422144	-70.1176004
9.74655345	217.195532	-69.2011653
10.7594861	208.186356	-68.9162471
9.82948584	211.112045	-67.3451969
17.2989542	217.138524	-65.8018279
10.9552179	210.267726	-66.2693845
12.6122665	209.19456	-64.225798
10.5959949	210.959165	-65.1428015
12.3900007	217.184598	-64.5291513
16.0590062	211.161116	-63.426493
13.1868668	207.713581	-62.9503885
15.8159997	209.837543	-62.2935144
17.1739444	211.769269	-62.8724985
8.30286319	219.565801	-68.6219452
12.1458197	226.958136	-73.5331125
10.6127525	220.249422	-72.407346
14.6962223	227.609844	-72.9284301
16.3203352	218.38515	-71.6440058
12.4401245	225.215968	-72.49797
11.7216208	218.829539	-71.6423301
14.8638229	222.235529	-71.439031
9.15479884	227.588021	-72.2642453
8.84176811	221.676209	-71.4846109
8.72392433	224.023524	-70.1807842
16.0015831	226.947743	-69.9527873
16.9998172	220.42056	-68.8256255
15.9778909	226.553002	-67.7290626
9.11130354	219.773913	-67.7294786
8.13308961	222.777539	-66.2446326
10.6199162	219.495986	-65.5688345
10.7683117	226.544876	-65.0140639
14.7330642	224.212304	-65.3330627
14.660863	220.477135	-64.4278117
16.0784224	220.583059	-64.2745842
11.2573472	221.953414	-63.4900296
9.44681816	223.003121	-64.4644983
13.1876255	223.413778	-63.5914042
17.3380584	220.149341	-65.5031747
17.6707109	194.868066	-71.3076174
22.7660008	189.420476	-71.913589
24.8045041	189.840777	-71.0344844
22.070247	196.523323	-71.1360868
19.9984587	192.504315	-70.8328543
23.3125058	190.75404	-70.8812829
24.3742139	190.96257	-70.218372
18.7042792	188.475119	-69.4472086
24.8382601	192.273048	-69.9879982
23.3771447	196.300611	-68.4306612
25.2274086	193.077041	-67.4713992
23.5947226	191.156987	-65.1017314
24.249429	194.152667	-64.7210854
18.1329212	189.656995	-64.1398661
21.5519596	192.264117	-63.1858011
22.3397103	195.092276	-62.7397223
21.9678478	188.241703	-62.0666105
19.8388899	188.525827	-61.9387705
19.5625586	198.259763	-72.0852905
18.5479316	203.806182	-70.9091169
22.2118856	203.692014	-67.7582519
22.9460311	198.804943	-66.6011159
22.4914873	203.034893	-66.0207074
20.6164459	206.428912	-66.4697884
21.9449579	199.578619	-64.5535058
18.7796978	207.387101	-64.1158043
18.4115665	204.913772	-63.2264719
18.0212774	200.420566	-62.5945198
19.8074307	198.716584	-61.9979299
18.4074305	198.827317	-61.8865715
19.6792054	206.404495	-63.6183686
18.4789805	209.801605	-71.3364402
20.0737955	207.85367	-69.9015951
19.3691315	208.153936	-69.846176
19.276155	210.300859	-68.3040467
19.4022185	213.414185	-67.9499396
20.232859	208.542368	-65.3626259
17.7413037	219.049336	-69.6194362
17.7653712	220.747431	-67.3641663
6.41631095	237.5643	-71.0923925
1.33084224	236.471571	-70.4971679
1.547307	236.963468	-71.7565445
-2.07229532	231.333015	-70.1113805
2.64326997	235.420465	-70.3623054
5.71894579	230.521295	-67.4963471
4.759504	235.759084	-66.4671185
3.51920093	237.716671	-65.6851145
-2.46195719	230.986057	-67.0854218
-0.639312488	231.388708	-65.6385383
0.59908934	235.615995	-64.2748953
2.99332061	236.978262	-63.5431838
-0.106938592	236.865045	-62.2634236
-2.51281894	240.577894	-71.9966707
1.04297502	244.836179	-71.9463135
1.67898466	240.676268	-71.1264015
-0.255674747	243.308827	-71.2656422
1.32743588	246.310878	-70.8372433
7.48551342	241.793594	-72.5341483
6.03943529	241.808402	-70.6793061
0.0501679334	246.196276	-71.2021599
4.08531417	245.00154	-71.7435596
-0.0988498033	246.35465	-69.5884498
6.35649868	246.053986	-68.2666533
4.16554023	238.970502	-67.7270132
5.74275613	238.082604	-67.2302656
-1.36447734	241.493084	-63.7993856
-2.01395278	242.947742	-63.1113619
6.60827463	243.227866	-65.0854688
-1.02926228	247.463857	-64.7912919
1.3081251	242.839749	-62.8519059
2.48731643	244.667248	-62.3533792
2.02881231	240.563454	-62.783393
6.05947642	244.608756	-62.4336768
3.93381453	240.831506	-61.7388032
-1.07496678	241.00236	-62.0798149
0.103413157	245.395035	-62.5139555
-1.97118765	237.982619	-61.9902728
3.38238311	244.56069	-60.8690192
7.14066771	242.607499	-62.9006433
11.8949725	236.814942	-74.3995062
13.542192	231.823784	-73.9067554
12.9942501	237.737093	-73.7907195
16.7526381	236.87384	-72.4762066
10.2613464	235.166568	-72.7847361
13.2338646	230.578158	-72.9384492
9.68791378	230.637369	-71.6489569
15.0906089	230.328575	-71.8912855
8.39687076	236.348873	-71.2437806
15.6385139	231.86098	-69.7963607
7.93188613	231.054254	-68.7668938
16.2331728	229.403196	-71.2761018
16.6500491	231.475138	-69.7882977
16.1478801	230.919015	-67.2038589
8.44392433	228.047019	-67.0124012
14.999009	232.195484	-67.2024697
8.68912435	236.899021	-66.4759564
13.3984532	232.447873	-65.2680903
11.8940847	235.045356	-65.3735694
14.9193435	231.785065	-65.428302
8.062883	233.467582	-65.0954332
13.5778431	231.561435	-64.4316901
11.4767278	232.384916	-64.2014571
15.0554656	247.767225	-75.5255003
12.6639401	246.510682	-75.7496342
15.3434545	237.898244	-73.7827974
10.4803215	247.344269	-74.8457139
16.3359061	247.09511	-73.7348472
12.4482626	246.122102	-74.6846902
9.71804724	239.177422	-73.8630771
9.49593715	243.658897	-72.6155879
16.4019769	242.301867	-72.3179012
8.01323606	241.573509	-70.399489
17.121181	244.064049	-70.0150493
9.11885699	245.796567	-69.583891
15.7942502	242.793225	-67.540809
10.4097955	245.006776	-67.0466059
14.4924639	247.225264	-66.8171468
11.5867849	242.063073	-66.0606027
16.2046072	241.683924	-66.8246017
14.4906087	242.487945	-65.5883556
9.29370582	244.424446	-64.9682535
11.2688617	241.808075	-64.8077664
4.87266671	253.453001	-70.6298313
5.73465227	256.600535	-73.3201282
6.0892093	253.187793	-69.1876771
0.242456457	249.626333	-69.2384849
2.22641145	254.117825	-69.5837954
2.56362692	257.275206	-73.512272
7.06852185	252.379183	-68.1616948
3.1495842	252.726517	-68.6141583
0.3963133	248.883328	-67.9867125
0.156836044	253.188984	-67.7620947
-1.54337502	249.663493	-66.5578604
1.85864931	250.26491	-64.4655161
5.93965287	252.452148	-67.2493386
5.35458651	250.242589	-63.7272349
3.23737824	248.883835	-61.8967197
5.95590874	249.020468	-60.8752486
0.269675743	249.060685	-61.8978152
1.46890184	248.84647	-60.1721571
4.29186497	249.128988	-58.6528079
7.28319689	250.2696	-58.7321855
2.17147858	249.303311	-57.6855101
-1.9961152	262.362939	-76.7303315
6.96111828	259.587413	-75.7051716
1.58504926	260.580074	-76.1343522
0.683627578	267.408573	-57.6108775
15.9154133	256.870965	-76.1741064
13.2808349	256.830032	-75.8934734
15.3683871	256.999395	-75.4804429
14.8876819	248.484436	-74.7698515
12.3649363	256.604944	-74.5589255
9.01129128	250.996444	-73.2099258
10.9476606	257.097126	-75.0862039
10.974618	255.57958	-72.586966
9.10684844	256.169876	-73.0956045
8.07635434	253.970432	-70.2245947
16.9302812	248.941644	-68.392011
14.0467265	256.902141	-71.9870373
11.5739149	254.815544	-69.5452858
8.77061391	253.600029	-68.814633
13.5447757	254.983686	-68.1357644
16.7474735	255.970984	-67.7892341
13.4880683	250.561939	-66.7653271
17.4645982	256.289098	-66.0384408
16.3201534	250.571107	-66.6365604
13.2669916	249.612011	-65.1949
11.427062	251.641656	-65.2638429
13.8067552	254.400333	-65.7600712
8.74728616	251.33878	-64.3750339
9.23326606	252.569682	-64.9723779
14.7363765	254.523632	-63.9228967
10.8712231	251.490095	-60.9043394
11.5806152	253.17025	-62.4491287
8.894713	251.190342	-61.7857404
7.57678498	248.998138	-59.7135697
12.908005	251.883973	-58.3043472
10.3151365	252.982167	-60.1887785
9.79315141	253.563456	-57.3073331
12.5835509	263.782496	-76.5576421
14.3576947	266.703725	-76.4108173
15.0923333	262.503371	-74.9590854
11.5539346	258.389143	-74.5498002
4.85714887	251.446046	-55.000903
6.80147984	253.705972	-54.9721974
-1.43794706	254.561448	-55.6685684
-1.62303332	260.941899	-56.4302298
15.7365338	250.89857	-57.2197096
13.5979912	251.106919	-56.9957908
12.2751936	252.777575	-54.6312344
8.46353033	252.698656	-55.143746
17.626581	245.205227	-72.5837547
17.7224769	241.648373	-70.4886447
17.6045648	245.908568	-68.5071356
18.6867137	256.36793	-76.4880087
18.4173511	257.165411	-74.8402455
19.0207152	252.082368	-73.8714104
21.2768039	256.619892	-74.2737234
20.4000402	257.302808	-73.1952792
18.1790807	249.250829	-71.7218726
19.893061	252.270577	-71.1414267
19.4416459	256.893036	-69.3368915
20.4902578	257.122115	-69.3637244
20.941338	257.573983	-71.7294676
18.5619625	256.44022	-67.0437978
19.2924944	256.768808	-61.4355228
19.2926759	254.12554	-58.8256425
21.6582119	258.061626	-72.0258106
18.0626928	266.925417	-73.5332936
18.5745461	260.837484	-70.9359919
21.1891817	266.040924	-69.5840886
19.3724419	258.541097	-67.7352773
21.84264	261.844092	-66.1682046
22.9938377	265.325405	-65.9717779
24.1987502	265.457607	-62.2257271
25.4827301	267.795121	-59.8265391
23.6797849	263.945746	-61.1681522
37.5467817	265.873614	-64.8029779
29.277657	267.035616	-63.1935888
33.0323012	267.797862	-62.5031785
33.6167098	266.963508	-61.3799001
36.5547124	264.241073	-58.5239499
35.9551021	265.361222	-57.5508417
31.1380135	267.987686	-63.9487987
17.7995283	251.746383	-57.2019347
21.615766	256.298031	-55.285956
21.4465501	253.128555	-54.3059039
23.5889465	263.252923	-55.3544093
21.2083615	258.933544	-57.0092921
47.2076493	257.761872	-59.2499856
44.5070101	263.388605	-65.0872283
45.3706359	260.607369	-64.2533696
42.3701627	263.249963	-62.9103087
38.2323392	266.661024	-64.6326297
43.9879544	261.029562	-62.1552338
44.9898464	262.740947	-63.2677368
43.697591	265.802433	-63.0435397
40.6240806	261.515327	-61.5929188
40.920256	262.520703	-61.0798672
47.0643983	261.135512	-62.4663352
42.8787298	259.77832	-59.9343541
40.850378	266.116599	-60.5403411
46.5697837	260.47896	-61.544513
41.1354808	262.005381	-59.3187637
40.7419039	265.789823	-59.6699579
47.6828582	261.9676	-65.4502194
47.9013546	257.431697	-60.8364956
54.9944353	257.295153	-66.123372
52.2724321	257.782371	-64.1457335
56.4802922	253.197461	-65.2203043
57.4776583	256.888754	-65.1724053
57.8171841	251.2892	-63.8485144
51.484252	257.476686	-63.5954093
55.6816883	256.188503	-62.9265121
57.2763119	252.980039	-63.3202081
51.4612364	254.851604	-62.6087267
52.9624865	255.594647	-62.5642109
57.0925654	251.941008	-62.9431844
50.7137876	257.181	-59.1121608
49.8169404	259.501146	-66.1141177
51.4089967	259.152845	-65.8475022
52.2056957	258.276075	-63.3865443
49.7260242	258.328589	-61.5874628
52.4952736	259.208175	-63.351678
53.8774003	258.336843	-61.6618091
48.7466952	259.978485	-60.1779367
65.3251598	247.622042	-66.274276
65.8609137	246.119523	-65.0869024
67.3415017	246.472431	-64.8964488
66.0745464	246.196289	-62.957862
66.190534	246.82763	-61.1041946
77.2215282	235.113328	-64.6305675
74.6829489	237.82598	-63.7272707
76.50828	240.214169	-69.1544284
70.1558245	245.68101	-67.6258673
73.0995371	246.075063	-67.6060609
75.1598677	240.448449	-68.7987871
72.9853692	240.700711	-67.2215055
74.6977812	240.686382	-67.1421237
68.338108	247.581278	-66.5817661
71.1344676	243.629407	-66.0367212
76.92708	238.351407	-65.3990504
73.0829914	239.909994	-65.8559448
75.3677597	241.448319	-65.1194968
71.6367407	245.047218	-65.788416
69.4961028	245.429892	-64.1815592
76.1651706	242.894024	-65.2449
74.4599069	238.846841	-64.0333725
76.0565422	243.383638	-63.7292318
70.3754222	245.598471	-61.4365964
70.958193	246.938288	-67.1565981
66.6216873	249.803661	-67.6121945
64.9651853	252.250392	-67.425827
58.181153	251.906833	-62.2958699
58.609228	253.014472	-66.0231339
64.9733398	249.276281	-65.6946783
64.3500754	252.253874	-66.5095915
58.2799686	256.507836	-64.6062453
65.7323139	249.734371	-65.1267668
62.3651573	249.799182	-63.926769
61.4645312	253.214972	-65.2574802
65.8379412	248.750133	-64.0363148
63.3469306	252.596914	-63.3959361
62.6388584	250.710344	-60.8288312
59.0279135	255.644566	-61.8165543
69.0845915	248.472624	-64.9235952
68.4400962	247.964591	-62.9455738
1.97804851	274.403941	-58.3276432
5.08224059	286.535264	-76.3148047
-0.409865874	283.272091	-76.8963515
1.94430588	287.570147	-75.4214036
0.109923982	284.915362	-58.900741
14.3888285	274.813544	-76.6860881
9.510894	287.083543	-75.2191091
12.9998426	279.022068	-76.8947879
17.1682882	279.813017	-73.9811598
15.8055543	287.352196	-71.4956883
6.54718417	274.276671	-55.7355258
4.458285	270.358246	-56.569515
6.30492319	281.604574	-55.820951
5.69366716	290.193729	-74.5066389
4.25033443	293.501304	-72.8020543
2.60853309	297.898519	-69.98195
7.48455788	294.98098	-71.4396102
4.66727545	298.609694	-71.0016043
0.927672385	300.360313	-70.6369524
6.35866879	300.969886	-70.6093346
5.09174232	301.657145	-69.0784949
3.68603851	301.644793	-66.2313514
2.46110605	301.30465	-66.1073549
0.984758577	301.690769	-63.6316335
0.595531166	301.619517	-59.4649271
5.25947151	302.058874	-59.1432205
8.70632212	289.807037	-73.9548226
8.3964474	297.994925	-70.0810807
12.4828712	289.190782	-72.5180127
13.0321453	295.158929	-67.541925
16.8453221	289.399887	-68.7554072
13.4759826	297.200184	-64.4026592
16.3961056	293.887959	-64.1882613
15.5602626	296.438178	-60.0037219
8.59429803	298.323514	-68.6397393
14.3739443	302.053565	-72.6060385
8.38969646	300.577293	-70.9196606
14.5986588	300.277956	-70.8751298
15.2471778	303.365823	-71.7281457
15.0411122	302.304958	-69.0224377
14.97024	302.884706	-69.6491047
14.8712815	299.11943	-68.3259396
15.340306	299.938307	-68.808788
13.9789473	302.548216	-68.0111724
7.56903282	301.667476	-67.3485359
14.0030771	301.290434	-67.1301201
11.6742713	299.108691	-64.2841541
9.14267789	299.726483	-66.2623605
8.07405569	301.369429	-62.0397073
13.0038626	298.841248	-59.2761597
10.7815391	300.362131	-57.3119796
2.29241064	290.445932	-57.2513349
4.39564132	296.99892	-55.0398745
1.01975406	300.140832	-57.1757513
7.27705444	300.925891	-55.7319294
6.33225761	299.410505	-54.4712992
13.9330321	297.71199	-53.9631515
18.334377	277.350876	-73.3293951
19.2254506	271.715662	-73.0395015
21.0122705	273.103735	-70.9277863
22.6771265	270.43195	-68.2073985
24.9666178	270.488052	-63.7921509
24.5884547	275.090945	-64.3601064
25.2105566	268.563544	-62.6374747
26.9374308	269.721766	-61.3789886
26.1867421	273.048399	-61.6349828
26.283889	275.711999	-59.2625506
26.2286077	269.899278	-60.0998111
26.9477379	272.118695	-59.2587773
27.5646353	271.566241	-61.2101503
21.7769183	278.63242	-68.5227825
19.985745	287.867223	-65.6726648
23.2724103	280.789521	-64.4045669
25.0459718	279.097907	-59.3732229
22.0731244	287.063277	-58.5849245
32.2549547	268.078017	-60.0631603
27.9177626	271.640882	-62.4657514
32.0904106	268.970249	-60.2427181
28.9410174	272.341413	-60.18799
27.6821162	273.183957	-58.2692916
28.2878764	270.774359	-57.598514
26.8094895	272.092948	-57.0664297
26.2382635	269.735329	-56.7634966
25.6752207	268.412753	-54.0476445
26.1886905	277.915076	-54.1168505
24.4450418	281.869418	-55.554659
21.6659766	287.819414	-55.0952584
20.3824012	288.874594	-63.2818985
18.3745965	293.121415	-59.453442
18.438219	293.403424	-56.3028979
86.2659667	225.913562	-67.5174075
93.4554992	213.824529	-69.1280329
96.0636037	214.230829	-68.5434397
97.4177272	210.92283	-68.0978112
95.7968854	216.655825	-67.4728693
95.1510883	209.914049	-67.2715412
95.4657378	211.194579	-67.320757
92.1751667	217.431703	-64.6730575
96.2869333	215.344873	-63.9667488
91.4904971	218.318228	-67.681496
93.1877415	219.192519	-70.0573704
96.7185338	219.609573	-68.6686894
91.6065648	221.298556	-71.0915378
92.7461149	220.713525	-68.7040104
89.539921	223.304724	-69.8020675
91.5844728	220.945961	-68.1636252
91.8473721	222.930549	-67.7047628
88.3610993	225.484847	-67.0744309
88.7746251	225.599403	-64.6765855
92.9735004	218.45952	-67.2628655
96.5353509	221.142029	-66.7924039
89.8239275	221.253274	-66.2343747
88.8201331	225.847825	-66.5004396
94.7286929	222.879497	-65.2462158
91.2980724	224.859225	-63.7827085
105.698135	191.545221	-71.6533638
106.823919	194.842031	-70.1684953
104.2319	195.412589	-71.3718191
104.638697	193.926665	-70.1447516
107.950561	188.200334	-69.0003364
106.009087	196.610565	-69.0807187
106.921636	190.485051	-68.0790738
107.419856	192.726048	-67.740091
107.409301	191.994914	-66.991555
105.602275	188.49287	-65.9390646
107.230894	189.605786	-66.9567557
105.978386	192.38426	-64.7718735
106.942378	192.492193	-63.8355237
98.7866701	204.889084	-67.7558871
105.382424	199.941246	-71.2983788
103.516129	205.967432	-71.2334196
102.031441	207.006951	-70.8682505
99.2926647	205.035998	-68.8693607
106.538845	198.691457	-69.319295
102.227863	203.562223	-68.9502545
102.405235	204.616395	-68.385592
103.094117	200.140359	-67.8057404
102.544793	207.357427	-70.3887376
103.929445	200.177379	-67.3307615
100.024149	207.517874	-66.9996854
101.320987	198.196966	-65.9881081
106.1803	198.931946	-64.5013542
100.198562	204.816384	-64.4869427
107.023726	198.953815	-67.2586314
109.292272	187.774367	-71.5324633
110.590725	190.574113	-66.7991191
110.395875	191.791987	-65.5159391
98.6823845	209.665848	-69.9886416
99.2662972	210.968958	-70.0392325
100.325789	209.165009	-69.0876411
98.7425022	212.836608	-67.7148397
100.181494	212.889863	-67.4743963
101.504186	209.232239	-66.5458971
100.077225	208.503871	-64.0537129
