# This PCD file was generated using the MATLAB® pcwrite function
# from Computer Vision Toolbox®.
# .PCD v.7 - Point Cloud Data file format
VERSION .7
FIELDS x y z
SIZE 8 8 8
TYPE F F F
COUNT 1 1 1
WIDTH 785
HEIGHT 1
VIEWPOINT 0 0 0 1 0 0 0
POINTS 785
DATA ascii
-123.237772675369939 -73.171058214155323 -229.162708962263764
4.707000531697108 -73.123910320097309 -229.679030062722802
81.187226931065481 -72.970722784441818 -224.760972698710788
-15.745410107406947 -74.560726898532124 -231.612390265458941
-13.586396564379138 -74.283745573956281 -228.482521496951108
-1.915235814750310 -78.546508032664050 -230.870666830762104
10.240317309371365 -75.569305559428258 -228.293275647992118
88.842249475753221 -75.619512346643376 -226.754944787006906
9.967244638415034 -72.320623747471117 -232.307204748100929
5.536760276705839 -73.436163337339423 -230.371811736167075
-9.023172353718282 -74.153069319388962 -232.288861589281169
-6.768652207498432 -74.456036516056145 -231.156565719099291
18.760311858085110 -72.650750262693762 -233.582935304232535
-12.432015732277682 -71.189100995706681 -234.314276423197157
71.089740309413259 -74.817428124179386 -240.212886197025540
-9.065147847582853 -72.159622344207349 -239.885244061485366
19.036728948202455 -74.855098247981559 -236.588244479148045
-162.808753027318858 -71.004166921912002 -242.602877040632507
-5.521612727982071 -71.575913575811271 -238.123272710607552
-8.039862812937496 -74.403462410163698 -241.258231211695829
-167.550054956671488 -72.812955986386243 -252.977507911995275
-10.746196144260603 -72.068016367713625 -245.499101655673968
15.679893431300556 -71.317495922314464 -246.399474963347700
-147.534139029667529 -74.306350164179051 -253.853610405184583
-73.165370934639355 -72.464745693099644 -251.934783957700773
-61.550175342354073 -73.995624071876151 -248.462517102406792
52.438864793675762 -72.020456306463075 -247.436001702175787
-74.595287213556603 -72.639749846575938 -248.352483195695044
16.976624650040701 -74.491335947670265 -250.402667254579882
-72.985210793748067 -73.430670160693481 -252.825000932922620
-15.275186256981547 -71.961193576907249 -247.061932801660106
-145.413096442630263 -75.084051795087234 -254.757318273293066
46.730184644166634 -70.894582655987222 -250.668915438050504
-79.937566800540225 -75.126895887114003 -257.281408203215904
-102.627063443397176 -69.977302353065511 -256.746735442231170
-99.254821228869375 -74.393701280336913 -256.280122581263129
-119.788517802366130 -70.790985726138217 -254.856971943618504
-105.707766358747435 -70.415573972024518 -258.884837035317105
-105.720217500205109 -72.487184273591978 -259.862618998044525
21.721902749764482 -71.473991439653673 -259.402751958974534
-129.200846192596771 -70.308063574468818 -266.985799820267914
-13.664333979769545 -74.456201367270637 -276.676630112299222
-147.459265197617469 -70.080401194877140 -285.346906906281561
-168.533220715423113 -73.884461450164437 -287.705619230302204
-124.794993751644469 -73.599812906828816 -285.992749427441936
-113.998492139945469 -69.763944780943561 -288.662004126204579
-75.409009656616306 -68.976442528925730 -286.059717569631800
-57.385671283266937 -73.794973613849507 -288.107937794641884
-41.780525562757674 -72.256132712581575 -287.384467055474090
-15.246819465266862 -76.455039006170267 -290.932211402806900
-13.677319084320162 -71.198211339319954 -292.865849203743210
-38.309252237045328 -75.134234701304280 -291.476626336509980
-34.307282227892628 -73.137345502504829 -290.047029177694753
-18.906499015689270 -70.504607578227208 -289.930783060695830
-71.729648442493669 -72.055938108223529 -294.535262241578323
-55.481556275869380 -72.486592703541945 -292.487803501288340
-17.564453446065205 -70.096413327403582 -292.663377425757119
-13.707762479735567 -75.014640862691962 -290.845958663287831
-3.658548798341130 -72.773630954039419 -293.450800172302422
2.539281763190927 -70.405917507691939 -293.237477621815799
-92.117836056682094 -72.956347222343581 -294.622453404142448
-139.743813037338441 -74.112556433626523 -296.985811074820674
-116.293082048751103 -73.608017442761607 -294.465779724145307
-153.527367029754316 -71.244801982001945 -297.006354991937656
-151.933120175685929 -73.079223255007278 -301.583167488414006
-146.680632804203015 -70.894835212904709 -302.074407658486052
43.052636501319355 -70.781679998567114 -21.740279000743794
18.454147630102394 -75.461677967021544 -24.154751201177923
48.115206019384942 -70.308293203360137 -25.527070840279052
45.728772725626179 -73.827511099276521 -35.553996297503907
86.447445690169857 -73.108971022943891 -70.357752012743077
94.422218368930388 -74.958364578091917 -74.028521529595764
100.104430719397811 -72.975505658177440 -78.197329345355740
97.216028978256901 -73.884640861169245 -83.569912222785319
55.642985079839171 -74.016129615661399 -89.821163490916945
44.483663493766450 -78.033206963622590 -91.678814747142184
62.278769572635184 -72.054217470389204 -91.152380407101560
-66.231149757105072 -69.755651929118926 -94.568155701871802
69.750855329040618 -72.625355047897287 -88.144779304883855
99.889686314996297 -67.345543131795196 -99.021846777721890
73.548582479540755 -73.940538105605839 -101.411586874020060
93.332939093515449 -72.321324236131773 -102.718505469452197
-85.540689399690123 -72.925223294186210 -105.045734246115558
44.144239337867972 -72.004431490511394 -98.673552477966041
-87.481509758084528 -73.330925797069767 -103.877936493666454
50.223793451747213 -74.398662016156493 -110.859799637283402
36.760525489211666 -77.942518333807172 -104.227183784077852
101.179600140587922 -72.494277099744508 -103.388006246573553
36.227249612080556 -72.693468917697771 -106.586568634871156
41.696224084461321 -74.007290293741832 -119.145699548032752
41.818615939491366 -72.755181620139226 -113.646278062431804
109.162731881335588 -72.195120577287653 -112.449106240117231
-82.229645157185956 -75.930493323650595 -123.113719366028192
111.337077440379474 -76.585572387768025 -124.050571319034447
39.173099331406107 -69.560058463543427 -125.387023457426864
39.643283541991906 -72.234916854276236 -120.860957463736867
34.091396309149467 -73.298045426151077 -121.553837666654829
-56.631220473726337 -76.278202843789074 -130.955276801495387
29.289929889888363 -72.001462024981947 -124.183134911761613
-78.217940909467657 -70.465805435372516 -139.391239957189583
-56.232638292807771 -75.439222079880182 -134.004459030963346
-80.350868306194215 -70.070108929858279 -136.476304190789364
34.707928849745386 -71.103374838746205 -131.434789118725604
-60.500492272020800 -73.285203273344848 -135.050009534286232
34.276346168556152 -72.201827649521150 -134.073610595108335
-72.814712635602120 -70.361242552840480 -141.171200509963199
-60.079485904772390 -69.923041258925110 -142.206020664428650
24.849881081909889 -73.564156704142562 -143.417284832901203
110.049658473315148 -75.991800738975471 -143.248268430575479
114.425142727430995 -69.684081137136545 -137.252487241134702
29.871518004059681 -72.901738896930894 -142.258230628068958
-49.067825812191010 -73.603413441401955 -141.584421265026862
106.021687127450917 -71.400583282167105 -152.410258610321250
-76.421587144381618 -71.958074639726263 -144.659011766448486
-59.493546035824536 -72.261149040378797 -143.767556266404966
30.788410458774123 -69.090488876021041 -148.203038327394211
-78.408156466954381 -73.351569840117619 -147.772364112936742
-71.470557259309501 -72.064006206432865 -151.815006307882953
114.054434298076984 -76.993215338605310 -149.702206662548434
-65.462680567695600 -71.552160507647613 -156.626814909616769
-40.162013692046273 -69.776853844086261 -153.561464612212376
24.846426475971420 -71.319982808743518 -146.797043880035062
-74.072638538160618 -72.518158155154964 -147.624065326718494
11.546023600631562 -72.286229950459486 -150.692890425302267
31.040192580463568 -72.294868789745195 -157.717232283476960
30.151205801938268 -70.639865542624179 -151.021230004759218
14.364480347549261 -76.915008113587717 -155.051453286511560
-50.762012081754015 -73.687877003232714 -154.657940583476886
23.910733886596205 -74.081749287570261 -154.000322884277097
-47.063722731428662 -71.433869189494956 -151.562837283252861
3.874597099136776 -72.856308670635499 -155.054720096712828
19.590255609350784 -71.985205849448292 -150.845087103278928
-69.738399315765349 -71.489800796116199 -158.972180179132607
-47.502814154220090 -69.531626027870018 -155.505670621334787
-69.055874799812031 -71.630503931546016 -155.321447786927848
17.294542731450044 -71.597068004195449 -159.381286060368694
23.332509343821158 -71.959562608632098 -150.952397346754708
1.701638043145937 -72.633995288449867 -165.545103187464349
20.447402703183986 -72.560139380973808 -154.459071451545299
29.933160631669139 -72.509044222117922 -167.980597998849845
-48.178072875642911 -73.538774154998620 -164.621708466262419
-37.696701145671412 -78.290165251987986 -164.542396437095107
-41.728408349933595 -73.046108264795919 -162.184836315253506
26.946203959987848 -73.073930460842348 -159.524881481202868
-45.122795232099072 -70.658863911621026 -168.169846257455163
-40.632033912472572 -70.876363695274904 -167.730256967088252
20.502677620742073 -71.440374496369273 -166.649879851695346
-40.685473046765658 -72.814707157921234 -176.544147165031688
27.094615653616977 -69.387963036859617 -170.942168357318792
110.827669013663055 -70.295232115218880 -165.136530616888990
-34.375694545272310 -72.242318053509777 -173.307843619840696
101.933135758973080 -70.983313947012761 -173.541164799016258
-35.400640192858972 -71.939130665257423 -178.712382632040374
-38.239733581947483 -75.130719528444814 -182.727394962370425
20.308560870712089 -75.397934845002183 -177.896807116484609
105.019422291736277 -73.589505868110351 -182.275698313903433
-32.288222486304996 -70.815099515645585 -184.176557424700235
-36.016525694695950 -71.770723107118130 -178.802830589282934
-24.005884540365543 -75.734784273976089 -188.034905536856371
-149.817988238414841 -72.171359139158440 -191.034921441687970
12.137433853969195 -72.360057018800973 -184.309846359647366
104.238112964519473 -71.861475929081493 -191.388295183754707
-159.709766927886449 -71.150415383550026 -195.259335518101636
-23.733069222813292 -69.447281401528073 -190.736596175918152
-116.368019252018229 -73.402970249661919 -199.228528387590671
-131.543619246456728 -73.083123571368503 -197.572705220371205
-108.594012481291429 -72.354136952017640 -201.627656907260302
-114.352135833545958 -71.026751922891322 -202.099238221758981
-13.057279475285403 -73.221934308363302 -197.492368144641489
19.387692898808755 -71.482293557816831 -197.010441874045654
-16.475772210876197 -68.835294663732526 -203.043907421559197
-127.388130148890070 -71.750541590347581 -207.528092218599625
-21.503261632409487 -68.801581597340814 -204.206266786890751
-130.034645699126656 -70.601969123567400 -204.916621224082832
-16.108933483506554 -72.519365663482304 -201.415585460198429
-146.754063745129486 -70.462705657066763 -204.928778123367238
91.197671252561989 -69.385957244615824 -206.845102727340162
-165.188320250653987 -66.823185542647764 -203.736895548223004
-3.321053185671999 -74.070908260722106 -218.919700190516750
10.850254938555684 -73.674716081424322 -210.849650443946189
9.758609694722194 -74.610408247569168 -217.987325399794940
82.103435937593645 -72.918671564309022 -217.147781286751609
7.934186637985119 -73.486286827411917 -214.047604807953036
12.066064581504730 -71.657629487818483 -215.716510149229578
-16.405753333929582 -75.544517518215400 -217.065450697851219
-91.031775701341729 -72.269545229341645 -216.172299107249728
-98.543689163779732 -71.953692930818136 -218.363424450390085
-0.509171150342467 -71.417861577766857 -220.189340179134348
-166.980035483094355 -73.243953238473424 -224.247435928284006
14.638938879233130 -70.542900054346816 -220.567264219891058
-145.132119826108408 -70.908984576200581 -223.375757737236626
12.492771803301405 -72.828839013552681 -225.910524426668076
-135.125957184822937 -72.947194778290637 -226.911455055292294
-116.383326491440585 -72.679343540464984 -229.100064810057603
16.274119788575355 -71.783895611781446 -221.818247702612126
77.909397322471989 -72.934086340787644 -221.839505462281920
6.269545911532573 -72.463841727900430 -224.480080986394057
-110.297809117588287 -71.063102617856700 -232.776941709286888
71.920367374358719 -73.775292947539882 -228.323376324223943
83.583119235835326 -74.006079202664964 -229.920148013088863
-125.596072158392872 -71.451926991638899 -237.069540427540119
-117.460420923363344 -71.730295752251465 -232.373518475277251
-10.457587015384664 -69.252091858568889 -228.956303087540505
71.576804098268482 -73.575880316123303 -231.920888937616695
64.254696253602688 -73.421851501771258 -233.783950994695033
72.869005828981287 -72.391512609907664 -230.015585684215239
-135.639745421215650 -68.342406999190914 -236.156115877034807
69.768720738650416 -73.953213541138140 -232.903353306490317
65.808405152796865 -70.697888982987848 -235.909222531134333
-166.553135025592780 -70.021784377992901 -232.828328107640573
1.061302130660180 -78.744551366656651 -242.010386095940191
19.007099848429387 -73.786483416711846 -240.426777936030788
-6.350736944994212 -69.864496009511541 -241.812913578275698
15.437851328434139 -67.705550720394797 -240.264550671779659
65.866432892763441 -73.796292151783362 -238.727959735151273
8.606556220266306 -70.715791698255558 -244.411062148868353
-11.243791216274127 -66.495986797503093 -241.974239112037054
-0.887437753999575 -69.330656364117772 -238.562336942879909
64.619170802627281 -73.478881885354781 -243.043978284575104
2.725755316110672 -72.971898239209395 -243.637967633685321
-7.323560524887809 -73.134485277629935 -244.286558985438120
13.937277342936483 -74.875608963304032 -243.884688561113563
-167.838050905096566 -72.980371541338911 -243.437173309616185
55.727719902242299 -73.104323618916141 -247.935777698753526
49.709669064414875 -67.278899694712692 -251.572163173714245
57.865920937557171 -73.515169710718197 -243.474341453637351
-12.451296025537685 -70.671744115987636 -249.101910264307577
56.880735967595797 -72.609596850487605 -246.359757306541923
-74.178751093626786 -71.472271242846560 -251.499794844086665
50.483795080956924 -73.144236253020026 -249.376507465051390
-89.022215187725152 -71.654229530394190 -254.232618832433417
-123.469554341249065 -72.695594196266939 -258.653493523526890
-132.678851425257335 -71.517940684366522 -254.986204439197110
45.837306922876316 -74.253752505262213 -252.619429094213871
-132.857622667623730 -74.040375511589261 -255.233086511361790
-109.453718782249680 -69.944937121531936 -256.972943145397437
-116.315101033679127 -69.430979370658804 -259.386626650282835
-84.021019994839818 -72.264382749510858 -256.376073065637854
-111.228581794869115 -69.986326825197096 -261.035388354154179
-124.317823735258244 -74.782286505867560 -264.408796184698474
-146.682770463879137 -68.953359092266325 -269.758115283918187
-15.496371156246713 -70.945300865195492 -266.832255723457990
-171.559544817539177 -73.235054712617952 -266.788448824449517
-14.736145181507061 -71.698324037715764 -274.985622146065396
-159.180081435658565 -68.153974961958198 -269.516823139910116
-152.860874761811147 -71.583854799559987 -275.619690083890532
-170.070136744676404 -71.179784145485485 -279.837355013571369
-14.361112809581615 -72.289288682721505 -280.542634865455796
-130.317746516045531 -73.766567534735927 -285.184818253041726
-158.135784280030123 -71.010978329203596 -288.445895142711606
-144.089847638200297 -70.437251185962594 -283.085846814095476
-135.036517880156453 -74.210038000894386 -282.561042558750103
-8.277574648146432 -66.609278053078043 -285.624038980502974
-126.011049050963209 -74.901760886592882 -285.416091794134388
-141.134740589067462 -69.377087393401055 -287.706483164026110
-115.862703339953555 -74.384273858072504 -287.646675354268041
-79.085523511786192 -69.895816931504839 -289.701755938192377
-60.820483903361627 -72.516476865326581 -288.587723380965940
-7.118030027713817 -73.168132308057238 -288.986449346968982
-54.040216294670742 -70.745533347195419 -287.193682238644101
-57.304759156959079 -69.606028097480291 -290.127470030524478
-70.493189170639482 -70.075315528046730 -291.914838913280107
-88.129751206180984 -70.754724144029197 -295.500677969262483
-95.137281575296200 -69.408045804232330 -290.754381864776292
-160.428643766079460 -70.332542398281518 -293.697566047321573
-161.183622966315340 -72.119363122787647 -295.950632149159901
-124.729037115185434 -74.174109689866270 -295.864037440538766
-144.741951143336223 -71.490831038778992 -297.103881615146122
-153.106898588718707 -73.477739042520412 -305.909357436522725
-150.479313945824970 -73.555449344494534 -314.301063668835070
46.096370123723972 -71.154972860269510 -15.380853254733783
14.997976341499431 -74.033800644258449 -30.740814334799687
40.254523136900872 -69.197059767541816 -35.443586933004362
-17.015791938396795 -75.227738945713398 -67.549297815312286
80.289543368860805 -70.870809525813144 -65.630411905176771
87.179462331822279 -68.777862806789472 -66.422666252823007
76.372066741717632 -75.655224249756287 -66.004266479336593
71.235052899333681 -73.780852486835073 -69.794440524957935
89.733243944806631 -74.979205445643160 -75.376850137309958
-97.605951426081432 -68.605405898884896 -71.994279228668262
66.360276036129378 -73.128765809109794 -75.998896957667029
-38.001536025314529 -73.006326910492760 -78.693779069785876
97.529061293389816 -72.525170075149632 -86.253785780016329
60.119155522542812 -69.821490454356521 -91.033634765888081
105.745583749076317 -76.956617189650146 -93.974368955435239
100.206694918176424 -75.962445958618432 -98.775251911644659
70.996692901710915 -72.217902494724484 -101.208453164825443
-81.500132873859116 -70.485450878558424 -103.139080768541987
53.047934865259784 -72.179181531983744 -104.922295016812939
105.827872485454137 -69.905015422479934 -106.351673794876831
45.799191207047407 -72.815492983848159 -113.135598778641366
78.601736528035147 -71.242951027974271 -105.925002779580012
40.333521038779693 -71.768160170896479 -108.221383582746995
102.925572125342313 -72.058090157175272 -103.575749933610382
46.253536409758780 -71.585947414614068 -108.519275594964824
105.935099569739634 -77.080951824909050 -110.230276166337205
108.842548996998502 -75.226334439440308 -111.630552123367067
-80.705756663625337 -69.593527838147196 -115.771411092577068
-84.213275028168482 -69.753820032903349 -120.989564884362352
42.663595001927213 -74.975815987438992 -120.803493160671337
112.554826648149302 -73.868939664479171 -121.572859928117310
112.455980149217282 -72.002797659323093 -123.859054809315410
-88.476246250108062 -70.522270649681573 -128.628839370380945
104.748729911412710 -74.031816431182008 -126.099058977103994
-60.571354257642589 -75.647792657272760 -133.260941564858939
-87.409695274067673 -71.710095392906410 -128.938168198696872
-73.782443216698866 -71.620776088114823 -128.696253026574112
-60.422287763270127 -67.792488817271661 -128.220284032956840
30.421086348871704 -71.553103262173394 -131.000901549907127
41.207204715784535 -70.373413141910504 -135.457838040997359
-74.312766312850073 -71.064629360279739 -138.158004187811798
27.539983834751151 -69.975728985082625 -131.788364873712283
110.568724181137370 -72.150137346873990 -143.186339591074557
-41.262786698793320 -71.537930788248588 -149.596810949523245
29.305040185337070 -72.602407845418355 -149.675327733476706
112.822025247586012 -70.546193115129682 -147.953459400301256
34.435241046275166 -72.374370894454614 -143.534390761896788
109.256160852337132 -70.946629461016414 -141.089449311018711
-53.410860134730477 -71.661264740916977 -150.787481650311094
-72.328099030871755 -68.838703347108350 -152.501620361171433
-56.170426286343464 -71.870937393537233 -153.965793768406542
-43.061338568516163 -74.766278648781153 -166.285360201204838
3.672483040736529 -72.901105298367682 -156.858623834359719
108.800005255611765 -72.278580230357505 -153.779997152624560
107.981330286335776 -71.921787602114037 -159.893529447570927
9.035190139237491 -71.036951103214548 -158.396536109743920
2.320115434633047 -71.636652564150012 -162.305842327261729
18.205477480658779 -70.949771443727585 -156.138502073867272
24.637425321513938 -70.403046336186691 -156.500133704628411
107.787634373245439 -71.588425906688073 -165.894177671789521
108.622447176589844 -75.034481200622068 -167.982704641331765
23.055592883454018 -69.037722081959728 -175.234997638838308
24.015525094276558 -73.680402008937705 -164.665680356139433
111.260580254039695 -70.134589132316904 -162.227559743175192
-29.976674350612495 -70.246396104202702 -178.397738509083666
109.278260023661261 -72.213964414500467 -168.012951735639177
16.595101468440024 -72.095387030826515 -168.492180530062967
20.693328259972912 -71.505708130536590 -168.587361772875113
107.645282664547736 -72.148377150621627 -173.118279841513811
25.833346727061532 -70.786202693656378 -171.202501851902241
111.481285135949918 -71.269220439750555 -183.940462429017202
-39.140375954145753 -70.677909816206849 -178.983649018646958
24.211124076124879 -71.221291308036456 -171.940271025951148
106.680334769803451 -71.769062894809366 -184.125291814061683
22.251546997023258 -72.548079554244083 -179.414132238352437
-152.650223009667570 -69.332476342631665 -188.544665572315438
-28.978414799666812 -68.375607326161528 -190.532433395908640
23.798076484098917 -69.506957882671600 -185.733394341677183
-114.521093912684989 -72.287473898874239 -193.672841581579064
-111.605563821357151 -68.523294370968514 -193.099650370880994
23.001620244995198 -72.051371583336518 -189.374270548010912
10.878374372800844 -69.622414185503686 -185.951269860386390
-27.646682416811426 -68.743213349010077 -191.411122474568202
-30.426751552774032 -75.017956997122795 -190.429467827753570
-28.795136893831771 -71.609986177781934 -188.389889522978251
13.978663035463807 -69.522524868984647 -180.884541129431113
-151.582096889354716 -70.633702549728810 -197.139790248021654
-146.097415963407514 -70.353338499251933 -194.872425051448374
-145.108866416359206 -73.533350724656273 -200.347716389435249
-23.669920946654418 -70.334290379824637 -192.555118137600175
12.958871786826997 -69.257401207814326 -200.479993943657092
98.120608485741528 -70.982341418826849 -193.681768933533789
-114.427156036823860 -69.698702289842316 -200.152350207884155
20.548472199251375 -74.643405029209532 -199.229720067362507
-16.040049516218364 -70.229498824847624 -196.672818687870688
-18.419368718197347 -70.615799837638619 -199.863190936084152
100.273323143525701 -70.639662844494936 -199.862622756494034
7.226144289293272 -73.202979944869242 -200.247731814066498
-22.679744345818815 -69.535164780362948 -197.656746529651258
-122.031512214335137 -73.641682852360887 -204.957099728973816
-134.853292985699682 -70.815276496206437 -205.249915283050854
-114.725389403315589 -66.418047861774696 -206.749513467089514
-142.856163301086212 -73.370487017992289 -205.401590865264950
16.804251311936579 -71.024690105947002 -198.657061179753811
93.129345347747986 -72.958466051709138 -202.246105962765967
-166.594946938597104 -66.111571163218329 -203.633749149361392
99.323640885589853 -71.409125950752014 -202.535578988851995
-22.303787857571745 -74.749137640854968 -207.247360583167335
93.991332788580237 -69.693268110889278 -210.945305463212037
87.449719286020496 -73.071237648452950 -211.976474941476766
11.476012869484892 -72.995835343703959 -206.940595685985500
19.161575947994244 -70.780641349573074 -212.913429257586188
12.208656984845591 -68.545866401199547 -208.815558781376978
-11.409158799322578 -71.514965079408398 -223.538844834879001
-95.001191945538039 -72.697693544330107 -220.308982592710151
-11.055783354065960 -73.228788449135465 -213.422204687321567
88.475722146665007 -71.891964548641639 -216.775942156328199
-94.129001096354187 -72.907985334540513 -219.380991108411649
-101.684251528724914 -68.530479323528510 -222.964219565701967
-95.013386518083138 -71.418861202364440 -221.209391053783094
87.682754200078691 -73.234559426650847 -222.453482297351258
-135.821094815500146 -70.996370030319838 -227.151521251852159
-132.978925747447818 -74.429738417374793 -228.698049936001070
-117.184398898121970 -70.566692472931535 -226.689111719790816
-113.642336808007087 -68.105246431527121 -225.030231789630648
-133.854364451662946 -69.186138379593473 -229.186163149372504
-112.242255633888746 -77.225630720683085 -229.350856288522493
-112.715396945726766 -70.555183145092357 -229.898257037914249
-7.406632063078392 -74.397827312478242 -225.775822351786246
-16.489063123792342 -73.404202507885898 -224.366027405114210
-1.452936930137865 -69.325653044811020 -231.543427416257686
-10.660180317168747 -68.437068493210276 -228.158435241109572
14.923320739607881 -72.079147914706908 -234.512355223652008
-19.345197911236180 -69.531025568009753 -230.352843273037109
-167.384996643452155 -68.879214196994823 -224.491759516450969
-4.572194241494525 -71.230727668924118 -234.596140966628241
80.344582500077834 -68.917550771631980 -231.755593003730638
10.497756733857742 -73.080428059183220 -234.685973326392144
-6.347264505138948 -70.538350915404123 -235.921299088749095
-157.303807941845207 -68.284132747158068 -238.649412970599968
-142.769414167922093 -69.153143378621195 -232.457299295174437
62.153591910862218 -70.349715648138286 -236.583784819780476
-6.119208722331539 -72.174015407755235 -235.262381781185809
8.820497494526897 -73.344992488744182 -231.769949999215726
68.941067925214668 -73.792913083674335 -230.926125661737871
76.504502606008430 -72.076841691655858 -234.902740933956807
70.629913912259113 -72.756968324767243 -242.009524323035748
-2.030628102341796 -74.036516314507637 -236.815046942132483
57.622583589027172 -69.950495190927015 -238.679342041041622
-19.445637094769598 -73.699358445521213 -240.960677264842900
-15.679526893338535 -68.934635189502927 -241.589239908624307
7.807248561409097 -71.226882556358049 -240.405823657536246
64.342794588744042 -74.749829312463604 -238.580606503796446
65.037228147956711 -70.167617078429359 -241.333724625594499
49.243612404986706 -71.748749088907331 -246.904849002928302
60.727111703321462 -74.658031087522900 -243.441750247223013
-15.896784517739141 -75.570532875257555 -250.867671949041522
-83.914680731783903 -68.290421739175585 -255.817010924759501
-77.177326119725151 -68.893915645931614 -254.534460317901079
43.891287072077496 -74.255937967385236 -248.598513450511831
-149.482880692211154 -71.627784105146162 -252.733611907319272
35.704359443848190 -71.455401899210557 -257.095545393756197
-92.395410384826761 -74.237764329814127 -253.601442521451787
-156.561343022383255 -66.822327971938023 -256.801440657314743
-140.638258216247323 -64.522080423291669 -255.313937197729985
44.847260594987375 -71.343771542342637 -254.321858602964738
-125.274781222300746 -66.841099627925630 -259.771300473463953
-117.199504852541324 -70.910552005435221 -257.202017551547726
-92.659792720774021 -66.887085526676557 -258.769551872006843
-14.033863453633359 -68.066487609517367 -251.569404571361275
31.577953362773620 -71.126840308899290 -258.095879031222807
24.673190313001768 -68.870361623402829 -260.395197327021037
-159.235952871986228 -66.101953737048945 -262.426808264044325
-115.031360416592193 -73.245623018881730 -264.512132473315262
-14.195321533336600 -70.850996769387152 -263.132804752319544
-133.049091967870368 -70.318816488966291 -267.331544245808175
-14.355683555948815 -69.919557133370645 -271.490328526309781
-165.109425923549281 -69.571407241361413 -274.672827329735810
-7.492161690444174 -72.084009093660470 -280.619890852741491
-161.022275916478520 -70.616267949259765 -289.927111272281934
-164.073427881305236 -72.114403260493063 -280.037031085158958
-142.774005845709382 -70.615684960805083 -287.217975055806278
-170.355857558480466 -72.182278506778118 -286.846169452095921
13.875708843003224 -73.411984086306418 -288.987569288114116
-103.335950915686340 -71.604839661539273 -288.307270173918994
-87.346493725127473 -66.666914669776602 -287.653800731262720
-167.950691479906936 -67.533397006596573 -286.745414190620920
-92.233056053307749 -74.469143061269293 -285.697956560715852
-153.880861943622051 -70.784514425165639 -290.559796113562811
-75.617370148106090 -71.640161121859109 -295.207384980968072
-70.803718861992451 -70.102968901865097 -290.275122719520425
-82.697101697159979 -71.708514452739209 -292.951394594234557
-3.868553056153051 -68.577498001775609 -290.065500644028361
-88.204944321602767 -70.639819949571276 -290.309698451958582
-99.176281306168960 -71.999490479605058 -292.673061019175066
-116.830594938654400 -70.848046200775102 -294.519296929477889
-116.738405178464816 -67.892065982691435 -294.652195932051427
-134.345625765523437 -69.820949187963507 -294.168446673941730
-142.937338083150792 -70.607922707637584 -302.822070566870536
-144.302675284731151 -71.807495980557704 -313.778347079086984
22.121980480678186 -69.513165534307930 -16.037433473884015
30.565865336836460 -70.759352041774534 -17.237611862906007
27.599595772324008 -73.374108229308305 -19.112798438586292
42.436577577119927 -69.542411079418358 -21.324905113137962
23.250729213013607 -71.247481593551299 -32.533593142944753
-76.448597881969718 -68.939100906788426 -48.575978508250550
88.288713957063763 -67.348463694828880 -65.924522909176886
-19.023713233664711 -69.105525015604954 -68.681389163191483
101.270198141507564 -70.493546106708209 -73.214507956693296
93.725217685082598 -75.256541545266188 -75.984141372106819
67.179552198604540 -72.740564893729612 -79.041327474492675
68.943062810563220 -74.582721482821640 -83.153506123979952
-45.995783892913458 -73.936150862776174 -83.755954004848149
59.845175231305547 -74.596446749528383 -82.994000610618087
-95.697907793688955 -70.798212064491878 -89.963464969389065
-50.495851704012914 -68.471371717949040 -86.589502126523968
-57.200636421571254 -77.246332840164513 -88.956603275008348
99.765749247470211 -76.842962096279848 -97.886619538662046
57.956873967309804 -74.377314349379219 -92.864178842147851
64.634838036504917 -70.626544421538725 -91.563846800513176
-96.913607280115514 -65.115148350728461 -98.562510180606836
106.615421047323764 -72.965732017814787 -93.340898234872526
42.904558038676136 -69.915949341471588 -99.639846144953992
100.213873242522382 -71.244661861732951 -98.407364634310426
105.613156404934287 -69.473602743449277 -106.245057346149451
100.117986919725681 -71.821557611936328 -104.832381057417024
72.674669755200043 -73.548957439400382 -101.194519454824274
86.149308090868317 -73.454222932632902 -106.933505194617567
48.899635839897627 -70.992196656973476 -111.843551752805524
109.486439037731387 -69.415184698556786 -103.817444293118257
45.041350176181638 -73.737431601017676 -106.100058832389891
39.391532739887786 -69.331018451003928 -102.277202573363553
111.636323847794969 -71.932180296955593 -110.560967601240975
-79.651550658806997 -67.696841549476929 -111.160681733671851
45.003765256112551 -70.350117323092974 -113.535205806427285
33.661890477197801 -73.000376472395843 -115.801367988308954
104.359850032568190 -69.242060427666729 -110.346157362948020
38.312818612263186 -68.332999230652462 -112.210871321224971
-89.164706593922631 -69.806579651451685 -114.426225470298135
-96.640643174385943 -67.279846657750682 -116.407360839824292
102.984486015308860 -74.583293871438102 -119.393117045838380
-95.842873502445570 -71.434994797927658 -120.225564193099160
37.920525503797187 -73.070071847771331 -121.975294042639490
35.925656786524115 -70.743108726922017 -121.479899392640334
-84.435607104977095 -69.795735045044850 -125.719471612334559
31.464597622199570 -69.214433104602080 -135.427755579395068
109.891486231069507 -72.806611967497801 -131.430387420873814
-53.561563948357858 -70.038829688394998 -137.341139278929802
-89.198554717929767 -68.927471303751318 -133.168812105653046
36.965579937489380 -74.201287037806210 -132.352845392719757
-90.001098544570013 -65.872373998873798 -137.408156071208680
-89.814396864515416 -72.082618621083583 -141.141786750753226
-50.588377766852268 -71.487659107144040 -138.067160474680151
-71.740213727043113 -68.336781212694078 -140.922270672197840
-51.634782814058575 -69.360656262410970 -134.730915197849299
114.525736553277568 -68.893632473621139 -137.731105800315049
-74.151268587458659 -71.528418756671812 -138.218829790983250
35.564192998595146 -71.292217400674900 -131.999869145796936
-79.575750828981199 -68.995890275427868 -141.589692278421921
-74.249605809593760 -69.797150860663919 -137.173037155139468
-92.263076127448130 -67.966533965601499 -141.672264695642440
-54.697459172492486 -68.130435380402631 -148.329970648796973
30.615013943860426 -67.065855503241622 -146.525884937090211
26.716036341822676 -69.111070872376260 -150.288738234232255
18.316478781246030 -66.217723413634999 -145.161532211472263
111.984764169869251 -70.802668316780156 -146.499435801599674
-94.293728277229548 -68.383208667747127 -154.028834844644280
12.195502663490007 -72.151407192888286 -153.259279628980238
-72.715534030935700 -69.446143642272631 -154.723152579445895
22.662318040374945 -69.798751679905749 -150.564475388136998
-49.927878462440248 -69.128080513037617 -156.681099016820269
8.788074634924405 -69.267496611419375 -154.136188029594251
14.341490278499538 -72.936130983346530 -159.249335378769558
17.058953622999606 -74.763607437954505 -164.726248550741104
-49.642107030770596 -72.019040897134730 -163.813183954826258
-39.952518920897859 -69.241160534724074 -156.042166301549827
-47.108822920014880 -70.462819945656449 -162.280045391304981
-104.343586166972401 -70.168127519299446 -173.549054644501979
21.091716601804276 -71.609745933766447 -174.858750003289430
-35.395562174688997 -69.910033445654847 -177.136649934345485
14.807104059602523 -74.119711218042681 -179.160441322541942
-144.270656447950273 -69.378106722958989 -177.607862395336127
-32.876721881901219 -67.274503221100545 -173.977566285520766
-155.666638680210554 -73.710324859841748 -179.757988744593575
22.854298874821591 -66.441612648268887 -182.622295476600669
-33.597643322316813 -71.141528802402917 -172.644371852886280
-108.293808051198027 -67.992142167072657 -179.328494077703482
-107.732948169133209 -73.610858844984108 -185.166981621174443
-30.555328373537556 -65.886002962057972 -186.369872427231371
-24.242797902376928 -74.043249167839434 -182.879998691720516
13.428669308924059 -69.500725532572346 -190.156208323225940
16.482369336843622 -68.089859553201478 -198.079445727464645
13.292483276821079 -70.325222103816827 -187.838305707373991
-143.426717566380546 -68.344306226373547 -189.338963081008472
21.038694692263874 -67.144973229847693 -190.774605844495454
7.043975657192387 -70.208073036366486 -197.667073531431612
-137.613093105445387 -67.920023787442133 -196.266622588262464
-114.855316369910028 -69.179505876626365 -197.107114720224672
14.423613319137509 -68.812630347693272 -202.069158224999711
-116.863577245619794 -68.432647707997575 -198.497107536961209
-108.286399257015731 -64.969410005393144 -193.823167250280505
-165.823468475142022 -70.443634657432668 -202.120998362638431
-24.792239434953920 -69.106579617175072 -201.149010930732658
12.427175942193621 -68.902861980575025 -201.143894779209148
-143.450425336851367 -69.552738460194348 -205.841248194589014
-136.246013455479442 -71.169581656968845 -208.202123111764166
-20.539695980602055 -68.483008609648593 -208.405218790840536
-12.371792695536262 -71.225766358204410 -205.606677247707978
-15.232590943728113 -70.744353588225010 -207.026048946965489
-141.293588428225576 -72.492685694197377 -206.320361005723697
-16.939233400801360 -70.437622934975082 -214.001756375311686
-10.886597681535404 -73.727317171148044 -215.346330656949988
17.151865754766565 -67.890495977875077 -211.882317568802335
-15.288893787086002 -73.400584896862242 -212.582393843848365
10.070724168273680 -70.560769459123634 -210.979771321859744
-10.771255944421947 -71.038774497308097 -216.663127851824896
-21.387594583663276 -67.604792694852748 -213.110256702689298
12.311574626772661 -74.610593040713269 -221.921295323403626
-1.945416983696788 -74.951008866257993 -220.799144161789883
10.889890477127674 -66.991410018520995 -222.123561780739948
-6.344220971316128 -72.142123219106921 -227.937330671013001
-159.098108642259604 -69.818188930653704 -227.357867782771393
80.483401447853794 -72.971934334115701 -220.604200357673420
-135.552250127628383 -67.542349570790066 -226.266603313981079
-135.348890765852275 -70.994774358863125 -225.055257733579538
-8.710074350131169 -70.910418622839202 -226.309866117581123
8.318701657984564 -70.127832287661377 -234.800661298964087
-157.164657453392408 -68.897403716716553 -231.607460895067419
87.716115050236652 -69.516245636440090 -220.462091683965781
-2.439500482449236 -69.090074031900144 -226.785859427601594
0.315599445649041 -70.932200441309277 -224.003972087779744
73.739482291928852 -73.274377109784965 -229.912580074945964
0.410950788806317 -68.108633977938467 -235.891844308108062
-15.008747614152478 -72.009566826105001 -228.278169869040255
-126.722652484344337 -67.892781337949103 -236.188989096753176
-4.473531109115098 -69.954219026153453 -237.955150324891633
2.234205299776383 -68.146017550827722 -232.991689594823981
65.844777531366944 -68.838262841706907 -238.890086889227092
-158.444843342455556 -70.418996631676720 -240.351226818738184
-12.645006210219222 -69.628220985496498 -245.826614390399357
-169.294730077522786 -71.358098008258466 -241.003941822199295
9.701822775376847 -67.665188006475020 -243.056011982059061
-164.772071674235178 -69.897782368387425 -241.146599062509182
-160.916714159590015 -70.515932839158140 -248.239479676615787
56.878403571779181 -70.517858383912497 -245.929040262077422
62.093587208489950 -71.934802086576767 -243.319169395660737
55.992489143625072 -71.106309253583291 -245.184186528438289
51.612501226708339 -70.474575977478537 -249.665612590110157
-155.607522642458264 -69.957360961261728 -246.151177219604563
-156.634222402992350 -66.922012251786342 -250.586330959021581
-13.494797721172240 -72.914906316619224 -250.573512174619481
-151.532888772114518 -68.845873866686290 -248.835479054008800
19.520870120720488 -71.742385118136568 -252.152712319334654
-169.880194209767069 -73.618543853708672 -253.316043868897083
-167.749101202029806 -67.527143346095670 -250.557604434611932
-82.285746643657845 -71.088640324925635 -250.543290504356690
-169.521319505228178 -68.735574128867256 -262.066374667110722
-85.490394474837004 -69.271034573159895 -258.398453066462537
42.415785572427879 -69.663971828332535 -254.032494154710463
22.139396957097265 -73.608133515147969 -257.225821554491574
-158.755330747574192 -69.958620380204479 -264.054662008713478
-100.889350019042737 -64.212674494962116 -261.410577952537437
39.141144563665591 -70.688897099911898 -256.598103119901168
-104.970600472203202 -75.642785148506377 -260.889726928739037
-154.139845864159270 -65.062425783738107 -267.094095335509394
-105.296232004629971 -68.509235708742963 -260.330782734782019
-167.955369026483481 -71.021279599821426 -261.912096158849749
-113.192215196976576 -70.514542757468590 -265.229725643798076
-153.360085565997565 -71.282261496007635 -267.927929432576491
-158.638731846832741 -67.674967553362890 -265.768864071165069
-166.125154043084933 -68.537548458397126 -266.026418291963466
-164.149392042388286 -67.521239999112964 -264.560846748714027
-165.781039291649279 -69.181163081388362 -267.985663153579083
-165.802504220340836 -69.777509070857050 -264.967520088007461
25.715372742918341 -71.620551671716782 -266.216018885443248
-149.934000240927389 -72.481538752695300 -265.832656639143011
-149.739932932800684 -68.843646411992111 -286.367662546073575
24.726939718368005 -71.236138217690922 -277.388298406482704
-11.686579243498480 -71.798588683848848 -275.677349831983861
-125.758704685308572 -68.191962133308920 -286.404292383292727
-136.305330747671974 -70.326163589755652 -288.163916647783594
-134.392452755606826 -68.408565020378276 -290.582192894747550
-126.809986682976159 -70.007092513950894 -287.922620200667552
-114.284883987897089 -68.376296927721327 -291.830731651673375
-105.266566041505584 -66.265907726386928 -287.425558124812596
9.369187895231249 -73.059805169137235 -293.527496853703497
-84.940057653483464 -70.400480974351481 -291.677849839546866
-149.065583778593520 -69.939365164393095 -290.511989797113245
-101.650453455707634 -69.780238983216563 -292.580034861884656
-129.174781065873731 -67.013303906730059 -293.923317877578995
9.639960996326932 -72.766123906303818 -289.245545381633747
-111.958547869498261 -64.564922019525241 -291.007794641026464
2.981585143372605 -70.514232761805644 -294.290654775068049
-143.151554790902082 -68.902207945091732 -290.928467944271233
-152.884262662713070 -69.807215504022608 -298.150322831148173
-157.818446845514870 -68.841095049547306 -316.371860379545524
-155.040043840378473 -68.463580987048630 -314.040772149524287
46.270879541535834 -72.938391117956087 -25.352284319537603
21.801450737851400 -70.848982056037528 -36.349318920406922
29.309363658981887 -71.784656000531569 -37.425823070306443
-46.348105498651790 -72.135611495929552 -48.790072360912568
-14.057520635879564 -68.471815081738853 -63.319022943262361
92.966526034561724 -72.038746226948703 -68.803924157739971
67.352973591577481 -66.724895038344826 -70.161141292779035
-25.512663101273301 -70.072182476115827 -75.576111032077137
-99.294643596264379 -73.424358741381866 -88.030268273888197
-43.775625768067101 -70.038346779621193 -83.843177838223767
60.262810049628200 -69.906203889341711 -82.056118012409655
60.946707799912751 -72.951905894328561 -86.568798248171760
52.234444135161574 -68.342115109817030 -88.233369419194815
-60.138895395830836 -68.707722014152296 -91.685785770914947
65.583706867691092 -66.916872249532261 -89.866405682574310
42.461658737315631 -73.553080658506147 -98.612536201370176
67.250989105867674 -72.156421676982745 -95.242973606314962
-63.466132080529100 -67.949700974048511 -97.415388143096550
48.909303047036410 -72.276438389428321 -93.863193480148141
44.482488757429557 -72.005462650803182 -99.097042484879637
102.162171116032951 -68.053508209230884 -100.864125608768148
-67.689451324163883 -69.577044944678818 -100.287507071563653
109.410311190888436 -70.195072841849097 -100.632040152977282
-80.215073399233859 -71.564043579704745 -102.601471794807139
53.330484687427784 -72.943929773759464 -105.619920737745929
46.826162197302757 -68.656418477742761 -101.380166187306742
90.674840145224607 -68.886343847076347 -104.196283735305713
83.354543919527714 -69.083327579179098 -107.067094588013873
53.643832502706026 -70.282616958863159 -105.173791162412215
-77.421266907509903 -70.106142319113104 -112.528982097923517
-77.907988861586148 -68.721549175338623 -116.384862011315562
-81.458567707432522 -70.636409170921169 -119.816034653139013
-94.276356494896362 -73.969336273838039 -120.022057177406225
103.833268456157896 -65.700358834009890 -116.777418285216470
-89.466478704771220 -71.666016664744973 -120.530481435645953
-77.714993668376948 -65.938470593049942 -122.685910546383923
108.465350424063203 -69.418306466208151 -116.280263734693705
-62.628561185703312 -62.324280479686244 -119.375836016728840
112.720650837040878 -73.847309762330227 -131.647335873875875
109.050536513665705 -71.909216130601123 -129.651111098896735
106.264047147934249 -71.546213035791610 -126.049620367319932
-94.384375347810604 -69.728104907183834 -139.305727284636987
-47.939754459166565 -69.476859413302051 -143.026146224414532
-80.024469199887733 -67.360671838503805 -145.916211541536200
-70.184222345239007 -69.377723464352968 -150.348420830568472
-71.120157938870321 -68.014457052634526 -149.310547308256162
-56.052930674125356 -68.818588502399948 -144.900132680386037
-47.837457850047777 -73.128019544847746 -147.224369338923481
15.516332460545467 -69.958767875654146 -147.205980130812435
-95.027601928663643 -66.300815175611390 -144.402916063303849
-46.571100334315524 -68.132704501557967 -148.481374011834362
-52.990974934384028 -63.721671898547434 -148.905737586843657
-42.905346266996503 -67.757647995660776 -156.031702049202039
26.749557591443093 -71.985754144804645 -162.621014114282559
-50.879418791935827 -69.778941519211656 -152.213385766232449
-101.262179619411015 -65.244482411655810 -151.020454045239973
-46.120691768771103 -66.698100661887764 -158.010411702627835
24.846281101927826 -71.804038952644646 -148.913810097934828
-99.321629426338916 -73.847954128832683 -164.584300678830289
21.913266504733134 -71.847457216900196 -158.426578561284146
-108.358749054832728 -66.462753605792713 -171.456060809390436
-101.829230583639358 -69.386218917116196 -165.243380331642840
21.454296989277495 -69.678740685166233 -165.704834667774918
25.473560351338246 -68.210406517678706 -168.589072232866187
-109.010989182618175 -71.110058387440787 -175.274692223537983
-142.759754956248798 -66.863199662345508 -176.455371291695059
-20.395748901771629 -69.920434311403625 -190.439969250945808
-28.035128916740220 -68.717754787413085 -182.784726969327664
-115.917656099288678 -70.137607574714153 -188.676974585613152
-144.344318079143591 -64.537401474302627 -188.909447205432286
-104.006945560354950 -66.453374757570074 -183.236051296706677
-158.568209916904834 -68.852589920396426 -192.522315259879292
-131.773520386971427 -72.856141402019560 -197.071700256980080
-133.732987929034891 -70.686569375186735 -198.034524240202757
-20.381481330293028 -67.860533742232420 -190.483560132016748
-120.821273079386941 -69.448185009442142 -199.757950433285970
-117.471049543673573 -65.718176174828457 -200.717306643203727
-27.449260479949004 -71.354337997226907 -195.691444836814952
-154.807000107278952 -66.387921775940086 -199.879457274711854
-132.677533320278826 -70.580340792091690 -206.701930057412198
-125.363508401051604 -66.784526042178541 -206.319981616958131
17.646816284555278 -71.655062009629063 -202.659353697117041
-162.442694263661224 -68.063318703561151 -205.245447304883726
10.853562585711014 -68.718276504291623 -216.154254224451364
13.548770585359827 -70.695050942556421 -215.550654552059996
-17.407561200867079 -66.109445694066707 -210.089439716473834
-5.404302729038958 -69.705617177431094 -217.375423865643199
-170.416949495818017 -66.009508575460245 -212.453371012633625
-159.457851724135594 -65.315536404509686 -215.002251981944028
-95.057702689950290 -68.775989625848680 -220.098185954346974
-98.952752099146380 -70.439655920078010 -224.445800851707844
-161.264797870481914 -68.991184628041097 -227.260854678898056
-106.828535913031516 -67.136441911522937 -221.028222221547907
-12.446623750820471 -67.971640639058378 -215.252172065773379
-127.780307317628413 -70.333298478832816 -224.203836138661188
-142.440443875206540 -69.307241358586666 -226.049270413151021
-3.467392742963333 -70.970454463301692 -222.316924349171984
-134.610612346701373 -67.166184433465446 -226.714613799026921
-124.095027162993574 -72.586640560529489 -225.080751132270734
-114.670376019532100 -70.812230573813878 -226.562050114357959
0.066785279310190 -64.997822280407689 -229.117006130237684
-107.531861967952523 -67.421672738649008 -232.444386711264286
-160.748125075049643 -63.520964593321516 -225.058392978170531
-146.966025724434871 -67.729918015903166 -228.815553813931075
-165.725830398448466 -67.930965999071276 -227.319530504346687
-8.244348444396675 -69.010426469358563 -227.743902549119753
-8.680241446033808 -69.652998192733222 -233.632067786272785
78.121535472404219 -72.203162637526972 -225.953789978349022
-0.419445576445511 -71.423853745646440 -230.504882344366933
-143.224648274857088 -68.426320697413416 -238.214737418983532
-14.523652498811661 -67.943030939859852 -230.278983532166450
73.775010485399108 -70.346829548884472 -228.545016884123868
74.407196957806207 -70.448656437243358 -233.592532501159752
-134.842346570550319 -67.300309232044526 -234.431116671117309
-157.700998528850562 -70.937616173815911 -230.556689041106551
-114.456465503273250 -67.498788080668348 -234.766859886544268
-124.945940140933374 -64.667629862865127 -237.550930175082669
-163.945596154007319 -67.206098904737260 -237.050118424168659
