# This PCD file was generated using the MATLAB® pcwrite function
# from Computer Vision Toolbox®.
# .PCD v.7 - Point Cloud Data file format
VERSION .7
FIELDS x y z
SIZE 8 8 8
TYPE F F F
COUNT 1 1 1
WIDTH 787
HEIGHT 1
VIEWPOINT 0 0 0 1 0 0 0
POINTS 787
DATA ascii
-60.344243852378526 -70.424955069791224 -57.825900729423658
-54.454117062567420 -70.604887832147767 -56.877814436007434
-54.054790380578112 -71.124297658101156 -59.198518784355691
-77.094323728742467 -71.698097205852363 -52.421389247031421
-43.086734766950002 -70.153248552969885 -51.917552428551481
-44.408628935238056 -75.615055521962461 -55.010909706293283
-77.861742965321881 -73.184862090617301 -61.490339534877556
-34.449316470900726 -70.563266555333740 -60.843379754244090
-34.122562119849931 -73.966086126107029 -65.806484342053395
-37.787530562427790 -70.215298600928321 -62.466458981162837
-27.012272035441111 -64.541254232843457 -67.174651587471857
-28.709511258073267 -75.513594754225878 -62.589935432531981
-21.210687014481753 -72.810271730890506 -72.613334679233901
78.182583660456004 -68.295380592392164 -75.817713580660566
76.950831939106862 -70.255448214599696 -71.264685266969110
77.142756385064899 -67.388612896663020 -73.522106119908969
86.419839935523342 -69.744709484567352 -74.406385976817461
84.888889367477987 -66.597347207966791 -75.612887681463619
76.772776694684026 -69.083505692422392 -75.233752503810237
91.016823014477538 -66.558201592501533 -80.595876079968718
-35.084469343161160 -73.710747324076991 -79.954682855087938
-29.814949520263756 -69.178994196929111 -82.709816436708209
65.970812954330754 -73.720338852372123 -80.538192619187015
-40.858355681347433 -68.821489831737210 -83.009881498289815
92.986891771060129 -67.602827245930882 -81.079453672851741
74.366256785453416 -73.812740891882044 -83.576168409904554
67.551455717886441 -65.903024042925395 -89.348777642106711
-54.092341622899454 -78.359172523547613 -91.641818787741556
-93.520732805122122 -70.248121476549258 -95.047093586573908
50.318738018893384 -66.264769634160231 -94.290138089050103
51.602730635031527 -69.947321411729760 -99.555166615138404
80.113090598597211 -70.923782138988898 -92.759640123766630
55.197137142680418 -62.941067567184668 -92.496335410374243
89.203462494374747 -69.758080533763959 -91.945642050726988
90.436084525230129 -66.665038637749291 -95.449191095635385
74.088563560092012 -68.704345690615284 -96.922673305554127
80.065556229555341 -69.723809446373906 -96.255031877814559
84.513251752522663 -76.203040254212695 -92.452354153354960
48.496008221675353 -70.591975439546744 -98.527580816213501
83.750745460891039 -69.147106895238537 -97.224417390103369
46.831197589968625 -69.373622741704864 -99.116845454918732
83.021498467779395 -72.302753461910285 -94.399431523189463
48.172462464989181 -69.260370092310779 -99.929695203343783
-82.656290753807284 -70.484742223596101 -102.511730817690463
-76.682163346060463 -70.350266455639940 -108.646617047781660
43.039684106876209 -69.734505202684232 -103.455721184001661
52.666704920462109 -64.965584913312867 -95.809409452960125
53.828597003842802 -67.816121027624376 -102.749743298762496
-84.375974796122009 -71.761593227353757 -113.785574803212867
37.426928412490369 -67.560143234396534 -109.439530822434122
-87.359924915071105 -77.678519242883567 -112.073675366868102
47.545109665681750 -72.789451141864575 -112.245695351333083
107.415372245656997 -65.239550111257913 -111.662078165090477
-89.123438186506590 -74.055244538182563 -119.110854376307529
-97.409653432403516 -72.254471345515654 -117.106969107491167
34.304575661049583 -65.371259732319672 -124.197119535150406
46.498799379470995 -73.124442898862924 -120.997924536692111
40.009060089543411 -70.646787657677123 -114.834988483189520
107.695426587562238 -68.598639308879626 -115.410527057116454
29.976835163545864 -68.725064764770778 -122.862004673345396
107.020159255025007 -72.397248453852512 -119.240367198806737
44.070054800752274 -69.735865943012726 -116.869117865916209
114.408999165415935 -65.598602418486777 -121.166243553890766
109.364066480851875 -68.703934114259127 -126.501293258362423
37.394635778483803 -72.042462329121605 -127.209896669779724
110.280375371827034 -61.534270039222299 -124.715765696428306
30.032553940225370 -68.781016112150084 -129.009257959144691
112.033382378368429 -64.512419872572508 -129.189860274186145
35.708860117575306 -70.566731693795873 -130.471977595216657
37.702802592293253 -70.009263545069743 -137.567560903290001
-55.631987714827332 -71.146483424367915 -140.922157996306225
114.411078900666624 -71.298111682518780 -140.470669118531276
27.232974482342012 -68.044176854380666 -144.249853959118525
-53.780893142316117 -72.654130609562273 -144.083499892192918
-55.295288105746991 -67.456699793173229 -147.019203801795385
24.706038492343861 -70.292471108681525 -144.545658377193917
36.523268928409266 -67.306034906524872 -146.926889722927086
-69.435993690341846 -69.597134173203088 -149.747314785494524
-73.681030294871022 -73.177400796357489 -152.655719434107624
-59.159123470982493 -72.603403035520358 -150.906112232537936
-71.913543162803222 -74.421937829406843 -150.199795513751837
-55.480998298768810 -74.901336503460016 -153.606716140111473
-41.103436017475914 -72.619522451911379 -150.660903454399147
-43.121004069619588 -77.034550116700814 -152.371804367785558
118.411545269844581 -66.901864263560853 -149.858658099774232
30.298227541078454 -74.094543028806797 -152.922084577471310
-67.732410508920964 -72.435170926533743 -152.035815449475052
-68.988149350159858 -73.246434662543365 -152.967210194946205
-40.901379571649443 -70.892349789402289 -155.189114707550686
-66.832446729680214 -71.888859392457292 -161.052179210935407
23.350018456127113 -71.903335438981628 -156.748383602311577
27.182629084774749 -66.948311636639957 -158.168423263385250
23.970045204979282 -70.355359753940022 -160.701140995991295
-35.895433751829060 -73.038660840895773 -158.269278174331447
9.219964883609398 -72.498067101330804 -160.621444838904750
109.862322971907531 -68.512518235695040 -154.931675177197064
29.974132214833773 -68.407771898141391 -158.591007191963854
-66.711574190559915 -77.112224922852931 -161.290952345231176
5.649964677839977 -66.241423264915923 -162.660245509525652
-65.773386920635062 -73.493667366119070 -162.927188414725265
-1.461717080528913 -70.479057214911563 -165.394840414425602
-64.796938821418379 -74.155873505329126 -164.052852754437424
27.700277875348597 -73.518286900769695 -168.088912720892495
-43.867116177755449 -71.392608192689281 -166.908393517986781
-30.624129703737868 -75.086490984923515 -164.590867340745802
6.268251289414660 -71.995978989524943 -164.567670066414763
31.308478423888857 -70.240756704343994 -167.281835808663288
109.491573548506238 -69.262358227478018 -169.215630923414977
-61.165080341983142 -74.700315601639772 -169.313776731109499
-34.677571480591013 -73.761149312583754 -164.540894593191098
111.904368753524111 -67.489347358397708 -164.192131418408053
-68.925859130294128 -75.335484472791990 -174.172979529007307
-55.331908406511445 -78.110658063007335 -168.141101877703335
-29.757098009510106 -76.600591843470269 -173.127058624926008
-60.266105358159820 -73.431598800766054 -173.266091354140855
-59.615592264749964 -73.910367683216350 -172.085736656539439
-8.916119779522070 -73.233952060130733 -169.125647167845813
-67.993288767020843 -70.509819156174217 -173.097693023556388
106.774182465148783 -63.350997649178446 -162.183662281670905
-43.050063350001963 -69.374824206085620 -168.642657390750486
-30.188067321057620 -69.778707647565497 -172.766744655159783
-4.371358613722119 -71.962998520699273 -172.422947825034413
-7.908412253548068 -72.314171869007851 -177.838447181931855
-58.810626335573318 -73.455247392341477 -182.978417903694208
25.146011760387385 -71.056320110498632 -177.610702236274960
-61.979701755436466 -69.907639770388556 -175.520190240335950
24.171878816437367 -70.741722791953251 -174.381737695065738
107.307268624497794 -72.675006218199172 -178.265435986604700
26.416587720909675 -67.207158443912007 -179.542967299763461
113.016770983590590 -69.250941081900592 -173.815044953294120
-59.882822408534921 -75.712460754627031 -177.160450946964943
-27.768358433489556 -72.359677804285397 -177.876264488750422
107.558979615686440 -69.982668362205601 -174.732199326312895
-51.294394204756316 -72.547488241820602 -179.582624103856148
27.415438077440040 -70.084719454580267 -180.038259407132529
113.471242129890967 -66.062621367085939 -176.644731962342206
104.893015076964559 -68.308485009909191 -178.646205908378107
-59.768967245332675 -76.860282093067397 -183.121607256268021
-32.860287451997522 -73.892255400173511 -183.220647870276792
-18.750893754073960 -70.066305768489102 -183.961886645207613
-48.104413593933728 -69.839878405469221 -190.053398799740989
104.420779315642321 -67.308998659662450 -181.719042093699358
-51.974152008862589 -72.402621422074418 -188.504439347169438
14.863758944105248 -72.165179738271789 -188.464312641535685
-145.101188968652593 -73.986954801938637 -189.261287175848281
-16.693649779129164 -71.321387684601248 -189.885814747034402
-146.779854624030520 -75.605736115882223 -192.303677797812668
-146.402036427302278 -75.169348438678441 -192.249269238154454
101.141112917130073 -70.749510391627183 -188.195866596868768
105.940838301351249 -65.071842788151741 -187.957669777250715
-28.420303648011757 -70.495849290225038 -186.592859072465700
-148.821795974645397 -74.102600644351696 -192.482599359611811
-45.758147266897410 -74.231223685749995 -190.839167452749251
23.915962183109034 -71.717530984421060 -185.326693312929990
102.118984706162834 -68.210716502040356 -187.279062338308762
14.280958867487382 -74.368549575865302 -190.489449843190300
-28.709061255721114 -72.009153488855304 -192.509625006800547
-21.327534726326771 -73.301375516953385 -193.707449079821885
-19.262274131498653 -69.835986265254064 -193.849762826071043
-146.190026703773100 -74.355564586275236 -192.647664634511187
-147.480492666835005 -74.589242734104857 -192.695511611533931
-45.650429303563214 -68.283828022846677 -198.332208615337692
99.752429628498589 -66.160269382483648 -192.980166357554879
108.103201588004609 -66.578348598409548 -190.451795852551214
-149.799422014116260 -78.371307159229232 -197.475493030136420
-45.418901660484195 -74.697238153488058 -195.260414394894525
95.961590241796983 -72.498124271788754 -190.027618710397860
18.570293996803926 -70.692763997582347 -198.526693172848354
-24.266731330636670 -71.914331989782738 -198.777135916206191
-17.171097515861614 -72.992921719513532 -198.309488139485211
101.909286298472480 -64.270905813414231 -196.710734306897194
18.575558620042955 -70.275361858000068 -203.683798767388055
-135.742130114087018 -73.908039863349998 -201.572951798383116
93.618504547308191 -69.334780868508162 -196.765501854159822
10.330216599539552 -67.222691701234154 -197.430835504026135
105.403235184249866 -68.210413292413293 -196.191685411700291
10.258064563930944 -69.401671897938868 -201.812962004511917
-151.288938134665443 -72.022074682964799 -208.939846212522269
-43.914442259233638 -74.710902043026067 -200.290251719016823
-29.121435526627298 -73.998496743567074 -199.414514812009486
100.032092317904684 -67.487608736350623 -198.648326787599444
-21.773297021255399 -75.460300825284307 -204.140094667420328
-135.850141354356055 -72.163227879087799 -201.766522161775328
-31.630289727604289 -73.113637214134371 -206.110553880053914
-37.797845973239376 -73.110756232947963 -204.485499911893470
-12.513901438395262 -73.033826039155144 -205.801804280346744
105.337420769474690 -71.012881057943034 -203.278108766948179
91.539376729656809 -70.215419158115623 -201.030415718366697
8.692713492779678 -70.426599272179601 -204.977633005342199
-146.612226884660544 -75.235223107440092 -212.880797738004901
-21.996985340265066 -74.044728724185958 -209.576695209732691
-148.529227344715764 -71.747728905920184 -214.776681374586985
-33.164746846815902 -72.224038879631237 -210.869317899013822
96.884005117159916 -65.181224876955739 -207.444679298366424
-12.256086554870496 -71.505392325415599 -213.271215868037103
96.247192746017575 -68.074555067950214 -210.965470882806045
9.884083522342527 -72.870739546335329 -209.737152720186543
12.520576077686595 -66.064288820491228 -208.267227651162898
-32.778291090820417 -71.424482163733671 -213.429101169790556
-76.603297359040710 -72.928638330911255 -213.731186876935993
-71.393398581877776 -73.673670642827901 -213.402904395845212
-28.799106440596827 -71.951166546610935 -208.861971335319822
-29.178319952206220 -71.093459869393882 -211.931945148328595
-149.984393342166726 -72.543585162747121 -212.993332745059575
-82.021177817520908 -73.006626256278992 -215.726650309605390
-73.868762140655832 -71.398308541791238 -210.072428518052988
-151.870447916350770 -71.876337595382140 -215.309801902329014
99.848235548464672 -72.490399531541271 -207.820292566532913
95.232205572997913 -68.580807391830987 -214.515450518003888
-21.335794807168380 -71.221768165420613 -217.743160216802266
-27.571414156480014 -71.241900229500189 -215.001165078973060
-29.064594266061707 -70.949933536368547 -212.408533039046773
-28.778901153205556 -69.796175567851989 -215.554565580015463
-32.568895554429190 -71.905996062654907 -215.770482123245898
-25.179130635451056 -67.014151780564532 -215.660522643573643
-0.038144133067551 -70.743627811491521 -214.707144485912693
-90.053328076524210 -76.324743557670615 -220.630540660842371
-10.129322942648844 -74.971258517960834 -213.779110477464656
-81.604132221266426 -74.157763183202547 -223.490544614651213
-150.403809308390294 -71.391825687007753 -225.079034386409290
-94.573602768334439 -73.691567846692308 -220.870215893553393
13.872519677069670 -76.079598161800064 -221.850666158682913
20.525117103516259 -72.655181941193973 -220.584814705066890
-88.637619359792282 -67.700750441172232 -221.652293714534267
-21.685949286484433 -72.343322024323754 -223.640262814460016
-18.061640576060800 -73.482174447178863 -224.441820367065077
-13.698787692503874 -69.833932016621262 -219.205620989402803
78.462563780460769 -65.491681748332667 -219.074253261058146
-147.565426329520506 -77.752071380218595 -226.240155520977311
-148.358804392145345 -75.078124261152581 -225.884422003821214
-18.522554158477899 -76.815146874627899 -228.078374788010478
-5.018496277513144 -70.822931150695098 -225.328707149233480
5.142104048346447 -73.263332447338570 -223.636263497504643
-16.002050730027005 -67.697346693799673 -225.784019581307319
75.556395968829406 -71.485846498982880 -225.042793140785136
88.263593829761646 -69.933222706509596 -226.734974074432813
-146.636396614863656 -75.445620753538236 -233.369085425648336
-13.661952544793348 -72.017068823150296 -228.144783325748023
72.622740344831072 -71.441109178298078 -232.056086674998852
-125.656940460473194 -72.141059260881548 -235.669733209778002
7.811447904086346 -74.116152779200306 -231.215695500689890
77.872038916056354 -68.509111516856066 -232.078484510404650
-11.938348954398879 -67.470358211326868 -230.685272539356589
-9.821978195792415 -72.694246200154680 -233.184953525574912
-2.766646505851043 -75.133388936702431 -236.474276375253964
78.224144317529493 -69.573460238300513 -232.988290486992099
18.092185257009046 -76.679452133344896 -235.279058864302783
71.152232484003406 -71.601511239271460 -236.883509161199214
-1.460093865845067 -74.988676223262871 -238.143166551310486
7.211209792216776 -67.429802328570915 -235.106568947169052
20.038069586884603 -71.649181648155633 -231.474943283221563
-14.664924621748728 -73.769568161211808 -242.427351541079474
-27.215241348252139 -69.909878747832977 -238.589814953520886
1.305836733616502 -70.548235275722377 -238.847385359613583
-10.643642386160167 -74.594459544910677 -245.738434720316349
-34.877842347747318 -74.648842485118180 -246.089772676472734
-38.434789192915119 -73.856852090815451 -236.468142162425352
-12.274579062709275 -72.250590922321720 -240.153345010409140
-151.385546933206683 -73.441742031376094 -244.879237876636154
-47.593433227276080 -73.013948632912317 -244.514435687204895
-12.579083379627651 -74.538293943998426 -246.241609157673935
3.781003855259225 -69.469634773241495 -243.847076349596279
-24.128543890254488 -77.387129309820324 -245.649629056769157
5.996339577379638 -72.928528136817349 -244.938395606848047
-61.769329571471744 -74.409448712936310 -246.231368976898494
-37.733277774578951 -75.254484726832089 -244.846746645526622
5.896911663154153 -71.874945633075100 -246.583124266726855
-37.412582159188403 -72.057314679028352 -247.786919598853814
10.084623167381721 -68.660519686149229 -248.038832473075871
2.893206204938711 -72.968740245035150 -245.351476879844171
-46.594224577360890 -74.755981934523035 -251.166274205594817
-38.040501856078691 -71.375945296717774 -251.006747672420573
-152.961220551493540 -76.309355261807283 -253.918289891308490
-143.873936000500350 -73.646227322945023 -254.041190346041020
-46.100265740188206 -74.734923878853891 -246.606933137562777
24.416101894819693 -75.691898312386556 -248.747918181072663
16.700614082635948 -68.316412591675928 -250.668843458265002
20.581208333300435 -75.937541016852919 -248.548949477112700
-75.897440860314632 -73.416887855933922 -251.031332011107423
-58.204742461706033 -79.894695236133742 -253.686740939276575
17.480805639129262 -71.662822564848852 -247.068454569881482
-76.777095522423338 -73.180696997524635 -252.875333562717543
-82.659432205610003 -77.731590642955496 -254.727236829031568
-62.877004733831470 -73.550215938033062 -253.894834909455568
-76.991794936743489 -75.281420340192057 -254.892082565396862
-5.915572127021811 -76.775459958831661 -250.729416046808097
-71.910465172779510 -72.582700271302727 -256.669101357794204
-80.128618783746873 -74.945353936143064 -257.580245011968202
-80.137680379307923 -76.771292557943553 -256.535346903058212
-124.674485075462727 -76.677095996202041 -258.430879764661199
26.628539019451420 -74.747897670677517 -258.051996018476075
-11.162235544278396 -72.776336297035158 -259.546002124149481
-134.184939622819428 -80.460729014298039 -259.098866731974056
-140.875639117328546 -74.927589936790199 -263.832967104622639
-142.293309644497128 -75.518882731197067 -261.250454235413429
-149.775193004558957 -75.994448741938186 -263.707067718040548
-122.365045198770943 -74.941558313195785 -269.770067765310728
21.537834597697827 -70.971445928725430 -265.377913356943793
22.581614983457442 -71.325639803815577 -268.152481342519764
-14.288715065112473 -71.336423284379777 -272.365859473999024
19.861196832497949 -70.139105866287281 -281.554940411779569
-157.740361360953813 -73.038482641865585 -285.103139993965726
-5.275590223741613 -72.303989616364149 -283.983550782579243
-149.422427371578891 -79.086231914525129 -287.791724596489075
-149.751305694687915 -70.918683516724926 -284.222113334683229
19.013498030889647 -69.430717301583059 -287.932160760846671
-151.510485573615284 -79.648296235615334 -287.439409858974386
-165.322495245600464 -77.904750905146287 -289.538981462043409
-122.950160322434655 -75.475024370749722 -288.961178949771579
-34.232994704904527 -76.806086960823038 -289.642812026191905
-27.398651326522245 -70.030047237652553 -290.708343182468639
-151.436186368491519 -74.331894306433540 -290.384277571407949
-66.445276780684623 -72.899055207553261 -292.207090495775276
-23.829131540223717 -74.008512366847597 -287.165549631032150
-153.360537123763493 -76.476238347182900 -292.554312482496698
-144.830700495127473 -78.262190741856131 -291.542075420803030
-69.072880562102952 -72.463747586441542 -294.156226465506734
-165.601834146017836 -76.124129369913234 -294.115975611591864
-134.903792268631975 -77.747469417081376 -292.037247761861863
-134.779545271138517 -77.059527654109417 -293.243969825124680
-70.188993691314522 -73.381492207472419 -292.078707628096595
-146.237105567580585 -74.031538114530008 -294.699894745646191
5.709124802710418 -70.742549929768131 -289.723609816048167
-84.088750767595229 -74.742225868744327 -290.670113680553129
-142.232585430749225 -78.442816309819690 -291.488085424246776
-113.691819484102595 -74.151879964252942 -291.356408907510684
17.235246208807855 -70.638613618004868 -287.156812860292632
-137.781739781622520 -73.671218463636549 -290.277957756448416
-95.495946541628982 -74.255628713991712 -292.920267295730696
-82.095036830339893 -79.022268481933807 -294.866221122955380
-72.055234638284773 -74.314952441525890 -291.801558018979506
-158.986510480093955 -76.048437281310541 -296.946514227843977
-149.741092468898444 -80.365653490060694 -297.267227593986320
-146.369196225498627 -74.558391747819769 -291.987664596848674
-131.752007674713184 -72.472859595703724 -290.872432773623075
-83.870299433971113 -77.009592348697680 -295.657797582625790
-59.017550542538331 -74.661381337393038 -292.200165420320673
-33.797569996879744 -75.214114509455413 -289.793698880600402
-142.351241647988985 -75.765335339230433 -298.700720957771978
16.554173429540018 -72.716259612669333 -298.486487015205228
-28.196394275372274 -70.224410386551966 -294.422058692972939
-13.568687376155271 -73.200947831783466 -291.946977977013717
-4.483552464009723 -73.741485774090847 -290.841903290225332
-156.538925177052192 -74.739881981673960 -299.189789333088072
7.824410802901273 -73.113342375976544 -295.397840011055223
-127.762984051805873 -75.266089254254695 -300.782459964840314
-123.016085448443974 -79.841235934681066 -300.041333354044468
17.994141469864001 -69.835186488500810 -290.665466127408195
-155.521017122143633 -79.827825018040656 -309.123446714841293
-149.263026107569829 -77.364235327250867 -314.009794315214720
-153.372704697650846 -80.084130036346878 -317.681957861604985
-153.727314509938935 -72.350247221154945 -316.585566197469745
-66.930409006321980 -71.493142344287506 -56.244758923887595
-49.823545000245986 -72.794030905929404 -54.150715098525460
-44.414501190909760 -67.949885780283580 -57.462115218425801
-79.064849493935526 -70.055630321290593 -61.133110544953816
-86.748898089941235 -72.800346196442888 -71.763993746973597
-28.212630258158807 -65.840814567462473 -64.839417819369160
-18.136365832255134 -73.679003419376372 -69.182861172119857
-19.384444718890290 -67.372126861163508 -71.463696411759969
75.462860233589581 -66.476562287275101 -74.853721396194189
81.708265557007621 -67.590568353127736 -71.287186137811659
-92.360358993989919 -72.357779864633343 -79.530811901905551
83.123043278488737 -65.075132439776070 -72.739808070822406
96.441572387707311 -63.045249496728587 -70.984313393823598
-27.279475927831545 -69.169676159384295 -78.425480000934456
70.317994018879745 -68.092000726096842 -74.970768846302690
84.146470227261190 -64.816907372591373 -77.259113991027334
69.577139528110081 -68.689360411366181 -83.921251071728278
-47.959590437211617 -69.872453548639825 -90.684452525715429
70.281085254982784 -68.369210088181532 -85.725427924812578
95.163340052716748 -66.367822709952605 -82.142702379131393
96.852162227120360 -63.569092285881972 -89.942480229888190
73.832199067781374 -67.477978424175404 -91.692295570436670
94.549210321901711 -61.900617882244241 -92.489231320606919
51.552047069098620 -66.240205675151572 -92.087916467480426
-92.202721334585092 -72.595434635232294 -98.097798345597539
72.814589936836910 -68.128993956257830 -95.940489560337880
-68.686298414847116 -71.523791181871673 -101.534495257002362
51.291431882923007 -70.198896919176065 -99.240467752973728
89.857937095186486 -70.180302776215171 -99.497176010482832
-69.843967655286633 -65.643921679913603 -98.151286191373103
81.091248692905737 -63.913406529232383 -98.242820141972103
89.085806502779974 -66.490611492593871 -96.718862155496652
-81.501354304236557 -75.798025978757778 -107.361234413089605
105.803602027880657 -64.043835835164259 -101.780272225180497
106.353556384784312 -68.864112541672682 -106.654910527319501
48.014184868146828 -70.979187244918975 -105.235188031439691
45.025297275280067 -70.849157193688811 -110.919946023838364
104.459066316638200 -63.138185717570437 -110.458849082724456
38.801767597382742 -69.695941562998172 -108.441374731806434
46.883791453875830 -70.573986781273391 -108.312591847199286
106.449844134820395 -64.503725430312812 -107.719222609928835
31.011741988297139 -69.500022569708193 -113.710724941636087
-93.143133741815575 -70.904629130930090 -114.515973995077019
114.946873138541449 -67.600017340927565 -110.140570459730810
-89.582556071874578 -70.812500285783472 -120.456384067226068
41.395178140117466 -63.443928934429003 -112.811176210035498
30.047302221364856 -72.317497786326840 -120.254193218640566
109.108656648470571 -70.182307796037946 -114.540804026952586
41.356769202010177 -71.650352055121203 -123.897365833224868
40.149281213854707 -65.312746862578621 -127.356364731025636
111.577976314898805 -66.550100929939759 -127.766613714561814
38.857267813156447 -71.026352419119291 -130.118771336128361
29.764553587320101 -68.099267814119230 -133.034120764305186
-51.708500398792921 -68.245392069252006 -133.785872818087682
-57.123110021578938 -67.768483139722946 -145.429253930779396
-44.362106979509107 -69.684445178118295 -140.281955333350339
107.845802906446067 -70.510854705861519 -138.709749975419356
38.324976549343063 -62.328527617698136 -143.432063840971040
-74.932299718185050 -71.206546889950474 -142.282848224575190
-46.943694190950737 -71.582655221207375 -140.724567911989055
113.001542887045716 -66.876362912126453 -138.678866517139625
-50.139280366035635 -68.572066551960361 -141.804865484695995
-60.852776344540104 -70.742090345106831 -145.637462049250871
-73.930046893666031 -72.560153166024520 -143.513589577487636
21.786850911016664 -67.661950366385199 -145.977935286489412
113.700146965258767 -66.290742669072330 -144.745553448811876
-67.727038324094181 -73.970815543648754 -148.012727302370678
107.963371123375438 -65.687631664537534 -143.281040645329398
29.964491815282884 -66.850345457933088 -151.530350733093542
-55.937256350026161 -70.364170748386528 -154.465669066855810
25.613146815491085 -68.745366310464547 -147.564384017835692
121.339228750292818 -68.676360096163421 -146.938614985694215
106.130495879684560 -69.567043869790609 -147.507186153113764
-55.256240326073694 -71.075645241791278 -156.327790273573356
-64.474379684717007 -73.111164119611018 -156.064506985048268
114.293362896376792 -62.686115278054992 -155.958389945578034
-71.597782596974938 -72.331911489745337 -159.795902398935851
-70.236533625646203 -73.236683723639615 -162.113447400551735
8.101983813269010 -71.180150126407597 -158.780025487986364
-51.797705349629439 -70.037706991625711 -162.185760770630793
-47.426072567988186 -73.595892798016507 -162.950338533152149
111.885511640162946 -62.821888086627702 -158.240180553161423
113.494733135152742 -62.278110116806161 -155.577859761382797
106.822789912647977 -70.231141968588830 -160.340803845709729
-41.049818050874435 -71.156648096456223 -161.868468822336609
-61.002305743897949 -72.548355190202486 -168.445603904342647
22.607414135816136 -73.295925599197005 -159.905991426458201
109.287475476932229 -67.941467314188586 -158.139376428088042
-65.109948370717987 -73.025597398039679 -160.327391440932843
109.713779137123566 -65.814641641470516 -159.262621378544452
113.618346984929047 -69.464518274201836 -157.429061804159574
-69.745596381627038 -74.197870938280360 -168.856055442013172
-63.329293338375862 -71.393897255048174 -161.882285567072159
115.890952446154046 -65.594768255833685 -166.073741935179697
-63.360420654244166 -70.944308405567156 -168.333830431183458
-57.067641023167837 -70.824933682314835 -169.696783576566048
112.581084897724310 -71.217916085211542 -165.588006601755495
-70.538079081317775 -67.698723842803332 -173.445388417634575
-49.456568898465576 -72.403511724597138 -171.269710891366657
29.524782834424599 -68.345088144442570 -167.066287923925074
-0.787312047323663 -73.872134917702525 -168.119239949613672
1.708115678748644 -70.626399730253723 -173.584793120952952
23.246363638270225 -69.726426031112695 -167.131924832136747
-46.645828915128718 -69.498563518195468 -170.551833344720279
0.012916555265523 -69.785695653393788 -166.949146088442774
-44.062194133232140 -71.540785531549545 -173.396563926619052
106.351684024993475 -68.869997963706240 -165.050645448497818
114.388786481883500 -70.290554666676442 -170.538957029278549
26.248884685397364 -69.224020298036947 -169.685345697564941
20.664936572679526 -71.934553621312773 -174.316510590031555
-58.925164742557911 -72.499324819428182 -178.093422369052945
-66.103137416770025 -68.973388627189493 -175.318476171435407
-39.374004229084960 -72.104720797300416 -173.483780065370411
-41.016546679375850 -64.790234769930464 -176.007864784459002
113.146461844838754 -64.851619492140856 -171.102810961327179
16.081264789604560 -63.484806694780829 -176.197629337957039
21.965822305733312 -69.331620542454559 -183.814764206966089
-66.624829053098807 -74.110920993668259 -181.337240537329990
-47.287935116248647 -67.320494922570859 -176.773692630846568
-26.311197729374253 -74.846123779166703 -180.936725601764010
8.862535725474322 -72.286813866289947 -182.719593253583383
-59.349063085536642 -72.284010329774830 -183.339230810803883
-52.132610064208933 -65.482518980396861 -189.193636103137976
-146.242542690487284 -73.563675900950130 -184.354046639836952
16.734072163887049 -72.246895384057780 -186.314340924949420
101.490904628932412 -73.443376748492398 -177.808896989290702
-47.815909995766461 -68.575442967345083 -184.137763469138434
-25.748815909737953 -67.415096322572708 -183.028466633465115
-26.990144669077008 -70.935265427837763 -187.288182622391219
23.719080597857005 -71.010622947725466 -189.415460165883417
24.032856551863638 -72.973656530240945 -188.423764254152672
13.044322255373952 -72.980958979485095 -186.953965306204537
-50.986470084952927 -69.454837762309680 -192.079697137847546
-145.635540756448506 -75.289222981876918 -193.640307386421398
-150.522420828222437 -75.252507575119409 -191.899764363367382
-48.118917746507634 -69.477975979284992 -191.327148073258797
-29.334448293541652 -70.876463911408578 -190.169738704217025
-47.191482627209041 -70.533634049240973 -192.948458957368899
107.339669333070489 -69.174383074735502 -187.301125024069279
-42.159630959080360 -74.445082108406723 -190.908865751599279
-153.025326073706225 -72.634592022376594 -194.820884053817991
-47.278520416873789 -69.514980800346763 -195.401516948346824
21.517796771980894 -64.917247746108004 -191.017811195962310
15.464105658188497 -71.247944209648892 -195.233216718542508
-44.367360682095395 -73.359965966672206 -200.439786721019601
-46.940598087783528 -71.883692032331325 -199.096853232627410
15.203710450100520 -68.674188422311246 -198.276301272551024
-141.211574834545644 -72.502751262818123 -206.161728989687020
-5.352036279130587 -72.846567753086532 -199.928665996406863
99.084463851079391 -67.336167734211131 -194.033260831379977
-40.653616544072335 -72.554797198227291 -202.057154063286617
19.290069136378126 -70.163899231909610 -204.585296538171121
-142.539391204677941 -75.782928103475200 -208.306162755377301
-35.361716943370737 -72.481471807138433 -203.996751859987967
101.383301928828359 -66.511067926277065 -200.639883059242948
19.587601957395460 -70.395503212603273 -204.497439186981950
-35.081842046610305 -70.614521685974992 -207.199199144473397
-18.069004334042905 -71.509625139555169 -209.741887374738837
13.684244316113947 -67.754477983047522 -210.426743595777282
-28.009788145038190 -69.616408422157704 -210.052979130376343
19.191477943121054 -63.456539894459134 -206.895337888153790
-5.257061158703202 -71.524576830327717 -211.285318246318013
-36.726927517070621 -73.664695143657909 -206.967442708277076
-77.125611707287206 -71.175061764388786 -215.186245115254906
-72.961204801741928 -74.232541817748199 -212.578120058392500
-11.552652983706363 -71.619029203091671 -217.335733532539791
-74.282700617327762 -73.763196311546622 -208.698384458605773
-147.511160694887394 -72.325355607093570 -221.066970429248954
-83.209357217052926 -73.391329539337406 -212.884776221770665
-74.390335646846054 -76.009472777636717 -216.347331770850360
-4.294112453824482 -67.565433248426771 -217.147714803420882
91.029914717644033 -71.183042388090186 -212.241231454148533
-90.244693325946443 -73.212955118016936 -216.229936147151676
96.921152551800617 -66.463527238924101 -213.719221695887967
7.736299831115037 -71.271782783620836 -218.401473284331502
17.242473715564792 -70.575676122764506 -218.865645732005589
9.615885929041266 -70.260702621986994 -213.435674656560650
83.939746551084141 -69.690074878857928 -212.609107962667451
-90.135961765647323 -74.609391489216378 -218.776536723864695
-28.906304135563953 -71.614969996897727 -214.540945203589274
-78.560682106997632 -71.426477565676905 -219.244198583177337
90.860187115232662 -64.855202722247398 -216.846102337067862
-143.475829077358497 -75.259682735365260 -226.577843327120007
90.869729643463202 -70.532694666092056 -213.740244177350007
-21.105706980509520 -73.715573653686121 -220.056036818393522
-14.037889458221795 -69.749154628511391 -216.913161272650797
1.238726751591827 -68.353548631818413 -219.074753049709074
-17.303603327611587 -74.331362655312532 -222.243910952310728
17.555580540487785 -69.274539586229665 -221.917328279994649
82.089546261821269 -70.422640726891828 -215.860036795359036
-27.714966162046256 -71.011029957372344 -219.266812965195868
-100.017190918978116 -73.991196593048357 -223.345640372977670
-93.235208066633973 -71.080103456531376 -225.595716220586240
-92.075786537592350 -69.994773784165162 -223.129174081968216
-3.103773063258913 -72.524638855949291 -219.525288116777432
9.461903616427694 -69.031287861472151 -219.000243562068164
-24.479850470257883 -73.894926210688951 -216.824082982158416
-12.537684818893755 -72.263868655581646 -221.764752703556212
-100.427273010555055 -71.292384022072810 -227.371790594678544
95.846422024665713 -68.970769599134357 -225.814934214437500
15.368654975515259 -72.951901032340800 -220.183056600868809
-148.521180494399033 -74.934843611984164 -224.861116948148833
-17.899983892131392 -71.714620944967336 -222.986183618721725
17.465810734227993 -71.586785712255576 -224.998531439984390
79.774342997288841 -68.818739645957265 -222.681803326063630
-141.872990736933588 -78.637004944917265 -229.362952975823220
4.770539895639187 -73.257127743104860 -227.090272752931639
85.000493921861377 -66.364117482174578 -225.083654081103617
-13.408684461482661 -71.444641918318680 -230.541508481912871
-10.796266496823520 -73.444915395739514 -228.015924327830987
8.440680956433551 -70.724716409224371 -231.440415654118482
-128.597979170167918 -75.584843417704633 -232.251566405487097
-122.308779542963791 -72.048799509286297 -230.047980566829551
17.953379957233931 -72.538295054373563 -226.898006306499525
-10.503361739103564 -71.213948289470579 -233.146524225573785
3.461614862159379 -69.868668654236131 -229.669372110965469
-132.573957772054825 -71.855835462993198 -232.600424261119997
-9.920438196089066 -71.662257638941554 -229.741654520148188
-10.031959846172910 -71.298801376158096 -229.452693971290046
-132.453592420737351 -74.848928771862376 -225.782536177548991
-122.623791286622364 -74.345567828859672 -236.051284044679306
-2.512471050973282 -71.664433849444421 -225.919288238961173
1.705990940505927 -72.486221149061109 -231.674866561441604
20.936308765672457 -71.684387244674284 -229.103761652487037
-128.807334759323851 -73.499215689855390 -236.451616960235583
8.675886904025353 -69.709921656698285 -231.719413462532032
-7.496177718145571 -68.098484736821149 -233.994723143992303
-3.709997122767895 -72.218576085831074 -230.863173183289149
0.430909611196771 -74.718568389114580 -241.021601179002602
79.158842881594637 -66.982144273804991 -239.457055516435020
67.289433267403723 -68.914585482154720 -233.188203089868210
-14.610623960844283 -70.860369742037648 -241.107186475778434
72.804664393000365 -67.075043659887683 -233.465626450760311
-22.497943412204645 -72.203104266319457 -235.030234222467698
-23.883884532994738 -71.084995609579579 -241.647750840043869
-161.060112678207787 -72.211532573095809 -244.315664688468900
65.250084396124578 -68.463348190422622 -240.414484912548858
14.011520598166971 -73.235464526060596 -241.056618282626744
5.907488742067667 -73.210374182112460 -242.288457496831995
3.679681250612163 -72.562323408393311 -234.544997430826498
66.473039614964691 -68.491893681683308 -241.950094009786966
-36.174650506609282 -74.716174354558191 -240.694549771362347
-31.957021904470547 -72.225902533732054 -242.150611168254358
-27.151788978582093 -69.910330830800618 -244.054487768035841
-23.200350185974887 -74.150119951221143 -247.162138595656558
-49.730892087709705 -73.663004881490764 -244.646360540967720
-42.872770727526046 -68.636039216332861 -238.510696298990013
-39.170944226885027 -72.924812995844391 -243.278785624538642
-53.347212485871964 -73.895092055659532 -247.018606524554770
-42.205653606558684 -67.726754300058502 -248.754159350539254
11.919992975191832 -69.683140562313497 -247.183353065985187
22.093149929625262 -73.859775826875108 -247.220686717249094
12.890583610777671 -70.853595048175364 -250.721763046374036
16.571122065325582 -70.302075673844840 -244.981506468050014
23.889318857785643 -67.784059167541358 -244.490252654759246
18.925547592889917 -73.378069614802612 -245.536568553753597
-152.630786061892252 -71.891763050858799 -252.806674021909004
-53.962599512956572 -72.899869970504810 -251.928311973289937
-50.751370404739632 -69.589823515587042 -253.558296829286263
-7.322255208293523 -68.681565468097602 -253.381426733186089
-80.116488784326719 -68.641939423723059 -254.875915652003215
-4.182540373896064 -66.187878858159337 -251.698348765843406
-160.411265056752228 -77.603177261334380 -258.375207514773990
-148.060807365511153 -75.980743856382404 -257.613839835762917
-83.396095406010758 -73.075897143316837 -253.692596015359669
-88.753803088728418 -72.671484301337486 -257.622325665473284
-68.939153034193296 -73.994273542913334 -257.268381549915375
-152.525636794374776 -77.728018937504515 -257.911100582063909
-88.127928013577517 -71.872614680356691 -252.208945484552800
-81.158631277608123 -70.627442057420424 -253.289187588199894
-166.686905942592460 -73.095764912344706 -258.110363051369347
-93.798579002419132 -78.841707032084685 -259.387227281581772
-87.769977798858960 -72.860037015204540 -263.987634599802959
-79.138845097013558 -71.778864391953078 -259.842489693852826
-86.230033248792054 -73.344474576742442 -266.133637889450199
-112.578978202409118 -77.125881756970784 -262.352122390314889
-145.399886782553921 -73.335608808412957 -264.880218307421330
-143.870756377969570 -73.583530594394475 -259.791067266879736
-139.860387359987328 -72.169076400169587 -259.002780863569967
-134.040891014752816 -78.966214280682834 -260.139666697617656
-156.563761125236141 -81.368587075902965 -263.868977821649139
-150.150843282244153 -77.350668656034358 -264.091883037222317
-161.126010784656330 -73.877721726898884 -260.025969779430852
-119.765552292418661 -73.447234285982702 -264.729924328296875
22.966709625614094 -73.926269581073683 -261.340503196599002
-160.759628043146165 -76.446435396147393 -266.698748484497457
-137.817468503752110 -73.292155750161626 -267.308493344383805
-148.244197957429407 -78.139810384385342 -263.678461384124148
-136.747430269085214 -70.722649333631821 -263.443348631243509
-162.306460888626248 -74.561914372646143 -269.061014661396030
-163.525796915682633 -78.659908251036086 -268.802435414821048
-15.464917242560720 -70.269855031914034 -262.351628329604694
-154.206207248151543 -71.893302949655080 -266.490994218096262
-132.054130821158111 -76.115832206500826 -263.242236352888710
-158.103343016125109 -75.062553026833896 -271.680291366623976
-152.294094099525182 -75.145147920742872 -266.595512618768225
-123.779946875826525 -73.763043994890324 -271.485675054362787
-155.487130876335897 -70.848927679171069 -267.825767409709556
-148.060254605648765 -70.569637261562988 -266.407172127807428
-158.040041741050885 -74.324900374524859 -274.170545147494124
-167.457128412842536 -79.387758992828381 -268.827342617672059
-149.908535904825357 -73.976512141493728 -271.263138602371953
-159.926730967879536 -69.300419710058335 -273.992683711123959
-13.241253188568951 -73.109838076672375 -269.641779821130172
-145.805878372072641 -73.429437944268116 -277.658695745894988
-165.360279949792158 -73.146742367999366 -277.811443964036755
14.313010029454659 -68.200000276035553 -273.722140674764773
-159.668217809739673 -73.097169244458442 -280.143877631850614
-143.652416254781429 -79.820309621272074 -280.106483758731258
-148.767975340161172 -73.985636280294685 -282.829590294590673
-148.410391812199549 -76.732790522482688 -283.877696342892023
-153.331509661184839 -72.362061076780961 -287.942886939360903
-161.455018897502811 -73.282106123037494 -285.726743324678125
-125.649999796434443 -76.113209746948442 -288.197033905839646
-7.683249648749321 -67.315243093813990 -289.515228969510702
-160.916114728297742 -75.327064717768650 -291.370974813896794
-26.652270075698549 -70.699294388035625 -284.036905374887112
-139.634013425737095 -74.508554400978397 -292.330643171139400
-128.202616361606829 -72.671305979961190 -288.622396276901839
-57.250290589824004 -77.029050561801952 -290.156143916691008
-54.670796017309627 -74.258503395326684 -286.355921917668184
-44.502120257001579 -70.360750462455741 -290.329933704308132
-5.864160666706983 -71.691596504869310 -285.192595062105340
-154.071549193604113 -76.582674001324435 -294.828498406783751
12.097516565658294 -69.273108395704995 -292.547999914836112
-26.003592457632170 -73.013290646631702 -287.345435230306009
-3.767659894379570 -72.251484988763565 -288.329005321464933
-83.382621236087331 -77.296547352581456 -288.742722421606061
-4.593036038910537 -74.649466022123534 -288.942347183535901
-96.938668695355204 -76.461968703842345 -291.055124611354984
-148.947416994795674 -74.291058076347369 -293.303247129773240
-120.219846466652186 -73.926316512772857 -290.028549706854676
-112.184271614425242 -71.897350135502037 -293.587393025270785
-111.169702644651821 -72.754112333957806 -289.969163830894047
-99.220961742302208 -73.057648860555886 -292.646915229978674
-104.151779605322702 -74.327602707230767 -294.872216653280248
-98.792093530928284 -73.303708809877634 -291.849710289277596
-147.907097474733121 -68.665501404087024 -289.778109948049860
-146.127675676886014 -76.563858268962107 -294.180096549242819
-94.898097482812332 -76.942336121340063 -295.591141030585902
16.419139015402969 -74.001482982308019 -297.412345716008531
-115.678072756640645 -76.105086071664047 -293.663685534192552
-114.480748694491396 -75.739346180194005 -295.995642480696461
-108.749240812996575 -69.516752386302684 -293.247552765586647
-65.354904636663818 -75.878686952964543 -296.369423579126703
-56.878349427357819 -73.054274138861189 -292.619361213708032
-98.399551843669656 -74.157592638385537 -298.369620857995415
-88.805637403069071 -69.733505594565358 -296.288697892546224
-157.875625006869342 -67.393332066936665 -296.001072562443937
-21.444271073713335 -73.335017478859015 -293.759560912925281
-10.941834003218791 -72.440599737847393 -291.295053890395536
-133.890222195724391 -78.395694545912946 -296.430216510653565
-130.839618484226548 -69.872605100536504 -295.109965914620204
-126.485381348415885 -74.159408648840184 -296.881843522582301
-151.408692591681870 -77.154039261767736 -297.748670205613905
-141.229819865695703 -73.852532459369101 -300.749464769473377
-153.992053830043659 -79.069750172152240 -298.210596120387038
-153.356273330441581 -78.635306583766024 -297.640087854247838
-145.235846877888065 -79.016358924814284 -302.302129092657538
-153.831525224227732 -71.415309887153597 -301.518375619762594
-145.697026896429975 -74.317235026138150 -303.665084090989183
-142.455198831155059 -76.116040785425923 -309.128810365930121
-138.739995375056708 -73.844545253116294 -310.500692192991721
-144.070408211877350 -76.451067191016833 -317.743873962427415
-142.802216897908409 -70.203646618033716 -316.648418579711517
-64.473779379947686 -66.494143527347816 -51.664304171782099
-56.817815695366377 -69.516139868170839 -56.739325766077748
-71.155274727130760 -73.331891425552556 -54.359805359041950
-75.345748343428554 -69.196343221251681 -55.210450275640149
-40.108421433073218 -73.940554864853709 -59.132843006894198
-36.540533749900092 -74.288781312530546 -59.266912846482164
-84.374838508626524 -72.612355192616249 -64.692559295484486
-22.397140260519546 -69.099481839793995 -61.249846465979779
91.129868613403133 -68.542245738170109 -65.414033846791995
74.085140740595023 -62.689933686140741 -74.278356746505466
73.640253952086567 -63.620910989503265 -74.219596034975240
-23.603389855108727 -67.776637003995091 -77.710247835212883
76.316466333963220 -66.035456660208979 -71.592952782340717
92.250700796218354 -69.408578902780604 -73.645450682825455
68.712986302619541 -66.393270062081200 -77.986850158435132
-46.295359989157262 -70.463416179496221 -83.258108236463727
94.349788282588889 -64.856990737719414 -76.791803205638175
-42.017216368962465 -67.482135427938516 -81.255531666246156
87.646727538046036 -68.030492819666009 -77.103604985253924
93.408843243339660 -66.401167218074761 -80.319849243249564
68.216028953041516 -65.822482365710130 -79.468454012420793
96.592601627703345 -62.120628508057123 -81.069510872605335
-97.454668931346006 -72.453762181655605 -93.123778789549419
54.058790615845226 -65.488547331977230 -89.712831636327437
61.483698754666591 -68.390370932035836 -92.004088923849039
67.370497206161900 -69.013448547045115 -90.238403432462349
61.066223909318481 -64.078773844923873 -93.051159427467354
-64.278730614745911 -74.333910497542789 -90.865842799363151
53.404062027203111 -73.217706129585864 -93.383622470169342
-65.303616598574720 -68.902462373006415 -98.051839108276198
46.022927885316797 -72.072128111869773 -94.888116830165146
55.707555417289569 -64.786989426387308 -93.570446061765949
96.353031794554113 -65.918282025589448 -92.948667372770785
66.839449994403864 -64.757421073014825 -95.053270406211453
76.398993694027510 -65.098104190779168 -102.599246493539653
102.578925529134310 -64.148640010591137 -101.197660561887545
77.058014395501687 -66.274925946361591 -105.600730370633087
44.370200885356866 -67.149399029207331 -103.170643552944099
79.484418889345392 -67.056578129875064 -96.914274722893552
75.132749517651945 -69.647424957778753 -104.686212990368716
45.008597410699068 -69.220281466255827 -102.568513828469634
54.318723289939697 -68.256111537651051 -96.026587923179733
87.328389455842085 -70.264797163846723 -99.281634558989310
106.372309820778725 -66.529549012848435 -103.910071129969268
86.022093392919658 -70.135320086748735 -101.336579594678781
105.693290896762747 -62.093746373109006 -98.445806598226753
-98.937452816824191 -73.840084953292305 -107.206048683365822
-85.362443050326050 -73.216019626684741 -109.089404248105225
38.676221762549133 -67.993864349473554 -102.780299237181239
104.469549355249853 -69.053430878040174 -101.166772595533558
45.599794365448624 -68.656642045054795 -106.848767431758148
-89.982139730303814 -71.385925539821073 -119.283548313834544
36.881156925499127 -69.725246450720803 -116.880562963845463
35.494385916057851 -66.536441920520943 -118.284168922284934
46.046301706827819 -69.429571285688240 -119.635302161137631
110.275090817030403 -65.080107784186495 -118.492532758554447
103.175085905684000 -65.200674598651901 -118.973866966120525
112.955305195579385 -66.400280247211299 -124.995122365126704
28.412264089212321 -66.306694207507960 -122.640136728320769
33.207216186299860 -69.549722670239078 -129.290233525239131
107.641862948127709 -63.800209269400504 -126.530384007908808
110.330969362157646 -66.925357958725186 -128.420805407313964
40.775539795049539 -67.839121086368579 -128.855111490285793
105.706732439029210 -65.944675695025836 -126.998536114448413
37.809164081044869 -71.099732645372143 -127.829673145528588
25.841579363586696 -63.240592067792363 -132.716087100123190
-57.746814454629828 -70.649708932925620 -135.287994615068044
22.289800685926547 -71.128248153284403 -138.503407196248332
109.933369930013058 -67.726303205375416 -136.344514040277176
-54.452309605029200 -72.048398678250862 -140.145599062645204
