# This PCD file was generated using the MATLAB® pcwrite function
# from Computer Vision Toolbox®.
# .PCD v.7 - Point Cloud Data file format
VERSION .7
FIELDS x y z
SIZE 8 8 8
TYPE F F F
COUNT 1 1 1
WIDTH 785
HEIGHT 1
VIEWPOINT 0 0 0 1 0 0 0
POINTS 785
DATA ascii
-148.783412535157140 -70.376707985569951 -298.092314369233407
-154.184442678237474 -68.531177190967455 -303.996124260893396
-145.442851011645274 -70.626638564275936 -301.657016405668969
-151.677682277865699 -67.756523819693271 -309.227843922851264
-151.592870561251743 -69.439357555741651 -312.286601986997425
-147.367618227125462 -69.669830160502229 -313.173185393759013
-149.555144059234379 -70.385305799232810 -314.646792078400779
30.205456444533660 -65.295090548348981 -13.534027626489495
41.515500632300643 -63.353359913725640 -14.309530063921931
26.234591017549199 -62.442501026932547 -20.508953356164525
44.310534297104262 -64.869187202872141 -28.254357610430880
44.289896229994469 -64.920012199571858 -31.459481130897643
21.784790081366289 -66.927821979219189 -38.218817769934482
-84.216805722338592 -68.634922923338962 -52.544057589898856
-19.840577398101722 -66.195461458023772 -57.049345421155209
-92.660497371400609 -66.379153577158178 -62.708374590969285
-14.547952756870004 -63.410806076111385 -63.897468392369447
87.050828347320049 -63.966643228860022 -60.927456271713496
71.649989343035386 -66.746016321767797 -62.574863858829701
80.759656031670161 -65.138177297118574 -63.618687762696311
72.262949016063516 -64.263693093154743 -63.822497885415046
92.795603972761583 -64.995115567763790 -63.148402582513896
-13.619991962570317 -64.186047774849214 -66.237207083068469
-17.022781112097725 -66.177040645719572 -69.079759428173261
97.625022195250963 -63.284408179612285 -68.568908534040560
-20.629749726677943 -63.060644237142640 -69.728953775424174
-27.748046899120624 -64.371431970838245 -70.891085321425635
-28.628132764749616 -65.279458690990296 -71.725068147488301
-99.650294561596397 -67.006874341535166 -75.628687600920628
-36.541363334023110 -67.212450801318369 -76.398254098692874
-41.763633842129977 -66.884808742282303 -75.537710820383779
-34.463474403982580 -65.251550122866405 -77.629018100566867
64.241952604660369 -65.481924442974559 -76.634288743053361
59.722968666292871 -66.578507028253966 -82.188315449307069
63.686104900141011 -64.302516354211960 -83.363596291772581
-50.849884272403315 -66.378917482510303 -86.183114079273111
102.757189494117071 -63.997284599403912 -87.592158727308785
47.964040767300290 -64.567037523763460 -89.468863294698892
100.704455628285686 -63.638772561775639 -88.408626088566493
-65.073856677286145 -64.929936400434784 -92.345424465986028
-65.916131270236605 -66.913934682258287 -92.813194225655266
-65.453755972735792 -67.764924601156522 -95.497266265688893
51.456736309487752 -65.975954504326026 -93.189986207232337
54.826887010050228 -63.295837168655453 -93.888028539984646
101.333565545486906 -64.446277200027197 -94.092833543065041
103.675013228188803 -66.278100352301067 -94.959891020137803
99.177012176698426 -63.627228142062378 -97.236948384024160
53.942156680940762 -63.490269279478625 -97.215839931658479
57.619007076049307 -67.038979235235885 -96.091759193294322
98.716724333733609 -63.823157153324715 -96.365338015980484
105.343872584479357 -62.575929916628596 -97.251708890036454
47.542930513746313 -66.080078184002204 -99.245879222267433
48.441251479704150 -63.951694947986468 -96.696180401526107
-74.641269292017668 -68.475996186390233 -99.165500960019486
52.795756124692772 -65.834417835018229 -97.245261832358963
98.089583117142354 -66.981620848984306 -97.475054663851864
-70.973653644686834 -67.850396970059762 -100.763141734657211
101.053608224217186 -61.317245522675151 -102.905990997178193
-84.179476391710537 -67.006404526738876 -104.104924082030337
-71.415939925696065 -65.867574439968507 -101.831036422583978
44.875590365823101 -64.819278420669107 -103.093317281588298
68.518673990438714 -65.880993299269164 -102.046543498553831
105.318226641343472 -62.681416324981711 -103.169784951067513
48.022463426579634 -62.893617949704776 -105.933323145517789
75.192809870382291 -66.412149784663214 -103.342977349817915
77.496671330712587 -65.551932042331543 -106.429078328892558
-98.669483668633021 -65.773698134036309 -109.253585466157688
106.326340335279582 -66.447174104247978 -107.443946431560818
42.545844891505695 -67.491306299453015 -108.520848962773428
105.235717059872144 -65.778093042405786 -108.101503182327576
109.068267807814479 -64.295790742981694 -109.634743315553166
-85.190360691934714 -66.326300900734438 -113.713873235221442
-98.368065782834691 -67.997784398737878 -115.421788157628427
-99.031701864946044 -68.772364599996081 -122.717255265802905
-87.096781977822019 -66.617191768522275 -121.725698586766427
-79.054415648208106 -66.597822821639468 -127.096241752826685
-61.296991998335926 -63.893148444179658 -130.237822078249252
-78.312025394923211 -67.172995809072404 -125.463774962045491
-82.269013411016800 -67.740405273707154 -130.571240962649654
-77.788270750939915 -67.858404160505131 -131.011199573982907
-84.772752736701278 -64.926946855764328 -130.038421768008135
-80.746188370113515 -68.766707960167025 -130.871279043763707
-53.056768277943135 -66.322340354864465 -133.811365789393420
-53.321182144732603 -66.870326145626876 -134.275974485568611
-84.066872927614995 -68.351869919426704 -135.938158389739186
-53.081682056338025 -67.687119927847462 -135.670630231465054
-79.995363893122772 -64.176493511401347 -135.439494851852089
-75.077437389928320 -68.125652461058479 -138.058664054545147
-48.364995555794394 -67.291103945016062 -136.160532189059495
-80.842337062933197 -66.628207205614558 -138.224708159151902
-73.224320022453739 -63.462850735614950 -140.949776338346226
-78.465217075015971 -67.495033072857154 -142.273598737309158
-57.837176329254532 -67.161018438290000 -140.546629635246745
-97.563382016434829 -65.032444893959791 -142.621852398848461
20.630636550914900 -66.299167867519913 -139.031073508799665
-88.647753453737309 -66.255439550079998 -141.261808908805421
-55.926290663733667 -66.813428147899288 -141.682121476979887
21.351537126459441 -66.180380344076582 -142.874072238261448
-73.997981852426562 -67.824530703896997 -141.763968708589488
-53.899942821374736 -69.194670484386606 -142.355429477388299
13.970840793463019 -65.554448515494798 -145.284262892886233
-55.022147324620548 -64.462039711879498 -147.910310236641237
-93.481827623434313 -66.499212460154325 -148.097453788653354
20.078263505356528 -66.183370111093637 -148.088077605096913
-98.664566199124593 -67.207038021998258 -150.178179777659011
10.883318013388454 -68.057298907157332 -148.909285634249159
-48.630681854955952 -65.625452503548459 -147.278266497318441
12.772036842578601 -65.129037672977248 -151.710399562650764
-99.875815307843624 -68.689522872673464 -153.611037557284561
14.167050226960974 -65.647896180612292 -151.110199778032836
11.169633440669834 -65.634401748938672 -153.927509159656893
-97.720216813407959 -68.627086840121194 -155.255069076766063
-100.796259474965211 -65.001759706218778 -157.415011197591895
-99.183353114593686 -69.329594584522937 -161.015471416537537
-107.748863967674538 -70.519184799065926 -169.479416328145874
-101.981338882954233 -69.841116219978559 -172.764997169471627
-107.325634587895081 -66.449725927954134 -172.278441973993949
20.569179268730203 -65.831176207375165 -172.907379047388247
21.981760546858570 -65.404419060283729 -174.584861560423917
-143.393725150704796 -70.095866022870936 -179.743953664158141
-148.475606989401427 -67.662888412430092 -182.158076692684261
-150.677016466432320 -67.817686397572288 -178.433016488160035
-140.843181541094964 -66.328933413449349 -176.617926712964476
17.574004184868887 -66.034083208695733 -177.005092522997700
19.486727416082598 -65.802140292227648 -178.070514270445642
-104.024502798238643 -66.154176348258844 -181.256305552111144
-154.052622573117304 -66.937771056293528 -182.896769559606241
16.970752027970271 -67.109853236713832 -185.445105571871295
18.159277521246803 -65.632781871127747 -183.655003317449996
-108.208092175281848 -66.301215060131867 -189.413309642733765
17.965830839810344 -65.627829458191343 -187.209316038566271
-153.250029871291900 -67.563846532322700 -188.693651979071745
-144.622961323885335 -66.971710557277902 -189.271165760676325
19.810354327905348 -65.735841069438393 -187.530366476697168
-113.265609244377117 -67.762280026850192 -191.637712316127761
-110.372666444288228 -68.074839743431525 -194.230936993618656
-157.927852960779489 -65.275397662777593 -195.648912644685055
-153.173601668818890 -68.390313598112556 -195.579387724096136
-155.576264566637377 -68.549514939332852 -196.396813797860517
18.971634256487022 -67.720466454370936 -193.811473532275727
-131.348231816577993 -68.654828674983222 -196.817310146360910
13.403175541512313 -64.364412551170702 -195.930012611276140
-158.192524737868411 -67.792480866008759 -197.000983984338944
15.508741084854503 -64.843948859768290 -195.556273162529010
-139.224777261486423 -69.203549939579034 -199.069200047835977
-19.753343028652715 -66.938183942763814 -196.045415134998677
-164.616262833199869 -69.065249407543789 -199.849944683063171
-20.181746086115197 -66.812552712498729 -197.960765420314061
-155.822947370611018 -68.475790217976652 -199.987920568814985
-149.037727682348475 -67.525054886504620 -201.258383592027371
-163.758267549322397 -68.045971658339070 -204.938777446967521
-165.233653341828614 -67.503496464641358 -201.972859702928844
-161.655650234586602 -67.901118631410398 -204.576234687495202
-146.203417324598718 -69.131637258701218 -202.853469669856224
-107.856396607173309 -68.367098315373539 -204.437704394009927
-17.350614427586301 -67.107323592481364 -200.417500276814565
-154.305777903938633 -68.549610277391352 -201.509425780575299
17.391512952244934 -68.203487989022733 -202.011028820901601
-140.007723970190767 -67.101480112725611 -206.544420984192413
12.676382697580390 -67.695435362074619 -203.047414866689309
-165.322372350802681 -67.885349670040242 -207.737144319636968
-158.937783542200265 -68.167090230226151 -205.975101531214733
-152.560763032382482 -66.781201327459982 -207.789936597132879
-19.344364210010930 -66.202664900171598 -204.609589214014562
-166.578416875282414 -68.830226963727512 -208.931767901851430
-151.169424914500951 -67.295594858491981 -208.389622031141215
-17.223736341617808 -66.101074276498792 -209.273227147542968
-15.366756487880060 -68.389794151297835 -207.190133950784201
-153.058077619211588 -68.402523360985526 -212.885329133512187
-11.819200180481559 -66.626764560265840 -210.763710587351909
-165.145467814399694 -66.461209239954272 -216.743487880721261
-12.397973469180165 -65.498066700111835 -213.613755938263154
-161.840665331436753 -68.792238419606093 -216.586055877554031
-5.825745077645497 -65.599706333659839 -219.820371221036680
-10.248736171273194 -67.317276710074495 -224.260158938161482
-106.030913675826923 -69.573170644322261 -223.769165338677738
-147.073353791146872 -67.688128096855962 -225.698938244875990
-106.261446898293855 -66.786415860015552 -227.457529296439276
-126.477724164728727 -68.422187997283984 -226.454355006762057
-4.814565281664390 -65.622967502505958 -228.141898754470219
-135.193289568192995 -69.560938341392998 -228.716691842500126
-123.873280204094016 -68.538150564721875 -227.141139693054043
-112.496965777007972 -66.858049245482675 -227.054064676766416
-3.351313062598727 -66.594666362344356 -224.627607607272239
-163.398860594881768 -66.979655691320531 -228.846919937311725
-1.286860588682686 -65.738305169147267 -225.926014304474478
-134.488457433699125 -69.872281446346008 -227.938881146695167
-114.289781418295917 -66.872338949336267 -229.242564295634651
-115.197220113663178 -67.154849729230676 -230.280445225832040
-148.241281089973569 -69.364074501338422 -229.657152181501772
-149.077235499963507 -69.478077952393846 -229.816621273853229
-107.286968115083965 -68.278126944772694 -229.969416207334177
2.889627967207108 -66.201863787859253 -229.795104013174750
-1.148808889634505 -68.207102382626573 -228.090506626216921
1.466461390844501 -67.304542334105719 -230.365321793490068
-148.431205064402008 -67.169050889478143 -233.537505908087610
7.365318235527225 -68.690502236774563 -232.198224924445270
-138.788537785892714 -71.874714496611816 -235.839334492053496
7.729875872783060 -69.805175746063270 -233.253859385669074
-144.539422984837302 -68.704819687431225 -232.695834231438795
-132.191348217672271 -67.509149305776859 -234.964818652867706
-132.902659153350783 -68.597287557672132 -235.796914541861071
-113.943950790087570 -68.726650891724802 -235.440193971794116
-125.941179207512931 -68.323082346499874 -238.631313260400134
-2.664861962188464 -69.819498371365512 -235.784002597360768
1.779433401857094 -67.859456672673403 -234.270711708355890
-7.740457539277703 -68.302697691177286 -237.266363707618325
-7.278010570226709 -65.366177028743508 -237.973647976109561
-8.917242002650895 -66.095483529307458 -237.926608599800687
-3.281464689169923 -66.759261965017757 -237.894234210909360
8.338307281607003 -66.127122427115296 -238.009758185758585
66.408885542518647 -66.248480611656490 -237.524736253528999
7.239325736959627 -66.581331797548231 -238.822516995316789
10.356454866311351 -66.426861097214925 -242.138851083635132
65.635832627763818 -67.701518924842318 -239.165295877468850
57.528260309927738 -66.159329285255637 -241.582338547332768
9.558371263953831 -66.736842837480097 -240.950617448071938
65.413007783303016 -67.582679824789011 -241.585906098708278
14.101945016479597 -66.000801920498347 -242.502717779484669
10.977366370010101 -68.033081557874695 -243.947215886389642
17.359961540094019 -65.918768433655913 -243.840258427688525
-11.742020166807279 -67.967829158828422 -246.625268475525729
50.541127977825695 -69.542969685003513 -245.135799592074704
62.524054894247136 -66.097776160548008 -245.220797756425611
-148.238444276865778 -67.861303979174693 -248.725119300652295
46.151707265845104 -67.003471191124390 -247.873851007871735
58.824224825327583 -66.715940922266810 -249.926080697134864
-11.058537803862514 -67.921868153687811 -249.228867150283008
49.284166333205327 -67.101450644687517 -251.653208724137869
-146.577301567825231 -67.125055594356738 -254.140821895529314
-149.228592153375047 -68.453990998201292 -253.328805793499441
-143.081077154523427 -68.455223016943819 -255.891603003807745
37.536636796573404 -69.485230991860135 -253.663482463942387
40.861114430057313 -67.866053824911191 -253.377805526524298
-8.957855735749423 -64.554310867283917 -254.820198732783297
37.293759964680220 -69.126307399154570 -255.311338951492189
-100.062294146802572 -69.869409401910872 -260.001360868125289
-141.812834061229154 -68.497313138134160 -257.801747180648420
-135.006907951320329 -67.082256748112002 -259.407727607021343
-106.878220954453781 -69.202700270897594 -260.336177757267365
-102.736199985051528 -68.296215778410172 -259.866467819122363
25.335077281878192 -68.501521682357293 -257.561288937902418
37.857794403725244 -67.349148720176913 -256.873814793949634
-113.405305769123430 -68.176345582713353 -261.478445133901801
-7.799674657369668 -69.132016109968845 -259.497438868362678
-142.246834517571443 -69.125708619662191 -260.714479272737208
-126.119463398174219 -65.990114906955654 -261.677746703052435
-119.539913168629170 -67.562823344943936 -260.568656137533196
-114.125250241991353 -68.633524255465062 -264.673043082401364
-109.050138767025345 -68.379629138682134 -262.353448462396216
-141.276231671113862 -68.726600865420536 -261.985530497811112
-137.117457107081634 -67.796756682876818 -263.067871574455864
-122.388153521103249 -68.109038944298263 -262.197417382093533
31.492328001634824 -67.099404661290791 -258.178265489179864
-115.631302142101163 -69.365243499546239 -263.047669409840466
-1.988729750860109 -66.133043759356255 -261.331661177701278
-124.208390964555264 -68.804568127349768 -262.888673118145107
-116.255839571097368 -67.148904261948161 -260.301504053320912
-114.574865247511212 -66.559329102102240 -261.936502872732035
-5.207883551248688 -67.040929937811498 -265.155786820743174
-116.859977997118847 -68.344510744581697 -264.475985442178967
24.724176648196192 -68.122462750453650 -265.016829586294989
-149.567626674438657 -69.443808141301631 -268.298929325390873
-146.694871701041336 -68.244395062430357 -269.245215487528526
-3.172358158456763 -64.764817238432357 -270.759993618366082
-4.025987867570343 -68.093265777642998 -272.956920607075062
26.049403913188556 -68.289322371938624 -274.197425307916888
-4.945624589423151 -68.542123108846084 -279.740361844615791
-5.525248317512737 -70.315004439458420 -285.311895334739063
-131.910738075858319 -67.411851070357272 -288.255460211781440
-133.723696040095973 -69.667449175633294 -286.261646064678871
-4.525435106338474 -67.012801608818933 -288.940526516506168
-116.306297542812160 -68.483923798353274 -290.752641506818691
-141.593294561420578 -69.812203245629661 -291.611951189423394
-156.558981488709293 -68.287611487882458 -291.957363382177732
-124.964910276270103 -67.015502558072882 -292.925361244082524
-134.006558823896199 -68.935664617068042 -295.071926835326053
7.652400012951146 -68.634018237077925 -292.578805303435047
-127.496769073840682 -69.315605637713901 -293.826825318033627
-148.983639755435604 -69.873737345897865 -303.473652992736220
-148.628870205886955 -67.852759389050078 -304.206771800937531
-149.828953310795470 -67.473761126317257 -305.258321110331224
-147.346912067977541 -67.170124108566995 -305.754860992115709
-148.696566952397490 -69.261926581368755 -312.257494472282531
16.612319312469786 -64.824528545965293 -23.025144973402554
46.527458320120488 -67.029611298126525 -24.604568020572486
21.566036668343894 -64.990608630471201 -27.926608490840728
17.848721660449804 -64.279740691086857 -28.533938310306809
27.223434201647628 -65.871928085948426 -34.839485497781332
43.187177074786689 -62.232226524575168 -33.951167726879369
-65.746493746978729 -63.199223021699851 -45.411121204568232
-58.950454169691682 -63.294203351967042 -44.743507960083605
-70.051817851575933 -65.546906487319177 -47.522993674280144
-72.431957132229016 -64.717389992855729 -45.546108895619611
-77.352223234274661 -64.475911529855267 -47.732315521473474
-37.560832344932493 -64.947275972036238 -49.857577148824319
-81.039703297687794 -66.056447536638373 -51.364449362422036
-28.793439811722180 -64.089602025635486 -52.076038281229017
-19.184925840910964 -63.973102991827204 -58.757892485014480
79.532055437918416 -63.660130092597697 -62.135135729422885
84.444479148741124 -62.194190010870088 -61.811884586518957
67.761885868650424 -63.337281853592202 -63.631237127350303
-17.492953021449971 -64.567550268161469 -68.194629280338404
68.275547411789773 -64.439642148071087 -68.903810781585662
98.097795365398156 -60.239384554853899 -70.579037582651395
65.543818426713770 -63.787713748442457 -70.916839347801826
100.960653586225391 -64.502997997852290 -73.773308721598681
-33.199903751092016 -63.650917119964831 -78.428284854579189
62.111135790640894 -63.723282076346976 -78.297880890207495
100.521855536305466 -61.880404871074703 -82.067732758343368
-48.496610481158612 -64.772619003486085 -83.610892911066273
60.887409862997778 -64.787047668258452 -81.352291442172159
64.298011802640644 -64.318537673798616 -84.427429129146233
-54.516448775412542 -63.347888855439734 -87.559454918529212
55.753324960900507 -65.563590087639511 -85.477625412123260
-98.415325794719692 -65.285948384952050 -87.441625304780359
55.079127878811839 -63.211917447812340 -85.974056398071156
-63.284660162150772 -65.731865913729493 -89.677844802227796
103.216842287838929 -64.636158249774070 -87.558807271669224
60.696157237187599 -65.799965945029101 -92.659611616165193
49.349577254576161 -63.563404633277912 -92.985306578060715
65.121862916241895 -61.875195224070694 -91.961792366950291
-101.040161050172884 -66.841522424286310 -97.449872544903954
56.786150151515685 -60.735298937219284 -96.543949089950402
50.181586432693805 -65.026508315382074 -96.944823599079655
66.189160539032258 -63.360325459671259 -98.379077886195702
103.518705495841047 -65.918282558076427 -97.591611968866502
45.298466748343387 -65.547637969915343 -99.250316822755153
67.114163145196017 -65.844900858512048 -99.743634647493238
-73.833989537473698 -65.788626354542885 -101.386663674656702
-69.434379430130960 -67.503070399936746 -99.413039174773090
-84.110445569167268 -64.030226538873066 -102.998996714391765
-76.443620899489133 -63.227492472986512 -103.535741032072551
52.441669468298883 -64.023738052323239 -101.664373411310706
45.961076679247157 -63.548308354743853 -105.368176618445816
95.879441213452850 -66.708111305661987 -103.560539037136849
-99.290689057127892 -66.937837801332606 -104.176920861069263
93.474429979712809 -63.917417238040571 -103.056918004273442
-86.214452810849608 -65.168212997514956 -108.199889430776850
85.865122217467544 -62.615247920320456 -104.901879229846145
88.743028582176862 -63.257051886536857 -108.869523342203792
73.765228204013198 -64.384660449791994 -107.304127191715452
-81.741794366577849 -64.945342664282748 -109.159855292369002
-87.978526394959019 -66.967746667797883 -114.385925554150518
-77.083922337826877 -65.455793350620340 -115.793096465837536
-91.429644310362391 -66.624163359362370 -117.843105657631483
-63.966667538373130 -64.704641738880582 -122.850146439078330
-60.467352733943329 -65.630166789435961 -120.711722381720122
-65.982066018025989 -65.004540999094033 -122.153858182411014
-94.008429390474163 -65.418876476059950 -122.380354806300332
-62.601400322922288 -65.390635691811710 -122.717946663156525
-94.006639148164055 -67.901448172810262 -124.318083097420029
-76.549314761773360 -64.750672261830729 -123.480442284120855
-79.928055343047788 -67.088030630745621 -122.386992227831698
-54.540832026187147 -64.338150006225931 -123.467490739469341
-80.666447097932732 -64.697011503163139 -125.737091121548886
-76.322877717960893 -66.855348763745752 -127.021030096776840
-83.540138477340591 -65.683385682709954 -127.829404289798575
-90.498217574903080 -67.259163411916248 -130.642121805093041
-80.434205720609398 -67.402014683315215 -131.282582916615809
-77.709448744143799 -65.251400303208428 -130.415706772475090
-78.456521588284843 -66.183582765221459 -130.283742001944830
-53.601815125273077 -67.424397381911874 -133.649656931305771
-50.366983499498232 -65.541573358465172 -134.052134056390429
-94.250566741737074 -65.769367485691845 -133.765242329946290
-73.951212862112243 -65.428163034590526 -138.019677232398067
-50.890937984294879 -65.961910522811721 -138.009184608813626
-59.264921960365498 -66.132050667146828 -137.226379299642986
24.323203469759576 -66.135351188600993 -138.262994298116212
-49.768337706123035 -63.800031699189617 -139.617411280551693
18.570043504435471 -63.700101661933843 -138.562425914701976
-50.605291032060478 -63.985400935421225 -141.126256249949336
25.183846222757875 -65.540395885827238 -141.881083950303861
-87.708603519885799 -67.619412746185759 -142.844172115180044
-51.982772724521709 -66.777442334367095 -144.540109501931482
24.377709946823071 -65.562967133839138 -146.316576990157245
-93.365503236298537 -67.536835775510951 -150.127877815320545
18.855552039807908 -63.869137764618742 -148.649076561175292
-100.417214762728563 -65.502347234347880 -150.870760618914005
15.085680523504838 -67.431991150148434 -153.457706809723589
-103.009534910883417 -68.204154306503199 -156.424658834104719
-96.691927991969081 -70.009695280702360 -158.454055999118566
-97.028165842118455 -66.561871550415219 -164.952422457635549
-100.902687436241393 -67.777909758522512 -176.998763930797537
-110.013577672770708 -66.236901439967411 -176.567899676806803
-154.137603865389138 -66.390652259076845 -179.930462583983683
-153.008914218949570 -64.731151330319676 -178.339055314579014
-111.084996064543077 -66.667749967607918 -181.572214374509969
-143.864441327540220 -66.312189687931607 -184.731246105713296
-107.008921055840688 -66.627011993494321 -183.607063275620305
-113.175993905663319 -67.143529075777323 -184.162998925218091
-142.809899780406170 -67.874284523530847 -187.698139599381079
-106.222702422750530 -68.312090846108745 -188.102210652066589
-144.550709009634204 -65.089427202495187 -188.402585715734887
-150.627416257243937 -67.447853340544555 -191.197575508153108
-109.053166267009146 -65.833756061060939 -189.292431130638903
-151.467946534118283 -65.681114421671253 -194.474281432109251
-141.051271150154378 -68.590703190708155 -197.806251112326322
-125.030836089057800 -67.836398052375287 -196.839492045507228
-109.601723473164952 -64.559031795030236 -197.364488534986180
-136.330150831652361 -66.919121601579164 -199.647074068604581
-121.025125751841699 -66.787028188246239 -199.848518643548402
-115.273202891408715 -67.492421999791503 -198.229898953198386
-145.246465924301873 -66.923615731720517 -201.210120745841436
-146.503001231762596 -67.289864633477407 -202.859113826144295
-141.699124536531912 -65.172835613110536 -201.377212530781492
-134.810027713269790 -66.154134455364158 -205.702656163705399
-112.657396376844105 -66.660011750137684 -204.055322447153827
-142.493203011611229 -66.232071339001777 -204.058581422252189
-129.529076455402617 -69.270518093428691 -205.314683353556120
-118.840189839663793 -68.141518732644187 -207.932280149467033
-150.552144638288837 -65.188320098469390 -221.642698808713703
-145.705973617033123 -66.026887129648813 -224.736065684141693
-109.713915367415694 -65.530969989058320 -229.306159144939983
-107.971457948854010 -65.756661105117260 -228.909667161884357
-143.406207177164987 -65.837527818932344 -228.211382163058317
-137.060383476241100 -65.451440592017875 -226.870783545425326
-124.073211950280751 -65.754390441415808 -230.719545817325240
-123.001916563725445 -67.564077185322063 -230.566544241060029
-112.786744898154183 -64.301025328076690 -229.404602777704554
-109.135807211979539 -65.170290261609338 -228.872621000690998
-110.899332434266967 -64.912856833847911 -231.550724172478937
-138.489540821316325 -64.502168016083459 -233.506911086516794
-123.909760284407213 -66.843434633875475 -232.836120704487143
-141.301723323600527 -67.422744434138906 -232.924244154935707
-133.879065592585391 -67.070460648097637 -234.568724768144421
-116.552191953298546 -69.010798728376145 -233.921639530823711
2.178833882883939 -63.565899573468599 -229.453546959257636
-114.686309331323287 -66.009933820582944 -234.554746992213950
-113.960057526091191 -63.926391191935821 -233.657794872472124
-123.003054099659863 -66.399543209005429 -233.756874249615379
6.110549822919040 -63.906892511315235 -232.204633600307488
-125.889398729007354 -66.020652919614818 -236.432502539646094
-117.368988053822676 -68.430145895523125 -235.779926917427105
-125.851917731276842 -66.983461931061314 -237.214653329079482
-150.130680387426082 -66.178015573283346 -236.919678844390376
-147.566515176733276 -66.108204103131612 -237.404355281241010
-9.539589335005576 -66.858075726266989 -236.417740665262784
-5.142231463282307 -63.642643398245255 -238.521203032395533
1.850429223984307 -65.663598296801126 -239.777049357722973
9.046366367289808 -67.492733805287529 -238.328973988052354
-9.962936188784781 -64.948454170327636 -240.111145425141046
-1.344134351937036 -66.675623288050033 -240.435722810720989
9.671764004431290 -66.806717232888303 -239.380754914750952
-143.839284807221560 -67.975807450029322 -242.033731519790422
8.972147483764152 -64.563946348039593 -241.514285798906258
15.932518531228300 -67.193606536067136 -242.955418925273875
-8.585820084631511 -65.916718501669607 -242.021610954543405
60.167495529703395 -65.322555487986705 -242.793484788669161
-10.728830396468453 -65.212788433178474 -244.246879166591498
51.872314697478046 -64.512462984848099 -245.948586555512463
-150.670670798964750 -67.547361364109108 -248.096903714455777
19.573468620337344 -67.566173602031398 -244.820643562686314
46.597503680161957 -65.528267231103641 -246.651703626340066
56.336855288529755 -65.949435514485003 -248.752890016719221
-150.944247649435113 -66.311868507640810 -251.116633141191016
50.838528305690090 -64.801627109454060 -252.974580269907563
33.100570817141922 -67.803503434845965 -254.930486426785251
45.699810489857697 -65.355616197439588 -255.330355228367580
-125.613940213120344 -67.571977722306741 -257.721257790646632
37.179519967468707 -66.766376095302064 -256.135249538137430
-133.910451404983036 -68.551765860285315 -257.479029096309091
-124.541827734145102 -69.646482500791834 -258.849880353866581
37.395721371088044 -66.152029857922713 -257.424153604596768
28.771812472979718 -67.350283451832510 -258.709672986538635
30.711964217963821 -67.173267115961693 -256.582296964684019
-2.681574965643950 -64.984498277894289 -257.204707752331899
34.437656884604813 -65.603843972484711 -259.672978008459893
38.814843468512564 -64.455751948666489 -258.265773853316830
-142.571039799273024 -67.276427136131588 -259.669751228853499
-135.320391690041760 -65.756488281170732 -261.879523437803130
25.537645505279013 -65.660383883820970 -260.914788232935280
-121.709585270288244 -67.239757773318459 -264.121269700701362
27.374803446395767 -67.896848768613282 -260.913864323304892
-126.992638284979762 -66.082896816464839 -264.988588092743271
-127.870234356251359 -67.363570045624158 -265.800332405952986
-120.869912631991951 -68.767565922238290 -265.801514711554148
-115.831529605934435 -66.310774282170726 -264.860371035411902
-2.006190813168470 -66.572833063968886 -270.724764645254766
24.704340476905827 -65.217455119489031 -269.761632703045791
-2.537006858286290 -67.104745625898133 -274.411727562903707
-2.529756746453181 -66.206686336110494 -277.202451341044593
21.478917474690615 -66.375196207090866 -275.316939290662958
-155.672135596731039 -70.411053071318449 -286.745911003018591
-124.939101221799945 -66.707675857969591 -290.539519325616595
-0.441796195735300 -67.200035293848686 -289.323333711180680
15.356542316242674 -66.334020865739816 -287.641555081822048
-132.121024997605303 -65.817248298395398 -291.004085961733949
-128.278068579851947 -68.004593787490506 -291.154586459846939
-123.134694492630985 -65.673835905589556 -291.731868432942747
-116.442645351577994 -66.342782864717279 -288.582106631651754
-149.720443951927876 -70.212767812359374 -290.459891566481929
-125.932080734603403 -68.177492254179924 -291.237999448818300
-127.394822428161206 -67.948310255746662 -292.052729271048747
-4.280109585785766 -68.103332359279875 -291.429329458774021
-155.221798837041177 -68.196745335966909 -294.605093102806791
-127.996628691725022 -66.194103614736676 -293.460497889703902
9.304080975446746 -65.731209426152304 -293.805072053480387
-142.912031297213360 -68.388069395218778 -292.882744523809720
-153.592878009087229 -68.794238634649417 -296.787272262162901
40.388441264042513 -61.679606655337921 -35.800399368888570
38.721897932884076 -63.193028543208726 -35.358081141440110
34.418080652125141 -63.113911471622131 -37.355263112039161
22.074358250384648 -63.373261124305017 -37.314897191501892
41.425938580241699 -63.101944526819182 -39.279988544341641
-69.184529719280036 -65.804799444017689 -46.676054724611859
-52.161747022418467 -62.489701309282225 -46.493889322391418
-41.517025676205790 -64.019974616737642 -47.643740436398851
-22.424564267166744 -64.048131134439657 -51.676165445323193
88.357300913573880 -63.166568422249725 -60.852017784333256
82.147469488482471 -60.538035767231833 -61.552834893146169
-98.588605269212991 -64.894819622246814 -68.001458756487779
-21.008169489532747 -62.554561242766113 -69.055425483647184
-101.623938104014769 -66.315524456864622 -72.724778768154565
-30.370133603286057 -64.549579449538967 -74.102991523753190
-32.839794235667576 -62.618410130015846 -76.166701645926338
60.233147264695589 -63.186068811462476 -74.599781887921893
101.637139165041305 -62.380435271719861 -76.725767774178252
-100.350259896092652 -65.320883966882207 -81.857284486396310
62.576434468320883 -63.815751739543060 -79.159096924730321
-48.585136375553816 -63.944108239336472 -84.595255380079067
57.775220405884056 -63.234480701851751 -82.348200934195276
-53.267591963191819 -65.250275385261062 -85.265318574137737
100.824946380563873 -61.526388846555236 -83.063894410908304
104.743495947062698 -58.932128173307817 -83.506707612316461
52.895686109214033 -64.258162927153776 -86.085832723451659
50.831356330588505 -62.605584800929577 -91.674372313558464
63.243144077048278 -66.212783979232526 -89.599880318212087
-65.382083338247341 -63.437741750823989 -90.415272659647300
63.564614455721888 -61.978385588584743 -88.844824092688398
61.834130983329828 -63.850720776696321 -93.685477064110543
47.239766381757818 -62.531289191888277 -91.888594401441139
-65.942836638914756 -63.913213065373853 -96.913990062900083
64.707054799065617 -61.621772613290986 -96.266324153435804
-69.459013922381715 -63.426930930505065 -97.797894188045930
55.783802580886558 -61.523499291761894 -97.952658524571206
100.178783954186756 -62.924764354238832 -96.897140012766883
45.287085901670167 -64.179399237704359 -99.188091324256959
49.697200641770834 -63.450160139407345 -102.554463798151545
48.074517870235951 -64.027011472031759 -102.304790884017109
-72.309322539067026 -63.999640628273966 -105.418378680342258
-101.310956899844513 -61.211998865102515 -107.276921187373446
-80.642136734673784 -64.171126510232526 -107.116253336266695
72.212566270686779 -63.130526107511400 -102.930140335493249
-84.499942371543185 -63.657985902021409 -108.453245729442997
-72.919970154763561 -65.092673721584347 -106.859583909384057
82.869652272276170 -65.664393643420397 -104.104877157190231
-71.139942103479484 -62.458954140839040 -107.320512895478487
88.190362010026249 -63.878842906549565 -109.018303163189429
89.352368776787358 -62.529344682368176 -106.728903203066096
-82.411845688788731 -64.279823334404796 -112.487588367112920
-89.803886827579646 -66.066328988853471 -115.340210915974367
-85.290686600306287 -63.511623765662122 -115.008892260805524
-83.642990151521985 -64.745460300920371 -115.837188636389200
-65.471193119240823 -65.131023402427374 -117.428673191293441
-80.406459806711581 -64.338738293714755 -119.684483723551395
-92.478753419629172 -65.693877217152149 -120.821030542441818
-66.146784126173827 -63.466746452391305 -121.167121609499830
-84.873285017013487 -64.617046204846915 -123.238336436121116
-65.098578573302760 -64.447522520269530 -123.470382445182153
-78.285479240059757 -66.095648751732725 -124.910255179209670
-79.650367828521738 -63.259386448129931 -123.557604390824778
-86.882155916235448 -63.532728063713606 -126.466837232583586
-80.092617250403507 -63.066659261557660 -126.081734109416985
-56.496590641917052 -64.026559343866211 -126.899323107908188
-83.341007620261877 -64.617302896337947 -126.572746705727170
-55.595351498000909 -65.303700060857437 -127.547685945506188
-83.682949806623157 -64.582176322181809 -129.266318527895265
-54.004124471590501 -65.019244283957605 -127.948705410032076
-63.374612738380350 -66.786547049057106 -129.681005592552083
-89.964602608118582 -63.542896917171277 -131.231368352551385
-87.216115762400207 -63.067439541845744 -133.047847472482289
-91.352515885487136 -64.195341307375031 -131.197940049174804
-87.024411192627298 -61.472647716896390 -132.869468173395092
-93.715264530881242 -67.499270976673969 -135.607798142658851
-86.917778238943171 -65.643610128069525 -135.234967210611586
-78.176676246717122 -64.437691716782709 -138.118125006363897
-80.043338603981894 -65.524722365874752 -134.684308638123213
-63.990776812128843 -62.316378249116283 -136.245077998074407
-78.491663470150456 -64.707126115988601 -137.391586513690271
24.889797988620636 -62.773699370206074 -136.098970785121082
-62.651966145273505 -62.919825693299771 -135.946321263499840
-57.567830295636014 -65.540875841147837 -140.783103861294279
-55.729931941075662 -63.430086450940053 -137.881293874677709
27.545248929978499 -62.374879178238388 -139.057305433395726
-93.531640717824871 -67.789141464525969 -140.465973880153882
-60.950487616968530 -64.084354147021898 -140.867060136138463
-50.081695598361151 -63.543453490760882 -143.002026355139918
-97.761865706113554 -66.901935577107096 -142.419415015267418
17.075551530268875 -62.824126454125391 -146.069730440988451
-90.261447870677287 -64.217698778407680 -145.499740383687509
17.248346724332663 -63.867457706982790 -148.667961747462527
13.733700344955949 -64.498773436816933 -151.245952894289161
13.781468672223102 -63.260079641494357 -148.244013676398680
-100.950305056678161 -62.670048229925683 -155.429292843275817
-94.376536334636839 -64.220457271736095 -154.957946122902683
-104.953833169189963 -65.388779576465410 -156.234768694271310
-104.877361383567759 -64.059624755138074 -157.290821644419509
-104.672226237869168 -65.991994835349004 -166.689682429753020
-100.826930874555615 -63.401799072382431 -166.989979090767235
-108.013033450773577 -64.684524438749278 -170.582093654007650
-101.680818697138903 -65.161185550689780 -171.093462677239273
-110.454365685526568 -64.432821059323032 -173.392476044667376
-151.048691088461538 -66.215744995624505 -177.093893054853567
-141.852500413766393 -65.593722064015154 -179.539407178616642
-105.363461098056618 -66.206981301373503 -178.863454815127255
-113.682617958567562 -66.885406172628123 -183.516454489836093
-107.645036023451127 -66.050140083110790 -184.813110560175886
-111.764580382162961 -67.432850740203676 -185.644186300681270
-151.009462159353149 -64.084371370997090 -189.388080946513327
-146.790688388533084 -65.848664432476070 -191.837837345534098
-113.913236592755453 -65.837123981499261 -190.850311303731502
-145.000708210910688 -65.888151014120254 -194.132217750664239
-112.729790371865619 -64.478302186615693 -194.181873785975768
-150.912425990120056 -66.870251600480643 -197.280750292351996
-143.925733023644881 -65.463876198296802 -192.742898894086949
-112.099603094729503 -64.561740271297325 -196.032820687665065
-153.895303501765625 -63.720217625523034 -199.275472632158710
-124.722833810661200 -66.600973554335354 -198.622706538909853
-114.636300017181810 -63.563125198529562 -197.032154098623039
-140.750697142137824 -67.421891471687147 -199.173626280802864
-133.183847084014303 -66.448864126964907 -200.065163640940142
-117.907521221259572 -65.801166163239870 -199.502360149789837
-109.625479588342557 -67.867510129925009 -198.797776727122283
-122.913355395514628 -67.707932559162060 -199.308320188883016
-140.373716169676072 -63.708978915764988 -200.863963642850109
-121.158685004016803 -63.476408755920986 -201.361584943707015
-110.859296077482554 -66.247427564358389 -200.310463709049685
-111.344898312204208 -67.220597216319291 -201.667946087777466
-136.087593561142285 -64.601928185854661 -202.635223029855723
-124.990320609162637 -64.045635901379839 -206.239491360308250
-115.943246001185486 -65.289655162671409 -201.467700308181293
-113.449336925280051 -65.181245283906307 -203.374535596587918
-127.612814541164113 -63.248783349646430 -205.114782721778084
-123.073376971700611 -66.084700045394072 -207.362505886262596
-123.499759536282170 -65.637659049328349 -205.139224054516063
-117.812481507825652 -62.148851379425111 -205.021403707138404
-151.214844423196951 -67.198446100102686 -209.157301548718749
-146.069289861044354 -66.650385590011808 -205.519349012551288
-151.187292373456046 -64.473087669075397 -208.863024011393264
-143.891883498102288 -65.049690715548579 -216.395802187796022
-151.518511703385883 -63.500392510971380 -223.951021772279262
-124.198436059842066 -66.397009802669160 -224.979382644470803
-133.726704197860840 -66.038806052865056 -226.752507463973387
-127.575370541891544 -65.438869672617145 -230.234057378365407
-139.708087191572616 -66.785244094863785 -230.366139975640181
-116.634751212119909 -64.531960126509375 -229.036367615272553
-122.407430086479224 -66.414961492622510 -228.711692011884736
-114.048293903138045 -65.996994867054383 -232.917371295206152
-140.081797948570141 -66.391669395635432 -231.904312995305219
-132.718381130735906 -66.505237097460665 -233.941406474916306
-132.042112215061763 -64.968663794112004 -234.270388783079284
-126.762213787523308 -64.759678754165336 -235.887816236889137
-119.794639544486330 -67.110630090096080 -237.758023085669919
4.555078173958858 -66.079749155017950 -235.695765075849096
7.105543090790674 -67.722724628801657 -239.207411462738975
16.313504147238373 -64.379575146431023 -239.962249647784461
-6.408967778930339 -63.446143824196241 -244.058441878709971
8.812325933140521 -64.862658222658808 -244.580484220125186
22.384399620298545 -65.153738314621009 -242.261715924349573
-10.938132668776824 -65.125788248629760 -248.493588392257152
51.727763247554208 -63.730763141476643 -246.610324977435255
47.155924494603205 -66.617197640020493 -248.214898193369038
40.307723256697216 -65.889794689446660 -249.706446422116016
50.607278761095650 -63.924559447664649 -250.372130803596519
36.930621384635316 -62.239910968899480 -255.174887080383883
-2.510797501428232 -67.484663855439109 -256.167679377305092
27.874573399941305 -64.945540652187120 -257.686997857334859
-128.326999132022166 -65.374179600387819 -256.753973436247122
-132.359210339021246 -65.861463356986150 -260.619966443587032
38.889122194207047 -65.032256522752576 -257.654212604944405
-123.060895574255312 -66.401512636014161 -262.105867983313885
-155.861354790341579 -66.416037379612746 -261.523466152227684
-146.925055482696877 -66.176216133862340 -258.997389891324588
-132.681740668891393 -65.707842142780692 -261.462603740185045
-124.418829136116102 -66.923789456440218 -263.787620082494414
27.060340683440295 -67.368596617328379 -260.975469462964554
-1.936968426468034 -67.140096989695138 -260.666052423016822
25.971807698093990 -66.315398610672688 -261.546213620845606
33.419161594820608 -65.346103551954371 -262.054563560071529
-0.834244628725763 -66.872389675122946 -262.199756919420338
28.296960968008722 -65.673224601875816 -264.921051899517522
26.308336250584677 -64.278710747586970 -266.783510978177048
1.098567155675934 -66.147864885226014 -269.412515527923631
-150.168107981083182 -66.326270973196458 -272.273609143154317
2.181862270709122 -65.555369440522227 -274.935959063949838
-147.343981430934377 -65.418682141637717 -280.333755719821909
21.814392709503768 -67.580053800572429 -279.376862235211831
-148.412472668110041 -64.611637559134223 -283.836150021255946
-1.960920409128882 -65.638145511874654 -283.807722152070141
-144.682222423052679 -67.629949709000613 -285.534737826050161
-154.986625379041385 -68.078031175546798 -287.732198493259602
16.931565299133013 -65.852157338890351 -281.530706092883520
-151.994308708848195 -67.437086014900785 -285.664298692639534
-144.140759600431210 -66.305642718543936 -285.144935680223398
-142.383921891855863 -67.676214074856290 -287.986925704963255
-149.527765768058913 -67.133788256109156 -289.691935218004289
-149.373492996241453 -68.007595840813593 -289.193167157133928
-141.614307949746774 -66.909635887445077 -292.680785805962387
-155.431133953027256 -66.848392426080395 -291.538443619202610
-119.330191136473530 -67.339578174647500 -293.963268132592361
-147.967988336054191 -65.734661725781507 -292.410958440850550
-149.252121134515932 -69.722998625230673 -291.783606304637715
-142.262134033110328 -65.747088213119568 -292.869236858730176
-2.125789097648966 -63.383278061867514 -293.688841413992009
3.650602536043905 -65.949645163336399 -294.825602800627166
-149.380870593439283 -65.959908087009111 -296.339061394385340
-149.139194133955073 -66.276453052194825 -296.843016883615292
-152.332138766768963 -68.673948770239150 -297.089059103048896
-148.465574384356586 -66.602238462244884 -296.646615448531463
27.342513277422615 -62.521072700125046 -12.288730041360518
36.307554270974890 -58.402308581942975 -11.996352037507050
34.946115563494637 -63.306394296579583 -18.092944402876931
44.688185669614327 -61.161521473143210 -19.197675928404173
36.784150750433390 -63.206490675427617 -19.091208535248512
46.979868543594748 -62.738048074323402 -25.615307384888034
17.423354516055849 -61.164979519472098 -29.311906226662821
19.395319867627890 -62.868901824203363 -31.273933057971767
38.258006070548433 -64.047557131660795 -37.419624867701081
21.938561090544017 -60.902835651438991 -36.771369785776415
32.144968554011768 -60.968881875802253 -41.068889246591631
34.080661623018280 -62.853529670801549 -42.616252414666647
-50.591655003998525 -62.241889058656866 -45.723813168695884
-44.033264292896618 -62.907456339867821 -47.334892190454319
-33.844431092295174 -62.711058157501910 -48.330748390483684
-13.030733833164817 -63.417857974124999 -60.376511261666167
77.180596949011061 -62.160950536455573 -59.058635442714206
73.328609576774340 -61.474153455938321 -60.610858243116496
-12.606593021284496 -62.534413125341999 -62.393346098972813
79.968727536509903 -58.919117654024006 -61.029459584903805
93.061608670244397 -60.260186573402038 -62.883651472222596
93.628658396616956 -60.924272520300107 -63.767990097516972
68.333853359568849 -63.857825593638893 -61.963050544523028
65.115679330451982 -59.621846168661278 -64.610205311239994
60.362727703855334 -63.645555615193430 -73.006008724821427
-43.668777193981583 -62.787260162599267 -80.731731037324636
102.033346057165957 -62.690412140308482 -83.049739190683681
-45.341025807782856 -62.614911726928952 -82.647141354450582
62.078830069410422 -60.902918259722711 -80.757943762830593
-53.060484908003005 -62.344944145019866 -83.297618847552840
99.876198854221172 -63.454735090167702 -83.491028680513367
59.877874919954110 -61.871815323690839 -84.741351443663021
-51.628874265435371 -62.488133739944558 -81.265315734319316
-53.469446782144999 -60.631725139763191 -86.227044441588689
-62.886715741257973 -62.155519559376501 -86.587771682451745
49.624886038128032 -62.485765660590047 -86.762272431583185
102.573720023319353 -62.323849705093124 -87.841334753985478
103.697600370829861 -60.724318751475266 -93.322967262241505
51.553110106285253 -61.456064628295366 -92.925040831685322
54.982478274425674 -61.501082033902463 -93.023764572239926
55.894944038897471 -64.230766758796520 -92.806332973844420
58.102830172754572 -63.859368675858192 -93.610079813070840
-75.856641823632685 -63.821074710522169 -104.408291875890811
68.295832008094010 -62.708366928014911 -100.613325150108452
-83.251710411615804 -62.761134330820866 -104.049670834560260
-71.038643608419704 -61.930538811777907 -108.969132617135372
-79.942248928778170 -62.428875314270172 -110.022204118818948
-75.210495630956871 -62.592808813808134 -112.670825108089929
-99.460709623816967 -64.212493570867210 -110.957773372985017
-81.892770415265986 -62.469876906151654 -112.940362147443651
-78.687871414542158 -61.720077588888600 -113.711218570010644
-78.580932785482204 -62.737546541554082 -114.728919192046149
-99.076294664227348 -62.662923162121160 -118.440333356917435
-77.313773827560908 -63.046633919423542 -120.611525410798620
-80.393522067863756 -65.581381897130782 -120.359695859041139
-64.106458227813306 -62.300322828073618 -120.841617895874251
-83.203814153338627 -63.451846945894374 -118.578911794653507
-58.819854065806524 -64.313514578126643 -122.954922803860384
-99.083781955944744 -62.778194742909378 -123.313912670817430
-85.435978313135365 -64.198769546872541 -126.309216843143687
-57.589580855629706 -61.325770858939237 -125.647738730263868
-65.495238805466414 -61.991508227327998 -125.207460596514252
-76.909236436386081 -62.518717148342944 -130.891291613226798
-83.028411231767720 -65.121420926800084 -131.559049296581236
-85.534447234364421 -60.767500125003451 -128.971835040127587
-67.615847123126841 -62.836226057611128 -130.091195448678178
-62.222287485989526 -63.944077881303997 -131.137541503837525
-78.171955524348775 -62.984760489215333 -130.889880028115925
-56.533191370082818 -64.253759170108751 -133.887191718556949
29.213103779287213 -62.618381764970550 -131.414698856796377
-90.564250215209540 -63.385141199754017 -134.835208090379354
-86.376362767221352 -63.081950786580705 -136.209893213710842
27.597300778195056 -65.544515631847247 -132.698252167047571
-51.037798863242699 -65.326060032061577 -136.889045356699512
-92.431375515576121 -62.765241373163491 -137.125947899724451
