# This PCD file was generated using the MATLAB® pcwrite function
# from Computer Vision Toolbox®.
# .PCD v.7 - Point Cloud Data file format
VERSION .7
FIELDS x y z
SIZE 8 8 8
TYPE F F F
COUNT 1 1 1
WIDTH 783
HEIGHT 1
VIEWPOINT 0 0 0 1 0 0 0
POINTS 783
DATA ascii
-28.100196838422654 10.115020751954688 -214.451263427695324
-33.890350341840623 -80.452285766599999 -209.846145629843761
-34.862373352094529 -190.292697906492577 -195.705520629843761
-28.423179626508592 -178.210649490354882 -206.865997314414074
-28.285011291547654 -108.516105651853906 -203.433486938437511
-34.212326049848436 -85.613372802732812 -216.069488525351574
-30.622039794965623 -178.814336776731835 -210.682418823203136
-27.345489501996873 17.891708374025001 -212.176696777304699
-33.399826049848436 -74.787147521971093 -214.701522827109386
-31.144752502485154 4.282058715821876 -212.776947021445324
-27.991302490278123 8.225708007814063 -212.065078735312511
-30.014480590864061 37.200164794923438 -217.716598510703136
-33.562980651899217 -183.445693969724999 -207.380294799765636
-28.105270385785936 17.742492675782813 -213.329406738242199
-28.002311706586717 -102.865188598631249 -212.680007934531261
-27.664802551313279 -181.928485870359765 -211.852188110312511
-35.930252075239061 -83.553802490232812 -205.288818359335949
-32.777168273969529 -88.985019683836327 -212.134994506796886
-32.119316101117967 -99.766059875486718 -219.019989013632824
-28.458618164106248 -105.588481903074609 -216.300888061484386
-29.189407348676561 -186.564998626707421 -215.045700073203136
-30.714469909711717 -114.356941223142968 -212.713745117148449
-32.107048034711717 -98.858184814451562 -213.914123535117199
-30.612136840864061 -94.084293365476952 -218.297988891562511
-28.756790161176561 -89.236545562742577 -220.609558105429699
-27.964378356977342 -119.664625167845116 -215.847152709921886
-36.279373168989061 -93.166461944578515 -219.210845947226574
-36.285224914594529 -169.486778259275781 -229.011215209921886
-28.000640869184373 -83.015914916990624 -224.394424438437511
-32.115486145063279 -116.962104797361718 -219.255645751914074
-25.519943237348436 67.462570190431251 -225.333633422812511
-30.210700988813279 -95.943790435789452 -228.270370483359386
-33.180374145551561 -88.915966033933984 -231.787216186484386
-29.405998230024217 67.994369506837501 -240.242019653281261
-33.438156127973436 -91.981159210203515 -231.676925659140636
-33.702156066938279 -118.067167282102929 -232.943923950156261
-39.449089050336717 43.192871093751563 -238.837524414023449
-27.697166442914842 -29.731620788572656 -235.941146850546886
-29.802566528364061 -40.960708618162499 -242.223220825156261
-30.858093261762498 -152.536438465116845 -235.745895385703136
-34.019241333051561 -24.803108215330468 -232.907501220664074
-32.543037414594529 -115.787513732908593 -236.544494628867199
-32.791610717817186 -22.552177429197656 -239.739547729453136
-31.942359924360154 -81.596023559568749 -238.858291625937511
-27.830245971723436 54.635055541993751 -235.682601928671886
-35.102867126508592 -142.216588497160302 -237.893402099570324
-28.632202148481248 -22.278335571287499 -242.726043701132824
-27.839202880903123 -2.768234252928124 -243.233123779257824
-24.711174011274217 -2.901611328123437 -238.055313110312511
-38.303009033246873 17.173339843751563 -237.336715698203136
-26.792190551801561 4.838912963868751 -243.892150878867199
-26.589248657270311 3.955413818360938 -246.458053588828136
-35.374992370649217 -125.054958343504296 -240.038650512656261
-24.189781189008592 25.959991455079688 -251.140197753867199
-31.807243347211717 -89.922672271726952 -255.806930541953136
-34.095184326215623 43.157577514650001 -263.563430786093761
-33.555564880414842 71.681533813478126 -267.540206909140636
-31.679344177289842 18.959106445314063 -268.776931762656261
-21.238063812299607 21.274780273439063 -270.996566772421886
-33.987014770551561 -27.456779479978906 -267.661911010703136
-32.825088501020311 -43.180236816404687 -269.775955200156261
-33.503036499067186 -59.450653076170312 -272.085891723593761
-26.059471130414842 -84.108757019041406 -273.652145385703136
-31.432579040571092 -84.377891540525781 -276.994674682578136
-32.726089477582811 -64.961265563963281 -274.890670776328136
-31.662078857465623 -71.118904113767968 -274.894973754843761
-37.533897399946092 -81.477447509764062 -273.628067016562511
-29.220687866254686 -30.264801025389062 -280.491104125937511
-33.979797363324998 -44.189048767088281 -284.433334350546886
-30.372016906782029 -79.279258728025781 -266.649185180625011
-30.908676147504686 -90.406986236570702 -278.578750610312511
-37.714927673383592 -99.817348480223046 -271.265762329062511
-29.946510314985154 -104.053050994871484 -275.188247680625011
-31.911872863813279 -2.330856323240624 -277.266738891562511
-29.116630554242967 40.074371337892188 -274.094528198203136
-30.678947448774217 18.312637329103126 -276.952041625937511
-35.956352233930467 50.070892333985938 -283.195510864218761
-27.072807312055467 56.673568725587501 -292.163711547812511
-35.769355773969529 49.863891601564063 -286.310775756796886
-31.863777160688279 -142.501093387602197 -10.695773124655762
-26.883232116742967 -118.136037826536523 -8.157253265341797
-29.334861755414842 -150.547137558458672 -7.214126586875000
-33.477279663129686 -145.321443557737695 -15.979679107626954
-31.780883789106248 -188.564311981199609 -49.919746398886716
-25.259605407758592 -202.334201812742577 -60.730651855429684
-28.311309814496873 -198.384941101072656 -67.138847351035153
-37.085052490278123 -196.939369201658593 -72.382659912070309
-28.381347656293748 -160.280741691587792 -74.730590820273434
-36.266029357953904 -151.683577537535058 -77.460906982382809
-28.668853759809373 -168.971786499021874 -83.958839416464841
-28.405235290571092 -40.352355957029687 -81.782714843710934
-33.090759277387498 -164.662417411802636 -77.359909057578122
-29.039985656782029 -203.358703613279687 -88.270195007285153
-32.525123596235154 -175.865507125852929 -82.645385742148434
-24.347229003949998 -195.565288543699609 -85.027885436972653
-39.013252258344529 -16.173889160154687 -92.125907897910153
-32.230110168500779 -144.283946514128075 -81.216484069785153
-33.780990600629686 -17.207092285154687 -99.667594909628903
-38.020393371625779 -152.983899593351708 -104.983421325644528
-33.506233215375779 -137.308351516722070 -91.217384338339841
-32.893150329633592 -209.259807586668359 -88.001846313437497
-30.944793701215623 -135.483985900877343 -95.097534179648434
-27.526580810590623 -139.679965972898827 -101.353248596152341
-33.248191833539842 -142.491105556486474 -97.820854186972653
-30.518943786664842 -205.547576904295312 -101.585037231406247
-31.915290832563279 -15.782455444334374 -104.368751525839841
-27.587921142621873 -210.005455017088281 -107.651939392050778
-23.702156066938279 -130.597620010374413 -105.063034057578122
-33.180297851606248 -135.922506332395898 -99.897178649863278
-30.463844299360154 -134.690921783445702 -111.121551513632809
-27.265792846723436 -41.477180480955468 -112.610832214316403
-35.756065368696092 -132.919269561766015 -105.022041320761716
-24.874168396039842 -26.551597595213281 -121.876098632773434
-29.275093078657029 -45.207458496092187 -118.839469909628903
-27.638214111371873 -19.759155273435937 -116.718681335410153
-31.004585266157029 -131.763669967649804 -117.320838928183591
-28.180816650434373 -36.953834533689843 -116.293083190878903
-29.052444458051561 -136.389037132261620 -107.676322936972653
-31.037094116254686 -28.233016967771874 -130.594329833945324
-31.351089477582811 -45.181953430174218 -120.766342163046872
-22.836334228559373 -128.353796005247460 -127.655395507773434
-27.693801879926561 -206.097694396971093 -129.478607177695324
-25.096313476606248 -213.616851806639062 -113.911323547324216
-30.805213928266404 -137.958933830259667 -131.561813354453136
-32.575126647992967 -58.421852111814843 -124.423278808554684
-26.314285278364061 -214.076538085935937 -132.757873535117199
-30.390922546430467 -24.358360290525781 -136.679794311484386
-31.469902038617967 -41.178955078123437 -128.574722290000011
-29.744903564496873 -125.930534362791406 -138.636322021445324
-27.611251831098436 -30.006889343260156 -129.985260009726574
-32.059249877973436 -30.544631958006249 -133.160949706992199
-30.943000793500779 -212.745372772215234 -133.135864257773449
-35.319480896039842 -35.100891113279687 -142.593490600546886
-26.633064270063279 -61.077003479002343 -144.571929931601574
-22.464332580610154 -127.975852966307031 -136.563430786093761
-30.097763061567186 -16.808059692381249 -131.590515136679699
-34.993698120160936 -113.340248107908593 -135.180130004843761
-29.998657226606248 -129.709484100340234 -134.798141479453136
-28.410057067914842 -131.847764968870507 -134.056762695273449
-29.670066833539842 -106.298377990721093 -143.665054321250011
-34.781631469770311 -52.851882934568749 -141.667327880820324
-29.043312072797654 -131.739633560179101 -142.104537963828136
-36.772132873578904 -50.571380615232812 -134.292068481406261
-31.496017456098436 -108.371028900144921 -139.465927123984386
-24.957466125532029 -122.402090072630273 -133.337631225546886
-34.609214782758592 -31.214309692381249 -143.244735717734386
-28.934585571332811 -55.917633056639062 -137.473510742148449
-29.763793945356248 -36.875289916990624 -142.255920410117199
-30.274215698285936 -116.553188323973046 -144.207717895468761
-29.791908264203904 -126.907657623289452 -138.688400268515636
-26.410903930707811 -100.392974853514062 -144.854171752890636
-36.987823486371873 -120.709720611570702 -134.496826171835949
-34.696289062543748 -129.555343627928124 -152.217773437460949
-28.716621398969529 -48.992675781248437 -147.472091674765636
-33.816947937055467 -70.611618041990624 -149.383468627890636
-31.732933044477342 -60.565673828123437 -146.865982055625011
-31.627189636274217 -123.797927856443749 -147.069152831992199
-31.508567810102342 -61.193695068357812 -156.228530883750011
-22.491619110151170 -57.463142395017968 -151.274673461875011
-35.000656127973436 -113.116760253904687 -149.261413574179699
-37.549926757856248 -56.036239624021874 -157.430953979453136
-23.058120727582811 -129.097225189207421 -150.069824218710949
-27.109344482465623 -215.656890869139062 -154.878784179648449
-32.888259887739061 -66.844459533689843 -157.967926025351574
-27.224746704145311 -205.886959075926171 -151.391937255820324
-41.709640502973436 -68.098220825193749 -164.514083862265636
-27.263122558637498 -57.220832824705468 -166.610061645468761
-24.556228637739061 -115.259895324705468 -161.422866821250011
-26.305343627973436 -204.954463958738671 -160.612075805625011
-24.329841613813279 -71.006477355955468 -167.931655883750011
-22.660789489789842 -72.955444335935937 -156.529617309531261
-32.360473632856248 -69.795158386228906 -171.024826049765636
-36.159530639692186 45.363357543946876 -170.738739013632824
-29.805152893110154 -109.720508575437890 -172.736816406210949
-22.410923004194139 -212.202705383299218 -171.133316040000011
-28.349182128949998 58.202606201173438 -185.661849975546886
-31.760330200239061 -73.478340148924218 -169.247665405234386
-29.653984069867967 18.237579345704688 -180.259353637656261
-29.093406677289842 33.647125244142188 -184.281341552695324
-31.959815979047654 7.439468383790626 -180.974212646445324
-30.483863830610154 13.878677368165626 -193.957290649375011
-26.581527710004686 -81.134727478025781 -188.830688476523449
-32.914230346723436 -114.752517700193749 -185.196365356406261
-29.909828186078904 -86.799907684324609 -187.990921020468761
-34.642303466840623 17.797561645509376 -192.699966430625011
-24.436424255414842 -78.602249145506249 -183.633773803671886
-28.685554504438279 38.321273803712501 -188.083938598593761
-38.212158203168748 -84.454994201658593 -192.130050659140636
-24.912803649946092 44.402130126954688 -188.409698486289074
-33.835350036664842 -190.967613220213281 -196.363769531210949
-25.945701599164842 62.705139160157813 -189.277923583945324
-31.139564514203904 -98.428794860838281 -199.526184081992199
-25.445121765180467 -107.645729064939843 -196.639587402304699
-33.118721008344529 -110.257053375242577 -203.637695312460949
-29.424339294477342 -174.179759979246484 -202.461502075156261
-31.702781677289842 -104.343116760252343 -200.949218749960949
-30.149932861371873 -108.748371124266015 -197.884140014609386
-36.727722168012498 -79.219566345213281 -204.187438964804699
-28.833259582563279 -11.620315551756249 -198.853805541953136
-26.262008667035936 -1.522521972654687 -200.488479614218761
-29.351432800336717 -97.300746917723046 -212.727157592734386
-27.043167114301561 72.773635864259376 -209.999542236289074
-30.294212341352342 -116.589500427244531 -210.337677001914074
-30.247238159223436 45.223815917970313 -210.349044799765636
-29.648460388227342 -115.615093231199609 -213.804733276328136
-30.117858886762498 29.009750366212501 -212.489135742148449
-28.177978515668748 16.473953247071876 -216.469879150351574
-29.292366027875779 -113.341091156004296 -200.415603637656261
-29.720367431684373 -177.356126785276757 -207.539688110312511
-27.917442321821092 -109.229831695555077 -207.319534301718761
-29.597702026410936 18.252334594728126 -215.465988159140636
-29.978599548383592 -173.709392547605859 -212.204788207968761
-25.786407470746873 -185.119132995603906 -215.340179443320324
-29.577445983930467 25.380218505860938 -222.163009643515636
-24.410148620649217 13.041229248048438 -217.183563232382824
-28.395866394086717 -89.066127777098046 -218.473739623984386
-30.408363342328904 -166.321189880369531 -220.186614990195324
-26.000923156782029 -173.316282272337304 -220.041809081992199
-30.767623901410936 -173.693481445310937 -223.144180297812511
-36.196159362836717 40.537582397462501 -218.955795288046886
-22.227703094526170 -174.577468872068749 -219.817581176718761
-22.561676025434373 -164.002858161924706 -220.554397582968761
-22.518466949506639 64.418045043946876 -216.443496704062511
-31.076377868696092 -96.945201873777734 -229.614349365195324
-35.207817077680467 -122.660799026487695 -226.061065673789074
-32.683441162153123 -98.999813079832421 -225.257476806601574
-35.411399841352342 -116.523178100584374 -223.854080200156261
-38.140617370649217 -160.440159797666894 -221.029815673789074
-26.683898925824998 -107.095989227293359 -223.955245971640636
-29.751388549848436 -92.307979583738671 -223.996292114218761
-24.565345764203904 -106.487571716307031 -226.316665649375011
-32.875923156782029 -162.321924209593163 -225.532592773398449
-29.319107055707811 -100.332515716551171 -223.779708862265636
-26.575431823774217 -95.354290008543359 -233.001464843710949
-29.031280517621873 -113.946640014646874 -225.739593505820324
-25.630500793500779 69.867568969728126 -226.384887695273449
-26.785865783735154 -159.643333435057031 -231.564193725546886
-33.976692199750779 -152.920380592344628 -232.743728637656261
-27.001869201703904 -151.466011524198876 -226.157577514609386
-28.274879455610154 -85.785461425779687 -237.959869384726574
-31.694137573285936 -163.424370765684472 -232.167877197226574
-29.866577148481248 -28.972442626951562 -238.708221435507824
-26.379661560102342 -143.593843460081445 -239.489242553671886
-32.013458251996873 -11.224182128904687 -233.906585693320324
-35.451499939008592 29.406143188478126 -245.073776245078136
-24.381607055707811 34.672409057618751 -242.830383300742199
-34.614364624067186 -142.913484573362695 -249.981536865195324
-26.615203857465623 32.897552490235938 -239.465942382773449
-30.051811218305467 14.133636474610938 -242.676574706992199
-25.815002441449998 11.685699462892188 -242.263961791953136
-24.936592102094529 -8.159576416014062 -240.123016357382824
-23.862770080610154 9.218627929689063 -245.525436401328136
-32.851142883344529 24.592041015626563 -248.581420898398449
-27.940040588422654 43.543487548829688 -246.690902709921886
-28.830902099653123 -83.718444824217187 -255.192916870078136
-32.205848693891404 69.813751220704688 -246.449584960898449
-32.190315246625779 -90.730331420896874 -256.638290405234386
-31.385833740278123 60.052261352540626 -249.480743408164074
-29.213119506879686 53.922317504884376 -264.241134643515636
-32.390357971235154 65.248031616212501 -262.006881713828136
-21.417964935346482 -83.300598144529687 -267.185348510703136
-36.243057251020311 36.220108032228126 -273.158065795859386
-29.928161621137498 63.808029174806251 -275.965744018515636
-31.170196533246873 47.890029907228126 -270.413101196250011
-32.715187072797654 34.832153320314063 -267.629867553671886
-30.436439514203904 -96.972126007078515 -268.203750610312511
-28.315132141157029 25.069915771485938 -270.139297485312511
-27.363082885785936 37.516754150392188 -278.598983764609386
-28.756370544477342 17.550460815431251 -268.782485961875011
-30.494705200239061 -25.787895202635156 -274.140304565390636
-20.399677276655076 -37.334724426267968 -277.091262817343761
-32.843727111860154 -94.009777069090234 -274.980453491171886
-28.839843750043748 -38.772460937498437 -279.421188354453136
-29.665290832563279 -43.913009643553124 -277.216232299765636
-30.407424926801561 -26.742385864256249 -276.132400512656261
-31.634971618696092 -14.386657714842187 -272.205825805625011
-30.024520874067186 -6.004776000974999 -279.526168823203136
-27.477241516157029 66.653121948243751 -282.754562377890636
-31.533683776899217 56.726242065431251 -285.595077514609386
-33.360923767133592 27.804611206056251 -289.422836303671886
-26.615859985395311 41.933349609376563 -281.107803344687511
-27.851562500043748 56.949142456056251 -292.685470581015636
-22.299480438276170 56.151107788087501 -295.578384399375011
-27.978820800824998 -139.662921905516015 -6.661957740744629
-31.722236633344529 -117.641880035398827 -11.788730621298829
-36.399810791059373 -139.012335777281152 -30.199966430625000
-35.497863769574998 -84.033271789549218 -51.124523162802731
-28.463546752973436 -183.478981018064843 -47.777828216513669
-31.717308044477342 -182.491249084471093 -54.897628784140622
-21.354980468793748 -179.944604873655663 -58.322494506796872
-30.392776489301561 -174.427997589109765 -51.606067657431637
-25.910621643110154 -183.402015686033593 -61.355049133261716
-31.791381835981248 -5.974487304685937 -59.175876617392575
-23.864921569867967 -172.211751937864648 -63.151107788046872
-23.521781921430467 -70.561683654783593 -65.977653503378903
-31.896446228071092 -200.905086517332421 -69.903419494589841
-29.289596557660936 -161.097280502317773 -79.780296325644528
-33.472488403364061 -207.559341430662499 -81.988197326621091
-33.130859375043748 -206.472541809080468 -86.579765319785153
-33.630081176801561 -170.276197433470116 -85.734413146933591
-27.981857299848436 -17.972091674803124 -82.320121765097653
-25.977325439496873 -157.993817329405175 -85.882789611777341
-31.592147827192186 -204.646347045896874 -94.840843200644528
-34.885185241742967 -148.737912535665856 -94.942031860312497
-22.919998168989061 -184.495155334471093 -84.731986999472653
-29.160911560102342 -136.054079055784570 -95.009933471640622
-30.479530334516404 -201.433933258055077 -87.262245178183591
-26.002723693891404 -144.989762783048974 -100.300003051718747
-31.393760681196092 -210.222278594969140 -89.983901977499997
-24.671043396039842 -212.888626098631249 -97.138938903769528
-28.676948547407029 -19.601959228514062 -95.441017150839841
-29.862495422407029 -15.205505371092187 -96.783454894980466
-32.484588623090623 -143.948329448698388 -107.774620056113278
-33.598808288617967 -219.010375976560937 -107.042182922324216
-24.235000610395311 -208.029369354246484 -108.052658081015622
-22.068824768110154 -20.690521240232812 -113.164215087851559
-29.218887329145311 -205.992774963377343 -106.684951782187497
-30.700462341352342 -42.083778381346093 -120.839248657187497
-34.266471862836717 -23.967559814451562 -117.368316650351559
-36.920883178754686 -23.980834960935937 -122.180191039999997
-29.741722106977342 -45.648193359373437 -110.422813415488278
-28.901100158735154 -127.395456314085351 -112.869285583457028
-24.463928222699998 -136.965473175047265 -110.931167602499997
-27.542533874555467 -30.053474426267968 -118.226066589316403
-35.697425842328904 -130.103048324583398 -121.134819030722653
-30.139533996625779 -209.166721343992577 -126.000137329062497
-27.437683105512498 -55.810920715330468 -133.941406249960949
-29.928291320844529 -120.355443954466210 -136.751785278281261
-24.091857910199998 -218.626083374021874 -134.018539428671886
-30.229797363324998 -134.477766990660058 -132.524429321250011
-25.315727233930467 -210.710723876951562 -128.283248901328136
-23.886260986371873 -49.752975463865624 -145.625152587851574
-27.299804687543748 -28.087547302244531 -135.014221191367199
-27.952285766645311 -53.659637451170312 -147.781066894492199
-31.158576965375779 -56.616462707517968 -149.904510498007824
-31.616455078168748 -109.639404296873437 -139.059661865195324
-31.059295654340623 -209.608592987058984 -139.564147949179699
-26.992965698285936 -213.236450195310937 -140.300933837851574
-28.474639892621873 -107.346965789793359 -145.815155029257824
-34.707008361860154 -112.981712341307031 -148.953094482382824
-29.462753295942186 -121.207759857176171 -137.860046386679699
-29.096481323285936 -127.309522628782616 -142.615631103476574
-25.180366516157029 -210.355010986326562 -153.012023925742199
-27.546516418500779 -206.776210784910546 -157.482467651328136
-23.524017334028123 -123.796401977537499 -157.582397460898449
-24.599441528364061 -129.335672378538476 -150.180709838828136
-29.993621826215623 -215.034660339353906 -142.341720581015636
-32.738708496137498 -77.446105957029687 -159.188446044882824
-31.680076599164842 -214.067451477049218 -154.521148681601574
-25.485969543500779 -126.453662872312890 -163.047576904257824
-26.665061950727342 -121.318944931028710 -148.862670898398449
-31.685111999555467 -208.847839355467187 -155.602874755820324
-24.167907714887498 -124.670909881590234 -156.520095825156261
-23.976654052778123 -214.239295959471093 -165.890289306601574
-32.681175231977342 -61.034469604490624 -165.138229370078136
-25.032089233442186 -125.511304855345116 -156.877624511679699
-22.662742614789842 -206.172859191892968 -171.727951049765636
-30.815284729047654 -114.943817138670312 -161.046768188437511
-26.636955261274217 49.572235107423438 -166.642593383750011
-33.193649292035936 -71.938156127928124 -173.821823120078136
-29.791358947797654 -130.091938018797265 -173.037918090781261
-33.869728088422654 15.557617187501563 -176.958557128867199
-33.874038696332811 15.319305419923438 -171.181365966757824
-19.823261261030076 -127.464887619016991 -178.099182128867199
-30.762863159223436 -113.503162384031640 -174.165359497031261
-27.969215393110154 -66.197135925291406 -174.308059692343761
-28.716072082563279 -68.524597167967187 -172.568786621054699
-30.015373230024217 -73.195404052732812 -170.771865844687511
-23.125274658246873 -115.538471221922265 -172.639068603476574
-22.133712768598436 53.516525268556251 -186.583862304648449
-32.089538574262498 39.876541137696876 -181.001754760703136
-29.545532226606248 42.040557861329688 -183.861862182578136
-25.921340942426561 -80.089408874510156 -179.036163330039074
-33.933303833051561 -117.671707153318749 -188.066604614218761
-34.340454101606248 -203.709335327146874 -184.818496704062511
-31.770957946821092 14.240188598634376 -184.470291137656261
-27.346847534223436 -122.349134445188866 -181.043243408164074
-27.601402282758592 -86.088554382322656 -181.831512451132824
-30.951057434125779 -79.455398559568749 -184.947998046835949
-34.097969055219529 -202.890819549558984 -188.165344238242199
-28.222007751508592 -104.995059967039452 -190.028030395468761
-27.181015014692186 -75.141197204588281 -190.605712890585949
-22.958702087446092 21.375915527345313 -184.585266113242199
-29.509109497114061 37.083984375001563 -191.342529296835949
-30.640296936078904 14.671569824220313 -189.217178344687511
-32.288246154828904 41.615646362306251 -186.462814331015636
-22.950057983442186 -117.045219421385156 -185.429000854453136
-33.947395324750779 -196.510860443113671 -195.463424682578136
-26.417846679731248 61.974090576173438 -186.810089111289074
-29.915985107465623 -196.524581909178124 -190.058700561484386
-33.199493408246873 -79.663230895994531 -192.840591430625011
-32.504646301313279 -196.629241943357812 -198.298034667929699
-20.620048522992967 -186.610511779783593 -201.818740844687511
-32.084159851117967 -114.302742004392968 -201.557785034140636
-31.241493225141404 -123.590864181516991 -195.839462280234386
-28.874053955121873 -119.594623565672265 -199.805023193320324
-21.934566497846482 -89.695030212400781 -200.485214233359386
-32.244987487836717 -13.293716430662499 -198.471450805625011
-30.338371276899217 -91.485481262205468 -204.006988525351574
-22.326229095502732 -195.925712585447656 -203.729248046835949
-30.165496826215623 -6.521041870115624 -203.644226074179699
-27.109008789106248 -1.178466796873437 -203.335479736289074
-31.408874511762498 -12.544433593748437 -205.650604248007824
-28.167823791547654 -181.893272399900781 -211.643173217734386
-32.368408203168748 34.538238525392188 -209.924743652304699
-35.941909790082811 30.658447265626563 -210.070220947226574
-25.954185485883592 17.780227661134376 -209.701599121054699
-22.486614227338670 11.497406005860938 -209.723754882773449
-27.581764221235154 32.928894042970313 -211.760467529257824
-30.493423461957811 8.268051147462501 -218.562988281210949
-29.910697937055467 5.863220214845313 -212.965087890585949
-34.023918151899217 -99.156158447264062 -214.136001586875011
-26.084854126020311 -87.469234466551171 -203.798583984335949
-26.713577270551561 -96.714103698728906 -226.125625610312511
-32.372367858930467 -89.642250061033593 -214.287490844687511
-28.604545593305467 -113.451763153074609 -217.534393310507824
-28.102012634321092 -86.191635131834374 -223.641693115195324
-31.696365356489061 60.993408203126563 -212.241622924765636
-21.021583557172654 -96.278141021726952 -217.865875244101574
-34.402008056684373 -176.083122253416406 -218.225433349570324
-38.077491760297654 -109.610363006590234 -219.267929077109386
-35.147644043012498 -88.848411560057031 -219.869277954062511
-24.590995788617967 57.410629272462501 -215.646209716757824
-27.360778808637498 45.371261596681251 -224.211090087851574
-25.627601623578904 -167.470914840696679 -218.939956665000011
-36.216514587446092 -96.202308654783593 -226.214889526328136
-29.003585815473436 -104.561355590818749 -214.884353637656261
-28.695243835492967 -164.545474052427636 -224.946289062460949
-26.280464172407029 -176.296548843382226 -218.101348876914074
-29.237106323285936 -165.775534629820214 -229.308303832968761
-28.085205078168748 -98.922531127928124 -219.433151245078136
-24.997665405317186 -163.238409042356835 -226.987625122031261
-26.578422546430467 -85.756126403807031 -220.254318237265636
-31.717201232953904 -80.499794006346093 -229.382110595664074
-28.005378723188279 -105.880363464353906 -231.415786743125011
-25.683235168500779 -165.835426330564843 -226.652160644492199
-26.986351013227342 -162.953587532041894 -223.913726806601574
-27.337112426801561 -149.071181595323907 -237.174118041953136
-27.159416198774217 -163.847942352293359 -241.083908081015636
-28.342895507856248 -83.853019714353906 -236.036972045859386
-28.759307861371873 -21.228256225584374 -233.138427734335949
-29.083732605024217 -21.592437744139062 -235.247604370078136
-22.312133789106248 -149.831276580689774 -233.582519531210949
-29.331130981489061 46.342941284181251 -237.920486450156261
-30.980773925824998 -131.780267715452538 -237.790740966757824
-32.278442382856248 -5.548889160154687 -245.936950683554699
-30.054435730024217 52.786010742189063 -247.706161498984386
-22.751792907758592 38.631164550782813 -245.881301879843761
-31.085029602094529 -149.068734586237298 -244.452575683554699
-22.507549285932420 33.699783325196876 -242.143585205039074
-30.842895507856248 22.595169067384376 -239.699371337851574
-28.069549560590623 -4.969085693357812 -250.153488159140636
-32.555870056196092 -84.204414367674218 -237.772827148398449
-29.272048950239061 -129.793754577635156 -235.864288330039074
-31.289749145551561 -117.273693084715234 -244.652221679648449
-29.051216125532029 58.736648559571876 -247.684997558554699
-32.032073974653123 14.227584838868751 -245.507369995078136
-26.258644104047654 -90.470520019529687 -245.094467163046886
-30.189941406293748 40.380126953126563 -247.925354003867199
-33.697883606000779 -86.370319366453515 -246.328643798789074
-29.450660705610154 68.631240844728126 -253.586685180625011
-31.054130554242967 -87.438186645506249 -273.041366577109386
-29.168350219770311 57.113510131837501 -270.882522582968761
-31.911811828657029 65.926879882814063 -256.892227172812511
-25.497596740766404 45.008819580079688 -274.663406372031261
-31.962806701703904 74.897567749025001 -272.097122192343761
-29.796821594282029 -114.995437622068749 -269.292373657187511
-30.607589721723436 1.115814208985938 -270.590530395468761
-24.642311096235154 -3.932434082029687 -267.681442260703136
-26.988014221235154 67.952117919923438 -264.529953002890636
-30.483955383344529 -6.856735229490624 -275.066665649375011
-25.786247253461717 53.569519042970313 -272.080520629843761
-25.710464477582811 -30.790855407713281 -275.951797485312511
-32.916816711469529 -28.201660156248437 -273.084182739218761
-29.959831237836717 -14.314468383787499 -269.102951049765636
-25.259986877485154 -99.296615600584374 -271.494552612265636
-24.220420837446092 -11.857559204099999 -273.882827758750011
-24.567840576215623 -6.670104980467187 -280.673294067343761
-31.026985168500779 15.400894165040626 -279.864456176718761
-25.033897399946092 18.757995605470313 -279.735610961875011
-27.669784545942186 27.940002441407813 -275.217483520468761
-34.457901001020311 43.217880249025001 -286.694931030234386
-28.307807922407029 40.007644653321876 -294.251846313437511
-27.635017395063279 -121.838827133177148 -4.342739105185547
-28.990066528364061 -130.206922531126366 -6.947687149008789
-26.341621398969529 -128.943290710447656 -0.099421977957764
-33.263511657758592 -144.741336345671044 -12.060367584189454
-30.672134399457811 -129.422510147093163 -15.951282501181641
-22.802490234418748 -28.263084411619531 -33.294448852499997
-26.457008361860154 -190.638046264646874 -45.761863708457028
-26.822814941449998 -87.438903808592187 -55.612094879111325
-23.584220886274217 -208.087207794187890 -52.759616851767575
-37.509719848676561 -201.763057708738671 -68.660530090292966
-26.960052490278123 -171.034751892088281 -66.850852966269528
-26.751182556196092 -172.325981140135156 -71.201728820761716
-33.320442199750779 -53.014556884764062 -72.422134399374997
-31.319641113324998 -164.134625434873925 -74.166381835898434
-30.678733825727342 -1.951690673826562 -72.676460266074216
-25.205680847211717 -51.077262878416406 -69.723365783652341
-38.302207946821092 -45.707206726072656 -73.163406372031247
-33.288887023969529 -199.578407287596093 -89.106925964316403
-26.767570495649217 -156.305015563963281 -79.396148681601559
-31.992050170942186 -164.607366561888085 -73.205513000449216
-36.293907165571092 1.090393066407813 -77.347953796347653
-35.931564331098436 -216.676490783689843 -82.419609069785153
-28.946708679242967 -144.776084423063622 -84.501235961874997
-26.196197509809373 -193.204692840574609 -80.160797119101559
-29.108032226606248 -204.897041320799218 -85.970832824667966
-30.248069763227342 -202.822624206541406 -99.998214721640622
-28.109840393110154 -173.756893157957421 -85.035324096640622
-37.903488159223436 -185.597557067869531 -86.977127075156247
-31.711357116742967 -148.640910625456200 -95.990303039511716
-32.272552490278123 -207.507244110105859 -94.373443603476559
-22.090942382856248 -139.876134872434960 -83.104316711386716
-24.904022216840623 -148.473400592802392 -87.927513122519528
-26.777061462446092 -209.527183532713281 -90.775436401328122
-25.293785095258592 -24.281280517576562 -88.409111022910153
-28.406974792524217 -146.872985601423608 -99.992988586386716
-27.322845459028123 -138.416306495664941 -92.396171569785153
-24.578361511274217 -203.375255584715234 -88.470588684042966
-30.447326660199998 -135.120654106138574 -98.158157348593747
-25.929031372114061 -9.413253784178124 -97.045234680136716
-26.035293579145311 -7.593048095701562 -106.994277954062497
-31.020004272504686 -207.451538085935937 -100.538986206015622
-27.759841918989061 -10.592773437498437 -104.696151733359372
-29.303787231489061 -139.622346878050195 -111.163063049277341
-25.049636840864061 -139.902003288267480 -105.768402099570309
-28.477928161664842 -11.645919799803124 -106.507209777792966
-34.223396301313279 -132.317960739134179 -123.449447631796872
-27.748092651410936 -207.347976684568749 -120.015434265097653
-25.455055236860154 -44.490493774412499 -120.068344116171872
-27.510299682660936 -14.017959594724999 -112.592964172324216
-27.713638305707811 -138.551730155943261 -124.055419921835934
-28.777778625532029 -13.964553833006249 -119.531509399374997
-27.664985656782029 -13.589370727537499 -123.925323486289059
-28.359779357953904 -49.164062499998437 -124.837646484335934
-27.281845092817186 -26.857109069822656 -133.684204101523449
-26.373260498090623 -50.470146179197656 -121.331253051718747
-33.663505554242967 -215.410240173338281 -127.460678100546872
-31.775550842328904 -24.007843017576562 -132.152603149375011
-20.231712341352342 -134.287043571470605 -118.376182556113278
-33.935577392621873 -21.591491699217187 -133.995635986289074
-31.195190429731248 -22.107482910154687 -119.447639465292966
-28.253997802778123 -15.421051025389062 -123.010589599570309
-26.195541381879686 -48.684509277342187 -139.213012695273449
-30.601036071821092 -130.806028366087304 -128.554107665976574
-27.653686523481248 -119.066671371458398 -139.066177368125011
-29.949752807660936 -112.942867279051171 -132.147247314414074
-28.048866272016404 -213.215827941892968 -131.945175170859386
-27.977371215864061 -4.393676757810937 -143.844421386679699
-33.588760376020311 -119.862688064573632 -142.669754028281261
-31.208953857465623 -26.366424560545312 -141.173385620078136
-23.088394165082811 -126.102386474607812 -132.383743286093761
-27.320289611860154 -51.700149536131249 -144.114852905234386
-29.235076904340623 -119.465475082395898 -135.291870117148449
-29.985862731977342 -109.773784637449609 -141.983291625937511
-31.221397399946092 -119.111680984495507 -153.835617065390636
-28.059928894086717 -53.279815673826562 -144.475799560507824
-28.677528381391404 -60.688545227049218 -141.362106323203136
-26.223960876508592 -50.168647766111718 -143.273117065390636
-31.878692626996873 4.014312744142188 -153.875259399375011
-25.976104736371873 -119.487060546873437 -158.829574584921886
-30.029418945356248 -62.955772399900781 -161.336395263632824
-27.237205505414842 -114.413803100584374 -158.335693359335949
-23.730758667035936 46.728851318360938 -161.250167846640636
-24.985954284711717 -68.971366882322656 -160.231079101523449
-27.013740539594529 57.267639160157813 -165.351303100546886
-29.338516235395311 -129.334901809690820 -169.674163818320324
-29.058929443403123 -67.570297241209374 -158.762954711875011
-26.520065307660936 8.004272460939063 -172.395217895468761
-20.677894592328904 8.847152709962501 -173.885452270468761
-27.759338378949998 -70.251068115232812 -170.703979492148449
-30.830528259321092 -78.457435607908593 -170.362060546835949
-30.745613098188279 -122.708015441892968 -174.540023803671886
-36.697647094770311 -119.502033233641015 -189.684295654257824
-23.750328064008592 -115.160282135008202 -172.446426391562511
-32.427871704145311 38.516693115235938 -176.288467407187511
-24.469337463422654 -118.915039062498437 -176.419906616171886
-27.967330932660936 -109.704425811766015 -182.112289428671886
-29.613586425824998 43.580368041993751 -182.470855712851574
-25.606681823774217 16.533218383790626 -179.863708496054699
-24.295021057172654 -114.894767761228906 -184.676528930625011
-29.745529174848436 11.652252197267188 -179.942321777304699
-29.697555542035936 15.009704589845313 -175.171905517539074
-30.819961547895311 58.960464477540626 -180.132064819296886
-32.582633972211717 -72.100509643553124 -178.777282714804699
-25.123527526899217 -117.656208038328515 -188.070358276328136
-24.636657714887498 41.421371459962501 -182.668518066367199
-22.504314422651170 33.633697509767188 -190.523223876914074
-29.578758239789842 -81.525535583494531 -191.947280883750011
-31.277030944867967 -91.219581604002343 -185.778625488242199
-36.245964050336717 -80.156257629392968 -195.302963256796886
-30.440879821821092 40.959014892579688 -198.011917114218761
-29.623138427778123 -87.635734558103906 -199.184661865195324
-32.639091491742967 -86.081848144529687 -203.568817138632824
-22.602493286176561 -121.131338119505273 -197.956710815390636
-24.763206481977342 -85.305953979490624 -203.330368041953136
-23.432472229047654 -114.929199218748437 -201.427169799765636
-29.631988525434373 -91.484554290769921 -200.932754516562511
-28.463951110883592 -85.732223510740624 -202.785873413046886
-28.007705688520311 -113.833423614500390 -205.835693359335949
-31.030570983930467 -103.872077941892968 -209.977828979453136
-32.060867309614061 -111.942462921141015 -206.597427368125011
-26.552711486860154 -85.857444763182031 -212.810791015585949
-26.400047302289842 54.416992187501563 -211.059677123984386
-27.419670105024217 -183.283153533933984 -209.640136718710949
-23.386161804242967 46.313064575196876 -210.186523437460949
-26.946922302289842 37.098205566407813 -210.884521484335949
-29.915687561078904 -95.062999725340234 -213.478195190390636
-29.132598876996873 -120.217342376707421 -220.981597900351574
-16.496055603071092 53.627410888673438 -213.502792358359386
-26.663864135785936 -181.724786758421288 -202.860610961875011
-30.710289001508592 -96.743545532224999 -210.405548095664074
-24.791496276899217 -100.353305816648827 -209.048645019492199
-27.017005920453904 -171.532285690306054 -213.538558959921886
-21.453605651899217 -102.850513458250390 -216.031646728476574
-28.835617065473436 -80.957229614256249 -217.217010498007824
-30.665977478071092 25.873916625978126 -218.618789672812511
-27.866561889692186 -94.529781341551171 -222.753143310507824
-23.176033020063279 -100.566642761228906 -214.805603027304699
-31.753082275434373 -169.099737167356835 -225.700256347617199
-25.696281433149217 58.309341430665626 -224.905853271445324
-26.040184021039842 -90.435317993162499 -232.535629272421886
-30.591743469282029 60.456817626954688 -221.891632080039074
-30.777404785199998 -101.785968780516015 -226.734741210898449
-30.288604736371873 68.450027465821876 -221.555358886679699
-27.186515808149217 61.667602539064063 -232.426940917929699
-21.255104064985154 -157.485570430754052 -230.917526245078136
-30.763587951703904 -166.124673843382226 -230.081604003867199
-16.762802124067186 -156.279129505155908 -230.577789306601574
-29.571632385297654 -154.745687484739648 -237.417404174765636
-25.976966857953904 56.817611694337501 -227.359634399375011
-33.736801147504686 60.060684204103126 -242.175338745078136
-30.800880432172654 -86.705162048338281 -239.274063110312511
-31.494468689008592 46.764099121095313 -229.516708373984386
-32.422096252485154 -122.032215118406640 -235.842864990195324
-35.877578735395311 65.681762695314063 -231.791183471640636
-21.888877868696092 68.042938232423438 -223.182449340781261
-22.568641662641404 -16.259735107420312 -236.033950805625011
-27.262580871625779 63.305740356446876 -247.211914062460949
-24.822937011762498 -8.995254516599999 -241.261840820273449
-34.645217895551561 -139.884310722349511 -239.284683227500011
-33.947624206586717 -127.801218032835351 -243.642440795859386
-25.921371460004686 60.872680664064063 -243.760955810507824
-24.686676025434373 -1.208282470701562 -246.640213012656261
-24.283599853559373 -134.773579597471581 -245.245971679648449
-25.463768005414842 -0.682693481443749 -244.261474609335949
-24.353652954145311 49.207458496095313 -250.823013305625011
-24.400581359907029 11.458557128907813 -243.506317138632824
-30.699913024946092 61.854217529298438 -252.874191284140636
-27.941604614301561 12.494308471681251 -253.904098510703136
-30.689491272016404 51.229354858400001 -253.564804077109386
-26.142364501996873 57.474090576173438 -248.632629394492199
-28.903396606489061 57.298568725587501 -251.271682739218761
-25.688880920453904 55.968383789064063 -253.286575317343761
-25.905090332074998 67.732269287110938 -260.226943969687511
-28.795707702680467 62.221557617189063 -252.285629272421886
-35.428649902387498 -124.285295486448632 -256.054214477500011
-24.366928100629686 46.875503540040626 -248.626373290976574
-30.632606506391404 49.696334838868751 -264.149826049765636
-26.535018920942186 -127.023616790769921 -265.197555541953136
-26.584243774457811 -91.798473358152734 -255.903396606406261
-31.663444519086717 26.973297119142188 -263.565200805625011
-30.648605346723436 37.018417358400001 -274.224777221640636
-29.927589416547654 35.353286743165626 -272.931533813437511
-32.968132019086717 25.531280517579688 -275.592758178671886
-25.367034912153123 20.309921264650001 -273.190994262656261
-28.130676269574998 2.595291137696876 -273.635513305625011
-33.549400329633592 -114.831359863279687 -280.997238159140636
-28.809776306196092 -10.491867065428124 -280.088058471640636
-27.469894409223436 50.485733032228126 -268.376571655234386
-26.245857238813279 -2.732788085935937 -273.713577270468761
-26.510307312055467 25.008392333985938 -281.728073120078136
-31.532646179242967 -114.318099975584374 -273.175765991171886
-30.606552124067186 16.686096191407813 -276.439163207968761
-23.108985900922654 -98.532875061033593 -281.222152709921886
-25.292205810590623 40.861755371095313 -280.359695434531261
-25.646629333539842 55.235443115235938 -280.342056274375011
-31.393226623578904 61.934310913087501 -299.858993530234386
-33.457504272504686 53.998611450196876 -295.037063598593761
-31.334083557172654 -148.772921562193261 -3.888054847678223
-30.386322021528123 -118.830623626707421 -20.321662902792969
-33.410820007367967 -130.472167968748437 -20.113401412924805
-23.994979858442186 -45.514999389646874 -33.310886383017575
-25.701339721723436 -80.722106933592187 -49.008598327597653
-35.831527710004686 -187.189155578611718 -50.550731658896481
-32.840103149457811 -166.575216293333398 -56.684318542441403
-40.125701904340623 -75.858741760252343 -57.093669891318356
-30.644477844282029 -6.855789184568749 -69.626876831015622
-32.341300964399217 -55.452522277830468 -64.667175292929684
-25.866333007856248 -173.279695510862695 -70.935066223105466
-26.869270324750779 -155.321373462675439 -75.507240295371091
-20.839866638227342 -162.925806045530663 -77.610717773398434
-26.743453979535936 -44.760551452635156 -82.608734130820309
-25.178390502973436 -166.058385848997460 -77.176651000937497
-28.936058044477342 -148.401360630987512 -83.483215331992184
-28.888450622602342 -173.953611373899804 -83.339279174765622
-29.034072876020311 -32.259422302244531 -79.025932311972653
-33.920242309614061 -143.918272495268212 -78.513473510703122
-22.105693817182420 -149.026669561861382 -90.459709167441403
-28.624496460004686 -200.540119171141015 -85.617149352988278
-27.692939758344529 -22.866233825682031 -78.707260131796872
-23.523170471235154 -204.132274627683984 -90.144714355429684
-31.354949951215623 -24.602035522459374 -87.416694641074216
-31.981300354047654 -152.359511613844262 -88.160331726035153
-19.903659820600389 -142.783648490904199 -90.618789672812497
-31.016868591352342 -191.659339904783593 -92.578796386679684
-23.419731140180467 -187.030639648435937 -93.601013183554684
-27.755111694379686 -159.285089492796288 -91.531417846640622
-27.205390930219529 -28.166717529295312 -93.822135925253903
-26.854103088422654 -25.480506896971093 -99.039154052695309
-25.614608764692186 -27.099601745603906 -104.969726562460934
-26.350784301801561 -5.143112182615624 -112.322509765585934
-25.612731933637498 -205.541412353514062 -97.638092040976559
-25.245048522992967 -14.721725463865624 -112.494743347128903
-32.856658935590623 -20.257537841795312 -105.125717163046872
-29.547859191938279 -208.717132568357812 -103.732337951621091
-17.757865905805467 -40.096603393553124 -105.614646911582028
-24.063957214399217 -211.235591888426171 -112.995132446249997
-24.143264770551561 -204.893882751463281 -113.659706115683591
-22.707107543989061 -213.459590911863671 -109.621688842734372
-24.357711792035936 -4.241561889646874 -131.181961059531261
-23.281791687055467 -51.768547058103906 -132.356353759726574
-25.044036865278123 -24.935890197752343 -134.836608886679699
-29.200767517133592 -32.000404357908593 -132.677047729453136
-19.825820922895311 -29.583007812498437 -136.177108764609386
-22.622261047407029 -44.957954406736718 -130.257339477500011
-22.924034118696092 -56.290214538572656 -128.246368408164074
-21.547168731733201 -122.451231002806054 -128.342987060507824
-27.943122863813279 -5.095321655271874 -130.505325317343761
-26.838989257856248 -49.646301269529687 -133.323501586875011
-27.293365478559373 -47.801254272459374 -138.837997436484386
-34.282127380414842 -61.933860778807031 -138.384414672812511
-21.215629577680467 -130.844049453733788 -151.241729736289074
-23.069488525434373 -57.645606994627343 -137.350448608359386
-20.326423645063279 -5.119903564451562 -140.186325073203136
-26.427360534711717 -60.609092712400781 -148.407867431601574
-20.499717712446092 -125.041719436643945 -134.521041870078136
-25.100036621137498 4.769439697267188 -145.866638183554699
-30.656684875532029 -123.317110061643945 -140.092300415000011
-26.187141418500779 12.578262329103126 -159.446395873984386
-23.160858154340623 -9.921112060545312 -148.669143676718761
-22.223976135297654 -128.598636627195702 -152.063751220664074
-27.307853698774217 -124.592403411863671 -153.543365478476574
-19.365554809614061 7.844848632814063 -164.284088134726574
-26.625297546430467 44.334854125978126 -161.346359252890636
-30.306175231977342 -72.312812805174218 -175.323471069296886
-22.239559173627732 -69.904434204099999 -173.473480224570324
-27.467903137250779 9.525939941407813 -180.629043579062511
-27.157402038617967 37.787170410157813 -166.663009643515636
-27.870399475141404 6.098571777345313 -169.756713867148449
-22.147636413617967 56.914642333985938 -178.904876708945324
-31.479904174848436 30.908187866212501 -176.117263793906261
-27.402008056684373 26.322204589845313 -178.175216674765636
-25.429267883344529 -78.902885437010156 -174.709762573203136
-23.142753601117967 27.630889892579688 -181.442108154257824
-23.174057006879686 6.488494873048438 -180.320495605429699
-26.495079040571092 -78.578109741209374 -181.133422851523449
-29.520721435590623 58.771606445314063 -186.856094360312511
-28.402839660688279 24.914535522462501 -190.270294189414074
-27.773223876996873 27.010833740235938 -193.673751831015636
-22.315662384076951 -119.326944351194726 -178.986419677695324
-21.945373535199998 62.123031616212501 -188.671569824179699
-32.097099304242967 -101.667793273924218 -200.125808715781261
-26.044792175336717 -110.364208221433984 -202.068710327109386
-27.605659484907029 -81.024185180662499 -191.617034912070324
-28.681846618696092 -93.228183746336327 -206.369171142539074
-30.090805053754686 65.107040405275001 -193.575775146445324
-32.607192993207811 58.482192993165626 -206.542739868125011
-27.694221496625779 -5.230026245115624 -207.902618408164074
-29.324577331586717 -0.284927368162499 -212.137176513632824
-27.812538147016404 60.841247558595313 -203.006225585898449
-22.463184356733201 6.449813842775001 -206.143829345664074
-24.186019897504686 -84.984069824217187 -202.882431030234386
-21.936954498334764 24.464874267579688 -212.436157226523449
-28.121559143110154 35.868804931642188 -209.328552246054699
-20.885383606000779 -98.647201538084374 -201.734680175742199
-24.524345397992967 30.903518676759376 -206.764739990195324
-28.275833129926561 20.895751953126563 -209.446792602500011
-30.301429748578904 19.914962768556251 -211.290145873984386
-24.424079895063279 -102.936393737791406 -212.877929687460949
-28.828208923383592 -0.519653320310937 -211.283584594687511
-29.238586425824998 51.969100952150001 -211.027893066367199
