# This PCD file was generated using the MATLAB® pcwrite function
# from Computer Vision Toolbox®.
# .PCD v.7 - Point Cloud Data file format
VERSION .7
FIELDS x y z
SIZE 8 8 8
TYPE F F F
COUNT 1 1 1
WIDTH 789
HEIGHT 1
VIEWPOINT 0 0 0 1 0 0 0
POINTS 789
DATA ascii
6.169033176549517 -69.805852871010032 -229.245922931590059
-29.333285111118116 -71.202235529012626 -194.095967711223778
30.520918160727206 -69.286358775529663 -254.874326991816019
-24.504448682473672 -66.940707200372586 -194.076945046727786
43.131636049141839 -55.946923553618447 -116.097624866785537
-78.653773470714938 -71.952157847387966 -143.215986058486038
-1.959273296844927 -69.369965359119035 -220.669719413853699
27.078585733444193 -70.206641594266756 -154.214376005582835
20.151053124363969 -69.869701291827198 -147.040675321114691
26.245418504882821 -67.716609698548439 -158.526582674259316
-12.145380899088961 -73.000024829108426 -207.040586203446736
-67.645854034124071 -74.272863998211633 -150.229064716833591
-37.874093358585867 -72.527354342328081 -156.066053760753960
108.675603615683258 -69.664966379003801 -156.426950061951572
-83.632626618741568 -20.133085444585237 -66.020936282400314
-50.606186329353378 -71.767854654366644 -152.491199722423517
-49.519562340342013 -68.181633234831381 -146.461801651444688
-85.069173677254412 -69.605871227819165 -111.203921384404552
16.156324250195105 -70.839950126364513 -246.670224925198937
99.721402920531887 -69.876185909666404 -190.726035879605718
-21.188621430948736 -69.570031149419364 -208.930165110911929
107.052312976350990 -69.810292478549925 -182.722396295354145
-71.232028433714262 -72.521601711226566 -156.634126469465883
-17.617404708349977 -69.919442808970445 -210.780731370066377
30.294453408086028 -70.807319513347593 -151.359513095412296
17.652096820402001 -70.903636918942070 -165.133797160091831
10.660087080333829 -70.076181109680320 -155.180119693612738
-63.483050225600252 -74.452519958041009 -160.829291240673172
-70.717682641215490 -73.034417021742854 -158.355370150069149
-18.899181547920318 -71.660584652987794 -209.805429025008692
16.030609238786290 -66.022966800684770 -244.957279332114382
43.391873844557431 -48.381620510683355 -19.507126973062157
-39.980995012996445 -71.515892088069236 -159.993470443054520
18.548328845066614 -65.606405594379041 -173.652147440969372
0.390048800178869 -71.500895530875937 -161.410199238067264
-60.575495196814963 -43.078459724593742 -79.709273023872697
-28.170086837419749 -73.446783000936591 -176.517065375839195
-33.670213387871492 -71.457290145987557 -164.466659449969256
-36.150895547662834 -71.006566318541246 -167.638942167354429
-37.494260883235846 -68.760592890724894 -165.171498488221374
14.363725275403263 -69.471750541468964 -146.562230188026064
-3.048532096291568 -72.430140474016937 -163.277303820767457
13.733941370737201 -66.406582022621819 -150.276959949509887
110.840568328183736 -69.409666279378413 -169.977921365539231
26.290752349968194 -49.712696724584660 -33.994505715265092
108.886039180970414 -66.805335929600048 -168.849559887962414
108.906884205684804 -66.402495794886605 -165.694141886723855
43.535388194341238 -66.307560719119309 -249.708219459297197
11.358643482240796 -67.760585151147495 -214.001910319648175
-28.303326801662017 -71.182254069224257 -179.634497510935262
-41.045609338854248 -73.542699605693301 -170.232525800205423
-26.387031718978456 -69.677362264573617 -179.399592305139237
-40.355741203129327 -68.591823774330450 -164.373738727295972
17.204802309831173 -69.317958443022206 -169.382450979511873
17.809006919084453 -67.153132220159520 -164.340007794794104
107.285009741779874 -70.403904798670965 -172.770286959321339
-37.348414918038323 -73.069151225478222 -180.737458121438237
-40.664593344616243 -73.233762413834214 -174.929700356259843
-40.628817108455657 -69.821302668661531 -170.953818937230039
-73.906959915798623 -68.949242511532148 -138.206605556303145
-33.558549773989263 -68.957738088399452 -180.530282960129938
-37.254005753600708 -72.450376608788503 -285.220272013945078
-32.553963378331957 -73.986981061271280 -282.944701598887434
-147.356244477631577 -76.139820826269911 -175.424932750680398
-144.128016774708186 -69.855361670741246 -176.013220615383574
-149.201346266807377 -69.084702362934010 -172.001743699266797
-154.855400917527305 -67.057681695848274 -177.683422289399488
-84.964923771537471 -65.557903746284580 -103.218005509626238
-153.246410952509137 -67.888834231291511 -172.170679173914891
-0.465172423862631 -62.250037524816811 -256.994495404640190
-22.982372123383577 -72.189087448182207 -181.956851992484587
-41.074027493358990 -70.983682245308088 -163.282870297441121
-27.394407364916312 -68.886820699615996 -180.098000881191695
41.925652879052841 -70.177655085419104 -249.953903757841886
10.809942672596593 -70.097618553438920 -215.824758638206760
-75.689216143650256 -72.585104425973327 -131.289534231048492
-76.854312457887758 -72.569730987569557 -138.001860262660017
-33.185593679888910 -72.540619290485651 -183.029104288300289
-39.985742159711975 -71.056376538965338 -174.314419752142356
-153.124975015325191 -75.961415577066205 -179.032547053991522
-155.792374911743622 -71.620237935212657 -181.252353573174247
-145.144076839195407 -67.617073097287900 -179.578980792926444
-22.114862993344310 -61.423814045605639 -62.975704890580730
-27.442802964645743 -59.195405094623283 -62.284448264890329
-88.914180892640530 -21.571582225699355 -65.547972262080677
49.534062335216845 -67.190624419162432 -248.715595831746299
-35.069008165786457 -73.089775521803787 -184.596392106235584
-32.242123326423709 -69.812695960840983 -185.744759418251704
98.085493322678985 -69.236661103270450 -186.251056758571877
-54.890006079029028 -72.248394179172280 -131.320512852380432
9.705041085943252 -71.882112710551809 -192.456967813874087
21.530197713305384 -72.269873953924929 -188.176337510328466
99.265240827216829 -67.198518599768420 -194.532284655199845
-133.591360793444352 -76.188025672230481 -195.630392973071565
-127.175992412103355 -76.240440261300947 -196.592454277380227
-156.886733545872715 -69.363292734547656 -221.986590120969623
-111.641303656219151 -66.887768861535648 -188.348997302949471
-23.432441268066373 -72.370770315634459 -205.754853213830188
-66.451542726022765 -73.463576224421104 -164.898673307872485
-13.461171327406026 -49.463596516888160 -241.203983071589846
8.933452401548463 -70.923899129354069 -240.767684613936893
98.480705304595830 -69.388595657848398 -200.946741169876390
-68.294980428208405 -71.971976773004997 -287.513278774608750
-148.382280846006637 -76.093598674892647 -206.697266014460553
-150.593785368732853 -63.435241644690770 -205.563984147664939
14.331381970360587 -72.760968406504233 -206.745468434517392
87.846670334031487 -70.072132673235828 -216.984545714965634
13.116843369288171 -71.557094246788864 -211.530996854139914
102.539501836654139 -56.713416306391039 -83.360620174291199
-73.423737294718649 -73.143066043715990 -154.381377051807391
-15.991816396128366 -72.165682664447360 -214.676452033534673
91.453897157036266 -51.389956270807716 -92.932999663595240
-101.537599066701588 -73.281539692381642 -214.113761776518658
-140.668382890149672 -72.960533893686033 -252.182660235993040
-102.655728345798892 -59.884398805146482 -92.257269554643315
-79.902184938095772 -72.906308042378427 -138.190206417945518
-0.492586451578942 -73.247977546702501 -220.903818256576670
-26.990145130952317 -72.346145392433115 -219.264478128039684
-120.777626871400813 -75.435151719779185 -289.086475268487050
-156.358209873387494 -70.649210831959607 -260.941050270451115
81.711747692868400 -68.938813785179562 -223.830165632213948
-21.014663539903768 -70.889383395111466 -219.547843555162046
12.239115741972038 -70.862781518738828 -184.072512585502210
-123.609040875975978 -67.371225199815925 -194.606108995736292
-9.052457162375973 -72.053427737590169 -224.592099565681252
-10.625625491202653 -67.166058915984522 -221.757288138106247
77.592883209261814 -70.060522028042243 -225.058195487629149
-138.626710811683097 -75.796417351258640 -227.998322425990438
100.012023373101968 -49.322584736518273 -91.414385716414372
4.212180082936163 -72.345918647261840 -235.795530233190334
12.896409513984514 -70.150522816175126 -228.157010520300332
-77.036716358105039 -72.672684025619176 -283.653223995226597
-148.099520238821555 -69.907834424094773 -213.461768348818907
-153.335598366861774 -65.576374972208470 -213.892301279394502
-160.617025138905205 -76.153217133276698 -230.876846333508382
45.828109732887015 -65.016090532687571 -16.674380512191281
-148.319914642854684 -75.465361546900127 -234.836447354266284
-16.532542794000872 -70.584350677954035 -234.436902114610405
-168.251437028515710 -76.399458434754692 -229.310272208822767
5.685440885532325 -72.787522367287679 -210.082801343703522
-97.773565186136793 -74.192882251840913 -288.853173192852921
-153.792460609909966 -76.686727137318115 -235.795892909222886
-158.478586241465848 -72.571123822050978 -236.721600647746357
-38.391337261738300 -51.827353215367225 -64.938642705081350
45.286110420575334 -62.568361249057112 -16.304455102716986
19.060389352732280 -59.802481436780525 -137.180693511539204
56.052821042576376 -71.306801330376032 -242.147774165159007
8.149851880184370 -67.266402290509234 -201.486667987650520
-62.771408715833935 -68.513084057758306 -131.111190201596116
-27.568502613851656 -73.431152476852390 -236.694136917122592
22.470953141504403 -62.987570295384401 -13.961590061324978
25.592101692978744 -62.116661319667273 -11.612908191791483
-95.630552749483726 -73.032527071494883 -73.900029151191404
66.004009057007750 -70.856747842192192 -237.626796493716910
-159.589102494653559 -76.607889091981946 -240.764088828976753
30.570071314031907 -57.740485194234431 -15.326010057681128
-37.088522305206666 -45.211921358813626 -60.383998140762174
-9.470754640880457 -71.245281396585270 -235.765095259293645
-13.640802129770321 -65.961249522082099 -237.175600382256675
-25.182823463494298 -73.790329099076061 -239.675746712284678
-27.083960667289560 -54.241369819683207 -59.208434140864227
-135.130504877441354 -73.204005486631345 -200.824290579785242
-169.757098850164851 -75.523245790464955 -234.987296941429776
-165.384360851128747 -77.009946979063059 -240.206066496446482
5.834261031119153 -72.471438939358890 -240.066336637061340
-170.565165177948302 -73.750132456058907 -239.598704268045111
-46.209627739931442 -72.572292953054657 -284.444096728851264
-146.097205831414954 -71.519735190073987 -186.010902142571240
-152.075229812415586 -65.361353929410413 -183.584372842182120
-20.673401323805777 -54.101693861563334 -239.837289199565987
-3.248254268854106 -73.052199028084985 -240.302684186245585
-19.255303831627522 -57.550470366713967 -48.069970587000753
14.367735727808187 -71.067992212904173 -241.053862273570445
-7.260938862024569 -73.078944669007527 -241.090216997169961
-99.836840667954021 -70.486949988767449 -149.329259249556287
-13.288408667068092 -68.202964280014825 -239.745152496672802
-140.189855155337085 -67.827744392148716 -193.870686996284604
-12.485368754578456 -55.034553073044101 -58.481234088893544
-156.581974550026331 -76.441257179620919 -241.518742215339273
-153.983090702554648 -68.653014895856160 -240.688647429520159
-150.050761464579097 -67.085822803749963 -237.543854891207843
-91.736998284129569 -44.736871708748879 -111.479657507861930
-27.124957989190847 -49.095776505871378 -58.610975865169465
-160.387628636801708 -76.714315124365157 -241.899041448943507
-79.328281033364547 -75.769189949510533 -245.182558447842979
-61.823694552595072 -73.095298167082291 -243.545630396759350
-97.600135624126267 -74.296362467381456 -212.316362255185567
-101.820815960252759 -75.489287317445672 -252.832170178478350
-17.938536383034112 -73.076930497363790 -255.891289330718593
-63.991989249005393 -71.720734016007825 -284.453512057588682
-144.485240569711578 -72.978810875151240 -200.576415160112646
-146.093610953370273 -72.231291394532647 -202.680600957855546
-152.873823232194496 -67.488714474839824 -203.079134693420343
-96.179320548770505 -72.882471605585067 -249.093024787175807
-84.052760015851248 -75.074018694093894 -283.476326372881147
-152.116613436006190 -65.895685203183788 -224.003656958002637
-128.234200067495095 -64.794851393725693 -197.992022699147753
-97.033769804575172 -74.261646079906228 -283.544419120700866
-96.021136664629850 -71.205167471217308 -287.549765855435169
-148.178507335705973 -71.717275402685871 -236.674294772741263
-118.230346159958572 -66.635059913908933 -199.729097600606394
-153.884065490324474 -67.448673446687337 -234.860809769582801
44.371003975765781 -69.217167161442745 -15.334338501102724
-12.559013156601694 -57.758962755496576 -275.467487450029637
76.803779829869157 -54.745777771314494 -91.068259061485151
8.948016356439767 -70.364190757296598 -284.490763550690644
-108.311731786616093 -70.989444597793906 -168.720813137112884
10.895196674637278 -66.527248295247304 -285.207658787965443
-84.850711832075135 -74.950177620265023 -288.271676497651072
-111.057542340589677 -71.198575241263740 -190.509759549952122
-144.394453835367642 -70.797169825244637 -222.561932733919690
-155.979973442645814 -65.214830622579697 -221.526008229801647
-129.289497586013795 -64.701163641547936 -197.470016579303490
-151.936430267660114 -63.830690144621464 -220.569569115029196
-148.196038544360533 -75.574509547235195 -219.031095865316502
-81.146072430260716 -72.736971189458046 -288.058073676702350
-152.145781336876894 -63.879022118392648 -219.907879089234370
-141.256889540386823 -75.754610697390717 -289.257969925276655
-155.006113733377305 -70.685330437563849 -278.167857332469907
-2.444258347053657 -72.205314914585671 -289.590264301273010
-3.941254346790057 -63.134342360741236 -284.052547089888549
92.284865537091605 -58.823811523546325 -105.883710945529600
66.642882726328011 -69.603130062409377 -88.308049739935797
-12.259615812863789 -67.771308259413772 -273.305744154219553
61.171723949772051 -49.097926270149017 -93.697291795725164
10.958314033011254 -72.196044153767573 -291.019696332164017
-107.699771358221923 -64.729222376460314 -164.764454220586998
8.907795612728803 -57.342092437233688 -285.979523573980487
25.882521778326605 -71.006350300515621 -15.898991625735786
-63.004086402616842 -60.547549876449686 -107.569933777342257
24.318916603994772 -70.931637060903810 -19.747058189759343
-13.014343190513358 -66.299186425043857 -250.237965002090192
21.054374747295043 -71.308722835397973 -21.693946732919905
-72.749911774846353 -70.924822664098940 -46.108075713406961
-44.987979239084972 -39.968534283947150 -58.874089960747853
107.736076026390563 -67.916969370438821 -113.122776309493304
29.328835673930357 -70.336045724851843 -33.641468883206372
-20.410844319623116 -57.933541731214241 -268.841976293569303
111.761275719599809 -68.571628805269938 -118.563924208735784
22.078225367262604 -71.232716064243263 -27.732485096174571
-18.335356631021362 -58.909480912580221 -265.925059288153420
108.853627851949483 -68.105580083984151 -118.311875196814597
24.382536866360475 -71.187451339580804 -32.390896517675181
110.548640609963371 -69.708717026585305 -114.418195063798052
-34.434343115351744 -71.327748089979806 -50.800803313127830
-4.386203981382994 -64.351433111504676 -257.512570949318899
-0.036687000054696 -62.833154445248191 -261.255038280818155
70.306092336500711 -60.668008295845183 -60.690904200226157
-19.263841240183318 -55.672979104076873 -250.043200007528554
15.111694397942335 -52.353573733000935 -287.158060600928422
13.602652768407227 -50.214817017472200 -287.317361334205032
92.005047434048265 -69.606577106300463 -70.955730509463947
-44.686673402942581 -72.544731950466115 -78.046486073519617
99.027442679096467 -67.192761521306991 -87.778124757226834
-78.443492833621832 -59.555259736310674 -40.922807109628167
-64.351447633762788 -72.299800693788072 -89.248563738796861
-15.172082227501463 -71.105041660763121 -274.003399991699553
99.895265800542262 -69.182072692285502 -95.768381250716175
6.207376579787523 -72.239925375641690 -290.012123711857100
80.986907016915254 -70.344473255226944 -97.977552535414006
2.876570515595487 -58.734185201085239 -286.744257396784462
100.325034980425627 -68.779340461136869 -101.650272905271152
31.941536583346156 -69.276563202584768 -34.873690569353734
106.373387709932118 -68.599820895748692 -108.931488656538235
28.157828054776409 -71.062552101488606 -122.515893106094737
30.275294084707831 -71.746894712980080 -122.889768083738176
26.527183435626476 -70.852602659578935 -127.539182057947983
9.894468599833621 -70.252118776090640 -220.302016723257623
-80.892138098959222 -72.640673643299607 -129.995030799483743
9.660172134001821 -69.311960172064587 -210.553256057391110
-105.491500832642885 -69.854992106161433 -167.891054894607890
-62.076448380241459 -71.960163612802134 -137.545100502240587
-4.159329027955572 -71.651046726911773 -216.946065088330386
-75.588024837064950 -73.247579144264421 -141.847948625754952
31.842849853401390 -56.048436076370415 -127.898535571586493
34.496914188477561 -69.169067766114935 -255.272067610376240
-71.043357627780111 -72.365814878252138 -141.759172425685023
-46.508324174870367 -73.928314690910597 -140.065005449900525
24.790611750657654 -71.378774269306220 -138.132671076225449
38.521615206548162 -62.491378990775267 -250.509814098038902
-8.517623834658494 -71.707845241671180 -209.479078699255041
-72.342608204196182 -73.075718262027394 -145.554686210434994
-11.349833468023860 -67.883803149459922 -209.272244356128027
-80.044481843644974 -31.439391114888657 -102.474316776381244
7.763857311529206 -70.574022196933896 -148.971724400463103
23.130334276214413 -68.695630376905441 -165.185700452802962
5.706587216813242 -68.160732037426172 -151.148650224644086
21.561214556441996 -66.056305852093203 -168.680396320580172
64.929277420903773 -66.373032500377207 -91.464954695483897
-100.691499281344804 -58.333827291939983 -109.918213561017950
105.106737090207787 -69.668748746027021 -161.158170977715400
107.984046055718082 -69.526437830706314 -166.326668658671167
106.314485232138310 -66.487805420898681 -170.442009537208435
-45.411975115035425 -72.884320107140184 -162.147736605320318
-25.059562806354045 -70.898746014705168 -185.592484125659837
-27.690343252394303 -67.693379179945239 -186.200030686836328
-43.574352872915419 -73.141007263554755 -169.854022596768516
-24.041198449683897 -69.173559984336123 -184.887397616149485
-44.023673089107817 -69.123130954969525 -163.079767043515318
25.111919973512599 -70.615164297515392 -173.562753302718932
107.794012768556712 -68.625904387947102 -179.371814046871009
23.131865465525969 -70.081082973328591 -172.016872359661136
22.237025288718314 -67.593652673705037 -177.835557845026301
23.844306858405901 -70.773564924836165 -179.064804459491910
21.737775671445768 -66.453269555687854 -173.639380909664112
13.076264373195267 -72.049535924864230 -181.247555225482984
-3.549819066284776 -58.222337444741903 -239.766831318439813
-154.562115180068389 -73.475544245926926 -184.064425717020669
-153.474850044108535 -68.699877192857215 -185.965904305498015
-147.303229152285354 -66.412100760333018 -184.208339054670773
-163.531301062952991 -75.113022591022528 -196.573746308238810
-154.582762196644239 -74.578405468385768 -190.815382053720526
-30.592432087524180 -66.830812622973596 -71.829502465906742
-153.711107538619189 -69.017853339904477 -187.527322736176700
-148.309761094890490 -67.743606346319027 -189.501035645636961
-117.707479722128298 -71.274777318431489 -223.172152842775915
41.163479457920943 -68.479059631469838 -29.123397081637222
17.212337853659477 -70.364398900046254 -194.491182987510456
-138.233419069543629 -75.334817715963197 -196.479313172767746
-153.463134314559312 -74.919195065346642 -204.564110514342332
-155.787857626718989 -71.316944328271788 -204.872805841664075
-140.377230504050658 -73.588580434196331 -229.705717814485382
-166.379081243723277 -75.710328709179763 -205.341903347437494
-167.056290286227267 -75.536972054237594 -204.683727315816384
-169.649179988940517 -75.009256754559900 -226.176891638520118
-28.261142749063058 -72.020434194813632 -215.866630493735244
14.675675809447240 -70.602214068439849 -213.416625714313824
-74.663742916443780 -72.714656608757977 -133.864270839073185
5.479980059539011 -71.878361689392648 -215.322759913326422
32.957469242866914 -58.010823852586306 -119.244142020923078
-27.257934035098234 -68.237825166942372 -50.839227298965099
-168.339783704364550 -75.772679775005287 -217.788321853128394
-101.898754119022200 -65.379853492822804 -158.878405003158662
-15.457668252470189 -71.272991980553741 -219.146169878355977
-156.972402126913892 -75.691209914342110 -220.396199088566533
-153.939381706362468 -69.823057316905704 -218.245614802283683
-149.346714139055052 -66.303654617843392 -216.750111415249592
-18.149559570636491 -72.430634215815019 -223.129580354442652
18.314663530047838 -66.764709370548815 -189.440429899919536
-83.053215895889537 -60.766356917405226 -117.554495103557173
-121.560621714914006 -74.968436054795418 -226.350191700277406
-135.335824981114115 -75.528280956112667 -230.160599654826200
-159.339829639580500 -73.937219154945936 -190.781987424443741
13.963184446051967 -70.666966470370241 -235.109593541784079
10.310391674679677 -49.491026880004803 -239.749614341522829
-63.651512047219448 -51.356341169153694 -41.553495641365849
-9.804651161981360 -72.922148632814412 -239.455354301527365
-100.925622273770387 -69.044433874328362 -146.179274281747638
-67.229485363954041 -72.649760514562587 -245.610516507794472
8.453379066354655 -48.743747949654846 -245.759805085456662
-71.143627214043974 -20.435223326983802 -66.254166423465719
-13.446873602034215 -72.106037373313612 -245.803444380705571
81.345687065101785 -66.383493583806754 -219.553552419909636
12.115687729711082 -70.714300177393682 -281.500661947967330
-138.912340856219117 -73.399254130834251 -281.512566315269567
-138.716814951772108 -69.573681178428430 -286.156676696495822
-152.924720424896151 -66.140154382960574 -277.353935021362304
13.457299490482134 -55.174034391485151 -239.227581745718311
15.993803286253184 -50.482850413718289 -241.120113930033568
-80.059156006431365 -73.780975982625321 -283.344755935225578
-81.479332849641310 -70.871014732984236 -286.024428922992286
-147.554444361878922 -70.897167213352915 -219.017681945821522
-153.531428253984217 -65.813122586368365 -217.747262581228000
-66.444494372446556 -72.595438690687303 -283.523149423213681
-147.127661735590209 -70.786553005408976 -204.168481078051826
-152.901511548945962 -64.821823015183725 -206.189445181311669
-32.670203093491011 -72.002787321446448 -286.351447139465961
-38.009763086980335 -72.596705732324978 -284.752414129352417
-144.189951315431443 -72.204397571794132 -173.015826085530307
-149.746900092828071 -70.452425295497278 -176.195531679689310
-153.377677032845355 -65.649415544917403 -177.165535170598901
34.421634396522499 -69.121004993915534 -9.698122169773736
33.720176722131924 -70.188825671467853 -10.907442076902356
-61.657095757322260 -60.233234266419316 -115.271977503145763
101.675990548951376 -58.430219439207647 -90.870520315897664
38.064897869352656 -70.025629997308656 -12.581149194473792
-58.337179296975641 -59.492271729302587 -119.138527694284974
102.035301599292993 -58.398216191141287 -88.052507848509762
40.682710706941762 -69.792677345569246 -12.773156537799139
34.986675849905325 -69.745061544702182 -14.387620798222747
-59.837842848052546 -61.130047304870040 -113.650596689502493
40.529365216628840 -69.576844522031138 -17.147122691049102
45.011378953751837 -69.776679009964553 -19.024385342611776
41.082999275293865 -68.980359205438077 -18.645325868714913
100.097879145651646 -65.077189403793412 -82.846854033410750
-69.244029019115359 -63.030586549524038 -121.705548468845890
44.380259910274496 -69.925932204785326 -28.075506979172633
45.291333932792021 -69.836421763453700 -24.577677327052857
44.738827091016873 -69.658382718243203 -32.728520125316351
-17.169984511078276 -70.963464903915465 -62.503492146934803
65.669962150478355 -68.671603176641199 -82.409728861885185
-58.237906408880569 -73.316723910991740 -87.601699775222301
-1.052744528591068 -49.556395327224145 -269.015771937701516
24.105464658363054 -66.180624964008416 -36.375355558902314
105.249948809006497 -68.000574585303227 -95.938620255209159
-59.569845371357488 -68.623466018405296 -141.656589579456920
7.026873030931116 -68.724151348268776 -198.459853674830754
104.671909049983356 -68.626775564291236 -105.238768470441116
26.238132933263365 -70.921246602831658 -159.573733564103208
18.710731379027642 -72.582173503590440 -150.374860033794107
17.396190568352345 -66.119249963721657 -146.410518745389027
79.015034169422705 -50.041122241873381 -73.348635753262684
4.246925673940732 -70.488300225927617 -158.663441310821867
44.758387978910783 -53.616271187550723 -106.645279690372021
104.897323138064863 -68.067693377407963 -165.666167002187990
111.386447206578069 -67.669566876971970 -164.781516298637939
14.497812537950571 -70.630926727188083 -168.594663088697473
99.653622532091930 -68.776520887076558 -182.885037102227699
-81.980888998885263 -18.674576085548601 -73.935351433159440
-153.900936773760463 -75.431262390733437 -183.286552696505225
-155.877454170840792 -71.107942850601219 -183.492670667962244
-19.333067536847445 -56.455977412834706 -59.181496597095631
-98.964355281164075 -64.803555443106063 -142.744325979673505
-12.269160444880198 -49.252271742791478 -51.330936297357937
-134.910362647192500 -73.312063986740455 -192.133703501368387
-122.710624076573993 -73.957484927652658 -192.956198989940418
-138.463089360272050 -73.239459418439978 -199.572676662917672
-160.942351549654717 -75.217838937744730 -205.444905663672188
-157.245952945065227 -75.078439220695714 -206.705350031756865
-153.406809815508069 -68.955527278202922 -204.064645221673970
-149.146520251863848 -65.688974823209278 -205.885022144039425
13.215421792542633 -65.726600570271970 -194.640569375646777
-77.736356136163380 -71.790265254127931 -145.111487033234908
-6.437601830117029 -71.657077975285517 -217.671614038801692
-13.201093135714475 -68.152223458460853 -219.747840396190696
-54.570486542548963 -69.172376960781577 -142.811775922162781
-24.903030355972945 -71.311238561521222 -219.557237301768822
-138.691002044202691 -73.812669949810740 -222.571212669889093
29.546130679868277 -61.967232948920945 -257.318904853811659
-29.433853859954887 -63.509245331009176 -46.524243931880612
-23.173815427128709 -58.749332432345838 -47.256530964765460
8.265441878264971 -70.787045590983993 -225.958739723411981
42.985937458032659 -58.360715270680011 -113.551910016035691
41.487945588346768 -58.409346071798389 -22.971561390415687
-16.090439993459992 -70.289602755718334 -243.361244428039043
91.882204971252108 -50.151535764965779 -57.939035747331971
-149.070170740716549 -73.832386970185340 -278.535343730833915
-140.213756288506460 -70.962060770081763 -283.585277167098184
-98.768333747659426 -58.616841310992903 -56.955964080624753
14.975225254969159 -48.576980220111608 -248.407423416375963
83.105787544043309 -54.923460177469849 -106.197337151018289
18.559829276891875 -54.663983623397762 -247.521813259701617
-3.573248884723547 -70.954651619769606 -288.702826809757255
92.283070739507778 -63.725054232428597 -104.195119509766442
-101.803481423435016 -73.337232829675742 -288.904081771156370
-156.244506986192249 -72.515594631047875 -239.026383219769372
-43.033523290977222 -70.572454636637957 -47.064760749167334
-33.090180060944142 -70.903979007576808 -50.916371927475126
36.224696996805307 -69.219074111445906 -112.895912995607532
-24.867443890580482 -70.668021001939266 -55.218883791765691
-94.142585954932073 -72.469257022834597 -66.235984041486958
-10.778813919701383 -52.411147125210555 -236.734802344747322
98.176444109746669 -67.177564745067599 -77.397394995827682
18.139349167910936 -62.450829562973681 -275.491693301686837
15.048492090800179 -64.104496109075939 -280.587067662065181
12.330384926821013 -54.189694376222739 -285.755977656328923
15.429268809947720 -49.855372843996150 -287.187299465684532
-43.395272453450715 -70.277427840437127 -75.310076868693756
-99.848794103880138 -71.055801217393409 -218.762011520585673
-101.401305645930947 -64.752704288835815 -88.556873918740919
100.760305030171011 -63.303103151923324 -97.883227802058215
106.529008908928574 -66.095451388827783 -98.818869504942455
46.076124010053647 -65.726838030051113 -31.843581192361807
-103.561655134369772 -47.006872921014299 -86.029004209240810
68.969941491439101 -67.340171849972933 -98.037130655266310
77.911275339576676 -45.936778736563042 -55.780636845961482
95.647637969107890 -45.904409462498172 -71.438159389064722
-98.376083383380347 -72.073796790755139 -98.832997079026825
108.022154293577984 -64.314270961008702 -109.219628299652783
30.675482119489168 -67.553305046820171 -33.971035889342922
-147.672489024490602 -65.418539998232575 -179.497347769101538
-26.609269757459575 -61.434881396383886 -63.919664088748462
-22.103804713264815 -59.192981361329124 -61.188683978039521
-89.469067301829384 -74.815392093603322 -110.851569131335722
45.752658389026763 -68.567460776055825 -250.417450850993902
34.929625340265190 -69.353919326196490 -115.867611397768911
-85.355140182669132 -72.010619344050056 -115.203756136297670
-48.861322167343893 -70.361829544190186 -146.803230642054444
-81.934061718265255 -72.070549934733492 -114.122839368912580
-50.801915137106221 -69.236493467954162 -152.809584367115747
97.704724505043757 -39.675738930848262 -84.990375598736890
-86.120369405396744 -72.200706470750688 -121.804037346961778
-56.801803121189401 -62.972733533390837 -40.308506128028597
29.016973156951863 -69.390732138701296 -141.803438481828920
12.039181762239680 -69.173646837298321 -152.193015198110487
15.889784532251705 -65.937068543528824 -149.045296488768599
21.715153084665687 -68.928524121829057 -154.553405028671648
-44.271855391926323 -70.898099355525943 -156.372155609955627
76.798817990003471 -51.424084321950318 -55.586822899833024
20.767352461515678 -68.867648903837306 -158.124186660738729
-46.579214145985958 -59.563338564075167 -77.503179602141984
104.297105693272442 -66.911369381636788 -183.055962565168727
-111.772392825798406 -71.937068051834842 -190.858721562710343
-168.504084939171463 -73.323034486661228 -197.565433804092862
8.191538218579010 -69.564112129327867 -206.807860480092074
-71.956860572252651 -25.399787934723779 -92.510842317213132
-103.977335383753015 -72.324946795407072 -215.674796283821053
-74.264923786947534 -71.904121334923403 -245.716426869188126
108.761760825467434 -66.115755239926557 -161.602049478518580
-102.815823766324087 -58.710848317060929 -92.713193107522017
-74.037081068989494 -44.651102305523267 -43.120490971098988
96.538838277966747 -61.436662104356209 -65.602305465660280
-12.065614641946352 -69.955679057091359 -225.373557851631546
-7.123171000217958 -68.633839701317413 -223.570353643748746
-0.376690289249035 -61.443887780665747 -281.044790742318071
0.029829627344990 -60.566538660749615 -285.247062546079235
70.126674918269870 -67.854430687182102 -225.944624099140498
-110.412100306052608 -65.040625781642362 -172.738921845979121
9.490595154762149 -67.986549995850226 -219.853354246854281
-78.888759262480335 -68.499407605100401 -129.013293774672775
-15.219283646736939 -69.387578471125664 -230.932776261287955
-7.760077523250342 -48.912440003266497 -240.472238352098572
8.033452941428047 -67.246449350267781 -241.555287842975645
-62.490442819610756 -66.309752291660487 -41.595526621475273
36.700303688679831 -69.555120953323737 -250.748879845945567
17.186389096136324 -62.734483876337308 -242.233726638531436
-101.695072628726351 -72.938118862762991 -256.065142188121001
-18.037875866674504 -70.035732384025081 -261.804139771648238
-107.793392291745988 -70.790765956939453 -171.931690099962765
-1.136611956393295 -70.441813972376565 -288.922638046673114
-8.611785338917660 -61.599685850356018 -237.467506756666296
-96.123622817738294 -64.882130887955483 -145.105847836489744
30.244030699232596 -64.580695646425525 -15.302214221535037
-61.877788914216033 -64.250674170530331 -113.290406037115773
40.764778699628970 -65.581703394529399 -29.835988634864396
-79.599057704648800 -69.890391458683965 -47.439186922179374
13.750008375992026 -61.377719063585353 -282.328328208308847
79.435476109103817 -56.569898316221355 -105.556492151742688
-87.751539131950281 -71.114819570943453 -54.942628259680646
-14.279593712102951 -66.216981622122660 -58.685256979033085
-67.614365264333941 -55.476906187182678 -120.166200252439197
-17.747505950857505 -53.439190715970831 -240.676565772846999
-13.547612289805882 -58.342408363862710 -51.172995659039898
77.147674634565490 -58.219816007395664 -56.938796003993389
3.860126192592523 -59.589279520671468 -258.644646797363521
-8.171085896788263 -48.776189219635292 -252.334304074005047
90.380980205111172 -65.812231058799796 -64.349091210628487
-16.281769521276562 -67.962207675212795 -65.694839759329540
-101.631100818492513 -50.339516787105147 -60.910418915602449
-100.109585042878493 -67.336170404670042 -78.916257560504491
61.281424086783097 -66.371267358911041 -241.180195217774724
81.172498492666605 -52.324157809532423 -79.735984350860463
63.688102980721744 -53.599514679189340 -94.909032049908618
22.789386551630983 -59.011492451929634 -261.459280576412880
60.854603179912793 -68.189332654777346 -84.757335488559391
-84.721221333840106 -39.051093947862043 -103.754701826247498
-2.407991076379099 -66.245235359718578 -290.170254411894007
-3.301824695605212 -62.307070283466331 -286.906806181853938
90.895538166110057 -56.496105471824265 -106.979912981887153
13.091240766194248 -48.965816721085162 -256.967711890229566
-2.790141174356199 -51.848809037115117 -276.529875938890086
65.401586797615821 -49.319500182559246 -71.598051566608362
84.083975626374993 -48.372406007929257 -56.539257383391046
64.722081428671871 -67.226339527207827 -87.710051201423667
82.343972558835176 -64.381880798973697 -103.447248328501487
-101.677487254183831 -58.087730731962395 -103.859511440766610
-99.946045021301600 -68.605611742814119 -90.036673761277029
47.992209781995705 -67.465309360198219 -241.818401309215176
82.640120993919638 -51.756702339929667 -92.028210123253515
-67.582062582514098 -67.288605522590757 -92.521313257011570
104.825686953022995 -63.436173582825333 -100.252515083799821
41.404088370279332 -64.651243504694776 -36.643960636109391
43.633935959740136 -64.266077343554883 -100.887072763093272
73.837776018644817 -64.429522293565412 -61.379322138214590
41.363889675966789 -66.543312844588286 -98.516586714971353
59.930823938081637 -46.206013029314214 -68.433152006480185
-10.677869418321590 -51.136410449583693 -267.881708061465986
-6.613130242461576 -50.456325826240523 -270.928450636561479
-101.152432060705650 -34.166251304976733 -71.474338541483945
-5.807153491640045 -54.565540467802784 -290.275553041346541
-98.828947515342236 -51.246337092289536 -54.540856767039131
-99.752968978926489 -69.005198311699388 -103.499839567524049
18.456086373896397 -57.095285837070648 -249.743075098346793
82.428260424979470 -53.486545608700695 -104.851418238704042
65.150404143254690 -52.278045942274325 -88.286706067113286
60.926967367481332 -48.328182481169328 -70.728033605370030
44.137764271010774 -67.066024146845493 -103.991640079660982
60.890994643414835 -64.561338296931822 -88.159765995624710
101.234363406312710 -64.709045171186560 -103.549203725895708
36.714358124771614 -67.680854970002017 -107.564281378859263
47.623006231448578 -65.967068385961710 -88.515061178708351
54.559205813420213 -64.397407599271105 -93.987240644281414
-79.891768621702539 -71.343668222887374 -108.859032115997039
47.738066956384877 -56.499880011351102 -105.084162478511018
-18.893338054702927 -54.736015740373702 -252.774393487447242
-92.169744625664009 -68.627712699910333 -113.339959523304557
37.851790733396975 -67.493404823804099 -118.233479582112665
93.585999858536098 -40.628033619153193 -99.218171281839005
-70.710476478936371 -48.875539808553839 -92.477812228192178
44.918041222221710 -67.329231340883922 -109.464804832470065
59.880150285600202 -63.978316374448902 -92.067111490641167
21.271685450129013 -62.266630316573035 -253.684607928795799
-6.244999308012240 -64.565559731099299 -282.372067052226555
-13.805051383454506 -55.719391184951867 -277.665578569483898
78.336402656174073 -49.508101154003647 -94.185988903151767
26.754875300643157 -69.010475420905379 -257.022533745824887
-79.957137091840522 -69.210875458110905 -125.106558077673057
-130.619293162294895 -67.029226522140519 -229.783171963336741
-87.806390399497445 -70.397053842392808 -116.934555338612128
-43.678671425711720 -68.603381938204095 -159.448134776029065
102.850640859530230 -42.585820450526619 -89.206256751056827
-121.640254671320292 -67.693649241418171 -227.753422517119787
-81.512201211101825 -70.392321739107572 -116.978269749380289
32.307572696010673 -67.162150935177920 -123.568234014876865
-100.780367165161067 -71.051653452147846 -255.510247089163727
36.589014375883977 -67.739140936542654 -122.935005387364754
111.310066095510422 -65.518205728678623 -122.802184773427456
18.365191610635044 -66.563246494561980 -28.189099797322434
-66.129649859775000 -66.977801425360653 -127.118885695168160
12.757731761673840 -67.568628342509854 -208.599029547838285
-15.960540882773453 -50.294767575495179 -57.029566224910127
-58.497709907261793 -67.990375010101744 -124.472863671776281
15.218672138375515 -68.772734520947282 -196.441036701150466
110.586412933244006 -65.003640554461697 -127.490265173673478
-45.096568992564734 -46.201771432226600 -75.180192189953445
109.507757447743145 -65.081239641172616 -131.601949657547635
-168.648780092586605 -70.946704736035301 -209.630256404681290
-22.350792514187589 -65.816496180764119 -66.871267746685319
-93.496075423985388 -70.742514408813108 -133.316811698568671
4.775663100997731 -66.266847869154759 -231.877643757418895
65.538563678434159 -45.570097674508723 -101.014708543698362
-42.607621501262805 -60.315920474405637 -77.078420950573914
27.876099175517425 -67.139762243812299 -135.894696531955503
-78.786720399272625 -70.783240349602707 -133.620113069580015
36.466866017921348 -59.628202423215171 -118.802246556883205
-2.716261309461828 -65.926381685311512 -228.736253910930799
-22.186011867086833 -65.435177774455184 -50.971902512915520
-75.072738762514305 -68.223987769904454 -134.842082333563752
5.817346478901316 -68.377539003817134 -215.208798754308873
43.403823751765742 -67.757055040696628 -252.027353951565914
109.154398114903870 -65.427153740551901 -136.261584891217666
110.928918036920777 -65.637668881500900 -142.797644710080107
111.467346735459216 -65.731704577720194 -141.408128423783552
-57.531058827467810 -68.448954211310678 -139.358494471177323
-60.267912876928847 -71.175653010586444 -141.483506146261618
18.368950256432257 -54.681826587812573 -243.184454838492911
12.199248144312653 -48.776039216181701 -244.991116954089932
-71.231978284608644 -70.734850680701484 -144.567990100259209
110.318410728263331 -66.145039476094865 -159.738128488307296
5.824274972115772 -68.872313436864872 -156.502777028249341
19.686867164837530 -67.613701980191195 -154.810238884725095
-65.620849230267012 -53.696224363765872 -57.962075407667498
12.786224766808493 -70.093206860559732 -155.345819045156560
22.220001987629985 -66.227204149203232 -159.962728011316614
-45.883046741079028 -65.680456471595434 -77.098079033474832
0.975394365931502 -62.158455489458596 -289.837766108729454
58.257021796909306 -47.779299644850482 -88.711967887062642
-110.449009423258389 -71.552119138275870 -177.428644659053248
10.213698162167477 -68.679600846296921 -186.282493634964538
-114.969486540690937 -71.262815235377616 -185.059977922727768
33.836963015148768 -59.638895865793707 -125.786558975633881
-25.778239639886806 -69.838442787450191 -193.238271283641694
-88.708721439322943 -68.260683421693273 -132.608356079667686
-27.240110926616474 -68.262516927205724 -193.953049856689006
32.090494015586025 -66.450330065703625 -253.213072416927076
10.345270555012332 -68.894488794873581 -195.733999437638687
-55.281678389034354 -66.548696520365013 -130.109265763434934
18.033909399126195 -67.780795535919665 -193.828249658788508
10.690406263575765 -66.308109655985461 -198.012096508229774
-21.180570162500711 -67.181725442225144 -204.976144012896498
90.763025668464522 -66.852561381919017 -206.644248016725498
8.821070307453413 -66.913696690251911 -207.303549943256712
-65.231521605025307 -68.561291338113051 -129.204130159447885
-41.842834295131802 -50.127228128399224 -70.009290204245815
84.663395791856559 -66.768627845502166 -214.571628273224263
-2.886337944795962 -50.085321012270924 -251.896284267021201
-16.733026569854918 -67.979627285948794 -214.170716197136983
-5.327175031602291 -48.441869822547972 -245.924489764625832
12.075289932001917 -67.954999115470699 -213.030150588740867
102.120149951864747 -59.960489814835121 -85.067358139588308
-169.718662561565765 -73.146121313862807 -212.672688751009019
-54.002823622753901 -67.671555808149762 -132.974454615769105
-17.982686688329043 -54.395068814136884 -48.338681169462561
-169.279556671163050 -71.709980437491652 -218.928474061879314
-110.630657672181215 -70.510765729110389 -226.180331801780994
-90.117847705352801 -70.891055676334005 -248.637122437288042
-15.982254131199269 -68.576615211249276 -235.072653554342310
54.678091056359655 -65.475160767777510 -245.248174694918532
-169.859925798501365 -72.673449786261642 -240.439932223977650
32.826583293394954 -66.013554491379821 -249.956385524274140
18.120312493234209 -58.086361813068670 -241.580747462836229
-99.488589820188380 -71.475336899768863 -250.239149343702195
36.325642620830607 -56.515795446615947 -123.453948871741616
-136.225121055270108 -70.087508796364958 -251.729767997308500
-41.344216916244150 -69.539340976607619 -74.141390788316869
-53.761092010029394 -50.064445782656691 -80.194827710389220
24.661762658958274 -57.726707861087988 -134.751690875782856
23.294374170560907 -58.476822157304447 -131.355771439816493
57.615633341213901 -66.237617532280169 -91.624536225588997
-121.113742684508111 -70.395091594252079 -253.623081949198877
-15.720431320888938 -68.672258309740627 -259.924760880566907
14.351744846990842 -68.503123795547594 -280.146202473390929
18.396990895975463 -66.773328979859997 -273.842525383556733
11.704052342537645 -53.502982630052166 -289.728803421813723
-102.785861804713335 -51.984038084378490 -70.493469325146549
-99.761434639949030 -68.855570314780635 -88.305005474854056
51.188741302116817 -66.002188974563495 -240.045712112827601
83.694328272411028 -53.922999115811265 -86.947768059022877
32.166264669210889 -66.829787352140571 -9.667288660164900
21.084139083207653 -66.602774491053196 -15.511344255486581
20.878728656844423 -61.008725658751942 -15.567761810352284
-105.521509595490016 -66.036977184396818 -155.642298004427516
42.096594457943567 -65.246269127512974 -25.302298800808575
17.863996354735917 -61.406248847697029 -23.866550677958596
23.896337309454083 -68.563340968326514 -24.257347040212146
-16.593192141257983 -68.461469852363223 -253.114282184319336
42.081140648932028 -67.990382631636578 -26.486596076477952
39.261239172274358 -65.095897620498917 -31.602836913495885
-61.500783057974395 -33.278273613720614 -58.107943068319372
28.787588760487793 -67.402257669278498 -38.601426139373707
104.939659515964351 -64.368517262812972 -112.744579877397712
-13.879751828322002 -65.372161205279838 -62.454278799832764
-9.140947306894532 -52.822824687089181 -235.649035396678215
99.836395702418855 -63.723956243917605 -75.024796154043216
-63.114072152916577 -54.605414854675089 -112.297492212115429
53.321543444598312 -63.807860908667216 -83.157951313124798
58.701801057878164 -66.603917337321164 -90.213083175395084
-1.415702058596777 -62.826649011037993 -275.496693208445947
0.949327744260410 -51.152132278662201 -287.982976069418669
33.781227398459734 -62.253866080870424 -9.889933911764667
-62.627626723196556 -67.125176890039597 -116.997226182502899
2.763546396290691 -50.764128241703631 -236.256616751995267
102.160702255748816 -42.215310714295775 -68.799336881505496
103.576640687994427 -66.684377821144935 -94.632044557732115
99.579168364152821 -65.255729000051161 -100.180197833945925
107.551737938549280 -64.347368842631738 -118.735620318048277
-97.014016637107900 -70.137227231086584 -117.883781395961947
100.702028781840397 -42.612737046224844 -84.026722601496033
-89.822527962889211 -70.710958981441152 -122.127961956275726
-57.441779249460595 -60.097525572915529 -39.744682444832243
112.057525548672373 -65.636967654314418 -130.829365072593248
-12.990665817462679 -60.484853255737150 -60.775386044266796
-27.677497829892410 -58.756912830021342 -46.269087583027513
-86.733375670759969 -69.384627040136522 -128.558820343541470
32.661975429138536 -67.916473697325983 -250.871860461343829
-49.836398220984499 -68.764317381729924 -134.992102263812512
-61.482944500468768 -68.715572384195596 -138.928256924913484
24.554972831851188 -49.484423534874516 -245.207708376652789
-106.017323030604459 -70.827025030625705 -164.432834962526698
8.633439177693409 -67.318452487201000 -211.441437218317361
31.148804710853824 -67.946625172016965 -139.944763214370738
25.411658913673968 -66.990181568361777 -142.755981538506006
-70.919297497351465 -56.256288857454827 -39.715017493710739
-49.864873868204874 -67.708556801280352 -143.689762098235690
1.358496583069025 -53.426436235434039 -239.912449229574321
29.803720527000578 -67.947965421135365 -144.234291702631737
-80.339642792658026 -20.458918806812854 -84.588452843511689
-83.144160405966105 -21.276560148681583 -87.100658504785173
8.474298272204981 -49.759988181523042 -238.466430232965109
1.267018137261450 -50.194042909029058 -245.252989667969160
-39.103428499323059 -41.955247326095495 -60.426016140733822
-96.472240820636372 -69.180269818252540 -147.433852503013810
21.402834733757210 -66.477254426581581 -156.019174400356491
-101.205768703011458 -70.480117173245119 -154.695611791258216
-15.336818091566801 -68.568669528938159 -239.132816631066675
-66.327915616915050 -67.727892410650512 -122.730784220920043
-15.008276085407903 -54.834122868438328 -58.865301685596478
-68.247859778521843 -21.620342212001180 -72.362303328861898
-103.820116046156514 -69.342650694925993 -153.366698053009770
-15.946914185464239 -66.593441423682663 -246.006713035057743
-42.299068111517776 -68.675842362230412 -158.310153599550802
25.197637696559731 -67.014485188909234 -157.888930403636721
-106.389952110869530 -70.163136040130183 -160.258182460978787
40.813765903199311 -60.872352860108720 -20.264771190329000
-38.354399824774177 -69.537340891089002 -160.394833080180319
-100.954868395412518 -65.665124215583162 -83.071709859382864
-99.645236097799824 -39.787459963558859 -59.054955451621566
-139.418324806432310 -71.742977981331734 -259.405466720444565
19.430930866404687 -66.162350768955449 -139.768126071729824
-112.527474979175636 -69.950965064439629 -173.517242109560328
-113.407281564983634 -69.845698282357247 -175.637715342701966
-110.055274773261175 -70.508447154499891 -184.920460632248648
16.734379571422615 -54.570535703632757 -240.243261281080379
13.222019381399535 -49.366150589963574 -240.410366075704445
17.401854565573977 -65.673199408080109 -185.704874803848639
10.062039599167131 -67.310331438053538 -190.507803190821221
-50.518488666746023 -70.128000587601377 -132.045502406252666
-138.613794223981301 -71.408744527566029 -192.578917671192983
-102.804198992524235 -65.620691284948322 -149.905910684955671
-168.835814181334570 -71.477849048844561 -199.237374932027791
-66.590766553151539 -52.875346767913285 -112.359674640327768
-22.716440825789153 -68.291331238711180 -204.610813105588591
-12.450721193180698 -67.693855571956433 -207.842440601745579
-16.909574422523274 -68.773774941995711 -209.206876201705512
-100.291624350520451 -70.567917728711322 -215.667568199369811
-140.579390971288092 -70.349823111041019 -253.183274377392138
-54.991790389140029 -55.937352100506992 -79.079094879432972
-1.689902735573687 -66.992079912379225 -223.699604545345380
0.416952956691004 -67.767581965846063 -228.592886876971932
