108.216133117676 -75.234031677246 -108.828483581543 2.336613178253
37.506298065186 -76.976623535156 -105.950332641602 2.627292156219
29.832893371582 -72.723098754883 -113.191284179688 2.137038230896
38.619457244873 -74.888107299805 -109.857383728027 2.063961744308
104.594680786133 -77.348052978516 -116.125450134277 3.305815935135
37.998561859131 -73.536598205566 -118.954521179199 3.275965452194
107.096099853516 -75.120155334473 -126.426490783691 2.825480461121
108.952926635742 -74.741645812988 -125.272605895996 2.159636974335
31.411256790161 -72.912689208984 -116.461952209473 1.036055564880
-80.078475952148 -73.230003356934 -123.553726196289 2.697439193726
111.946411132813 -73.537841796875 -128.387496948242 2.386976718903
-56.344062805176 -73.680244445801 -135.109069824219 1.856036424637
33.537155151367 -75.674240112305 -130.557601928711 3.236788272858
-75.260009765625 -73.671859741211 -133.443420410156 3.263823509216
24.866764068604 -76.937232971191 -127.679481506348 2.466561555862
-81.446456909180 -73.672508239746 -140.945281982422 5.086997985840
-47.229064941406 -76.562515258789 -139.388137817383 0.920718193054
-75.927757263184 -73.989776611328 -136.200912475586 2.214490890503
108.230743408203 -75.044128417969 -131.282897949219 3.259224414825
115.311897277832 -74.133514404297 -135.675933837891 3.271891593933
116.238815307617 -78.890739440918 -140.503875732422 2.733928203583
-79.162368774414 -72.257148742676 -141.709396362305 2.468383073807
6.306787014008 -70.545776367188 -147.103668212891 2.357812404633
-53.797264099121 -74.086769104004 -146.921203613281 2.107088804245
-52.473999023438 -74.326622009277 -152.807998657227 2.798682212830
105.341209411621 -75.858032226563 -155.971405029297 4.580600261688
-43.234683990479 -75.394607543945 -146.586135864258 2.406662464142
12.394156455994 -72.254508972168 -153.883651733398 1.113181352615
20.681556701660 -76.036300659180 -153.662078857422 2.637660026550
113.220077514648 -74.946655273438 -158.765563964844 2.245998144150
28.326833724976 -73.909896850586 -161.616851806641 2.399149179459
-2.422806978226 -75.347709655762 -160.011291503906 3.112595319748
30.256538391113 -75.316291809082 -156.657226562500 1.764374613762
-69.377944946289 -71.543701171875 -155.499771118164 1.606945633888
-67.366622924805 -72.814704895020 -156.914062500000 1.309516549110
-70.323226928711 -71.705543518066 -163.477844238281 2.675281524658
113.191764831543 -72.318267822266 -155.536087036133 1.194101929665
-46.093372344971 -73.574302673340 -160.350234985352 2.997316360474
16.264736175537 -74.442176818848 -161.634490966797 4.054115295410
-65.328697204590 -72.029800415039 -167.360977172852 1.375236392021
-64.405624389648 -71.313201904297 -169.090652465820 1.873872995377
-42.891059875488 -74.330589294434 -157.554443359375 2.934547662735
-35.001018524170 -75.581764221191 -165.768539428711 0.849652171135
113.571289062500 -77.567749023438 -165.438491821289 2.308828592300
-38.180515289307 -68.793663024902 -176.919311523438 3.005488634109
12.384494781494 -75.113182067871 -169.336853027344 4.613261699677
109.539558410645 -77.908744812012 -178.530532836914 2.007026195526
-148.889053344727 -73.419860839844 -175.404663085938 1.118770837784
-147.205169677734 -71.555625915527 -172.849670410156 2.483312129974
-149.801528930664 -69.912742614746 -179.259918212891 3.398286819458
-143.566528320313 -73.038162231445 -181.991546630859 0.550624966621
-32.925685882568 -71.996154785156 -182.553543090820 3.020539283752
-24.187246322632 -73.508911132813 -182.616622924805 1.570919632912
22.327703475952 -70.506820678711 -187.013900756836 2.060644865036
-142.459930419922 -70.836212158203 -185.898147583008 2.032552719116
-148.278610229492 -71.833168029785 -187.856475830078 2.066761732101
-22.334781646729 -70.915634155273 -183.286087036133 2.209766149521
9.957873344421 -74.252403259277 -178.766098022461 4.776570796967
-150.232009887695 -71.354141235352 -193.590118408203 1.627363920212
-32.614707946777 -73.929756164551 -185.029251098633 1.087933778763
99.072998046875 -75.167984008789 -182.771423339844 4.978022575378
105.261924743652 -74.236091613770 -184.105285644531 1.558630108833
23.295682907104 -69.704452514648 -189.344085693359 1.047119498253
-14.524893760681 -73.712234497070 -185.194839477539 3.915596246719
-28.685091018677 -75.112121582031 -190.359619140625 2.026262283325
-156.127212524414 -72.248252868652 -198.602035522461 2.544301748276
-133.459609985352 -72.493537902832 -195.878494262695 1.318969130516
-126.008766174316 -69.114326477051 -193.880477905273 1.667416095734
-125.482292175293 -70.073066711426 -196.466232299805 2.314534664154
-23.290279388428 -69.212768554688 -192.987655639648 2.600805521011
11.706934928894 -75.759620666504 -188.657135009766 3.073782682419
91.814880371094 -78.328857421875 -195.824966430664 6.877720355988
-150.856185913086 -67.748733520508 -194.748352050781 1.207065105438
-145.814010620117 -68.937210083008 -197.970779418945 1.162932872772
-151.639831542969 -70.640739440918 -199.513854980469 1.813314676285
-155.705245971680 -68.970458984375 -196.891098022461 1.997367501259
-25.550176620483 -72.672477722168 -196.554748535156 1.932625651360
-11.576058387756 -71.969818115234 -192.040832519531 4.248404502869
-147.030822753906 -67.454536437988 -201.383255004883 3.008857727051
-19.209280014038 -72.450378417969 -197.990493774414 2.557829141617
-162.142150878906 -70.307411193848 -200.223709106445 2.025472879410
-135.115005493164 -71.221649169922 -198.456390380859 2.342240095139
15.044821739197 -75.411918640137 -203.214706420898 1.485207438469
-161.922744750977 -67.804885864258 -203.647033691406 2.174989461899
-146.762619018555 -72.533134460449 -205.790237426758 1.498283147812
7.530601024628 -71.729835510254 -199.129013061523 2.297733306885
-154.784194946289 -68.576316833496 -202.075164794922 0.759476125240
-25.319927215576 -72.520828247070 -198.787231445313 1.937290072441
96.549209594727 -75.579078674316 -193.915679931641 3.096110820770
-158.978500366211 -71.757171630859 -212.024841308594 1.029789566994
-165.133300781250 -73.793495178223 -207.363128662109 3.797993183136
-77.448234558105 -70.190734863281 -206.270477294922 3.632916688919
88.664024353027 -74.029800415039 -203.793441772461 5.609391212463
-4.239501953125 -71.986282348633 -214.976623535156 1.837984919548
-155.016738891602 -69.744567871094 -212.342819213867 3.016577243805
-88.115516662598 -71.986145019531 -211.665847778320 3.277164697647
-9.918291091919 -75.710060119629 -208.031433105469 2.185938596725
15.166974067688 -73.223106384277 -216.130477905273 0.878546357155
-145.303909301758 -71.590301513672 -219.363800048828 1.545386314392
-4.036766052246 -76.932830810547 -217.537109375000 1.592311024666
-19.834112167358 -73.885612487793 -215.151351928711 3.220970630646
-14.986802101135 -69.897819519043 -217.232650756836 1.158763885498
89.802665710449 -74.585540771484 -213.904617309570 1.832428574562
-21.194347381592 -71.658920288086 -213.744293212891 1.977704882622
-32.191795349121 -72.181724548340 -214.280532836914 2.505934715271
-107.822433471680 -67.255805969238 -223.326782226563 2.795170307159
-16.461315155029 -71.315589904785 -220.070785522461 2.639985561371
91.999732971191 -72.658538818359 -213.741714477539 1.775206804276
77.068969726563 -75.149009704590 -215.557266235352 6.069330692291
6.756427764893 -74.486419677734 -215.768264770508 1.429096460342
-11.462501525879 -70.854728698730 -222.164077758789 1.855294704437
78.233757019043 -74.928031921387 -217.106735229492 5.219773292542
-122.712669372559 -74.305221557617 -224.119613647461 2.027867555618
-20.357309341431 -70.969078063965 -220.143341064453 2.250093221664
-97.463745117188 -70.944503784180 -222.049407958984 2.074207782745
-102.825408935547 -71.569892883301 -222.709869384766 1.137232780457
-131.825149536133 -72.898033142090 -227.796936035156 1.160472869873
80.956260681152 -74.478683471680 -218.680648803711 3.750054836273
-123.451515197754 -71.688369750977 -226.230407714844 1.669948220253
4.487815856934 -72.552032470703 -225.275787353516 1.130385637283
80.905097961426 -73.014183044434 -219.477584838867 2.555531740189
-15.950392723083 -73.815742492676 -227.463470458984 1.362917304039
-13.825901985168 -73.596725463867 -224.305511474609 1.160897374153
-2.158051013947 -77.910324096680 -226.617324829102 1.386194586754
9.987409591675 -75.055625915527 -223.860031127930 1.327680826187
88.563941955566 -75.690536499023 -221.419418334961 2.484202146530
9.783667564392 -71.750930786133 -227.832138061523 1.884763121605
5.323337078094 -72.860801696777 -225.963180541992 0.523988366127
-9.218073844910 -73.447181701660 -228.057022094727 1.494698405266
-6.979006767273 -73.781639099121 -226.903137207031 1.787552356720
18.588392257690 -72.126792907715 -229.011138916016 1.786090254784
-12.582338333130 -70.431640625000 -230.080841064453 1.452024698257
70.974632263184 -74.578681945801 -235.068267822266 2.442158699036
-9.158035278320 -71.350646972656 -235.625488281250 2.085242033005
18.884141921997 -74.292106628418 -232.042861938477 2.903794288635
-162.847915649414 -69.055595397949 -240.093582153320 2.321633100510
-5.631146907806 -70.816322326660 -233.815109252930 1.180334448814
-8.132678985596 -73.582954406738 -237.017089843750 1.097096443176
-167.481262207031 -70.689460754395 -250.545730590820 1.405072331429
-10.773235321045 -71.170852661133 -241.256515502930 0.512656450272
15.666124343872 -70.597778320313 -241.842849731445 2.103039503098
-147.467498779297 -72.314384460449 -251.212066650391 2.219210863113
-73.114883422852 -71.032501220703 -248.413848876953 1.048648238182
-61.551731109619 -72.693611145020 -244.829544067383 1.159617543221
52.428794860840 -71.550285339355 -242.466400146484 1.923598885536
-74.587409973145 -71.245803833008 -244.850936889648 2.588697910309
16.986854553223 -73.726257324219 -245.873809814453 1.831616401672
-72.931205749512 -71.987525939941 -249.315032958984 1.785459876060
-15.282950401306 -71.010360717773 -242.869689941406 2.814579725266
-145.341644287109 -73.094955444336 -252.101867675781 0.843021810055
46.766002655029 -70.339752197266 -245.749038696289 1.966382384300
-79.843185424805 -73.573242187500 -253.873764038086 1.726001381874
-102.500656127930 -68.268745422363 -253.529632568359 3.391765832901
-99.165122985840 -72.715141296387 -253.084609985352 2.367907047272
-119.688140869141 -68.984855651855 -251.848480224609 4.770922660828
-105.559379577637 -68.655868530273 -255.708786010742 2.342090129852
-105.575035095215 -70.713890075684 -256.714813232422 1.671830773354
21.857156753540 -70.621246337891 -254.776763916016 2.800935983658
-128.955673217773 -68.269981384277 -264.076965332031 2.584850072861
-13.346590995789 -73.114997863770 -272.495208740234 2.226001977921
-146.998062133789 -67.662353515625 -282.641845703125 0.920403361320
-168.069427490234 -71.282806396484 -285.294250488281 0.845931589603
-124.353080749512 -71.335174560547 -283.075164794922 2.637256622314
-113.499725341797 -67.541007995605 -285.567596435547 3.560636043549
-74.938415527344 -67.065704345703 -282.511535644531 5.196968555450
-56.926811218262 -71.985183715820 -284.418090820313 2.587710380554
-41.320686340332 -70.568275451660 -283.494415283203 2.720619916916
-14.777769088745 -74.908912658691 -286.793975830078 2.697767734528
-13.149122238159 -69.637741088867 -288.637542724609 2.962982177734
-37.822505950928 -73.415443420410 -287.585296630859 1.262868762016
-33.823459625244 -71.466888427734 -286.082702636719 3.333869218826
-18.406965255737 -68.946510314941 -285.753570556641 3.797818899155
-71.182792663574 -70.056289672852 -290.985473632813 1.480331897736
-54.962936401367 -70.631217956543 -288.757507324219 2.042965888977
-17.030515670776 -68.510932922363 -288.464752197266 1.568692684174
-13.229746818542 -73.480895996094 -286.670410156250 1.624342679977
-3.135549068451 -71.276908874512 -289.128784179688 0.420292109251
3.075854063034 -68.956825256348 -288.811981201172 3.391785621643
-91.574409484863 -70.809158325195 -291.319213867188 1.408320665359
-139.176742553711 -71.591537475586 -294.245239257813 2.746012687683
-115.753822326660 -71.289459228516 -291.449279785156 1.396471142769
-152.938659667969 -68.624969482422 -294.385040283203 1.314215183258
-151.304397583008 -70.408538818359 -298.967834472656 2.014225244522
-146.031387329102 -68.255424499512 -299.368865966797 2.256040573120
40.436862945557 -73.305198669434 -16.897481918335 1.231363415718
15.835777282715 -77.775451660156 -19.658084869385 9.151301383972
45.546169281006 -72.816825866699 -20.619039535522 0.676021158695
43.251449584961 -76.182533264160 -30.719810485840 4.297224044800
84.374710083008 -75.284164428711 -65.040336608887 3.867090702057
92.378311157227 -77.140762329102 -68.644119262695 4.205231189728
98.122222900391 -75.142356872559 -72.719917297363 1.588480472565
95.289962768555 -75.957801818848 -78.137237548828 1.948103547096
53.792251586914 -75.706275939941 -84.867004394531 3.204488039017
42.627296447754 -79.617637634277 -86.907402038574 10.216049194336
60.456619262695 -73.774139404297 -86.094993591309 1.645510792732
-67.985786437988 -70.507667541504 -90.955574035645 4.770804405212
67.889160156250 -74.439605712891 -83.009803771973 2.895289897919
98.188301086426 -69.229095458984 -93.466773986816 1.740927696228
71.831039428711 -75.601951599121 -96.248802185059 1.163526773453
91.640083312988 -74.107124328613 -97.306083679199 1.387754440308
-87.194381713867 -73.396255493164 -101.696617126465 6.294715881348
42.411254882813 -73.492271423340 -93.822677612305 4.062644004822
-89.151397705078 -73.803825378418 -100.556838989258 4.525992393494
48.614658355713 -75.764564514160 -105.969795227051 1.919945359230
35.050907135010 -79.301376342773 -99.541290283203 7.815491676331
99.492568969727 -74.327262878418 -97.887672424316 1.597827434540
34.581851959229 -74.017120361328 -101.834808349609 7.101294994354
40.186634063721 -75.199691772461 -114.347030639648 2.255938768387
40.254074096680 -74.023193359375 -108.829986572266 1.825597643852
107.582061767578 -73.962524414063 -106.851516723633 2.176703691483
-83.695358276367 -76.179885864258 -119.764686584473 5.166829109192
109.859832763672 -78.210716247559 -118.486053466797 1.600113272667
37.767265319824 -70.650238037109 -120.555671691895 0.783576369286
38.166194915771 -73.389541625977 -116.061424255371 1.963679790497
32.615386962891 -74.403320312500 -116.832489013672 2.054049730301
-58.010864257813 -76.604835510254 -127.315589904785 4.996441841125
27.853923797607 -73.036788940430 -119.498855590820 4.472396850586
-79.457069396973 -70.523857116699 -135.918960571289 1.299713850021
-57.571098327637 -75.727455139160 -130.348266601563 2.995389223099
-81.620796203613 -70.152442932129 -133.023605346680 3.093961715698
33.361755371094 -72.079322814941 -126.674842834473 2.547002077103
-61.811332702637 -73.528900146484 -131.413299560547 2.403419971466
32.953083038330 -73.138763427734 -129.333190917969 2.964966535568
-74.032974243164 -70.433929443359 -137.635131835938 2.168543815613
-61.283855438232 -70.073097229004 -138.517471313477 2.432866096497
23.626195907593 -74.306594848633 -138.802291870117 2.453277826309
108.799148559570 -77.347419738770 -137.687393188477 3.111075878143
113.149017333984 -71.153144836426 -131.556228637695 2.161658763885
28.638587951660 -73.695999145508 -137.576675415039 1.698971867561
-50.306232452393 -73.840461730957 -137.819641113281 1.767711162567
104.909927368164 -72.603591918945 -146.831573486328 5.911485671997
-77.610305786133 -71.957397460938 -141.185623168945 1.604628920555
-60.696277618408 -72.393959045410 -140.103927612305 2.941448926926
29.651023864746 -69.811149597168 -143.458007812500 1.610213279724
-79.570396423340 -73.294258117676 -144.340316772461 2.255892515182
-72.577552795410 -72.001785278320 -148.285034179688 1.695579767227
112.871315002441 -78.289916992188 -144.107955932617 3.212800264359
-66.510879516602 -71.467834472656 -153.020050048828 2.112598419189
-41.235603332520 -69.915802001953 -149.640243530273 2.766330003738
23.677650451660 -72.016822814941 -142.150939941406 1.422298431396
-75.231147766113 -72.494056701660 -144.130844116211 1.271694421768
10.416833877563 -72.834716796875 -146.212173461914 2.477638959885
29.990545272827 -72.887924194336 -153.011520385742 2.719701051712
29.035661697388 -71.317550659180 -146.304214477539 2.218431472778
13.253059387207 -77.424057006836 -150.600814819336 5.451691150665
-51.849365234375 -73.735458374023 -150.911712646484 1.269857645035
22.806135177612 -74.673866271973 -149.401504516602 1.058662295341
-48.171466827393 -71.550224304199 -147.743850708008 2.391486406326
2.792654991150 -73.290542602539 -150.669250488281 5.947761058807
18.464202880859 -72.589363098145 -146.267807006836 2.914057970047
-70.758590698242 -71.343002319336 -155.413330078125 2.085252285004
-48.551483154297 -69.591575622559 -151.665145874023 1.299403309822
-70.119422912598 -71.538101196289 -151.757247924805 1.509563207626
16.270338058472 -72.069038391113 -154.823730468750 1.761343598366
22.207534790039 -72.589111328125 -146.331756591797 1.352562308311
0.743013024330 -72.910392761230 -161.179901123047 2.033955335617
19.359113693237 -73.121368408203 -149.879211425781 3.724095582962
29.001039505005 -72.954948425293 -163.288894653320 2.086472511292
-49.149162292480 -73.469779968262 -160.842163085938 2.347297906876
-38.703010559082 -78.296882629395 -160.707244873047 0.860913097858
-42.724868774414 -73.056488037109 -158.324844360352 2.525221586227
25.912412643433 -73.613014221191 -154.876556396484 1.621280550957
-46.032844543457 -70.564002990723 -164.315338134766 1.401574850082
-41.549114227295 -70.819656372070 -163.827178955078 2.714572668076
19.563501358032 -71.836799621582 -162.052169799805 2.677205801010
-41.514019012451 -72.637855529785 -172.666732788086 1.406237959862
26.218971252441 -69.773704528809 -166.240036010742 1.754395246506
109.870689392090 -71.360252380371 -159.485519409180 2.226650238037
-35.238304138184 -72.154685974121 -169.350631713867 3.623657226563
101.069534301758 -71.870468139648 -168.000411987305 5.996049880981
-36.198402404785 -71.770889282227 -174.761947631836 1.680773735046
-39.013103485107 -74.887283325195 -178.852493286133 1.639482855797
19.471958160400 -75.639968872070 -173.353546142578 2.406029939651
104.238464355469 -74.380035400391 -176.733657836914 2.215766191483
-33.015068054199 -70.595207214355 -180.174163818359 2.171906471252
-36.812004089355 -71.596855163574 -174.857162475586 1.700459599495
-24.723300933838 -75.521400451660 -184.003845214844 2.907934665680
-150.464080810547 -71.015205383301 -188.400466918945 1.377145886421
11.397209167480 -72.456863403320 -179.818008422852 3.417774200439
103.574943542480 -72.523017883301 -185.830200195313 2.635742664337
-160.298828125000 -69.866134643555 -192.723953247070 2.623818159103
-24.375089645386 -69.199951171875 -186.616180419922 0.677615404129
-116.930877685547 -72.375503540039 -196.225204467773 1.268277883530
-132.122024536133 -71.969284057617 -194.739669799805 1.772305130959
-109.122428894043 -71.350021362305 -198.520309448242 1.668293237686
-114.865242004395 -69.975090026855 -199.039871215820 2.173597097397
-13.648483276367 -72.959121704102 -193.299713134766 1.870727419853
18.800128936768 -71.458969116211 -192.421295166016 1.958521127701
-16.971553802490 -68.473190307617 -198.829803466797 2.092679262161
-127.842216491699 -70.531654357910 -204.627532958984 2.794257402420
-21.984876632690 -68.387649536133 -200.049285888672 2.664617300034
-130.510681152344 -69.399650573730 -202.031219482422 1.994645833969
-16.649465560913 -72.181541442871 -197.247787475586 1.482712864876
-147.227447509766 -69.140304565430 -202.233596801758 2.183444976807
90.732177734375 -69.744621276855 -201.400619506836 3.143088579178
-165.648284912109 -65.385139465332 -201.204071044922 1.767051815987
-3.670818090439 -73.587242126465 -214.623336791992 1.704803228378
10.408455848694 -73.402198791504 -206.386322021484 2.167840480804
9.393053054810 -74.233154296875 -213.548171997070 1.531620144844
81.733375549316 -73.071960449219 -211.854370117188 4.222917079926
7.531033992767 -73.149505615234 -209.614715576172 1.927512764931
11.694701194763 -71.328071594238 -211.210922241211 1.030319571495
-16.786142349243 -74.991966247559 -212.939849853516 1.609455347061
-91.392677307129 -71.194168090820 -212.859680175781 2.451558828354
-98.876296997070 -70.794746398926 -215.132476806641 2.083267927170
-0.825868010521 -70.937461853027 -215.824264526367 1.989345192909
-167.247222900391 -71.514137268066 -221.819549560547 2.928980588913
14.331368446350 -70.166137695313 -216.016128540039 2.057416677475
-145.395034790039 -69.347984313965 -220.665100097656 2.266039133072
12.231274604797 -72.363952636719 -221.414398193359 1.962233066559
-135.363113403320 -71.409782409668 -224.113067626953 1.323762774467
-116.594970703125 -71.246734619141 -226.082305908203 1.597334623337
15.972187995911 -71.401756286621 -217.265060424805 1.349773883820
77.593978881836 -72.993659973145 -216.593750000000 4.814980983734
5.994606018066 -71.973754882813 -220.050704956055 2.365339994431
-110.456069946289 -69.624473571777 -229.666610717773 2.739578723907
71.674728393555 -73.703872680664 -223.156890869141 5.128703594208
83.353294372559 -73.996635437012 -224.622543334961 1.588784694672
-125.705909729004 -69.845291137695 -234.139633178711 1.744836330414
-117.627380371094 -70.245674133301 -229.354660034180 1.394560217857
-10.656585693359 -68.581680297852 -224.674606323242 2.822398185730
71.374282836914 -73.453224182129 -226.755065917969 3.478411912918
64.075515747070 -73.221427917480 -228.699859619141 4.774122714996
72.652595520020 -72.304107666016 -224.819046020508 2.847397804260
-135.737426757813 -66.676475524902 -233.299331665039 1.546963334084
69.575103759766 -73.804222106934 -227.763290405273 3.232110261917
65.672821044922 -70.480102539063 -230.769775390625 2.599794387817
-166.698318481445 -68.179031372070 -230.350219726563 1.365086913109
0.945905983448 -77.978622436523 -237.723770141602 1.169765949249
18.906492233276 -73.171340942383 -235.866546630859 1.818596839905
-6.405433177948 -69.049118041992 -237.490341186523 1.077740430832
15.378358840942 -67.067718505859 -235.662399291992 2.317109107971
65.741767883301 -73.540336608887 -233.629669189453 3.116272687912
8.574618339539 -69.972373962402 -239.927810668945 0.250139951706
-11.272533416748 -65.643714904785 -237.661911010742 1.218488931656
-0.976557016373 -68.598609924316 -234.170211791992 2.057789325714
64.546859741211 -73.155479431152 -237.955001831055 2.416160821915
2.669569969177 -72.196510314941 -239.253204345703 1.100648045540
-7.372447967529 -72.278198242188 -240.019393920898 0.452826738358
13.869563102722 -74.177078247070 -239.397033691406 0.647492587566
-167.880950927734 -70.984176635742 -241.012512207031 1.778344273567
55.715534210205 -72.650840759277 -242.943084716797 1.600066304207
49.781047821045 -66.733612060547 -246.568572998047 1.670771360397
57.798961639404 -73.137481689453 -238.463394165039 3.235110759735
-12.426634788513 -69.713653564453 -244.859298706055 0.790013134480
56.853652954102 -72.185813903809 -241.347320556641 1.690113425255
-74.126251220703 -70.038772583008 -247.977035522461 0.444839149714
50.488506317139 -72.633590698242 -244.444396972656 1.876404166222
-88.937957763672 -70.077163696289 -250.882476806641 2.941405057907
-123.338211059570 -70.811347961426 -255.712677001953 1.777796030045
-132.580886840820 -69.617507934570 -252.135726928711 3.589463710785
45.872238159180 -73.665664672852 -247.755325317383 3.224903821945
-132.774490356445 -72.135009765625 -252.419052124023 1.331594824791
-109.323837280273 -68.184341430664 -253.833816528320 1.775793671608
-116.153015136719 -67.588493347168 -256.318939208984 1.299349188805
-83.916664123535 -70.694053649902 -252.976440429688 1.426403284073
-111.051750183105 -68.157905578613 -257.916564941406 1.247313857079
-124.134353637695 -72.813659667969 -261.505279541016 0.902644574642
-146.394363403320 -66.752433776855 -267.031219482422 2.366064310074
-15.267897605896 -69.724876403809 -262.625549316406 1.513720035553
-171.333297729492 -70.895446777344 -264.406311035156 4.336781501770
-14.418547630310 -70.372688293457 -270.779144287109 0.878049254417
-158.887710571289 -65.866767883301 -266.922668457031 3.258719444275
-152.522430419922 -69.258804321289 -272.998748779297 3.479573249817
-169.678405761719 -68.674133300781 -277.407989501953 2.919486284256
-13.983304023743 -70.890907287598 -276.339050292969 2.770509719849
-129.885848999023 -71.473251342773 -282.333099365234 4.173015594482
-157.644210815430 -68.474212646484 -285.875732421875 3.604448795319
-143.657653808594 -68.073997497559 -280.347290039063 0.954087078571
-134.637710571289 -71.918403625488 -279.770019531250 4.149693012238
-7.801590919495 -65.186294555664 -281.272247314453 1.421472191811
-125.584838867188 -72.636070251465 -282.530334472656 2.143968582153
-140.641830444336 -66.972496032715 -284.918762207031 2.483441829681
-115.407951354980 -72.161193847656 -284.636901855469 1.227590441704
-78.578842163086 -67.909210205078 -286.207794189453 3.388751506805
-60.346778869629 -70.675689697266 -284.919830322266 1.144534230232
-6.649210929871 -71.707092285156 -284.710266113281 1.913136482239
-53.570861816406 -68.972503662109 -283.423919677734 4.547340393066
-56.793113708496 -67.769920349121 -286.379211425781 2.383159875870
-69.962913513184 -68.120307922363 -288.324249267578 2.357678651810
-87.561065673828 -68.624488830566 -292.121459960938 2.011256456375
-94.613502502441 -67.292068481445 -287.438049316406 3.117020845413
-159.871246337891 -67.708183288574 -291.143646240234 1.385903954506
-160.612594604492 -69.458824157715 -293.429412841797 1.973333477974
-124.176773071289 -71.776008605957 -292.951965332031 1.473030447960
-144.154647827148 -68.932662963867 -294.384979248047 1.939879298210
-152.430740356445 -70.739913940430 -303.312286376953 1.719980120659
-149.706710815430 -70.722656250000 -311.673522949219 1.515398621559
43.404010772705 -73.786529541016 -10.509183883667 2.750135660172
12.466258049011 -76.233627319336 -26.263336181641 8.769240379333
37.808914184570 -71.514854431152 -30.609146118164 3.484521627426
-19.126424789429 -76.698585510254 -63.450134277344 3.391402006149
78.178298950195 -73.066200256348 -60.353969573975 5.609972476959
85.091453552246 -71.012176513672 -61.038372039795 4.093323230743
74.231948852539 -77.816879272461 -60.838058471680 9.990589141846
69.152473449707 -75.854476928711 -64.661087036133 7.430312633514
87.705245971680 -77.109680175781 -70.046394348145 2.703705787659
-99.611206054688 -69.438636779785 -68.730117797852 5.831951618195
64.354614257813 -75.083351135254 -70.911674499512 8.076519012451
-39.965518951416 -74.175750732422 -74.803680419922 3.743610620499
95.643600463867 -74.564338684082 -80.798538208008 1.154192328453
58.311492919922 -71.527793884277 -85.970619201660 2.158957004547
103.917739868164 -78.949501037598 -88.483940124512 5.018212795258
98.441963195801 -77.850608825684 -93.334144592285 4.186584949493
69.289115905762 -73.863967895508 -96.051521301270 2.005104541779
-83.159164428711 -71.011611938477 -99.710548400879 2.962134361267
51.385314941406 -73.646125793457 -99.970497131348 2.837434053421
104.192916870117 -71.731452941895 -100.762123107910 2.629541158676
44.227943420410 -74.118980407715 -108.274475097656 2.216235160828
76.954956054688 -72.879714965820 -100.666633605957 2.413465023041
38.713180541992 -73.099205017090 -103.409553527832 2.698010444641
101.243614196777 -73.901107788086 -98.049369812012 1.344419479370
44.637382507324 -72.955444335938 -103.636886596680 2.031543970108
104.294731140137 -78.854721069336 -104.736785888672 3.894286870956
107.231155395508 -77.002182006836 -106.078125000000 2.465415239334
-82.212226867676 -69.954170227051 -112.319572448730 3.111581325531
-85.660087585449 -70.018516540527 -117.579391479492 0.518549263477
41.166328430176 -76.152565002441 -116.006652832031 1.995888710022
111.067817687988 -75.536743164063 -115.957679748535 3.673072099686
111.008567810059 -73.639106750488 -118.219184875488 1.959525585175
-89.839538574219 -70.652687072754 -125.276924133301 2.998856067657
103.313743591309 -75.582221984863 -120.575080871582 4.036806106567
-61.919494628906 -75.914962768555 -129.657562255859 4.630285739899
-88.777832031250 -71.843833923340 -125.590156555176 2.935132503510
-75.154006958008 -71.855560302734 -125.190467834473 2.905891656876
-61.773735046387 -68.130012512207 -124.508819580078 2.563758850098
29.067123413086 -72.504135131836 -126.296424865723 2.764477014542
39.912174224854 -71.341506958008 -130.612609863281 2.122293233871
-75.570739746094 -71.167350769043 -134.649215698242 1.091376304626
26.206478118896 -70.895599365234 -127.095344543457 4.721373558044
109.344406127930 -73.510772705078 -137.567092895508 2.139993190765
-42.394573211670 -71.722549438477 -145.712890625000 1.933478832245
28.160209655762 -73.292045593262 -144.995025634766 2.504326820374
111.663993835449 -71.858528137207 -142.285675048828 2.185508728027
33.220378875732 -73.184120178223 -138.792999267578 0.807450950146
108.016113281250 -72.326431274414 -135.469207763672 2.694689750671
-54.528598785400 -71.742576599121 -147.044647216797 2.332093715668
-73.404434204102 -68.761398315430 -148.937377929688 1.860629677773
-57.252555847168 -71.889320373535 -150.257034301758 4.095230579376
-44.022232055664 -74.711288452148 -162.463500976563 1.472213029861
2.611148118973 -73.309417724609 -152.475799560547 5.282316684723
107.697700500488 -73.482841491699 -148.181152343750 3.029064655304
106.952445983887 -73.037307739258 -154.298248291016 4.565467834473
8.004262924194 -71.463096618652 -153.926406860352 1.062748551369
1.330896973610 -71.961532592773 -157.920440673828 3.363894224167
17.148153305054 -71.472328186035 -151.562164306641 1.515939474106
23.587537765503 -70.966903686523 -151.842376708984 1.963685154915
106.830642700195 -72.621215820313 -160.295623779297 2.912657737732
107.665397644043 -76.044532775879 -162.421234130859 2.256077528000
22.232521057129 -69.336311340332 -170.573806762695 1.890547037125
23.037317276001 -74.128669738770 -160.058486938477 3.099493980408
110.270980834961 -71.242187500000 -156.569839477539 2.030214786530
-30.766704559326 -70.121528625488 -174.361938476563 1.631247639656
108.341293334961 -73.228637695313 -162.405456542969 0.687487483025
15.673036575317 -72.438720703125 -163.948013305664 2.834317922592
19.776126861572 -71.877220153809 -163.988052368164 2.091984033585
106.768081665039 -73.082107543945 -167.527847290039 0.929766774178
24.951025009155 -71.159202575684 -166.533889770508 2.023018836975
110.735305786133 -72.083801269531 -178.292236328125 2.144182920456
-39.925804138184 -70.479309082031 -175.058944702148 3.721480369568
23.334447860718 -71.572593688965 -167.296127319336 1.728971838951
105.933433532715 -72.546638488770 -178.539031982422 1.205744862556
21.452344894409 -72.783813476563 -174.809417724609 2.965033292770
-153.304992675781 -68.190109252930 -185.904418945313 3.413992643356
-29.614799499512 -68.093544006348 -186.457702636719 2.334665298462
23.093294143677 -69.668441772461 -181.068405151367 2.638607501984
-115.140678405762 -71.348731994629 -190.633956909180 3.094821214676
-112.205642700195 -67.613677978516 -189.975997924805 1.731652855873
22.321247100830 -72.157463073730 -184.752578735352 2.144331693649
10.176494598389 -69.688247680664 -181.436279296875 5.021567821503
-28.275587081909 -68.458747863770 -187.325973510742 2.411916732788
-31.110801696777 -74.726127624512 -186.462020874023 1.420259475708
-29.479059219360 -71.357917785645 -184.357528686523 1.985913276672
13.218487739563 -69.679321289063 -176.333374023438 3.623164176941
-152.146499633789 -69.382278442383 -194.503662109375 2.786228895187
-146.686630249023 -69.172042846680 -192.169799804688 3.048565864563
-145.657028198242 -72.284515380859 -197.676254272461 0.261143237352
-24.297098159790 -70.062652587891 -188.445800781250 1.993188858032
12.427713394165 -69.141166687012 -195.933822631836 1.865003585815
97.490745544434 -71.569000244141 -188.181610107422 3.476299047470
-114.953498840332 -68.673065185547 -197.076034545898 1.524211287498
19.964338302612 -74.597938537598 -194.670013427734 2.046178817749
-16.619478225708 -69.956756591797 -192.473739624023 2.326469659805
-18.964321136475 -70.282676696777 -195.696212768555 1.488429307938
99.717285156250 -71.157981872559 -194.332077026367 1.430555820465
6.665137767792 -73.048309326172 -195.821304321289 2.021249055862
-23.242290496826 -69.201530456543 -193.524322509766 2.528689146042
-122.529151916504 -72.495872497559 -202.021209716797 1.594236969948
-135.326522827148 -69.573844909668 -202.422744750977 2.831028938293
-115.152244567871 -65.301185607910 -203.630813598633 1.076771140099
-143.344833374023 -72.069290161133 -202.701217651367 0.914285957813
16.239215850830 -70.960556030273 -194.091094970703 1.430029988289
92.585319519043 -73.392936706543 -196.828903198242 3.737933158875
-167.050979614258 -64.664916992188 -201.107406616211 1.098300814629
98.793266296387 -71.884292602539 -197.026016235352 1.239331603050
-22.791820526123 -74.287521362305 -203.180236816406 1.351466655731
93.570938110352 -70.016326904297 -205.472274780273 2.072992801666
87.018173217773 -73.332992553711 -206.624526977539 5.045020580292
10.993622779846 -72.780906677246 -202.461441040039 1.459055304527
18.763233184814 -70.540100097656 -208.314788818359 2.094226121902
11.779149055481 -68.311286926270 -204.266967773438 1.896584272385
-11.686721801758 -70.910934448242 -219.299819946289 0.913748264313
-95.316795349121 -71.537689208984 -217.047164916992 2.076718568802
-11.462631225586 -72.764297485352 -209.204101562500 2.552420616150
88.107971191406 -72.096130371094 -211.395355224609 0.380285739899
-94.456916809082 -71.766799926758 -216.112167358398 1.831658959389
-101.939239501953 -67.287010192871 -219.721908569336 1.943543434143
-95.309585571289 -70.246704101563 -217.930114746094 1.919953942299
87.371444702148 -73.355880737305 -217.099426269531 0.431890487671
-136.041717529297 -69.450950622559 -224.334457397461 2.585299730301
-133.205978393555 -72.883331298828 -225.894927978516 1.634426712990
-117.409080505371 -69.161277770996 -223.652114868164 2.951368093491
-113.869300842285 -66.748031616211 -221.919204711914 3.221863508224
-134.038894653320 -67.627441406250 -226.321487426758 0.966152787209
-112.483276367188 -75.818794250488 -226.347503662109 2.647457599640
-112.903228759766 -69.138305664063 -226.809234619141 0.964151382446
-7.678870201111 -73.791831970215 -221.529785156250 2.781868696213
-16.769830703735 -72.752296447754 -220.211013793945 2.145960092545
-1.623301029205 -68.684745788574 -227.158859252930 0.906777083874
-10.862687110901 -67.776123046875 -223.868072509766 3.432429552078
14.766534805298 -71.515129089355 -229.976699829102 1.462401866913
-19.529153823853 -68.777893066406 -226.176864624023 3.101048946381
-167.618682861328 -67.143692016602 -222.008941650391 1.348922967911
-4.720264911652 -70.525817871094 -230.272918701172 1.360895395279
80.172019958496 -68.860580444336 -226.425476074219 1.644022822380
10.336363792419 -72.482185363770 -230.214797973633 2.305488348007
-6.474957942963 -69.802818298340 -231.608810424805 1.729964494705
-157.370193481445 -66.428985595703 -236.040374755859 1.357809424400
-142.914993286133 -67.486137390137 -229.694091796875 2.096340656281
62.028602600098 -70.096603393555 -231.481475830078 4.724979400635
-6.266036033630 -71.448860168457 -230.969696044922 2.506383657455
8.623612403870 -72.774238586426 -227.322128295898 1.674068927765
68.725738525391 -73.664817810059 -225.793701171875 5.315556049347
76.346595764160 -71.949272155762 -229.659362792969 1.752336621284
70.550125122070 -72.490798950195 -236.841796875000 1.619530558586
-2.172907114029 -73.319419860840 -232.500549316406 1.624636650085
57.525093078613 -69.636512756348 -233.623321533203 4.835414409637
-19.535913467407 -72.801147460938 -236.841033935547 1.877907037735
-15.729433059692 -68.055480957031 -237.361206054688 3.017719507217
7.725387096405 -70.531990051270 -235.939376831055 1.738677859306
64.209869384766 -74.484825134277 -233.512863159180 4.386860847473
64.968292236328 -69.870796203613 -236.195037841797 1.720821857452
49.229587554932 -71.262893676758 -241.968338012695 1.124501466751
60.651493072510 -74.301177978516 -238.413528442383 1.945644736290
-15.885717391968 -74.563201904297 -246.731201171875 3.799764871597
-83.788932800293 -66.728904724121 -252.362030029297 2.993316650391
-77.071289062500 -67.398048400879 -251.010498046875 2.996683120728
43.879791259766 -73.708427429199 -243.757446289063 5.877007007599
-149.410247802734 -69.637344360352 -250.078094482422 2.092001676559
35.811721801758 -70.734252929688 -252.308990478516 1.162447571754
-92.336280822754 -72.644760131836 -250.325408935547 1.590079903603
-156.407211303711 -64.726501464844 -254.161056518555 1.823142409325
-140.486679077148 -62.560924530029 -252.459426879883 3.592164039612
44.922428131104 -70.725837707520 -249.429168701172 1.176930904388
-125.089241027832 -64.929428100586 -256.771179199219 0.751869142056
-117.073028564453 -69.091178894043 -254.165039062500 1.539775848389
-92.489181518555 -65.222953796387 -255.395431518555 1.535349249840
-13.962184906006 -67.063888549805 -247.309036254883 1.040143609047
31.699594497681 -70.362564086914 -253.352096557617 1.543581366539
24.837940216064 -68.025634765625 -255.699615478516 2.113808393478
-159.011337280273 -63.910736083984 -259.806427001953 3.832233428955
-114.836761474609 -71.342384338379 -261.480926513672 2.057868480682
-14.009173393250 -69.690086364746 -258.910461425781 3.427753210068
-132.799636840820 -68.248435974121 -264.467010498047 2.433098077774
-14.066142082214 -68.644264221191 -267.255767822266 1.584983944893
-164.766708374023 -67.171569824219 -272.165344238281 3.403988838196
-7.112648963928 -70.733879089355 -276.334564208984 3.876455068588
-160.510513305664 -68.038749694824 -287.384490966797 1.204852938652
-163.686492919922 -69.648948669434 -277.551483154297 2.057976245880
-142.295303344727 -68.205810546875 -284.466064453125 2.252331495285
-169.889923095703 -69.579406738281 -284.432647705078 3.031003475189
14.340900421143 -72.101501464844 -284.473480224609 2.009749889374
-102.855194091797 -69.462982177734 -285.115509033203 2.841108798981
-86.840126037598 -64.649200439453 -284.211029052734 4.619847774506
-167.453521728516 -64.949691772461 -284.240844726563 4.941942214966
-91.803649902344 -72.441986083984 -282.418121337891 5.553946971893
-153.363601684570 -68.249626159668 -287.937286376953 1.400820732117
-75.059448242188 -69.603561401367 -291.696502685547 1.631027817726
-70.292610168457 -68.167968750000 -286.688720703125 3.592113494873
-82.165153503418 -69.651710510254 -289.523162841797 1.345515847206
-3.355319023132 -67.125671386719 -285.689178466797 2.391366481781
-87.695602416992 -68.579460144043 -286.930572509766 2.585251808167
-98.648086547852 -69.828216552734 -289.438201904297 1.627982735634
-116.271301269531 -68.525230407715 -291.471282958984 1.452969074249
-116.156837463379 -65.568450927734 -291.562774658203 0.952831506729
-133.781585693359 -67.377365112305 -291.307739257813 1.750994563103
-142.277755737305 -67.985260009766 -300.069458007813 3.200462341309
-143.524429321289 -69.026306152344 -311.056060791016 2.629924058914
19.450950622559 -71.964035034180 -11.418748855591 8.002100944519
27.899223327637 -73.254371643066 -12.538710594177 1.584064006805
24.936609268188 -75.822105407715 -14.483360290527 3.735819101334
39.824745178223 -72.067291259766 -16.472345352173 2.547755718231
20.758577346802 -73.482521057129 -27.922981262207 1.028910636902
-78.729499816895 -70.241661071777 -45.076969146729 4.821848869324
86.204856872559 -69.597656250000 -60.508056640625 4.147553443909
-21.078086853027 -70.547325134277 -64.521583557129 4.524792194366
99.247558593750 -72.736625671387 -67.690628051758 4.937911033630
91.701942443848 -77.407379150391 -70.611503601074 3.725346803665
65.211799621582 -74.659812927246 -73.938911437988 6.440538883209
67.009872436523 -76.458633422852 -78.055305480957 5.013825416565
-47.906894683838 -74.979461669922 -79.969604492188 5.226815700531
57.910873413086 -76.409263610840 -78.000556945801 8.231925964355
-97.510505676270 -71.401176452637 -86.704437255859 2.048412084579
-52.335372924805 -69.444618225098 -82.779846191406 3.646413087845
-59.073680877686 -78.138351440430 -85.343345642090 6.832795619965
97.984588623047 -78.739906311035 -92.462738037109 3.842869520187
56.138652801514 -76.042747497559 -87.887878417969 3.527824878693
62.827255249023 -72.357955932617 -86.459838867188 1.112738370895
-98.586578369141 -65.593437194824 -95.238548278809 1.516152620316
104.808158874512 -74.973915100098 -87.786125183105 3.398751258850
41.197536468506 -71.382041931152 -94.774566650391 4.714124679565
98.477981567383 -73.138412475586 -92.901863098145 2.069398403168
103.980018615723 -71.300003051758 -100.652107238770 2.442004442215
98.452507019043 -73.627418518066 -99.334838867188 1.527529120445
70.957435607910 -75.207092285156 -96.036468505859 0.608359098434
84.498001098633 -75.131195068359 -101.618415832520 3.151001214981
47.325923919678 -72.335655212402 -106.922126770020 2.920507431030
107.825225830078 -71.302299499512 -98.179573059082 0.987773001194
43.382179260254 -75.130790710449 -101.261337280273 1.875798821449
37.719501495361 -70.736206054688 -97.443893432617 5.686837673187
110.035392761230 -73.742965698242 -104.931663513184 3.549102544785
-81.198242187500 -68.127799987793 -107.671585083008 2.382946252823
43.454521179199 -71.642768859863 -108.649520874023 2.003954648972
32.121349334717 -74.180618286133 -111.081809997559 2.798062324524
102.775970458984 -71.003875732422 -104.763801574707 1.411167025566
36.762996673584 -69.595848083496 -107.374755859375 2.988286733627
-90.687484741211 -70.124755859375 -111.074714660645 2.988696098328
-98.122047424316 -67.517829895020 -113.106964111328 3.845878362656
101.468086242676 -76.211921691895 -113.898002624512 3.995077133179
-97.309265136719 -71.626426696777 -116.972084045410 3.186200141907
36.450645446777 -74.197128295898 -117.206771850586 1.719519972801
34.466548919678 -71.862846374512 -116.702629089355 1.800094366074
-85.827880859375 -69.994682312012 -122.311676025391 1.867543458939
30.178245544434 -70.113189697266 -130.678680419922 1.353441238403
108.526405334473 -74.321746826172 -125.829750061035 2.072445154190
-54.823715209961 -70.301605224609 -133.580032348633 1.345008730888
-90.497978210449 -68.991325378418 -129.802719116211 1.041095733643
35.608100891113 -75.180618286133 -127.609085083008 1.755148053169
-91.229888916016 -65.873336791992 -134.008926391602 2.233807563782
-91.043518066406 -72.033554077148 -137.824554443359 4.156470775604
-51.852554321289 -71.761749267578 -134.291549682617 1.260072231293
-72.947257995605 -68.420791625977 -137.346267700195 0.267441153526
-52.922599792480 -69.672737121582 -130.938842773438 1.285680651665
113.260688781738 -70.357017517090 -132.022827148438 1.395547509193
-75.411811828613 -71.631423950195 -134.714508056641 1.446206450462
34.223163604736 -72.266624450684 -127.232574462891 2.311884880066
-80.778961181641 -69.014564514160 -138.112609863281 1.258998155594
-75.510108947754 -69.913833618164 -133.646392822266 0.529381811619
-93.456947326660 -67.893196105957 -138.326919555664 1.032278776169
-55.818782806396 -68.236259460449 -144.554138183594 0.554395258427
29.472414016724 -67.808250427246 -141.755493164063 2.531600236893
25.603048324585 -69.774230957031 -145.590454101563 2.931861639023
17.165151596069 -66.890502929688 -140.521102905273 3.249748229980
110.808158874512 -72.128684997559 -140.845001220703 2.504396915436
-95.347152709961 -68.127670288086 -150.710540771484 1.006472587585
11.096937179565 -72.669761657715 -148.768859863281 2.960814714432
-73.770355224609 -69.335853576660 -151.171295166016 1.944313168526
21.548072814941 -70.429008483887 -145.922103881836 2.185725212097
-50.959869384766 -69.154747009277 -152.862747192383 2.217475175858
7.720219135284 -69.749855041504 -149.645431518555 1.101574778557
13.306632041931 -73.388549804688 -154.744018554688 2.092833518982
16.074487686157 -75.161026000977 -160.213760375977 3.159506082535
-50.611766815186 -71.950691223145 -160.029861450195 3.008963823318
-40.993625640869 -69.348030090332 -152.110824584961 3.088219404221
-48.085563659668 -70.433616638184 -158.446624755859 1.579286813736
-105.182418823242 -69.575561523438 -170.367507934570 1.569744467735
20.246417999268 -71.899047851563 -170.255279541016 3.181070327759
-36.197345733643 -69.763435363770 -173.158721923828 1.048064827919
13.994618415833 -74.305297851563 -174.662750244141 3.931265592575
-145.053237915039 -68.444168090820 -174.873687744141 2.514105319977
-33.696853637695 -67.189125061035 -169.935241699219 3.506661653519
-156.453659057617 -72.664970397949 -177.213531494141 3.950319528580
22.135061264038 -66.638877868652 -177.926834106445 0.232146859169
-34.460289001465 -71.068603515625 -168.663299560547 3.438514471054
-109.050041198730 -67.293113708496 -176.161727905273 1.627954363823
-108.460998535156 -72.836013793945 -182.069503784180 3.889871597290
-31.222333908081 -65.649375915527 -182.279953002930 3.165182113647
-25.008056640625 -73.898277282715 -178.829391479492 2.598949432373
12.776133537292 -69.527839660645 -185.609588623047 3.671988487244
15.931262969971 -68.031593322754 -193.477233886719 1.820431709290
12.607316017151 -70.382698059082 -183.304870605469 2.895042896271
-144.066192626953 -67.257446289063 -186.579116821289 1.592315673828
20.409154891968 -67.218566894531 -186.108306884766 1.378488540649
6.474095821381 -70.087440490723 -193.202285766602 4.722568988800
-138.169845581055 -66.780967712402 -193.433090209961 3.665795564651
-115.413261413574 -68.192153930664 -194.029129028320 1.741341829300
13.913855552673 -68.685401916504 -197.499832153320 1.054247140884
-117.399993896484 -67.412124633789 -195.431777954102 2.396330833435
-108.853462219238 -64.074211120605 -190.612777709961 1.991804718971
-166.327499389648 -69.022521972656 -199.645126342773 2.596484899521
-25.311117172241 -68.710479736328 -197.034469604492 2.140571832657
11.906247138977 -68.773849487305 -196.598876953125 2.215478658676
-143.907165527344 -68.241767883301 -203.095550537109 1.987858295441
-136.687393188477 -69.878082275391 -205.395324707031 3.707216024399
-20.970508575439 -68.019081115723 -204.232147216797 2.514537572861
-12.855028152466 -70.858062744141 -201.377609252930 1.161239266396
-15.695738792419 -70.336936950684 -202.823074340820 2.580943346024
-141.765594482422 -71.190345764160 -203.589904785156 1.541203618050
-17.319240570068 -69.923393249512 -209.813095092773 1.720775008202
-11.274662971497 -73.237884521484 -211.132781982422 2.091578483582
16.762037277222 -67.649856567383 -207.267501831055 2.445631027222
-15.706289291382 -72.917098999023 -208.415420532227 2.930825471878
9.652353286743 -70.281265258789 -206.482894897461 1.105251669884
-11.125209808350 -70.532623291016 -212.411361694336 2.259441137314
-21.757646560669 -67.071075439453 -208.934204101563 2.733924865723
11.991367340088 -74.198295593262 -217.452194213867 3.140819787979
-2.279706001282 -74.451622009277 -216.498687744141 1.197427988052
10.625617027283 -66.567070007324 -217.566802978516 0.961445808411
-6.575683116913 -71.514701843262 -223.647964477539 2.048383474350
-159.305938720703 -68.103126525879 -224.792175292969 1.146000385284
80.153167724609 -73.066719055176 -215.329574584961 3.975044727325
-135.758926391602 -66.011260986328 -223.399475097656 2.360033273697
-135.593841552734 -69.481170654297 -222.233078002930 2.530029773712
-8.951535224915 -70.288246154785 -222.031143188477 1.321584582329
8.179554939270 -69.512748718262 -230.314224243164 1.998314857483
-157.316970825195 -67.138687133789 -229.006317138672 1.476260542870
87.407814025879 -69.665245056152 -215.057235717773 1.182249426842
-2.663249015808 -68.506637573242 -222.410156250000 2.473647117615
0.046436998993 -70.406036376953 -219.622192382813 0.947860777378
